# .PCD v0.7 - Point Cloud Data file format
VERSION 0.7
FIELDS x y z
SIZE 4 4 4
TYPE F F F
COUNT 1 1 1
WIDTH 1347
HEIGHT 1
VIEWPOINT 0 0 0 1 0 0 0
POINTS 1347
DATA ascii
-0.020489525 0.074687622 0.69400001
-0.019167621 0.074687622 0.69400001
-0.017845716 0.074687622 0.69400001
-0.01654762 0.074795246 0.69500005
-0.01522381 0.074795246 0.69500005
-0.013900001 0.074795246 0.69500005
-0.012612382 0.075010478 0.69700003
-0.011284763 0.075010478 0.69700003
-0.0099571431 0.075010478 0.69700003
-0.0086419052 0.075118102 0.69800001
-0.0073333336 0.075333342 0.70000005
-0.0060000005 0.075333342 0.70000005
-0.004666667 0.075333342 0.70000005
-0.0033380955 0.075440958 0.70100003
-0.0020028572 0.075440958 0.70100003
-0.00066761911 0.075440958 0.70100003
0.00066952384 0.075656198 0.70300001
0.0020114286 0.075763814 0.70400006
0.0033523813 0.075763814 0.70400006
0.0047000004 0.07587143 0.70500004
0.0060428577 0.07587143 0.70500004
0.0074066673 0.07608667 0.70700002
0.0087533342 0.07608667 0.70700002
0.010100001 0.07608667 0.70700002
0.011446668 0.07608667 0.70700002
0.01281143 0.076194294 0.708
0.014200001 0.076409526 0.71000004
0.016428573 0.080714293 0.75000006
0.017857144 0.080714293 0.75000006
0.019285716 0.080714293 0.75000006
-0.12307715 0.081814289 0.74700004
-0.12165429 0.081814289 0.74700004
-0.12039239 0.081923813 0.74800003
-0.11880858 0.081814289 0.74700004
-0.10528572 0.073380955 0.67000002
-0.10400953 0.073380955 0.67000002
-0.10273334 0.073380955 0.67000002
-0.10145715 0.073380955 0.67000002
-0.10033048 0.073490478 0.671
-0.099052384 0.073490478 0.671
-0.09777429 0.073490478 0.671
-0.096496195 0.073490478 0.671
-0.0952181 0.073490478 0.671
-0.093940005 0.073490478 0.671
-0.09266191 0.073490478 0.671
-0.091520004 0.073600002 0.67200005
-0.09050858 0.073819056 0.67400002
-0.089224771 0.073819056 0.67400002
-0.087680005 0.073600002 0.67200005
-0.086400002 0.073600002 0.67200005
-0.085120007 0.073600002 0.67200005
-0.083840005 0.073600002 0.67200005
-0.082560003 0.073600002 0.67200005
-0.081521913 0.073819056 0.67400002
-0.080238104 0.073819056 0.67400002
-0.078954294 0.073819056 0.67400002
-0.077785723 0.07392858 0.67500001
-0.076613337 0.074038103 0.67600006
-0.075548574 0.07425715 0.67800003
-0.07425715 0.07425715 0.67800003
-0.072965719 0.07425715 0.67800003
-0.071674287 0.07425715 0.67800003
-0.070486672 0.074366674 0.67900002
-0.069193341 0.074366674 0.67900002
-0.067900002 0.074366674 0.67900002
-0.066606671 0.074366674 0.67900002
-0.065313339 0.074366674 0.67900002
-0.064020008 0.074366674 0.67900002
-0.062726669 0.074366674 0.67900002
-0.061433338 0.074366674 0.67900002
-0.060228575 0.074476197 0.68000001
-0.058933336 0.074476197 0.68000001
-0.057807624 0.074695244 0.68200004
-0.056508575 0.074695244 0.68200004
-0.055290479 0.074804768 0.68300003
-0.053989526 0.074804768 0.68300003
-0.052688576 0.074804768 0.68300003
-0.051387623 0.074804768 0.68300003
-0.050160002 0.074914292 0.68400002
-0.048857145 0.074914292 0.68400002
-0.047554288 0.074914292 0.68400002
-0.046454288 0.075242862 0.68700004
-0.045145717 0.075242862 0.68700004
-0.043837145 0.075242862 0.68700004
-0.042652383 0.075461909 0.68900001
-0.041340001 0.075461909 0.68900001
-0.040027622 0.075461909 0.68900001
-0.03871524 0.075461909 0.68900001
-0.037402861 0.075461909 0.68900001
-0.036090478 0.075461909 0.68900001
-0.034778096 0.075461909 0.68900001
-0.033465717 0.075461909 0.68900001
-0.032153334 0.075461909 0.68900001
-0.030885717 0.075571433 0.69000006
-0.029571431 0.075571433 0.69000006
-0.028298097 0.075680956 0.69100004
-0.026981907 0.075680956 0.69100004
-0.025665715 0.075680956 0.69100004
-0.024420002 0.075900003 0.69300002
-0.023133336 0.076009527 0.69400001
-0.021811429 0.076009527 0.69400001
-0.020489525 0.076009527 0.69400001
-0.01919524 0.07611905 0.69500005
-0.01787143 0.07611905 0.69500005
-0.01654762 0.07611905 0.69500005
-0.01526762 0.076338097 0.69700003
-0.013940001 0.076338097 0.69700003
-0.012630477 0.076447621 0.69800001
-0.011300953 0.076447621 0.69800001
-0.010000001 0.076666668 0.70000005
-0.0086666672 0.076666668 0.70000005
-0.0073333336 0.076666668 0.70000005
-0.0060085719 0.076776199 0.70100003
-0.0046733338 0.076776199 0.70100003
-0.0033476192 0.076995246 0.70300001
-0.0020114286 0.07710477 0.70400006
-0.00067047623 0.07710477 0.70400006
0.00067142863 0.077214293 0.70500004
0.0020200002 0.07743334 0.70700002
0.0033666668 0.07743334 0.70700002
0.0047133337 0.07743334 0.70700002
0.0060600005 0.07743334 0.70700002
0.0074171433 0.077542864 0.708
0.0087657152 0.077542864 0.708
0.010114286 0.077542864 0.708
0.011462858 0.077542864 0.708
-0.12500001 0.083571434 0.75000006
-0.12274763 0.083014295 0.74500006
-0.12132858 0.083014295 0.74500006
-0.12039239 0.08334858 0.74800003
-0.11849049 0.083014295 0.74500006
-0.11707143 0.083014295 0.74500006
-0.10400953 0.07465715 0.67000002
-0.10273334 0.07465715 0.67000002
-0.10145715 0.07465715 0.67000002
-0.10033048 0.074768573 0.671
-0.099052384 0.074768573 0.671
-0.09777429 0.074768573 0.671
-0.096496195 0.074768573 0.671
-0.0952181 0.074768573 0.671
-0.093940005 0.074768573 0.671
-0.092800006 0.074880004 0.67200005
-0.091520004 0.074880004 0.67200005
-0.09050858 0.075102866 0.67400002
-0.089224771 0.075102866 0.67400002
-0.087680005 0.074880004 0.67200005
-0.086400002 0.074880004 0.67200005
-0.085120007 0.074880004 0.67200005
-0.083840005 0.074880004 0.67200005
-0.082805723 0.075102866 0.67400002
-0.081521913 0.075102866 0.67400002
-0.080238104 0.075102866 0.67400002
-0.078954294 0.075102866 0.67400002
-0.077785723 0.075214289 0.67500001
-0.076613337 0.07532572 0.67600006
-0.075548574 0.075548574 0.67800003
-0.07425715 0.075548574 0.67800003
-0.072965719 0.075548574 0.67800003
-0.071674287 0.075548574 0.67800003
-0.070486672 0.075660005 0.67900002
-0.069193341 0.075660005 0.67900002
-0.067900002 0.075660005 0.67900002
-0.066606671 0.075660005 0.67900002
-0.065313339 0.075660005 0.67900002
-0.064020008 0.075660005 0.67900002
-0.062726669 0.075660005 0.67900002
-0.061523814 0.075771436 0.68000001
-0.060228575 0.075771436 0.68000001
-0.05910667 0.07599429 0.68200004
-0.057892386 0.076105721 0.68300003
-0.056591433 0.076105721 0.68300003
-0.055290479 0.076105721 0.68300003
-0.053989526 0.076105721 0.68300003
-0.052688576 0.076105721 0.68300003
-0.051462859 0.076217145 0.68400002
-0.050160002 0.076217145 0.68400002
-0.048857145 0.076217145 0.68400002
-0.047554288 0.076217145 0.68400002
-0.046454288 0.07655143 0.68700004
-0.045145717 0.07655143 0.68700004
-0.043837145 0.07655143 0.68700004
-0.042652383 0.076774292 0.68900001
-0.041340001 0.076774292 0.68900001
-0.040027622 0.076774292 0.68900001
-0.03871524 0.076774292 0.68900001
-0.037402861 0.076774292 0.68900001
-0.036090478 0.076774292 0.68900001
-0.034778096 0.076774292 0.68900001
-0.033465717 0.076774292 0.68900001
-0.032153334 0.076774292 0.68900001
-0.030885717 0.076885723 0.69000006
-0.029571431 0.076885723 0.69000006
-0.028298097 0.076997146 0.69100004
-0.026981907 0.076997146 0.69100004
-0.025740001 0.077220008 0.69300002
-0.024420002 0.077220008 0.69300002
-0.023133336 0.077331431 0.69400001
-0.021811429 0.077331431 0.69400001
-0.02051905 0.077442862 0.69500005
-0.01919524 0.077442862 0.69500005
-0.01787143 0.077442862 0.69500005
-0.016595239 0.077665716 0.69700003
-0.01526762 0.077665716 0.69700003
-0.013960001 0.077777147 0.69800001
-0.012666668 0.078000002 0.70000005
-0.011333334 0.078000002 0.70000005
-0.010000001 0.078000002 0.70000005
-0.0086790482 0.078111432 0.70100003
-0.0073438101 0.078111432 0.70100003
-0.0060085719 0.078111432 0.70100003
-0.0046866671 0.078334294 0.70300001
-0.0033523813 0.078445718 0.70400006
-0.0020114286 0.078445718 0.70400006
-0.00067142863 0.078557149 0.70500004
0.00067333336 0.078780003 0.70700002
0.0020200002 0.078780003 0.70700002
0.0033666668 0.078780003 0.70700002
0.0047200001 0.078891434 0.708
0.0060685719 0.078891434 0.708
0.0074380958 0.079114288 0.71000004
0.0087904772 0.079114288 0.71000004
0.010114286 0.078891434 0.708
0.011495239 0.079114288 0.71000004
-0.12500001 0.085000008 0.75000006
-0.12324192 0.084773339 0.74800003
-0.12181715 0.084773339 0.74800003
-0.12039239 0.084773339 0.74800003
-0.11896763 0.084773339 0.74800003
-0.11738572 0.084660009 0.74700004
-0.10416477 0.076046668 0.671
-0.10288668 0.076046668 0.671
-0.10160857 0.076046668 0.671
-0.10033048 0.076046668 0.671
-0.099052384 0.076046668 0.671
-0.09777429 0.076046668 0.671
-0.096640006 0.076160006 0.67200005
-0.095360003 0.076160006 0.67200005
-0.094080009 0.076160006 0.67200005
-0.092800006 0.076160006 0.67200005
-0.091520004 0.076160006 0.67200005
-0.09050858 0.076386675 0.67400002
-0.089224771 0.076386675 0.67400002
-0.087680005 0.076160006 0.67200005
-0.086400002 0.076160006 0.67200005
-0.085120007 0.076160006 0.67200005
-0.084089532 0.076386675 0.67400002
-0.082805723 0.076386675 0.67400002
-0.081521913 0.076386675 0.67400002
-0.080238104 0.076386675 0.67400002
-0.078954294 0.076386675 0.67400002
-0.077785723 0.076500006 0.67500001
-0.076613337 0.076613337 0.67600006
-0.075548574 0.076840006 0.67800003
-0.07425715 0.076840006 0.67800003
-0.072965719 0.076840006 0.67800003
-0.071674287 0.076840006 0.67800003
-0.070486672 0.076953337 0.67900002
-0.069193341 0.076953337 0.67900002
-0.067900002 0.076953337 0.67900002
-0.066606671 0.076953337 0.67900002
-0.065313339 0.076953337 0.67900002
-0.064020008 0.076953337 0.67900002
-0.062819049 0.077066675 0.68000001
-0.061523814 0.077066675 0.68000001
-0.06040572 0.077293336 0.68200004
-0.05910667 0.077293336 0.68200004
-0.057892386 0.077406675 0.68300003
-0.056591433 0.077406675 0.68300003
-0.055290479 0.077406675 0.68300003
-0.053989526 0.077406675 0.68300003
-0.05276572 0.077520005 0.68400002
-0.051462859 0.077520005 0.68400002
-0.050160002 0.077520005 0.68400002
-0.048857145 0.077520005 0.68400002
-0.047554288 0.077520005 0.68400002
-0.046454288 0.077860005 0.68700004
-0.045145717 0.077860005 0.68700004
-0.043837145 0.077860005 0.68700004
-0.042652383 0.078086674 0.68900001
-0.041340001 0.078086674 0.68900001
-0.040027622 0.078086674 0.68900001
-0.03871524 0.078086674 0.68900001
-0.037402861 0.078086674 0.68900001
-0.036090478 0.078086674 0.68900001
-0.034778096 0.078086674 0.68900001
-0.033514287 0.078200005 0.69000006
-0.032153334 0.078086674 0.68900001
-0.030885717 0.078200005 0.69000006
-0.029614288 0.078313336 0.69100004
-0.028380001 0.078540005 0.69300002
-0.027060002 0.078540005 0.69300002
-0.025777144 0.078653336 0.69400001
-0.02445524 0.078653336 0.69400001
-0.023166668 0.078766674 0.69500005
-0.021842858 0.078766674 0.69500005
-0.02051905 0.078766674 0.69500005
-0.01919524 0.078766674 0.69500005
-0.017922858 0.078993335 0.69700003
-0.016619049 0.079106674 0.69800001
-0.015289525 0.079106674 0.69800001
-0.014000001 0.079333335 0.70000005
-0.012684762 0.079446673 0.70100003
-0.011349524 0.079446673 0.70100003
-0.010014286 0.079446673 0.70100003
-0.0086790482 0.079446673 0.70100003
-0.0073647625 0.079673335 0.70300001
-0.0060257148 0.079673335 0.70300001
-0.0046933335 0.079786673 0.70400006
-0.0033571431 0.079900004 0.70500004
-0.0020142859 0.079900004 0.70500004
-0.00067333336 0.080126673 0.70700002
0.00067333336 0.080126673 0.70700002
0.0020228573 0.080240004 0.708
0.0033714287 0.080240004 0.708
0.0047200001 0.080240004 0.708
0.0060857148 0.080466673 0.71000004
0.0074380958 0.080466673 0.71000004
0.0087904772 0.080466673 0.71000004
0.010142858 0.080466673 0.71000004
-0.12324192 0.086198099 0.74800003
-0.12181715 0.086198099 0.74800003
-0.11738572 0.086082861 0.74700004
-0.10416477 0.07732477 0.671
-0.10288668 0.07732477 0.671
-0.10160857 0.07732477 0.671
-0.10033048 0.07732477 0.671
-0.099052384 0.07732477 0.671
-0.09777429 0.07732477 0.671
-0.096496195 0.07732477 0.671
-0.0952181 0.07732477 0.671
-0.093940005 0.07732477 0.671
-0.092800006 0.077440009 0.67200005
-0.091520004 0.077440009 0.67200005
-0.09050858 0.077670485 0.67400002
-0.089224771 0.077670485 0.67400002
-0.087680005 0.077440009 0.67200005
-0.086400002 0.077440009 0.67200005
-0.085120007 0.077440009 0.67200005
-0.083840005 0.077440009 0.67200005
-0.082805723 0.077670485 0.67400002
-0.081521913 0.077670485 0.67400002
-0.080238104 0.077670485 0.67400002
-0.078954294 0.077670485 0.67400002
-0.077785723 0.077785723 0.67500001
-0.076613337 0.077900961 0.67600006
-0.075548574 0.078131437 0.67800003
-0.07425715 0.078131437 0.67800003
-0.072965719 0.078131437 0.67800003
-0.071674287 0.078131437 0.67800003
-0.070486672 0.078246675 0.67900002
-0.069193341 0.078246675 0.67900002
-0.067900002 0.078246675 0.67900002
-0.066606671 0.078246675 0.67900002
-0.065313339 0.078246675 0.67900002
-0.064020008 0.078246675 0.67900002
-0.062819049 0.078361914 0.68000001
-0.061704766 0.07859239 0.68200004
-0.06040572 0.07859239 0.68200004
-0.059193335 0.078707621 0.68300003
-0.057892386 0.078707621 0.68300003
-0.056591433 0.078707621 0.68300003
-0.055290479 0.078707621 0.68300003
-0.053989526 0.078707621 0.68300003
-0.05276572 0.078822859 0.68400002
-0.051462859 0.078822859 0.68400002
-0.050160002 0.078822859 0.68400002
-0.048857145 0.078822859 0.68400002
-0.047554288 0.078822859 0.68400002
-0.046454288 0.079168573 0.68700004
-0.045145717 0.079168573 0.68700004
-0.043964766 0.079399049 0.68900001
-0.042652383 0.079399049 0.68900001
-0.041340001 0.079399049 0.68900001
-0.040027622 0.079399049 0.68900001
-0.038771432 0.079514287 0.69000006
-0.037457146 0.079514287 0.69000006
-0.03614286 0.079514287 0.69000006
-0.034828573 0.079514287 0.69000006
-0.033514287 0.079514287 0.69000006
-0.032200001 0.079514287 0.69000006
-0.030885717 0.079514287 0.69000006
-0.029614288 0.079629526 0.69100004
-0.028380001 0.079860002 0.69300002
-0.027099049 0.07997524 0.69400001
-0.025777144 0.07997524 0.69400001
-0.02445524 0.07997524 0.69400001
-0.023166668 0.080090478 0.69500005
-0.021842858 0.080090478 0.69500005
-0.020578096 0.080320954 0.69700003
-0.019250477 0.080320954 0.69700003
-0.017922858 0.080320954 0.69700003
-0.016666668 0.080666669 0.70000005
-0.015333334 0.080666669 0.70000005
-0.014020001 0.080781907 0.70100003
-0.012684762 0.080781907 0.70100003
-0.011349524 0.080781907 0.70100003
-0.010042857 0.081012383 0.70300001
-0.0087161912 0.081127621 0.70400006
-0.0073752385 0.081127621 0.70400006
-0.0060342862 0.081127621 0.70400006
-0.0047000004 0.081242859 0.70500004
-0.0033571431 0.081242859 0.70500004
-0.0020142859 0.081242859 0.70500004
-0.00067333336 0.081473336 0.70700002
0.00067428575 0.081588574 0.708
0.0020285717 0.08181905 0.71000004
0.0033809526 0.08181905 0.71000004
0.0047333338 0.08181905 0.71000004
0.0060857148 0.08181905 0.71000004
0.0074485717 0.081934288 0.71100003
0.0088028582 0.081934288 0.71100003
-0.10416477 0.078602865 0.671
-0.10288668 0.078602865 0.671
-0.10160857 0.078602865 0.671
-0.10033048 0.078602865 0.671
-0.099052384 0.078602865 0.671
-0.09777429 0.078602865 0.671
-0.096496195 0.078602865 0.671
-0.0952181 0.078602865 0.671
-0.093940005 0.078602865 0.671
-0.09266191 0.078602865 0.671
-0.091520004 0.078720003 0.67200005
-0.09050858 0.078954294 0.67400002
-0.089224771 0.078954294 0.67400002
-0.087680005 0.078720003 0.67200005
-0.086400002 0.078720003 0.67200005
-0.085373342 0.078954294 0.67400002
-0.084089532 0.078954294 0.67400002
-0.082805723 0.078954294 0.67400002
-0.081521913 0.078954294 0.67400002
-0.080357149 0.079071432 0.67500001
-0.079071432 0.079071432 0.67500001
-0.077785723 0.079071432 0.67500001
-0.076613337 0.079188578 0.67600006
-0.075548574 0.079422861 0.67800003
-0.07425715 0.079422861 0.67800003
-0.072965719 0.079422861 0.67800003
-0.071674287 0.079422861 0.67800003
-0.070486672 0.079540007 0.67900002
-0.069193341 0.079540007 0.67900002
-0.067900002 0.079540007 0.67900002
-0.066606671 0.079540007 0.67900002
-0.065313339 0.079540007 0.67900002
-0.064114287 0.079657145 0.68000001
-0.062819049 0.079657145 0.68000001
-0.061704766 0.079891436 0.68200004
-0.06040572 0.079891436 0.68200004
-0.059193335 0.080008574 0.68300003
-0.057892386 0.080008574 0.68300003
-0.056591433 0.080008574 0.68300003
-0.055290479 0.080008574 0.68300003
-0.054068577 0.080125719 0.68400002
-0.05276572 0.080125719 0.68400002
-0.051462859 0.080125719 0.68400002
-0.050160002 0.080125719 0.68400002
-0.049000002 0.080360003 0.68600005
-0.047693338 0.080360003 0.68600005
-0.046454288 0.080477148 0.68700004
-0.045277145 0.080711432 0.68900001
-0.043964766 0.080711432 0.68900001
-0.042652383 0.080711432 0.68900001
-0.041340001 0.080711432 0.68900001
-0.040085718 0.080828577 0.69000006
-0.038771432 0.080828577 0.69000006
-0.037457146 0.080828577 0.69000006
-0.03614286 0.080828577 0.69000006
-0.034828573 0.080828577 0.69000006
-0.033514287 0.080828577 0.69000006
-0.032246668 0.080945723 0.69100004
-0.030930478 0.080945723 0.69100004
-0.029614288 0.080945723 0.69100004
-0.028380001 0.081180006 0.69300002
-0.027099049 0.081297152 0.69400001
-0.025777144 0.081297152 0.69400001
-0.024490478 0.08141429 0.69500005
-0.023166668 0.08141429 0.69500005
-0.021842858 0.08141429 0.69500005
-0.020578096 0.081648573 0.69700003
-0.019250477 0.081648573 0.69700003
-0.018000001 0.082000002 0.70000005
-0.016690478 0.082117148 0.70100003
-0.015355239 0.082117148 0.70100003
-0.014020001 0.082117148 0.70100003
-0.012720954 0.082351431 0.70300001
-0.011398096 0.082468577 0.70400006
-0.010057144 0.082468577 0.70400006
-0.0087285722 0.082585722 0.70500004
-0.0073752385 0.082468577 0.70400006
-0.0060428577 0.082585722 0.70500004
-0.0047000004 0.082585722 0.70500004
-0.0033666668 0.082820006 0.70700002
-0.0020200002 0.082820006 0.70700002
-0.00067333336 0.082820006 0.70700002
0.00067428575 0.082937151 0.708
0.0020285717 0.083171435 0.71000004
0.0033857145 0.08328858 0.71100003
0.0047333338 0.083171435 0.71000004
0.0060942862 0.08328858 0.71100003
0.0074485717 0.08328858 0.71100003
-0.10288668 0.07988096 0.671
-0.10160857 0.07988096 0.671
-0.10033048 0.07988096 0.671
-0.099052384 0.07988096 0.671
-0.09777429 0.07988096 0.671
-0.096496195 0.07988096 0.671
-0.0952181 0.07988096 0.671
-0.093940005 0.07988096 0.671
-0.092800006 0.080000006 0.67200005
-0.091520004 0.080000006 0.67200005
-0.09050858 0.080238104 0.67400002
-0.089224771 0.080238104 0.67400002
-0.087680005 0.080000006 0.67200005
-0.086400002 0.080000006 0.67200005
-0.085373342 0.080238104 0.67400002
-0.084089532 0.080238104 0.67400002
-0.082805723 0.080238104 0.67400002
-0.081521913 0.080238104 0.67400002
-0.080357149 0.080357149 0.67500001
-0.079071432 0.080357149 0.67500001
-0.077900961 0.080476195 0.67600006
-0.076613337 0.080476195 0.67600006
-0.075548574 0.080714293 0.67800003
-0.07425715 0.080714293 0.67800003
-0.072965719 0.080714293 0.67800003
-0.071674287 0.080714293 0.67800003
-0.070486672 0.080833338 0.67900002
-0.069193341 0.080833338 0.67900002
-0.067900002 0.080833338 0.67900002
-0.066606671 0.080833338 0.67900002
-0.065409526 0.080952384 0.68000001
-0.064020008 0.080833338 0.67900002
-0.062726669 0.080833338 0.67900002
-0.061704766 0.081190482 0.68200004
-0.060494289 0.081309527 0.68300003
-0.059193335 0.081309527 0.68300003
-0.057892386 0.081309527 0.68300003
-0.05667429 0.08142858 0.68400002
-0.055371433 0.08142858 0.68400002
-0.054068577 0.08142858 0.68400002
-0.05276572 0.08142858 0.68400002
-0.051462859 0.08142858 0.68400002
-0.05030667 0.081666671 0.68600005
-0.049000002 0.081666671 0.68600005
-0.047693338 0.081666671 0.68600005
-0.046454288 0.081785716 0.68700004
-0.045277145 0.082023814 0.68900001
-0.043964766 0.082023814 0.68900001
-0.042652383 0.082023814 0.68900001
-0.041400004 0.08214286 0.69000006
-0.040085718 0.08214286 0.69000006
-0.038771432 0.08214286 0.69000006
-0.037511431 0.082261913 0.69100004
-0.036195241 0.082261913 0.69100004
-0.034879051 0.082261913 0.69100004
-0.033562858 0.082261913 0.69100004
-0.032246668 0.082261913 0.69100004
-0.031020002 0.082500003 0.69300002
-0.029742859 0.082619056 0.69400001
-0.028420955 0.082619056 0.69400001
-0.027099049 0.082619056 0.69400001
-0.025814287 0.082738101 0.69500005
-0.024490478 0.082738101 0.69500005
-0.023166668 0.082738101 0.69500005
-0.021905717 0.082976192 0.69700003
-0.02060762 0.083095245 0.69800001
-0.019278096 0.083095245 0.69800001
-0.018025715 0.083452389 0.70100003
-0.016738096 0.083690479 0.70300001
-0.015399049 0.083690479 0.70300001
-0.014080001 0.083809532 0.70400006
-0.012739048 0.083809532 0.70400006
-0.011414287 0.083928578 0.70500004
-0.010071429 0.083928578 0.70500004
-0.0087285722 0.083928578 0.70500004
-0.0073857149 0.083928578 0.70500004
-0.0060428577 0.083928578 0.70500004
-0.0047000004 0.083928578 0.70500004
-0.0033666668 0.084166676 0.70700002
-0.0020200002 0.084166676 0.70700002
-0.00067428575 0.084285721 0.708
0.00067619054 0.084523812 0.71000004
0.0020285717 0.084523812 0.71000004
0.0033857145 0.084642865 0.71100003
0.0047400002 0.084642865 0.71100003
0.0060942862 0.084642865 0.71100003
-0.10160857 0.081159055 0.671
-0.10033048 0.081159055 0.671
-0.099052384 0.081159055 0.671
-0.09777429 0.081159055 0.671
-0.096496195 0.081159055 0.671
-0.0952181 0.081159055 0.671
-0.093940005 0.081159055 0.671
-0.092800006 0.081280008 0.67200005
-0.091520004 0.081280008 0.67200005
-0.09050858 0.081521913 0.67400002
-0.089224771 0.081521913 0.67400002
-0.087940961 0.081521913 0.67400002
-0.086400002 0.081280008 0.67200005
-0.085373342 0.081521913 0.67400002
-0.084089532 0.081521913 0.67400002
-0.082805723 0.081521913 0.67400002
-0.081521913 0.081521913 0.67400002
-0.080357149 0.081642866 0.67500001
-0.079071432 0.081642866 0.67500001
-0.077900961 0.081763811 0.67600006
-0.076613337 0.081763811 0.67600006
-0.075548574 0.082005717 0.67800003
-0.07425715 0.082005717 0.67800003
-0.072965719 0.082005717 0.67800003
-0.071780004 0.08212667 0.67900002
-0.070486672 0.08212667 0.67900002
-0.069193341 0.08212667 0.67900002
-0.067900002 0.08212667 0.67900002
-0.066606671 0.08212667 0.67900002
-0.065409526 0.082247622 0.68000001
-0.064020008 0.08212667 0.67900002
-0.062726669 0.08212667 0.67900002
-0.061704766 0.082489528 0.68200004
-0.060494289 0.08261048 0.68300003
-0.059193335 0.08261048 0.68300003
-0.057977147 0.082731433 0.68400002
-0.05667429 0.082731433 0.68400002
-0.055371433 0.082731433 0.68400002
-0.054068577 0.082731433 0.68400002
-0.052920002 0.082973339 0.68600005
-0.051613338 0.082973339 0.68600005
-0.05030667 0.082973339 0.68600005
-0.049071431 0.083094291 0.68700004
-0.04776286 0.083094291 0.68700004
-0.046454288 0.083094291 0.68700004
-0.045277145 0.083336197 0.68900001
-0.043964766 0.083336197 0.68900001
-0.04271429 0.08345715 0.69000006
-0.041400004 0.08345715 0.69000006
-0.040085718 0.08345715 0.69000006
-0.03882762 0.083578102 0.69100004
-0.037511431 0.083578102 0.69100004
-0.036195241 0.083578102 0.69100004
-0.034980003 0.083820008 0.69300002
-0.033660002 0.083820008 0.69300002
-0.032340001 0.083820008 0.69300002
-0.031064764 0.08394096 0.69400001
-0.029742859 0.08394096 0.69400001
-0.028420955 0.08394096 0.69400001
-0.027099049 0.08394096 0.69400001
-0.025814287 0.084061913 0.69500005
-0.024490478 0.084061913 0.69500005
-0.023166668 0.084061913 0.69500005
-0.021905717 0.084303819 0.69700003
-0.02060762 0.084424764 0.69800001
-0.019278096 0.084424764 0.69800001
-0.018102858 0.08515048 0.70400006
-0.016761906 0.08515048 0.70400006
-0.015420954 0.08515048 0.70400006
-0.014100001 0.085271433 0.70500004
-0.012757144 0.085271433 0.70500004
-0.011414287 0.085271433 0.70500004
-0.010071429 0.085271433 0.70500004
-0.0087285722 0.085271433 0.70500004
-0.0073857149 0.085271433 0.70500004
-0.0060428577 0.085271433 0.70500004
-0.0047133337 0.085513338 0.70700002
-0.0033666668 0.085513338 0.70700002
-0.0020200002 0.085513338 0.70700002
-0.00067428575 0.085634291 0.708
0.00067428575 0.085634291 0.708
0.0020285717 0.085876197 0.71000004
0.0033857145 0.085997149 0.71100003
0.0047533335 0.086239055 0.71300006
-0.10160857 0.08243715 0.671
-0.10033048 0.08243715 0.671
-0.098904766 0.08231429 0.67000002
-0.09777429 0.08243715 0.671
-0.096496195 0.08243715 0.671
-0.0952181 0.08243715 0.671
-0.094080009 0.082560003 0.67200005
-0.092800006 0.082560003 0.67200005
-0.09179239 0.082805723 0.67400002
-0.09050858 0.082805723 0.67400002
-0.089224771 0.082805723 0.67400002
-0.087940961 0.082805723 0.67400002
-0.086400002 0.082560003 0.67200005
-0.085373342 0.082805723 0.67400002
-0.084089532 0.082805723 0.67400002
-0.082805723 0.082805723 0.67400002
-0.081642866 0.082928576 0.67500001
-0.080357149 0.082928576 0.67500001
-0.079188578 0.083051436 0.67600006
-0.077900961 0.083051436 0.67600006
-0.076613337 0.083051436 0.67600006
-0.075548574 0.083297148 0.67800003
-0.07425715 0.083297148 0.67800003
-0.072965719 0.083297148 0.67800003
-0.071780004 0.083420008 0.67900002
-0.070486672 0.083420008 0.67900002
-0.069193341 0.083420008 0.67900002
-0.068000004 0.083542861 0.68000001
-0.066704765 0.083542861 0.68000001
-0.065409526 0.083542861 0.68000001
-0.064302862 0.083788574 0.68200004
-0.063003816 0.083788574 0.68200004
-0.061704766 0.083788574 0.68200004
-0.060494289 0.083911434 0.68300003
-0.059280004 0.084034294 0.68400002
-0.057977147 0.084034294 0.68400002
-0.05667429 0.084034294 0.68400002
-0.055371433 0.084034294 0.68400002
-0.05422667 0.084280007 0.68600005
-0.052920002 0.084280007 0.68600005
-0.051688574 0.084402859 0.68700004
-0.050380003 0.084402859 0.68700004
-0.049214289 0.084648579 0.68900001
-0.047901906 0.084648579 0.68900001
-0.046589527 0.084648579 0.68900001
-0.045277145 0.084648579 0.68900001
-0.044028573 0.084771432 0.69000006
-0.04271429 0.084771432 0.69000006
-0.041400004 0.084771432 0.69000006
-0.040143814 0.084894292 0.69100004
-0.03882762 0.084894292 0.69100004
-0.037620004 0.085140005 0.69300002
-0.036300004 0.085140005 0.69300002
-0.034980003 0.085140005 0.69300002
-0.033708572 0.085262865 0.69400001
-0.032386668 0.085262865 0.69400001
-0.031064764 0.085262865 0.69400001
-0.029785717 0.085385717 0.69500005
-0.028461907 0.085385717 0.69500005
-0.027138097 0.085385717 0.69500005
-0.025814287 0.085385717 0.69500005
-0.024560954 0.085631438 0.69700003
-0.023233335 0.085631438 0.69700003
-0.022000002 0.086000003 0.70000005
-0.020784764 0.086491436 0.70400006
-0.019471429 0.086614288 0.70500004
-0.018128572 0.086614288 0.70500004
-0.016785715 0.086614288 0.70500004
-0.015442858 0.086614288 0.70500004
-0.014140001 0.086860009 0.70700002
-0.012757144 0.086614288 0.70500004
-0.011414287 0.086614288 0.70500004
-0.010071429 0.086614288 0.70500004
-0.0087285722 0.086614288 0.70500004
-0.0073857149 0.086614288 0.70500004
-0.0060428577 0.086614288 0.70500004
-0.0047000004 0.086614288 0.70500004
-0.0033666668 0.086860009 0.70700002
-0.0020200002 0.086860009 0.70700002
-0.00067333336 0.086860009 0.70700002
-0.10018096 0.083590485 0.67000002
-0.099052384 0.083715245 0.671
-0.09777429 0.083715245 0.671
-0.096496195 0.083715245 0.671
-0.095360003 0.083840005 0.67200005
-0.094080009 0.083840005 0.67200005
-0.093076199 0.084089532 0.67400002
-0.09179239 0.084089532 0.67400002
-0.09050858 0.084089532 0.67400002
-0.089357145 0.084214292 0.67500001
-0.087940961 0.084089532 0.67400002
-0.086657152 0.084089532 0.67400002
-0.085373342 0.084089532 0.67400002
-0.084089532 0.084089532 0.67400002
-0.082928576 0.084214292 0.67500001
-0.081642866 0.084214292 0.67500001
-0.080357149 0.084214292 0.67500001
-0.079188578 0.084339052 0.67600006
-0.077900961 0.084339052 0.67600006
-0.076840006 0.08458858 0.67800003
-0.075548574 0.08458858 0.67800003
-0.07425715 0.08458858 0.67800003
-0.073073335 0.08471334 0.67900002
-0.071780004 0.08471334 0.67900002
-0.070486672 0.08471334 0.67900002
-0.069193341 0.08471334 0.67900002
-0.068000004 0.0848381 0.68000001
-0.066900954 0.085087627 0.68200004
-0.065601908 0.085087627 0.68200004
-0.064397149 0.085212387 0.68300003
-0.063096195 0.085212387 0.68300003
-0.061795242 0.085212387 0.68300003
-0.060494289 0.085212387 0.68300003
-0.059280004 0.085337147 0.68400002
-0.057977147 0.085337147 0.68400002
-0.05667429 0.085337147 0.68400002
-0.055533338 0.085586675 0.68600005
-0.054305717 0.085711434 0.68700004
-0.052997146 0.085711434 0.68700004
-0.051688574 0.085711434 0.68700004
-0.050526671 0.085960954 0.68900001
-0.049214289 0.085960954 0.68900001
-0.047901906 0.085960954 0.68900001
-0.046589527 0.085960954 0.68900001
-0.045342859 0.086085722 0.69000006
-0.044028573 0.086085722 0.69000006
-0.04271429 0.086085722 0.69000006
-0.041460004 0.086210482 0.69100004
-0.040143814 0.086210482 0.69100004
-0.038940001 0.086460009 0.69300002
-0.037620004 0.086460009 0.69300002
-0.036300004 0.086460009 0.69300002
-0.035030477 0.086584769 0.69400001
-0.033708572 0.086584769 0.69400001
-0.032386668 0.086584769 0.69400001
-0.031109527 0.086709529 0.69500005
-0.029785717 0.086709529 0.69500005
-0.028461907 0.086709529 0.69500005
-0.027138097 0.086709529 0.69500005
-0.025888573 0.086959057 0.69700003
-0.024560954 0.086959057 0.69700003
-0.023233335 0.086959057 0.69700003
-0.021937145 0.087083817 0.69800001
-0.020814287 0.087957151 0.70500004
-0.019471429 0.087957151 0.70500004
-0.018180002 0.088206671 0.70700002
-0.016785715 0.087957151 0.70500004
-0.015486668 0.088206671 0.70700002
-0.014140001 0.088206671 0.70700002
-0.012757144 0.087957151 0.70500004
-0.011414287 0.087957151 0.70500004
-0.010071429 0.087957151 0.70500004
-0.0087285722 0.087957151 0.70500004
-0.0073857149 0.087957151 0.70500004
-0.0060428577 0.087957151 0.70500004
-0.0046933335 0.087832384 0.70400006
-0.0033523813 0.087832384 0.70400006
-0.0020114286 0.087832384 0.70400006
-0.099052384 0.08499334 0.671
-0.09777429 0.08499334 0.671
-0.096496195 0.08499334 0.671
-0.095360003 0.085120007 0.67200005
-0.094360009 0.085373342 0.67400002
-0.093076199 0.085373342 0.67400002
-0.09179239 0.085373342 0.67400002
-0.09050858 0.085373342 0.67400002
-0.089357145 0.085500002 0.67500001
-0.087940961 0.085373342 0.67400002
-0.086657152 0.085373342 0.67400002
-0.085373342 0.085373342 0.67400002
-0.084089532 0.085373342 0.67400002
-0.082928576 0.085500002 0.67500001
-0.081642866 0.085500002 0.67500001
-0.080476195 0.085626669 0.67600006
-0.079188578 0.085626669 0.67600006
-0.078131437 0.085880004 0.67800003
-0.076840006 0.085880004 0.67800003
-0.075548574 0.085880004 0.67800003
-0.07425715 0.085880004 0.67800003
-0.073073335 0.086006671 0.67900002
-0.071780004 0.086006671 0.67900002
-0.070486672 0.086006671 0.67900002
-0.069295242 0.086133339 0.68000001
-0.068200007 0.086386673 0.68200004
-0.066900954 0.086386673 0.68200004
-0.065698102 0.08651334 0.68300003
-0.064397149 0.08651334 0.68300003
-0.063096195 0.08651334 0.68300003
-0.061795242 0.08651334 0.68300003
-0.060494289 0.08651334 0.68300003
-0.059280004 0.086640008 0.68400002
-0.057977147 0.086640008 0.68400002
-0.05667429 0.086640008 0.68400002
-0.055533338 0.086893342 0.68600005
-0.054305717 0.087020002 0.68700004
-0.052997146 0.087020002 0.68700004
-0.05183905 0.087273337 0.68900001
-0.050526671 0.087273337 0.68900001
-0.049214289 0.087273337 0.68900001
-0.047901906 0.087273337 0.68900001
-0.046657145 0.087400004 0.69000006
-0.045342859 0.087400004 0.69000006
-0.044028573 0.087400004 0.69000006
-0.04271429 0.087400004 0.69000006
-0.041460004 0.087526672 0.69100004
-0.040260002 0.087780006 0.69300002
-0.038996194 0.087906674 0.69400001
-0.037674289 0.087906674 0.69400001
-0.036352385 0.087906674 0.69400001
-0.035030477 0.087906674 0.69400001
-0.033757146 0.088033341 0.69500005
-0.032433335 0.088033341 0.69500005
-0.031109527 0.088033341 0.69500005
-0.02987143 0.088286676 0.69700003
-0.028543811 0.088286676 0.69700003
-0.027216192 0.088286676 0.69700003
-0.025888573 0.088286676 0.69700003
-0.024596192 0.088413343 0.69800001
-0.023266668 0.088413343 0.69800001
-0.022157144 0.089300007 0.70500004
-0.020814287 0.089300007 0.70500004
-0.019526668 0.089553341 0.70700002
-0.018180002 0.089553341 0.70700002
-0.016833335 0.089553341 0.70700002
-0.015486668 0.089553341 0.70700002
-0.014140001 0.089553341 0.70700002
-0.012793334 0.089553341 0.70700002
-0.011414287 0.089300007 0.70500004
-0.010071429 0.089300007 0.70500004
-0.0087285722 0.089300007 0.70500004
-0.0073857149 0.089300007 0.70500004
-0.0060342862 0.089173339 0.70400006
-0.0046866671 0.089046672 0.70300001
-0.0033476192 0.089046672 0.70300001
-0.098904766 0.08614286 0.67000002
-0.09777429 0.086271435 0.671
-0.096496195 0.086271435 0.671
-0.095360003 0.086400002 0.67200005
-0.094080009 0.086400002 0.67200005
-0.093076199 0.086657152 0.67400002
-0.09179239 0.086657152 0.67400002
-0.09050858 0.086657152 0.67400002
-0.089357145 0.086785719 0.67500001
-0.087940961 0.086657152 0.67400002
-0.086657152 0.086657152 0.67400002
-0.085373342 0.086657152 0.67400002
-0.084214292 0.086785719 0.67500001
-0.082928576 0.086785719 0.67500001
-0.081763811 0.086914293 0.67600006
-0.080476195 0.086914293 0.67600006
-0.079422861 0.087171435 0.67800003
-0.078131437 0.087171435 0.67800003
-0.076840006 0.087171435 0.67800003
-0.075548574 0.087171435 0.67800003
-0.074366674 0.087300003 0.67900002
-0.073073335 0.087300003 0.67900002
-0.071780004 0.087300003 0.67900002
-0.070590481 0.087428577 0.68000001
-0.069295242 0.087428577 0.68000001
-0.068200007 0.087685719 0.68200004
-0.066999055 0.087814294 0.68300003
-0.065698102 0.087814294 0.68300003
-0.064397149 0.087814294 0.68300003
-0.063096195 0.087814294 0.68300003
-0.061795242 0.087814294 0.68300003
-0.060582861 0.087942861 0.68400002
-0.059280004 0.087942861 0.68400002
-0.05814667 0.088200003 0.68600005
-0.056840003 0.088200003 0.68600005
-0.055614289 0.088328578 0.68700004
-0.054463815 0.088585719 0.68900001
-0.053151432 0.088585719 0.68900001
-0.05183905 0.088585719 0.68900001
-0.050600003 0.088714294 0.69000006
-0.049285717 0.088714294 0.69000006
-0.047971431 0.088714294 0.69000006
-0.046657145 0.088714294 0.69000006
-0.045342859 0.088714294 0.69000006
-0.044028573 0.088714294 0.69000006
-0.042776193 0.088842861 0.69100004
-0.041580003 0.089100003 0.69300002
-0.040260002 0.089100003 0.69300002
-0.038996194 0.089228578 0.69400001
-0.037674289 0.089228578 0.69400001
-0.036404766 0.089357145 0.69500005
-0.035080954 0.089357145 0.69500005
-0.033757146 0.089357145 0.69500005
-0.032526668 0.089614294 0.69700003
-0.031199049 0.089614294 0.69700003
-0.029914288 0.089742862 0.69800001
-0.028584763 0.089742862 0.69800001
-0.027255239 0.089742862 0.69800001
-0.027040001 0.093600005 0.72800004
-0.025688574 0.09372858 0.72900003
-0.024300002 0.09372858 0.72900003
-0.022911429 0.09372858 0.72900003
-0.018180002 0.090900004 0.70700002
-0.016833335 0.090900004 0.70700002
-0.015486668 0.090900004 0.70700002
-0.014160001 0.091028579 0.708
-0.01281143 0.091028579 0.708
-0.011446668 0.090900004 0.70700002
-0.010071429 0.090642862 0.70500004
-0.0087285722 0.090642862 0.70500004
-0.0073857149 0.090642862 0.70500004
-0.0060428577 0.090642862 0.70500004
-0.097920008 0.087680005 0.67200005
-0.096640006 0.087680005 0.67200005
-0.095643818 0.087940961 0.67400002
-0.094360009 0.087940961 0.67400002
-0.093076199 0.087940961 0.67400002
-0.091928579 0.088071436 0.67500001
-0.090642862 0.088071436 0.67500001
-0.089357145 0.088071436 0.67500001
-0.087940961 0.087940961 0.67400002
-0.086785719 0.088071436 0.67500001
-0.085500002 0.088071436 0.67500001
-0.084339052 0.08820191 0.67600006
-0.083051436 0.08820191 0.67600006
-0.082005717 0.088462859 0.67800003
-0.080714293 0.088462859 0.67800003
-0.079540007 0.088593341 0.67900002
-0.078246675 0.088593341 0.67900002
-0.076953337 0.088593341 0.67900002
-0.075660005 0.088593341 0.67900002
-0.074476197 0.088723816 0.68000001
-0.073180959 0.088723816 0.68000001
-0.072097145 0.088984765 0.68200004
-0.070798099 0.088984765 0.68200004
-0.069600955 0.089115247 0.68300003
-0.068400003 0.089245722 0.68400002
-0.06709715 0.089245722 0.68400002
-0.065794289 0.089245722 0.68400002
-0.064491436 0.089245722 0.68400002
-0.063188575 0.089245722 0.68400002
-0.062066671 0.089506671 0.68600005
-0.060760003 0.089506671 0.68600005
-0.059453338 0.089506671 0.68600005
-0.058231432 0.089637145 0.68700004
-0.057088576 0.089898102 0.68900001
-0.055857148 0.090028577 0.69000006
-0.054542862 0.090028577 0.69000006
-0.053305719 0.090159051 0.69100004
-0.052140005 0.090420008 0.69300002
-0.050673336 0.090159051 0.69100004
-0.049357146 0.090159051 0.69100004
-0.048040956 0.090159051 0.69100004
-0.046724766 0.090159051 0.69100004
-0.045408573 0.090159051 0.69100004
-0.044092383 0.090159051 0.69100004
-0.042776193 0.090159051 0.69100004
-0.041640002 0.090550482 0.69400001
-0.040318098 0.090550482 0.69400001
-0.039052382 0.090680957 0.69500005
-0.037728574 0.090680957 0.69500005
-0.036404766 0.090680957 0.69500005
-0.035181906 0.090941913 0.69700003
-0.033854287 0.090941913 0.69700003
-0.032526668 0.090941913 0.69700003
-0.031199049 0.090941913 0.69700003
-0.029914288 0.091072388 0.69800001
-0.028666668 0.091333337 0.70000005
-0.015902858 0.094725721 0.72600001
-0.014460001 0.094334289 0.72300005
-0.013082858 0.094334289 0.72300005
-0.011705715 0.094334289 0.72300005
-0.010357143 0.094595246 0.72500002
-0.097920008 0.088960007 0.67200005
-0.096927628 0.089224771 0.67400002
-0.095643818 0.089224771 0.67400002
-0.094360009 0.089224771 0.67400002
-0.093076199 0.089224771 0.67400002
-0.091928579 0.089357145 0.67500001
-0.090642862 0.089357145 0.67500001
-0.089357145 0.089357145 0.67500001
-0.087940961 0.089224771 0.67400002
-0.086657152 0.089224771 0.67400002
-0.085500002 0.089357145 0.67500001
-0.084339052 0.089489527 0.67600006
-0.083297148 0.089754291 0.67800003
-0.082005717 0.089754291 0.67800003
-0.080714293 0.089754291 0.67800003
-0.079540007 0.089886673 0.67900002
-0.078246675 0.089886673 0.67900002
-0.076953337 0.089886673 0.67900002
-0.075660005 0.089886673 0.67900002
-0.074476197 0.090019055 0.68000001
-0.073396198 0.090283819 0.68200004
-0.072097145 0.090283819 0.68200004
-0.070901908 0.090416193 0.68300003
-0.069600955 0.090416193 0.68300003
-0.068400003 0.090548575 0.68400002
-0.06709715 0.090548575 0.68400002
-0.065794289 0.090548575 0.68400002
-0.064680003 0.090813339 0.68600005
-0.063373335 0.090813339 0.68600005
-0.062157147 0.090945721 0.68700004
-0.060848575 0.090945721 0.68700004
-0.059453338 0.090813339 0.68600005
-0.058485717 0.091342866 0.69000006
-0.057171434 0.091342866 0.69000006
-0.055938099 0.091475241 0.69100004
-0.054780003 0.091740005 0.69300002
-0.053460002 0.091740005 0.69300002
-0.052140005 0.091740005 0.69300002
-0.050820004 0.091740005 0.69300002
-0.049500003 0.091740005 0.69300002
-0.048180003 0.091740005 0.69300002
-0.046860002 0.091740005 0.69300002
-0.045408573 0.091475241 0.69100004
-0.044092383 0.091475241 0.69100004
-0.042900003 0.091740005 0.69300002
-0.041580003 0.091740005 0.69300002
-0.040318098 0.091872387 0.69400001
-0.039052382 0.092004769 0.69500005
-0.037728574 0.092004769 0.69500005
-0.036404766 0.092004769 0.69500005
-0.035181906 0.092269532 0.69700003
-0.033854287 0.092269532 0.69700003
-0.032573335 0.092401914 0.69800001
-0.032452382 0.095976196 0.72500002
-0.03107143 0.095976196 0.72500002
-0.026928574 0.095976196 0.72500002
-0.02554762 0.095976196 0.72500002
-0.098211437 0.09050858 0.67400002
-0.096927628 0.09050858 0.67400002
-0.095785722 0.090642862 0.67500001
-0.094360009 0.09050858 0.67400002
-0.093214288 0.090642862 0.67500001
-0.091928579 0.090642862 0.67500001
-0.090642862 0.090642862 0.67500001
-0.089357145 0.090642862 0.67500001
-0.088071436 0.090642862 0.67500001
-0.086785719 0.090642862 0.67500001
-0.085626669 0.090777151 0.67600006
-0.08458858 0.091045722 0.67800003
-0.083297148 0.091045722 0.67800003
-0.082005717 0.091045722 0.67800003
-0.080833338 0.091180004 0.67900002
-0.079540007 0.091180004 0.67900002
-0.078246675 0.091180004 0.67900002
-0.076953337 0.091180004 0.67900002
-0.075660005 0.091180004 0.67900002
-0.074695244 0.091582865 0.68200004
-0.073396198 0.091582865 0.68200004
-0.072202861 0.091717146 0.68300003
-0.070901908 0.091717146 0.68300003
-0.069702864 0.091851436 0.68400002
-0.068400003 0.091851436 0.68400002
-0.067293338 0.092120007 0.68600005
-0.065986671 0.092120007 0.68600005
-0.06477429 0.092254288 0.68700004
-0.063465722 0.092254288 0.68700004
-0.062338099 0.09252286 0.68900001
-0.06102572 0.09252286 0.68900001
-0.059540004 0.092254288 0.68700004
-0.058740005 0.093060009 0.69300002
-0.057420004 0.093060009 0.69300002
-0.056100003 0.093060009 0.69300002
-0.05485905 0.093194291 0.69400001
-0.053537145 0.093194291 0.69400001
-0.052215241 0.093194291 0.69400001
-0.050893337 0.093194291 0.69400001
-0.049571432 0.093194291 0.69400001
-0.048249528 0.093194291 0.69400001
-0.046927623 0.093194291 0.69400001
-0.045605719 0.093194291 0.69400001
-0.044283811 0.093194291 0.69400001
-0.042961907 0.093194291 0.69400001
-0.041640002 0.093194291 0.69400001
-0.040318098 0.093194291 0.69400001
-0.039052382 0.09332858 0.69500005
-0.037728574 0.09332858 0.69500005
-0.036404766 0.09332858 0.69500005
-0.099495247 0.09179239 0.67400002
-0.098211437 0.09179239 0.67400002
-0.096927628 0.09179239 0.67400002
-0.095785722 0.091928579 0.67500001
-0.094500005 0.091928579 0.67500001
-0.093214288 0.091928579 0.67500001
-0.091928579 0.091928579 0.67500001
-0.090642862 0.091928579 0.67500001
-0.089489527 0.092064768 0.67600006
-0.088071436 0.091928579 0.67500001
-0.086914293 0.092064768 0.67600006
-0.085880004 0.092337146 0.67800003
-0.08458858 0.092337146 0.67800003
-0.083420008 0.092473343 0.67900002
-0.08212667 0.092473343 0.67900002
-0.080952384 0.092609532 0.68000001
-0.079657145 0.092609532 0.68000001
-0.078361914 0.092609532 0.68000001
-0.077066675 0.092609532 0.68000001
-0.075771436 0.092609532 0.68000001
-0.074695244 0.092881911 0.68200004
-0.073503815 0.0930181 0.68300003
-0.072202861 0.0930181 0.68300003
-0.071005717 0.093154289 0.68400002
-0.069702864 0.093154289 0.68400002
-0.068600006 0.093426675 0.68600005
-0.067391433 0.093562864 0.68700004
-0.066082865 0.093562864 0.68700004
-0.064962864 0.093835242 0.68900001
-0.063650481 0.093835242 0.68900001
-0.062338099 0.093835242 0.68900001
-0.06102572 0.093835242 0.68900001
-0.059713338 0.093835242 0.68900001
-0.057502862 0.094516195 0.69400001
-0.056180958 0.094516195 0.69400001
-0.05485905 0.094516195 0.69400001
-0.053537145 0.094516195 0.69400001
-0.052290481 0.094652385 0.69500005
-0.050893337 0.094516195 0.69400001
-0.049571432 0.094516195 0.69400001
-0.048319049 0.094652385 0.69500005
-0.046995241 0.094652385 0.69500005
-0.045671433 0.094652385 0.69500005
-0.098357148 0.093214288 0.67500001
-0.097071432 0.093214288 0.67500001
-0.095785722 0.093214288 0.67500001
-0.094500005 0.093214288 0.67500001
-0.093214288 0.093214288 0.67500001
-0.091928579 0.093214288 0.67500001
-0.090777151 0.093352385 0.67600006
-0.089489527 0.093352385 0.67600006
-0.08820191 0.093352385 0.67600006
-0.087171435 0.093628578 0.67800003
-0.086006671 0.093766674 0.67900002
-0.08471334 0.093766674 0.67900002
-0.083542861 0.093904771 0.68000001
-0.082247622 0.093904771 0.68000001
-0.081190482 0.094180956 0.68200004
-0.079891436 0.094180956 0.68200004
-0.07859239 0.094180956 0.68200004
-0.077293336 0.094180956 0.68200004
-0.07599429 0.094180956 0.68200004
-0.074695244 0.094180956 0.68200004
-0.073503815 0.094319053 0.68300003
-0.072308578 0.09445715 0.68400002
-0.071005717 0.09445715 0.68400002
-0.069906674 0.094733343 0.68600005
-0.068700008 0.094871432 0.68700004
-0.067391433 0.094871432 0.68700004
-0.066275239 0.095147625 0.68900001
-0.064962864 0.095147625 0.68900001
-0.063742861 0.095285721 0.69000006
-0.062428575 0.095285721 0.69000006
-0.061114289 0.095285721 0.69000006
-0.059886672 0.095423818 0.69100004
-0.058740005 0.095700003 0.69300002
-0.057585716 0.095976196 0.69500005
-0.056261908 0.095976196 0.69500005
-0.0549381 0.095976196 0.69500005
-0.053614289 0.095976196 0.69500005
-0.052290481 0.095976196 0.69500005
-0.050966669 0.095976196 0.69500005
-0.049642861 0.095976196 0.69500005
-0.048319049 0.095976196 0.69500005
-0.046995241 0.095976196 0.69500005
-0.099642865 0.094500005 0.67500001
-0.098357148 0.094500005 0.67500001
-0.097071432 0.094500005 0.67500001
-0.095785722 0.094500005 0.67500001
-0.094500005 0.094500005 0.67500001
-0.093214288 0.094500005 0.67500001
-0.092064768 0.094640009 0.67600006
-0.090777151 0.094640009 0.67600006
-0.089754291 0.094920009 0.67800003
-0.08820191 0.094640009 0.67600006
-0.087300003 0.095060006 0.67900002
-0.086006671 0.095060006 0.67900002
-0.0848381 0.09520001 0.68000001
-0.083788574 0.09548001 0.68200004
-0.082489528 0.09548001 0.68200004
-0.081190482 0.09548001 0.68200004
-0.080008574 0.095620006 0.68300003
-0.078707621 0.095620006 0.68300003
-0.077406675 0.095620006 0.68300003
-0.076105721 0.095620006 0.68300003
-0.074804768 0.095620006 0.68300003
-0.073611431 0.095760003 0.68400002
-0.072308578 0.095760003 0.68400002
-0.071213335 0.096040003 0.68600005
-0.070008576 0.096180007 0.68700004
-0.068700008 0.096180007 0.68700004
-0.067587622 0.096460007 0.68900001
-0.066275239 0.096460007 0.68900001
-0.065057144 0.096600004 0.69000006
-0.063742861 0.096600004 0.69000006
-0.062428575 0.096600004 0.69000006
-0.061202861 0.096740007 0.69100004
-0.060060006 0.097020008 0.69300002
-0.058824766 0.097160004 0.69400001
-0.057502862 0.097160004 0.69400001
-0.056261908 0.097300008 0.69500005
-0.0549381 0.097300008 0.69500005
-0.053614289 0.097300008 0.69500005
-0.052290481 0.097300008 0.69500005
-0.050966669 0.097300008 0.69500005
-0.049642861 0.097300008 0.69500005
-0.048319049 0.097300008 0.69500005
-0.098502867 0.095927626 0.67600006
-0.097215243 0.095927626 0.67600006
-0.095927626 0.095927626 0.67600006
-0.094640009 0.095927626 0.67600006
-0.093352385 0.095927626 0.67600006
-0.092064768 0.095927626 0.67600006
-0.091045722 0.096211433 0.67800003
-0.089754291 0.096211433 0.67800003
-0.088462859 0.096211433 0.67800003
-0.087300003 0.096353337 0.67900002
-0.086006671 0.096353337 0.67900002
-0.0848381 0.096495241 0.68000001
-0.083788574 0.096779056 0.68200004
-0.082489528 0.096779056 0.68200004
-0.081309527 0.09692096 0.68300003
-0.080008574 0.09692096 0.68300003
-0.078707621 0.09692096 0.68300003
-0.077406675 0.09692096 0.68300003
-0.076217145 0.097062863 0.68400002
-0.074914292 0.097062863 0.68400002
-0.073826671 0.097346671 0.68600005
-0.072520003 0.097346671 0.68600005
-0.071317151 0.097488575 0.68700004
-0.070008576 0.097488575 0.68700004
-0.068900004 0.09777239 0.68900001
-0.067587622 0.09777239 0.68900001
-0.066275239 0.09777239 0.68900001
-0.064962864 0.09777239 0.68900001
-0.063742861 0.097914293 0.69000006
-0.062428575 0.097914293 0.69000006
-0.061114289 0.097914293 0.69000006
-0.059800003 0.097914293 0.69000006
-0.058824766 0.098481908 0.69400001
-0.057585716 0.09862382 0.69500005
-0.099790484 0.097215243 0.67600006
-0.098502867 0.097215243 0.67600006
-0.097502865 0.097502865 0.67800003
-0.095927626 0.097215243 0.67600006
-0.094920009 0.097502865 0.67800003
-0.093628578 0.097502865 0.67800003
-0.092337146 0.097502865 0.67800003
-0.091045722 0.097502865 0.67800003
-0.089886673 0.097646676 0.67900002
-0.088462859 0.097502865 0.67800003
-0.087300003 0.097646676 0.67900002
-0.086006671 0.097646676 0.67900002
-0.085087627 0.098078102 0.68200004
-0.083788574 0.098078102 0.68200004
-0.08261048 0.098221913 0.68300003
-0.081309527 0.098221913 0.68300003
-0.080008574 0.098221913 0.68300003
-0.078707621 0.098221913 0.68300003
-0.077406675 0.098221913 0.68300003
-0.076217145 0.098365724 0.68400002
-0.074914292 0.098365724 0.68400002
-0.073826671 0.098653339 0.68600005
-0.072520003 0.098653339 0.68600005
-0.071317151 0.09879715 0.68700004
-0.070212387 0.099084765 0.68900001
-0.068900004 0.099084765 0.68900001
-0.067587622 0.099084765 0.68900001
-0.066275239 0.099084765 0.68900001
-0.065057144 0.099228576 0.69000006
-0.063742861 0.099228576 0.69000006
-0.062428575 0.099228576 0.69000006
-0.10008572 0.098794289 0.67800003
-0.098794289 0.098794289 0.67800003
-0.097502865 0.098794289 0.67800003
-0.096211433 0.098794289 0.67800003
-0.095060006 0.098940007 0.67900002
-0.093766674 0.098940007 0.67900002
-0.092473343 0.098940007 0.67900002
-0.091180004 0.098940007 0.67900002
-0.090019055 0.099085718 0.68000001
-0.088593341 0.098940007 0.67900002
-0.087428577 0.099085718 0.68000001
-0.086133339 0.099085718 0.68000001
