# .PCD v0.7 - Point Cloud Data file format
VERSION 0.7
FIELDS x y z
SIZE 4 4 4
TYPE F F F
COUNT 1 1 1
WIDTH 1378
HEIGHT 1
VIEWPOINT 0 0 0 1 0 0 0
POINTS 1378
DATA ascii
0.007060953 0.032737143 0.67400002
0.008344762 0.032737143 0.67400002
0.0096000005 0.032640003 0.67200005
0.01086381 0.032591432 0.671
0.012069524 0.032397144 0.66700006
0.013320001 0.032348573 0.66600001
0.014566667 0.032300003 0.66500002
0.015833335 0.032300003 0.66500002
0.017048573 0.032202858 0.66300005
0.01831143 0.032202858 0.66300005
0.019574286 0.032202858 0.66300005
0.020805717 0.032154288 0.66200006
0.022066668 0.032154288 0.66200006
0.023292383 0.032105718 0.66100001
0.024514288 0.032057144 0.66000003
0.025693335 0.031960003 0.65800005
0.026946668 0.031960003 0.65800005
0.028200002 0.031960003 0.65800005
0.029453335 0.031960003 0.65800005
0.030706668 0.031960003 0.65800005
0.031960003 0.031960003 0.65800005
0.033213336 0.031960003 0.65800005
0.034466669 0.031960003 0.65800005
0.035720002 0.031960003 0.65800005
0.036973335 0.031960003 0.65800005
0.038226668 0.031960003 0.65800005
0.039480001 0.031960003 0.65800005
0.040733337 0.031960003 0.65800005
0.04198667 0.031960003 0.65800005
0.043371432 0.032057144 0.66000003
0.044628575 0.032057144 0.66000003
0.045955241 0.032105718 0.66100001
0.047285717 0.032154288 0.66200006
0.048546668 0.032154288 0.66200006
0.049882859 0.032202858 0.66300005
0.051300004 0.032300003 0.66500002
0.052645717 0.032348573 0.66600001
0.05399524 0.032397144 0.66700006
0.055431433 0.032494288 0.66900003
0.05687524 0.032591432 0.671
0.058240004 0.032640003 0.67200005
0.059520002 0.032640003 0.67200005
0.060800005 0.032640003 0.67200005
0.062080003 0.032640003 0.67200005
0.063360006 0.032640003 0.67200005
0.00064761908 0.034323812 0.68000001
0.0019400001 0.034273334 0.67900002
0.0032285717 0.03422286 0.67800003
0.0045200004 0.03422286 0.67800003
0.0057942863 0.034121908 0.67600006
0.0070714289 0.034071431 0.67500001
0.008344762 0.034020953 0.67400002
0.0096285725 0.034020953 0.67400002
0.01086381 0.033869527 0.671
0.01212381 0.03381905 0.67000002
0.013340001 0.03366762 0.66700006
0.014588572 0.033617146 0.66600001
0.015857143 0.033617146 0.66600001
0.017125715 0.033617146 0.66600001
0.018366668 0.033566669 0.66500002
0.019574286 0.033465717 0.66300005
0.020837145 0.033465717 0.66300005
0.022100002 0.033465717 0.66300005
0.023327621 0.033415239 0.66200006
0.024588574 0.033415239 0.66200006
0.025810478 0.033364765 0.66100001
0.027069526 0.033364765 0.66100001
0.028328573 0.033364765 0.66100001
0.02954286 0.033314288 0.66000003
0.030800002 0.033314288 0.66000003
0.032057144 0.033314288 0.66000003
0.033314288 0.033314288 0.66000003
0.034466669 0.033213336 0.65800005
0.035828575 0.033314288 0.66000003
0.037085716 0.033314288 0.66000003
0.03834286 0.033314288 0.66000003
0.039600004 0.033314288 0.66000003
0.040857144 0.033314288 0.66000003
0.042178098 0.033364765 0.66100001
0.043437146 0.033364765 0.66100001
0.044763811 0.033415239 0.66200006
0.046024766 0.033415239 0.66200006
0.047357146 0.033465717 0.66300005
0.048620004 0.033465717 0.66300005
0.050033338 0.033566669 0.66500002
0.051300004 0.033566669 0.66500002
0.052724764 0.03366762 0.66700006
0.054157145 0.033768572 0.66900003
0.055514291 0.03381905 0.67000002
0.056960005 0.033920001 0.67200005
0.058413338 0.034020953 0.67400002
0.059697147 0.034020953 0.67400002
0.060980957 0.034020953 0.67400002
0.062264767 0.034020953 0.67400002
0.00064761908 0.03561905 0.68000001
0.0019400001 0.035566669 0.67900002
0.0032285717 0.035514288 0.67800003
0.0045200004 0.035514288 0.67800003
0.0057942863 0.035409525 0.67600006
0.0070819054 0.035409525 0.67600006
0.008357143 0.035357144 0.67500001
0.0096285725 0.035304762 0.67400002
0.010880001 0.035200004 0.67200005
0.01212381 0.035095241 0.67000002
0.013340001 0.034938097 0.66700006
0.014610477 0.034938097 0.66700006
0.015880954 0.034938097 0.66700006
0.017125715 0.034885716 0.66600001
0.018366668 0.034833334 0.66500002
0.019633334 0.034833334 0.66500002
0.020837145 0.034728575 0.66300005
0.022100002 0.034728575 0.66300005
0.023327621 0.034676194 0.66200006
0.024588574 0.034676194 0.66200006
0.025849525 0.034676194 0.66200006
0.027110478 0.034676194 0.66200006
0.028328573 0.034623813 0.66100001
0.029587621 0.034623813 0.66100001
0.030800002 0.034571432 0.66000003
0.032057144 0.034571432 0.66000003
0.033364765 0.034623813 0.66100001
0.034571432 0.034571432 0.66000003
0.03588286 0.034623813 0.66100001
0.037085716 0.034571432 0.66000003
0.038400955 0.034623813 0.66100001
0.039660003 0.034623813 0.66100001
0.040919051 0.034623813 0.66100001
0.042241909 0.034676194 0.66200006
0.04350286 0.034676194 0.66200006
0.044831432 0.034728575 0.66300005
0.046094287 0.034728575 0.66300005
0.047357146 0.034728575 0.66300005
0.048766669 0.034833334 0.66500002
0.050033338 0.034833334 0.66500002
0.051377147 0.034885716 0.66600001
0.052724764 0.034938097 0.66700006
0.0542381 0.035095241 0.67000002
0.055680003 0.035200004 0.67200005
0.056960005 0.035200004 0.67200005
0.058413338 0.035304762 0.67400002
0.059697147 0.035304762 0.67400002
0.061071433 0.035357144 0.67500001
0.0019400001 0.036860004 0.67900002
0.0032285717 0.036805715 0.67800003
0.0045200004 0.036805715 0.67800003
0.0057942863 0.036697146 0.67600006
0.0070819054 0.036697146 0.67600006
0.008357143 0.036642861 0.67500001
0.0096285725 0.036588576 0.67400002
0.010880001 0.036480002 0.67200005
0.012141906 0.036425717 0.671
0.013380001 0.036317144 0.66900003
0.014610477 0.036208574 0.66700006
0.015880954 0.036208574 0.66700006
0.01715143 0.036208574 0.66700006
0.018394288 0.036154289 0.66600001
0.019633334 0.036100004 0.66500002
0.020900002 0.036100004 0.66500002
0.022166668 0.036100004 0.66500002
0.023362858 0.03599143 0.66300005
0.024588574 0.035937145 0.66200006
0.025849525 0.035937145 0.66200006
0.027110478 0.035937145 0.66200006
0.028371431 0.035937145 0.66200006
0.029587621 0.03588286 0.66100001
0.030846668 0.03588286 0.66100001
0.032105718 0.03588286 0.66100001
0.033415239 0.035937145 0.66200006
0.034676194 0.035937145 0.66200006
0.03588286 0.03588286 0.66100001
0.037141908 0.03588286 0.66100001
0.038400955 0.03588286 0.66100001
0.039720003 0.035937145 0.66200006
0.040980954 0.035937145 0.66200006
0.042241909 0.035937145 0.66200006
0.043568574 0.03599143 0.66300005
0.044831432 0.03599143 0.66300005
0.046233337 0.036100004 0.66500002
0.047500003 0.036100004 0.66500002
0.048766669 0.036100004 0.66500002
0.050108574 0.036154289 0.66600001
0.051377147 0.036154289 0.66600001
0.052724764 0.036208574 0.66700006
0.05431905 0.036425717 0.671
0.055680003 0.036480002 0.67200005
0.057129528 0.036588576 0.67400002
0.058500003 0.036642861 0.67500001
0.05978572 0.036642861 0.67500001
0.061071433 0.036642861 0.67500001
0.062357146 0.036642861 0.67500001
0.0032285717 0.038097147 0.67800003
0.0045200004 0.038097147 0.67800003
0.0058114291 0.038097147 0.67800003
0.0070819054 0.037984766 0.67600006
0.008369524 0.037984766 0.67600006
0.0096428581 0.037928574 0.67500001
0.010912382 0.037872385 0.67400002
0.012141906 0.037703812 0.671
0.013400001 0.03764762 0.67000002
0.014654287 0.037591431 0.66900003
0.015880954 0.03747905 0.66700006
0.01715143 0.03747905 0.66700006
0.018394288 0.037422858 0.66600001
0.019662859 0.037422858 0.66600001
0.02093143 0.037422858 0.66600001
0.022166668 0.03736667 0.66500002
0.023433335 0.03736667 0.66500002
0.024625717 0.037254289 0.66300005
0.025888573 0.037254289 0.66300005
0.02715143 0.037254289 0.66300005
0.028414287 0.037254289 0.66300005
0.029632382 0.037198097 0.66200006
0.030893335 0.037198097 0.66200006
0.032154288 0.037198097 0.66200006
0.033415239 0.037198097 0.66200006
0.034676194 0.037198097 0.66200006
0.035937145 0.037198097 0.66200006
0.037141908 0.037141908 0.66100001
0.038459051 0.037198097 0.66200006
0.039720003 0.037198097 0.66200006
0.040980954 0.037198097 0.66200006
0.042241909 0.037198097 0.66200006
0.043568574 0.037254289 0.66300005
0.044831432 0.037254289 0.66300005
0.046233337 0.03736667 0.66500002
0.047500003 0.03736667 0.66500002
0.048840005 0.037422858 0.66600001
0.050108574 0.037422858 0.66600001
0.051454291 0.03747905 0.66700006
0.052882861 0.037591431 0.66900003
0.054400004 0.037760001 0.67200005
0.055845719 0.037872385 0.67400002
0.05721429 0.037928574 0.67500001
0.058500003 0.037928574 0.67500001
0.059874289 0.037984766 0.67600006
0.061071433 0.037928574 0.67500001
0.062357146 0.037928574 0.67500001
0.0032285717 0.039388575 0.67800003
0.0045200004 0.039388575 0.67800003
0.0058114291 0.039388575 0.67800003
0.0070819054 0.039272383 0.67600006
0.008357143 0.039214287 0.67500001
0.0096428581 0.039214287 0.67500001
0.010912382 0.039156195 0.67400002
0.01216 0.039040003 0.67200005
0.013420001 0.038981907 0.671
0.014676192 0.038923811 0.67000002
0.015928572 0.038865715 0.66900003
0.017202858 0.038865715 0.66900003
0.018421905 0.038749527 0.66700006
0.019692382 0.038749527 0.66700006
0.02093143 0.038691431 0.66600001
0.022200001 0.038691431 0.66600001
0.023433335 0.038633335 0.66500002
0.024625717 0.038517144 0.66300005
0.025888573 0.038517144 0.66300005
0.02715143 0.038517144 0.66300005
0.028414287 0.038517144 0.66300005
0.029677145 0.038517144 0.66300005
0.030893335 0.038459051 0.66200006
0.032154288 0.038459051 0.66200006
0.033415239 0.038459051 0.66200006
0.034676194 0.038459051 0.66200006
0.035937145 0.038459051 0.66200006
0.037141908 0.038400955 0.66100001
0.038459051 0.038459051 0.66200006
0.039720003 0.038459051 0.66200006
0.040980954 0.038459051 0.66200006
0.042305715 0.038517144 0.66300005
0.043568574 0.038517144 0.66300005
0.044966668 0.038633335 0.66500002
0.046302859 0.038691431 0.66600001
0.047571432 0.038691431 0.66600001
0.048840005 0.038691431 0.66600001
0.050183814 0.038749527 0.66700006
0.051454291 0.038749527 0.66700006
0.052882861 0.038865715 0.66900003
0.054400004 0.039040003 0.67200005
0.055845719 0.039156195 0.67400002
0.05721429 0.039214287 0.67500001
0.058586672 0.039272383 0.67600006
0.059874289 0.039272383 0.67600006
0.061161909 0.039272383 0.67600006
0.062357146 0.039214287 0.67500001
0.0032333336 0.040740002 0.67900002
0.0045266668 0.040740002 0.67900002
0.0058200005 0.040740002 0.67900002
0.0071028578 0.040680002 0.67800003
0.008394286 0.040680002 0.67800003
0.0096428581 0.040500004 0.67500001
0.010928572 0.040500004 0.67500001
0.012196192 0.040440004 0.67400002
0.013440001 0.040320002 0.67200005
0.014698097 0.040260002 0.671
0.015952382 0.040200002 0.67000002
0.017202858 0.040140003 0.66900003
0.018477144 0.040140003 0.66900003
0.019692382 0.040020004 0.66700006
0.020962859 0.040020004 0.66700006
0.022200001 0.039960004 0.66600001
0.023433335 0.039900001 0.66500002
0.024700001 0.039900001 0.66500002
0.025966669 0.039900001 0.66500002
0.027233334 0.039900001 0.66500002
0.028500002 0.039900001 0.66500002
0.029677145 0.039780002 0.66300005
0.030940002 0.039780002 0.66300005
0.032202858 0.039780002 0.66300005
0.033465717 0.039780002 0.66300005
0.034728575 0.039780002 0.66300005
0.035937145 0.039720003 0.66200006
0.037198097 0.039720003 0.66200006
0.038459051 0.039720003 0.66200006
0.039720003 0.039720003 0.66200006
0.041042861 0.039780002 0.66300005
0.042305715 0.039780002 0.66300005
0.043700002 0.039900001 0.66500002
0.044966668 0.039900001 0.66500002
0.046302859 0.039960004 0.66600001
0.047642861 0.040020004 0.66700006
0.048913337 0.040020004 0.66700006
0.050183814 0.040020004 0.66700006
0.051608574 0.040140003 0.66900003
0.052961908 0.040200002 0.67000002
0.054400004 0.040320002 0.67200005
0.055845719 0.040440004 0.67400002
0.05721429 0.040500004 0.67500001
0.058586672 0.040560003 0.67600006
0.060051434 0.040680002 0.67800003
0.061342862 0.040680002 0.67800003
0.062726669 0.040740002 0.67900002
0.004546667 0.04221905 0.68200004
0.005828572 0.04209524 0.68000001
0.0071133338 0.042033337 0.67900002
0.008394286 0.04197143 0.67800003
0.0096571436 0.04184762 0.67600006
0.010928572 0.041785717 0.67500001
0.012196192 0.041723814 0.67400002
0.013480001 0.041723814 0.67400002
0.014698097 0.041538097 0.671
0.015952382 0.041476194 0.67000002
0.017228572 0.041476194 0.67000002
0.018477144 0.041414287 0.66900003
0.01975143 0.041414287 0.66900003
0.020962859 0.041290481 0.66700006
0.022233335 0.041290481 0.66700006
0.023468573 0.041228574 0.66600001
0.024700001 0.041166671 0.66500002
0.025966669 0.041166671 0.66500002
0.027233334 0.041166671 0.66500002
0.028500002 0.041166671 0.66500002
0.029766669 0.041166671 0.66500002
0.031033335 0.041166671 0.66500002
0.032300003 0.041166671 0.66500002
0.033566669 0.041166671 0.66500002
0.034728575 0.041042861 0.66300005
0.03599143 0.041042861 0.66300005
0.037254289 0.041042861 0.66300005
0.038517144 0.041042861 0.66300005
0.039780002 0.041042861 0.66300005
0.041042861 0.041042861 0.66300005
0.042433336 0.041166671 0.66500002
0.043700002 0.041166671 0.66500002
0.045034289 0.041228574 0.66600001
0.046372384 0.041290481 0.66700006
0.047642861 0.041290481 0.66700006
0.049060002 0.041414287 0.66900003
0.05033429 0.041414287 0.66900003
0.051608574 0.041414287 0.66900003
0.053040955 0.041538097 0.671
0.054561909 0.041723814 0.67400002
0.055928577 0.041785717 0.67500001
0.057299051 0.04184762 0.67600006
0.058760002 0.04197143 0.67800003
0.060051434 0.04197143 0.67800003
0.061342862 0.04197143 0.67800003
0.062726669 0.042033337 0.67900002
0.0032571431 0.043645717 0.68400002
0.0045533339 0.043581907 0.68300003
0.005828572 0.043390479 0.68000001
0.0071238098 0.043390479 0.68000001
0.008394286 0.043262862 0.67800003
0.0096571436 0.043135241 0.67600006
0.010928572 0.04307143 0.67500001
0.012214286 0.04307143 0.67500001
0.013480001 0.043007623 0.67400002
0.014698097 0.042816192 0.671
0.015976192 0.042816192 0.671
0.017228572 0.042752385 0.67000002
0.018504763 0.042752385 0.67000002
0.01975143 0.042688575 0.66900003
0.020962859 0.042560954 0.66700006
0.022233335 0.042560954 0.66700006
0.023468573 0.042497147 0.66600001
0.024700001 0.042433336 0.66500002
0.025966669 0.042433336 0.66500002
0.027233334 0.042433336 0.66500002
0.028500002 0.042433336 0.66500002
0.029766669 0.042433336 0.66500002
0.031033335 0.042433336 0.66500002
0.032300003 0.042433336 0.66500002
0.033566669 0.042433336 0.66500002
0.034833334 0.042433336 0.66500002
0.036100004 0.042433336 0.66500002
0.037254289 0.042305715 0.66300005
0.038633335 0.042433336 0.66500002
0.039900001 0.042433336 0.66500002
0.041166671 0.042433336 0.66500002
0.042433336 0.042433336 0.66500002
0.04383143 0.042560954 0.66700006
0.045101907 0.042560954 0.66700006
0.046372384 0.042560954 0.66700006
0.047785718 0.042688575 0.66900003
0.049060002 0.042688575 0.66900003
0.05033429 0.042688575 0.66900003
0.051685717 0.042752385 0.67000002
0.0532781 0.043007623 0.67400002
0.054561909 0.043007623 0.67400002
0.055928577 0.04307143 0.67500001
0.057299051 0.043135241 0.67600006
0.058760002 0.043262862 0.67800003
0.060051434 0.043262862 0.67800003
0.061433338 0.043326668 0.67900002
0.062819049 0.043390479 0.68000001
0.0019628573 0.045145717 0.68700004
0.0032666668 0.045080002 0.68600005
0.0045600003 0.044948574 0.68400002
0.0058542863 0.04488286 0.68300003
0.0071447622 0.044817146 0.68200004
0.008406667 0.044620004 0.67900002
0.0096857147 0.044554289 0.67800003
0.010944762 0.044422861 0.67600006
0.012214286 0.044357147 0.67500001
0.013480001 0.044291433 0.67400002
0.014720001 0.044160005 0.67200005
0.015976192 0.044094287 0.671
0.017228572 0.044028573 0.67000002
0.018504763 0.044028573 0.67000002
0.01975143 0.043962859 0.66900003
0.021025715 0.043962859 0.66900003
0.022233335 0.04383143 0.66700006
0.02350381 0.04383143 0.66700006
0.024737144 0.043765716 0.66600001
0.026005715 0.043765716 0.66600001
0.027274288 0.043765716 0.66600001
0.028542859 0.043765716 0.66600001
0.029811431 0.043765716 0.66600001
0.031080002 0.043765716 0.66600001
0.032348573 0.043765716 0.66600001
0.033617146 0.043765716 0.66600001
0.034885716 0.043765716 0.66600001
0.036154289 0.043765716 0.66600001
0.03736667 0.043700002 0.66500002
0.038633335 0.043700002 0.66500002
0.039960004 0.043765716 0.66600001
0.041228574 0.043765716 0.66600001
0.042497147 0.043765716 0.66600001
0.04383143 0.04383143 0.66700006
0.045101907 0.04383143 0.66700006
0.04651143 0.043962859 0.66900003
0.047857147 0.044028573 0.67000002
0.049133338 0.044028573 0.67000002
0.050409526 0.044028573 0.67000002
0.051840004 0.044160005 0.67200005
0.0532781 0.044291433 0.67400002
0.054561909 0.044291433 0.67400002
0.055928577 0.044357147 0.67500001
0.057299051 0.044422861 0.67600006
0.058760002 0.044554289 0.67800003
0.060051434 0.044554289 0.67800003
0.061433338 0.044620004 0.67900002
0.062819049 0.044685718 0.68000001
0.0019685715 0.046589527 0.68900001
0.0032714289 0.046454288 0.68700004
0.0045733335 0.04638667 0.68600005
0.0058542863 0.046183813 0.68300003
0.0071447622 0.046116192 0.68200004
0.008419048 0.045980956 0.68000001
0.0096857147 0.045845717 0.67800003
0.010944762 0.045710478 0.67600006
0.012214286 0.04564286 0.67500001
0.013480001 0.045575242 0.67400002
0.014720001 0.045440003 0.67200005
0.016000001 0.045440003 0.67200005
0.017254287 0.045372386 0.671
0.018532382 0.045372386 0.671
0.019780954 0.045304764 0.67000002
0.021025715 0.045237146 0.66900003
0.022300001 0.045237146 0.66900003
0.023574287 0.045237146 0.66900003
0.024774287 0.045101907 0.66700006
0.026044764 0.045101907 0.66700006
0.02731524 0.045101907 0.66700006
0.028542859 0.045034289 0.66600001
0.029811431 0.045034289 0.66600001
0.031126669 0.045101907 0.66700006
0.032348573 0.045034289 0.66600001
0.033617146 0.045034289 0.66600001
0.034885716 0.045034289 0.66600001
0.036154289 0.045034289 0.66600001
0.037422858 0.045034289 0.66600001
0.038691431 0.045034289 0.66600001
0.039960004 0.045034289 0.66600001
0.041228574 0.045034289 0.66600001
0.042560954 0.045101907 0.66700006
0.043962859 0.045237146 0.66900003
0.045237146 0.045237146 0.66900003
0.046580955 0.045304764 0.67000002
0.047928575 0.045372386 0.671
0.04920667 0.045372386 0.671
0.050484765 0.045372386 0.671
0.051840004 0.045440003 0.67200005
0.0532781 0.045575242 0.67400002
0.054561909 0.045575242 0.67400002
0.055928577 0.04564286 0.67500001
0.057468574 0.045845717 0.67800003
0.058760002 0.045845717 0.67800003
0.060140003 0.045913335 0.67900002
0.061523814 0.045980956 0.68000001
0.062634289 0.045845717 0.67800003
0.063925721 0.045845717 0.67800003
0.0006561905 0.047901906 0.68900001
0.0019685715 0.047901906 0.68900001
0.0032714289 0.04776286 0.68700004
0.0045733335 0.047693338 0.68600005
0.0058628577 0.047554288 0.68400002
0.0071552387 0.047484767 0.68300003
0.00844381 0.047415242 0.68200004
0.0097000003 0.04720667 0.67900002
0.010977143 0.047137145 0.67800003
0.012232382 0.046998098 0.67600006
0.013500001 0.046928573 0.67500001
0.014720001 0.046720002 0.67200005
0.016000001 0.046720002 0.67200005
0.017254287 0.04665048 0.671
0.018532382 0.04665048 0.671
0.019780954 0.046580955 0.67000002
0.021057144 0.046580955 0.67000002
0.022300001 0.04651143 0.66900003
0.023574287 0.04651143 0.66900003
0.024774287 0.046372384 0.66700006
0.026044764 0.046372384 0.66700006
0.02731524 0.046372384 0.66700006
0.028585717 0.046372384 0.66700006
0.029856192 0.046372384 0.66700006
0.031126669 0.046372384 0.66700006
0.032397144 0.046372384 0.66700006
0.03366762 0.046372384 0.66700006
0.034938097 0.046372384 0.66700006
0.036208574 0.046372384 0.66700006
0.037422858 0.046302859 0.66600001
0.038749527 0.046372384 0.66700006
0.040020004 0.046372384 0.66700006
0.041290481 0.046372384 0.66700006
0.042688575 0.04651143 0.66900003
0.043962859 0.04651143 0.66900003
0.045304764 0.046580955 0.67000002
0.04665048 0.04665048 0.671
0.047928575 0.04665048 0.671
0.049280003 0.046720002 0.67200005
0.050560005 0.046720002 0.67200005
0.051840004 0.046720002 0.67200005
0.0532781 0.046859052 0.67400002
0.054561909 0.046859052 0.67400002
0.055928577 0.046928573 0.67500001
0.057299051 0.046998098 0.67600006
0.058760002 0.047137145 0.67800003
0.060140003 0.04720667 0.67900002
0.061523814 0.047276195 0.68000001
0.062726669 0.04720667 0.67900002
0.064020008 0.04720667 0.67900002
0.0006561905 0.049214289 0.68900001
0.0019685715 0.049214289 0.68900001
0.0032809526 0.049214289 0.68900001
0.0045800004 0.049071431 0.68700004
0.0058800005 0.049000002 0.68600005
0.0071657146 0.048857145 0.68400002
0.008456191 0.048785716 0.68300003
0.0097428579 0.048714288 0.68200004
0.010993334 0.048500001 0.67900002
0.012268572 0.048428576 0.67800003
0.013500001 0.04821429 0.67500001
0.014763811 0.048142862 0.67400002
0.016047619 0.048142862 0.67400002
0.017280001 0.048000004 0.67200005
0.018560002 0.048000004 0.67200005
0.019810477 0.047928575 0.671
0.021088572 0.047928575 0.671
0.022333335 0.047857147 0.67000002
0.023609525 0.047857147 0.67000002
0.024848573 0.047785718 0.66900003
0.026122859 0.047785718 0.66900003
0.027397145 0.047785718 0.66900003
0.028585717 0.047642861 0.66700006
0.029945716 0.047785718 0.66900003
0.031220002 0.047785718 0.66900003
0.032494288 0.047785718 0.66900003
0.03366762 0.047642861 0.66700006
0.034938097 0.047642861 0.66700006
0.036208574 0.047642861 0.66700006
0.03747905 0.047642861 0.66700006
0.038865715 0.047785718 0.66900003
0.040140003 0.047785718 0.66900003
0.041414287 0.047785718 0.66900003
0.042752385 0.047857147 0.67000002
0.044094287 0.047928575 0.671
0.045372386 0.047928575 0.671
0.046720002 0.048000004 0.67200005
0.048000004 0.048000004 0.67200005
0.049280003 0.048000004 0.67200005
0.050710481 0.048142862 0.67400002
0.05199429 0.048142862 0.67400002
0.053357147 0.04821429 0.67500001
0.054723814 0.048285719 0.67600006
0.056011431 0.048285719 0.67600006
0.057468574 0.048428576 0.67800003
0.058846671 0.048500001 0.67900002
0.060228575 0.04857143 0.68000001
0.061704766 0.048714288 0.68200004
0.062819049 0.04857143 0.68000001
0.064114287 0.04857143 0.68000001
0.0006561905 0.050526671 0.68900001
0.0019714287 0.050600003 0.69000006
0.0032809526 0.050526671 0.68900001
0.0045800004 0.050380003 0.68700004
0.0058800005 0.05030667 0.68600005
0.0071657146 0.050160002 0.68400002
0.008456191 0.05008667 0.68300003
0.0097428579 0.050013337 0.68200004
0.010993334 0.049793337 0.67900002
0.012268572 0.049720004 0.67800003
0.013520001 0.049573336 0.67600006
0.014763811 0.049426671 0.67400002
0.016047619 0.049426671 0.67400002
0.017280001 0.049280003 0.67200005
0.018560002 0.049280003 0.67200005
0.019840002 0.049280003 0.67200005
0.021088572 0.04920667 0.671
0.022366669 0.04920667 0.671
0.023609525 0.049133338 0.67000002
0.024885716 0.049133338 0.67000002
0.026122859 0.049060002 0.66900003
0.027397145 0.049060002 0.66900003
0.02867143 0.049060002 0.66900003
0.029945716 0.049060002 0.66900003
0.031220002 0.049060002 0.66900003
0.032494288 0.049060002 0.66900003
0.033768572 0.049060002 0.66900003
0.03504286 0.049060002 0.66900003
0.036317144 0.049060002 0.66900003
0.037591431 0.049060002 0.66900003
0.038865715 0.049060002 0.66900003
0.040140003 0.049060002 0.66900003
0.041476194 0.049133338 0.67000002
0.042752385 0.049133338 0.67000002
0.044094287 0.04920667 0.671
0.045440003 0.049280003 0.67200005
0.046720002 0.049280003 0.67200005
0.048000004 0.049280003 0.67200005
0.049426671 0.049426671 0.67400002
0.050710481 0.049426671 0.67400002
0.052071434 0.049500003 0.67500001
0.053436194 0.049573336 0.67600006
0.054723814 0.049573336 0.67600006
0.056177147 0.049720004 0.67800003
0.057553336 0.049793337 0.67900002
0.058933336 0.049866669 0.68000001
0.06040572 0.050013337 0.68200004
0.061795242 0.05008667 0.68300003
0.063096195 0.05008667 0.68300003
0.064397149 0.05008667 0.68300003
0.0019685715 0.05183905 0.68900001
0.0032714289 0.051688574 0.68700004
0.0045800004 0.051688574 0.68700004
0.0058800005 0.051613338 0.68600005
0.0071866671 0.051613338 0.68600005
0.0084685721 0.051462859 0.68400002
0.0097571434 0.051387623 0.68300003
0.011009525 0.051161908 0.68000001
0.012286668 0.051086672 0.67900002
0.013520001 0.050860956 0.67600006
0.014785715 0.050785717 0.67500001
0.016047619 0.050710481 0.67400002
0.017331429 0.050710481 0.67400002
0.018560002 0.050560005 0.67200005
0.019840002 0.050560005 0.67200005
0.021120001 0.050560005 0.67200005
0.022366669 0.050484765 0.671
0.023644764 0.050484765 0.671
0.024885716 0.050409526 0.67000002
0.026161907 0.050409526 0.67000002
0.027438097 0.050409526 0.67000002
0.02867143 0.05033429 0.66900003
0.029990477 0.050409526 0.67000002
0.031266667 0.050409526 0.67000002
0.032542858 0.050409526 0.67000002
0.03381905 0.050409526 0.67000002
0.03504286 0.05033429 0.66900003
0.036317144 0.05033429 0.66900003
0.037591431 0.05033429 0.66900003
0.038923811 0.050409526 0.67000002
0.040200002 0.050409526 0.67000002
0.041476194 0.050409526 0.67000002
0.042816192 0.050484765 0.671
0.044094287 0.050484765 0.671
0.045440003 0.050560005 0.67200005
0.046859052 0.050710481 0.67400002
0.048142862 0.050710481 0.67400002
0.049426671 0.050710481 0.67400002
0.050785717 0.050785717 0.67500001
0.052071434 0.050785717 0.67500001
0.053436194 0.050860956 0.67600006
0.054885719 0.051011432 0.67800003
0.056177147 0.051011432 0.67800003
0.057553336 0.051086672 0.67900002
0.05910667 0.051312383 0.68200004
0.060494289 0.051387623 0.68300003
0.061885718 0.051462859 0.68400002
0.063188575 0.051462859 0.68400002
0.0019742858 0.053305719 0.69100004
0.0032809526 0.053151432 0.68900001
0.0045933337 0.053151432 0.68900001
0.005888572 0.052997146 0.68700004
0.0071866671 0.052920002 0.68600005
0.0084685721 0.05276572 0.68400002
0.0097571434 0.052688576 0.68300003
0.011041906 0.052611433 0.68200004
0.012304762 0.052457146 0.68000001
0.013560001 0.05230286 0.67800003
0.014785715 0.052071434 0.67500001
0.016047619 0.05199429 0.67400002
0.017331429 0.05199429 0.67400002
0.01861524 0.05199429 0.67400002
0.01989905 0.05199429 0.67400002
0.021120001 0.051840004 0.67200005
0.022400001 0.051840004 0.67200005
0.023680001 0.051840004 0.67200005
0.024922859 0.05176286 0.671
0.026200954 0.05176286 0.671
0.027479049 0.05176286 0.671
0.028757146 0.05176286 0.671
0.029990477 0.051685717 0.67000002
0.031313334 0.05176286 0.671
0.032591432 0.05176286 0.671
0.033869527 0.05176286 0.671
0.035095241 0.051685717 0.67000002
0.036425717 0.05176286 0.671
0.03764762 0.051685717 0.67000002
0.038981907 0.05176286 0.671
0.040260002 0.05176286 0.671
0.041538097 0.05176286 0.671
0.042816192 0.05176286 0.671
0.044160005 0.051840004 0.67200005
0.045440003 0.051840004 0.67200005
0.046859052 0.05199429 0.67400002
0.048142862 0.05199429 0.67400002
0.049500003 0.052071434 0.67500001
0.050860956 0.052148573 0.67600006
0.052148573 0.052148573 0.67600006
0.053594287 0.05230286 0.67800003
0.054885719 0.05230286 0.67800003
0.056260005 0.052380003 0.67900002
0.057807624 0.052611433 0.68200004
0.05910667 0.052611433 0.68200004
0.060582861 0.05276572 0.68400002
0.062066671 0.052920002 0.68600005
0.063373335 0.052920002 0.68600005
0.0019742858 0.054621909 0.69100004
0.0032857144 0.054542862 0.69000006
0.0045933337 0.054463815 0.68900001
0.0059057148 0.054463815 0.68900001
0.0071971435 0.054305717 0.68700004
0.0084933341 0.05422667 0.68600005
0.009771429 0.054068577 0.68400002
0.011041906 0.053910479 0.68200004
0.012286668 0.053673338 0.67900002
0.013560001 0.053594287 0.67800003
0.014785715 0.053357147 0.67500001
0.016071429 0.053357147 0.67500001
0.017331429 0.0532781 0.67400002
0.01861524 0.0532781 0.67400002
0.01989905 0.0532781 0.67400002
0.021120001 0.053120002 0.67200005
0.022400001 0.053120002 0.67200005
0.023680001 0.053120002 0.67200005
0.024960002 0.053120002 0.67200005
0.026200954 0.053040955 0.671
0.027479049 0.053040955 0.671
0.028757146 0.053040955 0.671
0.030035241 0.053040955 0.671
0.031313334 0.053040955 0.671
0.032591432 0.053040955 0.671
0.033869527 0.053040955 0.671
0.035147622 0.053040955 0.671
0.036425717 0.053040955 0.671
0.037703812 0.053040955 0.671
0.038981907 0.053040955 0.671
0.040260002 0.053040955 0.671
0.041538097 0.053040955 0.671
0.042880002 0.053120002 0.67200005
0.044160005 0.053120002 0.67200005
0.045575242 0.0532781 0.67400002
0.046928573 0.053357147 0.67500001
0.04821429 0.053357147 0.67500001
0.049573336 0.053436194 0.67600006
0.051011432 0.053594287 0.67800003
0.05230286 0.053594287 0.67800003
0.053673338 0.053673338 0.67900002
0.05496667 0.053673338 0.67900002
0.056508575 0.053910479 0.68200004
0.057892386 0.053989526 0.68300003
0.059193335 0.053989526 0.68300003
0.060582861 0.054068577 0.68400002
0.062066671 0.05422667 0.68600005
0.063373335 0.05422667 0.68600005
0.0019742858 0.055938099 0.69100004
0.0032904765 0.055938099 0.69100004
0.0046000001 0.055857148 0.69000006
0.0059057148 0.055776194 0.68900001
0.0071971435 0.055614289 0.68700004
0.0085057151 0.055614289 0.68700004
0.009800001 0.055533338 0.68600005
0.011058096 0.055290479 0.68300003
0.012340954 0.055209529 0.68200004
0.013580001 0.05496667 0.67900002
0.01480762 0.054723814 0.67600006
0.016071429 0.05464286 0.67500001
0.017357145 0.05464286 0.67500001
0.01861524 0.054561909 0.67400002
0.01989905 0.054561909 0.67400002
0.021182859 0.054561909 0.67400002
0.022466669 0.054561909 0.67400002
0.023680001 0.054400004 0.67200005
0.024960002 0.054400004 0.67200005
0.026240002 0.054400004 0.67200005
0.027520001 0.054400004 0.67200005
0.028757146 0.05431905 0.671
0.030080002 0.054400004 0.67200005
0.03136 0.054400004 0.67200005
0.032640003 0.054400004 0.67200005
0.033920001 0.054400004 0.67200005
0.035200004 0.054400004 0.67200005
0.036480002 0.054400004 0.67200005
0.037760001 0.054400004 0.67200005
0.039040003 0.054400004 0.67200005
0.040320002 0.054400004 0.67200005
0.041600004 0.054400004 0.67200005
0.042880002 0.054400004 0.67200005
0.044291433 0.054561909 0.67400002
0.04564286 0.05464286 0.67500001
0.046998098 0.054723814 0.67600006
0.048285719 0.054723814 0.67600006
0.049720004 0.054885719 0.67800003
0.051011432 0.054885719 0.67800003
0.052380003 0.05496667 0.67900002
0.053673338 0.05496667 0.67900002
0.05496667 0.05496667 0.67900002
0.056508575 0.055209529 0.68200004
0.057892386 0.055290479 0.68300003
0.059193335 0.055290479 0.68300003
0.060848575 0.055614289 0.68700004
0.062157147 0.055614289 0.68700004
0.0032904765 0.057254288 0.69100004
0.0046000001 0.057171434 0.69000006
0.0059142862 0.057171434 0.69000006
0.0072180959 0.057088576 0.68900001
0.0085057151 0.05692286 0.68700004
0.009800001 0.056840003 0.68600005
0.011074287 0.05667429 0.68400002
0.012359048 0.056591433 0.68300003
0.01364 0.056508575 0.68200004
0.014873334 0.056260005 0.67900002
0.01609524 0.056011431 0.67600006
0.017357145 0.055928577 0.67500001
0.018642858 0.055928577 0.67500001
0.019928573 0.055928577 0.67500001
0.021182859 0.055845719 0.67400002
0.022466669 0.055845719 0.67400002
0.023750478 0.055845719 0.67400002
0.024960002 0.055680003 0.67200005
0.026240002 0.055680003 0.67200005
0.027520001 0.055680003 0.67200005
0.028757146 0.055597145 0.671
0.030080002 0.055680003 0.67200005
0.03136 0.055680003 0.67200005
0.032640003 0.055680003 0.67200005
0.033920001 0.055680003 0.67200005
0.035200004 0.055680003 0.67200005
0.036480002 0.055680003 0.67200005
0.037760001 0.055680003 0.67200005
0.039156195 0.055845719 0.67400002
0.040440004 0.055845719 0.67400002
0.041723814 0.055845719 0.67400002
0.043007623 0.055845719 0.67400002
0.044357147 0.055928577 0.67500001
0.045710478 0.056011431 0.67600006
0.047137145 0.056177147 0.67800003
0.048428576 0.056177147 0.67800003
0.049720004 0.056177147 0.67800003
0.051011432 0.056177147 0.67800003
0.052380003 0.056260005 0.67900002
0.053752385 0.056342863 0.68000001
0.055047624 0.056342863 0.68000001
0.056591433 0.056591433 0.68300003
0.057977147 0.05667429 0.68400002
0.059280004 0.05667429 0.68400002
0.060582861 0.05667429 0.68400002
0.062338099 0.057088576 0.68900001
0.063742861 0.057171434 0.69000006
0.0019857143 0.058909528 0.69500005
0.0033047621 0.058824766 0.69400001
0.0046000001 0.058485717 0.69000006
0.0059228577 0.058570482 0.69100004
0.0072285719 0.058485717 0.69000006
0.0085057151 0.058231432 0.68700004
0.0098142866 0.058231432 0.68700004
0.011106667 0.05814667 0.68600005
0.012377144 0.057977147 0.68400002
0.013660001 0.057892386 0.68300003
0.014895239 0.057638098 0.68000001
0.01609524 0.057299051 0.67600006
0.017357145 0.05721429 0.67500001
0.018642858 0.05721429 0.67500001
0.019928573 0.05721429 0.67500001
0.021182859 0.057129528 0.67400002
0.022466669 0.057129528 0.67400002
0.023750478 0.057129528 0.67400002
0.025034288 0.057129528 0.67400002
0.026318097 0.057129528 0.67400002
0.027520001 0.056960005 0.67200005
0.028800001 0.056960005 0.67200005
0.030169526 0.057129528 0.67400002
0.031453334 0.057129528 0.67400002
0.032737143 0.057129528 0.67400002
0.034020953 0.057129528 0.67400002
0.035304762 0.057129528 0.67400002
0.036588576 0.057129528 0.67400002
0.037872385 0.057129528 0.67400002
0.039156195 0.057129528 0.67400002
0.040440004 0.057129528 0.67400002
0.041723814 0.057129528 0.67400002
0.04307143 0.05721429 0.67500001
0.044357147 0.05721429 0.67500001
0.045845717 0.057468574 0.67800003
0.047137145 0.057468574 0.67800003
0.048428576 0.057468574 0.67800003
0.049793337 0.057553336 0.67900002
0.051086672 0.057553336 0.67900002
0.052380003 0.057553336 0.67900002
0.053752385 0.057638098 0.68000001
0.055047624 0.057638098 0.68000001
0.056591433 0.057892386 0.68300003
0.057977147 0.057977147 0.68400002
0.059453338 0.05814667 0.68600005
0.060760003 0.05814667 0.68600005
0.062338099 0.058400955 0.68900001
0.063835241 0.058570482 0.69100004
0.0019857143 0.060233336 0.69500005
0.0033047621 0.060146671 0.69400001
0.0046200003 0.060060006 0.69300002
0.0059400005 0.060060006 0.69300002
0.0072285719 0.059800003 0.69000006
0.0085304771 0.059713338 0.68900001
0.0098142866 0.059540004 0.68700004
0.011106667 0.059453338 0.68600005
0.012377144 0.059280004 0.68400002
0.013660001 0.059193335 0.68300003
0.014939048 0.05910667 0.68200004
0.016166668 0.058846671 0.67900002
0.017382858 0.058586672 0.67600006
0.018670477 0.058586672 0.67600006
0.019958096 0.058586672 0.67600006
0.021214288 0.058500003 0.67500001
0.022466669 0.058413338 0.67400002
0.023785716 0.058500003 0.67500001
0.025034288 0.058413338 0.67400002
0.026318097 0.058413338 0.67400002
0.027601907 0.058413338 0.67400002
0.028885717 0.058413338 0.67400002
0.030169526 0.058413338 0.67400002
0.031453334 0.058413338 0.67400002
0.032737143 0.058413338 0.67400002
0.034020953 0.058413338 0.67400002
0.035304762 0.058413338 0.67400002
0.036588576 0.058413338 0.67400002
0.037872385 0.058413338 0.67400002
0.039156195 0.058413338 0.67400002
0.040440004 0.058413338 0.67400002
0.041723814 0.058413338 0.67400002
0.043135241 0.058586672 0.67600006
0.044554289 0.058760002 0.67800003
0.045845717 0.058760002 0.67800003
0.047137145 0.058760002 0.67800003
0.048500001 0.058846671 0.67900002
0.049793337 0.058846671 0.67900002
0.051086672 0.058846671 0.67900002
0.052380003 0.058846671 0.67900002
0.053752385 0.058933336 0.68000001
0.055209529 0.05910667 0.68200004
0.056591433 0.059193335 0.68300003
0.05814667 0.059453338 0.68600005
0.059453338 0.059453338 0.68600005
0.060848575 0.059540004 0.68700004
0.062519051 0.059886672 0.69100004
0.063835241 0.059886672 0.69100004
0.0019914287 0.061734289 0.69700003
0.0033095239 0.061557148 0.69500005
0.0046266671 0.061468575 0.69400001
0.0059400005 0.061380003 0.69300002
0.0072390479 0.061202861 0.69100004
0.0085304771 0.06102572 0.68900001
0.0098142866 0.060848575 0.68700004
0.011122858 0.060848575 0.68700004
0.012413334 0.060760003 0.68600005
0.013680001 0.060582861 0.68400002
0.014960953 0.060494289 0.68300003
0.016238097 0.06040572 0.68200004
0.017460002 0.060140003 0.67900002
0.018725716 0.060051434 0.67800003
0.019958096 0.059874289 0.67600006
0.021245716 0.059874289 0.67600006
0.022500001 0.05978572 0.67500001
0.023785716 0.05978572 0.67500001
0.025071431 0.05978572 0.67500001
0.026357144 0.05978572 0.67500001
0.027642859 0.05978572 0.67500001
0.028885717 0.059697147 0.67400002
0.030214287 0.05978572 0.67500001
0.031500001 0.05978572 0.67500001
0.032785717 0.05978572 0.67500001
0.034020953 0.059697147 0.67400002
0.035304762 0.059697147 0.67400002
0.036588576 0.059697147 0.67400002
0.037928574 0.05978572 0.67500001
0.039214287 0.05978572 0.67500001
0.040500004 0.05978572 0.67500001
0.041785717 0.05978572 0.67500001
0.043135241 0.059874289 0.67600006
0.044554289 0.060051434 0.67800003
0.045913335 0.060140003 0.67900002
0.04720667 0.060140003 0.67900002
0.048500001 0.060140003 0.67900002
0.049793337 0.060140003 0.67900002
0.051086672 0.060140003 0.67900002
0.052457146 0.060228575 0.68000001
0.053752385 0.060228575 0.68000001
0.055209529 0.06040572 0.68200004
0.05667429 0.060582861 0.68400002
0.05814667 0.060760003 0.68600005
0.059453338 0.060760003 0.68600005
0.060848575 0.060848575 0.68700004
0.062519051 0.061202861 0.69100004
0.063835241 0.061202861 0.69100004
0.065340005 0.061380003 0.69300002
0.0019914287 0.063061908 0.69700003
0.0033095239 0.062880956 0.69500005
0.0046266671 0.062790483 0.69400001
0.005948572 0.062790483 0.69400001
0.0072600003 0.062700003 0.69300002
0.0085552391 0.062519051 0.69100004
0.0098428577 0.062338099 0.68900001
0.011122858 0.062157147 0.68700004
0.01243143 0.062157147 0.68700004
0.013680001 0.061885718 0.68400002
0.014982858 0.061885718 0.68400002
0.016261905 0.061795242 0.68300003
0.017485715 0.061523814 0.68000001
0.018780954 0.061523814 0.68000001
0.020046668 0.061433338 0.67900002
0.021308573 0.061342862 0.67800003
0.022600001 0.061342862 0.67800003
0.02389143 0.061342862 0.67800003
0.025108574 0.061161909 0.67600006
0.026396193 0.061161909 0.67600006
0.027683811 0.061161909 0.67600006
0.02897143 0.061161909 0.67600006
0.03025905 0.061161909 0.67600006
0.031546667 0.061161909 0.67600006
0.032834288 0.061161909 0.67600006
0.034121908 0.061161909 0.67600006
0.035409525 0.061161909 0.67600006
0.036697146 0.061161909 0.67600006
0.037984766 0.061161909 0.67600006
0.039272383 0.061161909 0.67600006
0.040560003 0.061161909 0.67600006
0.04184762 0.061161909 0.67600006
0.043262862 0.061342862 0.67800003
0.044554289 0.061342862 0.67800003
0.045913335 0.061433338 0.67900002
0.04720667 0.061433338 0.67900002
0.04857143 0.061523814 0.68000001
0.049866669 0.061523814 0.68000001
0.051312383 0.061704766 0.68200004
0.052611433 0.061704766 0.68200004
0.053989526 0.061795242 0.68300003
0.055533338 0.062066671 0.68600005
0.05692286 0.062157147 0.68700004
0.058231432 0.062157147 0.68700004
0.059713338 0.062338099 0.68900001
0.061114289 0.062428575 0.69000006
0.062519051 0.062519051 0.69100004
0.063835241 0.062519051 0.69100004
0.065340005 0.062700003 0.69300002
0.00066476193 0.064481907 0.69800001
0.0019914287 0.064389527 0.69700003
0.0033095239 0.064204767 0.69500005
0.0046333335 0.064204767 0.69500005
0.005948572 0.064112388 0.69400001
0.0072704768 0.064112388 0.69400001
0.0085552391 0.063835241 0.69100004
0.0098571433 0.063742861 0.69000006
0.011155238 0.063650481 0.68900001
0.01243143 0.063465722 0.68700004
0.013720001 0.063373335 0.68600005
0.014982858 0.063188575 0.68400002
0.016261905 0.063096195 0.68300003
0.017537143 0.063003816 0.68200004
0.018780954 0.062819049 0.68000001
0.020046668 0.062726669 0.67900002
0.021340001 0.062726669 0.67900002
0.022600001 0.062634289 0.67800003
0.02389143 0.062634289 0.67800003
0.025182858 0.062634289 0.67800003
0.026474288 0.062634289 0.67800003
0.027765715 0.062634289 0.67800003
0.029057145 0.062634289 0.67800003
0.030348573 0.062634289 0.67800003
0.031640001 0.062634289 0.67800003
0.032834288 0.06244953 0.67600006
0.034121908 0.06244953 0.67600006
0.035409525 0.06244953 0.67600006
0.036697146 0.06244953 0.67600006
0.037984766 0.06244953 0.67600006
0.039272383 0.06244953 0.67600006
0.040560003 0.06244953 0.67600006
0.04184762 0.06244953 0.67600006
0.043262862 0.062634289 0.67800003
0.044620004 0.062726669 0.67900002
0.045913335 0.062726669 0.67900002
0.04720667 0.062726669 0.67900002
0.04857143 0.062819049 0.68000001
0.049866669 0.062819049 0.68000001
0.051312383 0.063003816 0.68200004
0.052688576 0.063096195 0.68300003
0.054068577 0.063188575 0.68400002
0.055614289 0.063465722 0.68700004
0.05692286 0.063465722 0.68700004
0.058400955 0.063650481 0.68900001
0.059800003 0.063742861 0.69000006
0.061202861 0.063835241 0.69100004
0.062519051 0.063835241 0.69100004
0.064020008 0.064020008 0.69300002
0.065434292 0.064112388 0.69400001
0.00066476193 0.065811433 0.69800001
0.0019914287 0.065717146 0.69700003
0.0033095239 0.065528579 0.69500005
0.0046333335 0.065528579 0.69500005
0.005948572 0.065434292 0.69400001
0.0072704768 0.065434292 0.69400001
0.0085552391 0.065151431 0.69100004
0.0098571433 0.065057144 0.69000006
0.011155238 0.064962864 0.68900001
0.01243143 0.06477429 0.68700004
0.013720001 0.064680003 0.68600005
0.014982858 0.064491436 0.68400002
0.016261905 0.064397149 0.68300003
0.017537143 0.064302862 0.68200004
0.018836191 0.064302862 0.68200004
0.020046668 0.064020008 0.67900002
0.021340001 0.064020008 0.67900002
0.022633335 0.064020008 0.67900002
0.023926668 0.064020008 0.67900002
0.025182858 0.063925721 0.67800003
0.026474288 0.063925721 0.67800003
0.027765715 0.063925721 0.67800003
0.029057145 0.063925721 0.67800003
0.030348573 0.063925721 0.67800003
0.031640001 0.063925721 0.67800003
0.032931432 0.063925721 0.67800003
0.03422286 0.063925721 0.67800003
0.035514288 0.063925721 0.67800003
0.036697146 0.063737147 0.67600006
0.037984766 0.063737147 0.67600006
0.039388575 0.063925721 0.67800003
0.040680002 0.063925721 0.67800003
0.04197143 0.063925721 0.67800003
0.043326668 0.064020008 0.67900002
0.044620004 0.064020008 0.67900002
0.045913335 0.064020008 0.67900002
0.047276195 0.064114287 0.68000001
0.048714288 0.064302862 0.68200004
0.050013337 0.064302862 0.68200004
0.051387623 0.064397149 0.68300003
0.05276572 0.064491436 0.68400002
0.05422667 0.064680003 0.68600005
0.055776194 0.064962864 0.68900001
0.057088576 0.064962864 0.68900001
0.058485717 0.065057144 0.69000006
0.059800003 0.065057144 0.69000006
0.061114289 0.065057144 0.69000006
0.062519051 0.065151431 0.69100004
0.064020008 0.065340005 0.69300002
0.065340005 0.065340005 0.69300002
-0.00066666672 0.067333341 0.70000005
0.00066666672 0.067333341 0.70000005
0.0020000001 0.067333341 0.70000005
0.0033095239 0.066852383 0.69500005
0.0046333335 0.066852383 0.69500005
0.0059571434 0.066852383 0.69500005
0.0072704768 0.066756196 0.69400001
0.0085552391 0.06646762 0.69100004
0.0098571433 0.066371433 0.69000006
0.011155238 0.066275239 0.68900001
0.01246762 0.066275239 0.68900001
0.013720001 0.065986671 0.68600005
0.014982858 0.065794289 0.68400002
0.016285716 0.065794289 0.68400002
0.017562859 0.065698102 0.68300003
0.018836191 0.065601908 0.68200004
0.020076191 0.065409526 0.68000001
0.02137143 0.065409526 0.68000001
0.022633335 0.065313339 0.67900002
0.023926668 0.065313339 0.67900002
0.025220001 0.065313339 0.67900002
0.026513334 0.065313339 0.67900002
0.027806668 0.065313339 0.67900002
0.029100003 0.065313339 0.67900002
0.030393336 0.065313339 0.67900002
0.031686667 0.065313339 0.67900002
0.032931432 0.065217145 0.67800003
0.03422286 0.065217145 0.67800003
0.035514288 0.065217145 0.67800003
0.036805715 0.065217145 0.67800003
0.038097147 0.065217145 0.67800003
0.039388575 0.065217145 0.67800003
0.040740002 0.065313339 0.67900002
0.04197143 0.065217145 0.67800003
0.043326668 0.065313339 0.67900002
0.044685718 0.065409526 0.68000001
0.046116192 0.065601908 0.68200004
0.047415242 0.065601908 0.68200004
0.048785716 0.065698102 0.68300003
0.050160002 0.065794289 0.68400002
0.051462859 0.065794289 0.68400002
0.052920002 0.065986671 0.68600005
0.054305717 0.066082865 0.68700004
0.055776194 0.066275239 0.68900001
0.057088576 0.066275239 0.68900001
0.058485717 0.066371433 0.69000006
0.059800003 0.066371433 0.69000006
0.061114289 0.066371433 0.69000006
0.062519051 0.06646762 0.69100004
0.063835241 0.06646762 0.69100004
0.065434292 0.066756196 0.69400001
0.00066476193 0.068470478 0.69800001
0.0019942857 0.068470478 0.69800001
0.0033190479 0.068372384 0.69700003
0.0046333335 0.068176195 0.69500005
0.0059571434 0.068176195 0.69500005
0.0072704768 0.068078101 0.69400001
0.0085923811 0.068078101 0.69400001
0.0098571433 0.067685716 0.69000006
0.011155238 0.067587622 0.68900001
0.01246762 0.067587622 0.68900001
0.013720001 0.067293338 0.68600005
0.014982858 0.06709715 0.68400002
0.016285716 0.06709715 0.68400002
0.017562859 0.066999055 0.68300003
0.018836191 0.066900954 0.68200004
0.020076191 0.066704765 0.68000001
0.02137143 0.066704765 0.68000001
0.022666669 0.066704765 0.68000001
0.023961907 0.066704765 0.68000001
0.025257144 0.066704765 0.68000001
0.026552383 0.066704765 0.68000001
0.027806668 0.066606671 0.67900002
0.029100003 0.066606671 0.67900002
0.030393336 0.066606671 0.67900002
0.031686667 0.066606671 0.67900002
0.032980002 0.066606671 0.67900002
0.034273334 0.066606671 0.67900002
0.035514288 0.066508576 0.67800003
0.036805715 0.066508576 0.67800003
0.038097147 0.066508576 0.67800003
0.039446671 0.066606671 0.67900002
0.040740002 0.066606671 0.67900002
0.042033337 0.066606671 0.67900002
0.043390479 0.066704765 0.68000001
0.044620004 0.066606671 0.67900002
0.046116192 0.066900954 0.68200004
0.047484767 0.066999055 0.68300003
0.048857145 0.06709715 0.68400002
0.050160002 0.06709715 0.68400002
0.051613338 0.067293338 0.68600005
0.052997146 0.067391433 0.68700004
0.054463815 0.067587622 0.68900001
0.055776194 0.067587622 0.68900001
0.057171434 0.067685716 0.69000006
0.058485717 0.067685716 0.69000006
0.059800003 0.067685716 0.69000006
0.061202861 0.067783818 0.69100004
0.062519051 0.067783818 0.69100004
0.064020008 0.067980006 0.69300002
0.00066666672 0.070000008 0.70000005
0.0020000001 0.070000008 0.70000005
0.0033190479 0.069700003 0.69700003
0.0046466668 0.069700003 0.69700003
0.0059571434 0.069500007 0.69500005
0.0072809528 0.069500007 0.69500005
0.0085923811 0.069400005 0.69400001
0.0098714288 0.069100007 0.69100004
0.011171429 0.069000006 0.69000006
0.01246762 0.068900004 0.68900001
0.013740001 0.068700008 0.68700004
0.015026668 0.068600006 0.68600005
0.016285716 0.068400003 0.68400002
0.017562859 0.068300001 0.68300003
0.018836191 0.068200007 0.68200004
0.020076191 0.068000004 0.68000001
0.02137143 0.068000004 0.68000001
0.022733334 0.068200007 0.68200004
0.023961907 0.068000004 0.68000001
0.025257144 0.068000004 0.68000001
0.026552383 0.068000004 0.68000001
0.027847622 0.068000004 0.68000001
0.029142858 0.068000004 0.68000001
0.030393336 0.067900002 0.67900002
0.031686667 0.067900002 0.67900002
0.032980002 0.067900002 0.67900002
0.034273334 0.067900002 0.67900002
0.035566669 0.067900002 0.67900002
0.036860004 0.067900002 0.67900002
0.038153335 0.067900002 0.67900002
0.039446671 0.067900002 0.67900002
0.040800001 0.068000004 0.68000001
0.04209524 0.068000004 0.68000001
0.043390479 0.068000004 0.68000001
0.044685718 0.068000004 0.68000001
0.046116192 0.068200007 0.68200004
0.047484767 0.068300001 0.68300003
0.048857145 0.068400003 0.68400002
0.05030667 0.068600006 0.68600005
0.051688574 0.068700008 0.68700004
0.052997146 0.068700008 0.68700004
0.054542862 0.069000006 0.69000006
0.055857148 0.069000006 0.69000006
0.057171434 0.069000006 0.69000006
0.058570482 0.069100007 0.69100004
0.059886672 0.069100007 0.69100004
0.061380003 0.069300003 0.69300002
0.062700003 0.069300003 0.69300002
0.064020008 0.069300003 0.69300002
0.00066476193 0.071129531 0.69800001
0.0019942857 0.071129531 0.69800001
0.0033190479 0.071027622 0.69700003
0.0046466668 0.071027622 0.69700003
0.0059742862 0.071027622 0.69700003
0.0072809528 0.070823811 0.69500005
0.0086047621 0.070823811 0.69500005
0.0098714288 0.070416197 0.69100004
0.011171429 0.070314288 0.69000006
0.01246762 0.070212387 0.68900001
0.013740001 0.070008576 0.68700004
0.015026668 0.069906674 0.68600005
0.016285716 0.069702864 0.68400002
0.017588573 0.069702864 0.68400002
0.01886381 0.069600955 0.68300003
0.020135239 0.069499053 0.68200004
0.021434287 0.069499053 0.68200004
0.022733334 0.069499053 0.68200004
0.024032382 0.069499053 0.68200004
0.02533143 0.069499053 0.68200004
0.026552383 0.069295242 0.68000001
0.027847622 0.069295242 0.68000001
0.029142858 0.069295242 0.68000001
0.030438097 0.069295242 0.68000001
0.031733334 0.069295242 0.68000001
0.033028573 0.069295242 0.68000001
