# .PCD v0.7 - Point Cloud Data file format
VERSION 0.7
FIELDS x y z
SIZE 4 4 4
TYPE F F F
COUNT 1 1 1
WIDTH 1340
HEIGHT 1
VIEWPOINT 0 0 0 1 0 0 0
POINTS 1340
DATA ascii
-0.08614286 0.0070190481 0.67000002
-0.084740005 0.0070085721 0.66900003
-0.083216198 0.0069876197 0.66700006
-0.081822865 0.0069771432 0.66600001
-0.080191433 0.0069457148 0.66300005
-0.07880953 0.0069352384 0.66200006
-0.077431433 0.0069247624 0.66100001
-0.076172389 0.0069247624 0.66100001
-0.074913338 0.0069247624 0.66100001
-0.073542863 0.0069142859 0.66000003
-0.072285719 0.0069142859 0.66000003
-0.070813335 0.006893334 0.65800005
-0.069560006 0.006893334 0.65800005
-0.06830667 0.006893334 0.65800005
-0.06705334 0.006893334 0.65800005
-0.065800004 0.006893334 0.65800005
-0.064546674 0.006893334 0.65800005
-0.063293338 0.006893334 0.65800005
-0.062040005 0.006893334 0.65800005
-0.060786672 0.006893334 0.65800005
-0.059533339 0.006893334 0.65800005
-0.058280002 0.006893334 0.65800005
-0.057026669 0.006893334 0.65800005
-0.055773336 0.006893334 0.65800005
-0.054520003 0.006893334 0.65800005
-0.053266671 0.006893334 0.65800005
-0.052171431 0.0069142859 0.66000003
-0.050914288 0.0069142859 0.66000003
-0.049657147 0.0069142859 0.66000003
-0.048473336 0.0069247624 0.66100001
-0.047214288 0.0069247624 0.66100001
-0.046024766 0.0069352384 0.66200006
-0.044763811 0.0069352384 0.66200006
-0.043568574 0.0069457148 0.66300005
-0.042305715 0.0069457148 0.66300005
-0.041166671 0.0069666672 0.66500002
-0.040020004 0.0069876197 0.66700006
-0.038923811 0.0070190481 0.67000002
-0.037703812 0.0070295241 0.671
-0.036425717 0.0070295241 0.671
-0.035147622 0.0070295241 0.671
-0.034020953 0.007060953 0.67400002
-0.032737143 0.007060953 0.67400002
-0.031640001 0.0071028578 0.67800003
-0.092473343 0.008406667 0.67900002
-0.090642862 0.008357143 0.67500001
-0.088960007 0.008320001 0.67200005
-0.087680005 0.008320001 0.67200005
-0.086271435 0.00830762 0.671
-0.084740005 0.0082828579 0.66900003
-0.083216198 0.0082580959 0.66700006
-0.081822865 0.0082457149 0.66600001
-0.080433339 0.0082333339 0.66500002
-0.078928575 0.0082085719 0.66300005
-0.077548578 0.0081961909 0.66200006
-0.076287627 0.0081961909 0.66200006
-0.075026669 0.0081961909 0.66200006
-0.073654294 0.0081838099 0.66100001
-0.072395243 0.0081838099 0.66100001
-0.071136191 0.0081838099 0.66100001
-0.069771431 0.0081714289 0.66000003
-0.068514287 0.0081714289 0.66000003
-0.067257144 0.0081714289 0.66000003
-0.066000007 0.0081714289 0.66000003
-0.064742863 0.0081714289 0.66000003
-0.063485719 0.0081714289 0.66000003
-0.062228575 0.0081714289 0.66000003
-0.060786672 0.0081466669 0.65800005
-0.059714291 0.0081714289 0.66000003
-0.058457147 0.0081714289 0.66000003
-0.057200003 0.0081714289 0.66000003
-0.05594286 0.0081714289 0.66000003
-0.054685719 0.0081714289 0.66000003
-0.053428575 0.0081714289 0.66000003
-0.052171431 0.0081714289 0.66000003
-0.050991431 0.0081838099 0.66100001
-0.049732383 0.0081838099 0.66100001
-0.048546668 0.0081961909 0.66200006
-0.047285717 0.0081961909 0.66200006
-0.046094287 0.0082085719 0.66300005
-0.044831432 0.0082085719 0.66300005
-0.043700002 0.0082333339 0.66500002
-0.042433336 0.0082333339 0.66500002
-0.041166671 0.0082333339 0.66500002
-0.040140003 0.0082828579 0.66900003
-0.038981907 0.00830762 0.671
-0.037760001 0.008320001 0.67200005
-0.036480002 0.008320001 0.67200005
-0.035304762 0.008344762 0.67400002
-0.034071431 0.008357143 0.67500001
-0.032785717 0.008357143 0.67500001
-0.031640001 0.008394286 0.67800003
-0.092609532 0.0097142868 0.68000001
-0.091180004 0.0097000003 0.67900002
-0.089357145 0.0096428581 0.67500001
-0.087940961 0.0096285725 0.67400002
-0.086271435 0.0095857149 0.671
-0.084866673 0.0095714293 0.67000002
-0.083465718 0.0095571438 0.66900003
-0.081945717 0.0095285717 0.66700006
-0.080433339 0.0095000006 0.66500002
-0.079166673 0.0095000006 0.66500002
-0.077665716 0.0094714295 0.66300005
-0.076402865 0.0094714295 0.66300005
-0.075026669 0.009457143 0.66200006
-0.073765717 0.009457143 0.66200006
-0.072504766 0.009457143 0.66200006
-0.071136191 0.0094428575 0.66100001
-0.069877148 0.0094428575 0.66100001
-0.068514287 0.0094285719 0.66000003
-0.067257144 0.0094285719 0.66000003
-0.066000007 0.0094285719 0.66000003
-0.064742863 0.0094285719 0.66000003
-0.063485719 0.0094285719 0.66000003
-0.062228575 0.0094285719 0.66000003
-0.060971431 0.0094285719 0.66000003
-0.059714291 0.0094285719 0.66000003
-0.058457147 0.0094285719 0.66000003
-0.057200003 0.0094285719 0.66000003
-0.05594286 0.0094285719 0.66000003
-0.054685719 0.0094285719 0.66000003
-0.053428575 0.0094285719 0.66000003
-0.052250478 0.0094428575 0.66100001
-0.050991431 0.0094428575 0.66100001
-0.049807623 0.009457143 0.66200006
-0.048546668 0.009457143 0.66200006
-0.047357146 0.0094714295 0.66300005
-0.046094287 0.0094714295 0.66300005
-0.044831432 0.0094714295 0.66300005
-0.043700002 0.0095000006 0.66500002
-0.042433336 0.0095000006 0.66500002
-0.041228574 0.0095142862 0.66600001
-0.040140003 0.0095571438 0.66900003
-0.038981907 0.0095857149 0.671
-0.037760001 0.0096000005 0.67200005
-0.036588576 0.0096285725 0.67400002
-0.035304762 0.0096285725 0.67400002
-0.034071431 0.0096428581 0.67500001
-0.032834288 0.0096571436 0.67600006
-0.031640001 0.0096857147 0.67800003
-0.030393336 0.0097000003 0.67900002
-0.092609532 0.011009525 0.68000001
-0.091180004 0.010993334 0.67900002
-0.089754291 0.010977143 0.67800003
-0.08820191 0.010944762 0.67600006
-0.086400002 0.010880001 0.67200005
-0.08499334 0.01086381 0.671
-0.083590485 0.01084762 0.67000002
-0.082191437 0.01083143 0.66900003
-0.080554292 0.010782857 0.66600001
-0.079166673 0.010766667 0.66500002
-0.077900007 0.010766667 0.66500002
-0.076402865 0.010734286 0.66300005
-0.075140007 0.010734286 0.66300005
-0.073877148 0.010734286 0.66300005
-0.07261429 0.010734286 0.66300005
-0.071243815 0.010718096 0.66200006
-0.069982864 0.010718096 0.66200006
-0.068618096 0.010701905 0.66100001
-0.067359053 0.010701905 0.66100001
-0.066100001 0.010701905 0.66100001
-0.064840958 0.010701905 0.66100001
-0.063485719 0.010685715 0.66000003
-0.062322862 0.010701905 0.66100001
-0.061063815 0.010701905 0.66100001
-0.059804767 0.010701905 0.66100001
-0.05854572 0.010701905 0.66100001
-0.057286669 0.010701905 0.66100001
-0.05594286 0.010685715 0.66000003
-0.054768573 0.010701905 0.66100001
-0.053509526 0.010701905 0.66100001
-0.052250478 0.010701905 0.66100001
-0.051068574 0.010718096 0.66200006
-0.049882859 0.010734286 0.66300005
-0.048620004 0.010734286 0.66300005
-0.047357146 0.010734286 0.66300005
-0.046233337 0.010766667 0.66500002
-0.044966668 0.010766667 0.66500002
-0.043700002 0.010766667 0.66500002
-0.042497147 0.010782857 0.66600001
-0.041228574 0.010782857 0.66600001
-0.040020004 0.010799048 0.66700006
-0.038923811 0.01084762 0.67000002
-0.037872385 0.010912382 0.67400002
-0.036588576 0.010912382 0.67400002
-0.035357144 0.010928572 0.67500001
-0.034121908 0.010944762 0.67600006
-0.032834288 0.010944762 0.67600006
-0.031640001 0.010977143 0.67800003
-0.030393336 0.010993334 0.67900002
-0.029100003 0.010993334 0.67900002
-0.092473343 0.012286668 0.67900002
-0.091180004 0.012286668 0.67900002
-0.089754291 0.012268572 0.67800003
-0.088462859 0.012268572 0.67800003
-0.086657152 0.012196192 0.67400002
-0.085120007 0.01216 0.67200005
-0.083715245 0.012141906 0.671
-0.08231429 0.01212381 0.67000002
-0.08091715 0.012105715 0.66900003
-0.079285719 0.01205143 0.66600001
-0.078017145 0.01205143 0.66600001
-0.076633342 0.012033334 0.66500002
-0.075366668 0.012033334 0.66500002
-0.073877148 0.011997144 0.66300005
-0.07261429 0.011997144 0.66300005
-0.071351431 0.011997144 0.66300005
-0.070088573 0.011997144 0.66300005
-0.068721913 0.011979048 0.66200006
-0.067460954 0.011979048 0.66200006
-0.066200003 0.011979048 0.66200006
-0.064939052 0.011979048 0.66200006
-0.063581906 0.011960953 0.66100001
-0.062417146 0.011979048 0.66200006
-0.061156195 0.011979048 0.66200006
-0.059895243 0.011979048 0.66200006
-0.058634289 0.011979048 0.66200006
-0.057373337 0.011979048 0.66200006
-0.056027621 0.011960953 0.66100001
-0.054851431 0.011979048 0.66200006
-0.05359048 0.011979048 0.66200006
-0.052329529 0.011979048 0.66200006
-0.051145718 0.011997144 0.66300005
-0.049882859 0.011997144 0.66300005
-0.048766669 0.012033334 0.66500002
-0.047500003 0.012033334 0.66500002
-0.046233337 0.012033334 0.66500002
-0.044966668 0.012033334 0.66500002
-0.043765716 0.01205143 0.66600001
-0.042497147 0.01205143 0.66600001
-0.041290481 0.012069524 0.66700006
-0.040140003 0.012105715 0.66900003
-0.038923811 0.01212381 0.67000002
-0.037872385 0.012196192 0.67400002
-0.036642861 0.012214286 0.67500001
-0.035409525 0.012232382 0.67600006
-0.034121908 0.012232382 0.67600006
-0.032931432 0.012268572 0.67800003
-0.031640001 0.012268572 0.67800003
-0.030348573 0.012268572 0.67800003
-0.029057145 0.012268572 0.67800003
-0.097346671 0.013720001 0.68600005
-0.096040003 0.013720001 0.68600005
-0.094733343 0.013720001 0.68600005
-0.092881911 0.01364 0.68200004
-0.091314293 0.013600001 0.68000001
-0.089886673 0.013580001 0.67900002
-0.088462859 0.013560001 0.67800003
-0.086785719 0.013500001 0.67500001
-0.085373342 0.013480001 0.67400002
-0.083715245 0.013420001 0.671
-0.08231429 0.013400001 0.67000002
-0.08091715 0.013380001 0.66900003
-0.079404764 0.013340001 0.66700006
-0.078017145 0.013320001 0.66600001
-0.07674858 0.013320001 0.66600001
-0.075366668 0.013300001 0.66500002
-0.074100003 0.013300001 0.66500002
-0.072833337 0.013300001 0.66500002
-0.071351431 0.013260001 0.66300005
-0.070088573 0.013260001 0.66300005
-0.068825722 0.013260001 0.66300005
-0.067562863 0.013260001 0.66300005
-0.066300005 0.013260001 0.66300005
-0.065037146 0.013260001 0.66300005
-0.063678101 0.013240001 0.66200006
-0.062417146 0.013240001 0.66200006
-0.061156195 0.013240001 0.66200006
-0.059895243 0.013240001 0.66200006
-0.058634289 0.013240001 0.66200006
-0.057373337 0.013240001 0.66200006
-0.056112386 0.013240001 0.66200006
-0.054851431 0.013240001 0.66200006
-0.05359048 0.013240001 0.66200006
-0.052408576 0.013260001 0.66300005
-0.051145718 0.013260001 0.66300005
-0.050033338 0.013300001 0.66500002
-0.048766669 0.013300001 0.66500002
-0.047500003 0.013300001 0.66500002
-0.046233337 0.013300001 0.66500002
-0.045034289 0.013320001 0.66600001
-0.04383143 0.013340001 0.66700006
-0.042560954 0.013340001 0.66700006
-0.041414287 0.013380001 0.66900003
-0.040200002 0.013400001 0.67000002
-0.038923811 0.013400001 0.67000002
-0.037872385 0.013480001 0.67400002
-0.036642861 0.013500001 0.67500001
-0.035409525 0.013520001 0.67600006
-0.034121908 0.013520001 0.67600006
-0.032931432 0.013560001 0.67800003
-0.031640001 0.013560001 0.67800003
-0.030348573 0.013560001 0.67800003
-0.029057145 0.013560001 0.67800003
-0.096040003 0.015026668 0.68600005
-0.094733343 0.015026668 0.68600005
-0.093426675 0.015026668 0.68600005
-0.091314293 0.014895239 0.68000001
-0.089886673 0.014873334 0.67900002
-0.088462859 0.014851429 0.67800003
-0.086914293 0.01480762 0.67600006
-0.085500002 0.014785715 0.67500001
-0.084089532 0.014763811 0.67400002
-0.08243715 0.014698097 0.671
-0.081038103 0.014676192 0.67000002
-0.079642862 0.014654287 0.66900003
-0.078134291 0.014610477 0.66700006
-0.07674858 0.014588572 0.66600001
-0.075366668 0.014566667 0.66500002
-0.074100003 0.014566667 0.66500002
-0.072833337 0.014566667 0.66500002
-0.071566671 0.014566667 0.66500002
-0.070088573 0.014522858 0.66300005
-0.068825722 0.014522858 0.66300005
-0.067562863 0.014522858 0.66300005
-0.066300005 0.014522858 0.66300005
-0.065037146 0.014522858 0.66300005
-0.063774288 0.014522858 0.66300005
-0.062511429 0.014522858 0.66300005
-0.061248574 0.014522858 0.66300005
-0.05998572 0.014522858 0.66300005
-0.058722861 0.014522858 0.66300005
-0.057460003 0.014522858 0.66300005
-0.056197148 0.014522858 0.66300005
-0.054934289 0.014522858 0.66300005
-0.053671431 0.014522858 0.66300005
-0.052408576 0.014522858 0.66300005
-0.051300004 0.014566667 0.66500002
-0.050033338 0.014566667 0.66500002
-0.048766669 0.014566667 0.66500002
-0.047571432 0.014588572 0.66600001
-0.046302859 0.014588572 0.66600001
-0.045034289 0.014588572 0.66600001
-0.04383143 0.014610477 0.66700006
-0.042688575 0.014654287 0.66900003
-0.041414287 0.014654287 0.66900003
-0.040200002 0.014676192 0.67000002
-0.038923811 0.014676192 0.67000002
-0.037872385 0.014763811 0.67400002
-0.036642861 0.014785715 0.67500001
-0.035409525 0.01480762 0.67600006
-0.03422286 0.014851429 0.67800003
-0.032931432 0.014851429 0.67800003
-0.031640001 0.014851429 0.67800003
-0.030348573 0.014851429 0.67800003
-0.029057145 0.014851429 0.67800003
-0.092609532 0.016190477 0.68000001
-0.091314293 0.016190477 0.68000001
-0.089886673 0.016166668 0.67900002
-0.088593341 0.016166668 0.67900002
-0.087171435 0.016142858 0.67800003
-0.085500002 0.016071429 0.67500001
-0.084089532 0.016047619 0.67400002
-0.082560003 0.016000001 0.67200005
-0.081159055 0.015976192 0.671
-0.079642862 0.015928572 0.66900003
-0.078368574 0.015928572 0.66900003
-0.076863818 0.015880954 0.66700006
-0.075480007 0.015857143 0.66600001
-0.074100003 0.015833335 0.66500002
-0.072833337 0.015833335 0.66500002
-0.071566671 0.015833335 0.66500002
-0.070300005 0.015833335 0.66500002
-0.06903334 0.015833335 0.66500002
-0.067562863 0.015785715 0.66300005
-0.066300005 0.015785715 0.66300005
-0.065037146 0.015785715 0.66300005
-0.063774288 0.015785715 0.66300005
-0.062511429 0.015785715 0.66300005
-0.061248574 0.015785715 0.66300005
-0.05998572 0.015785715 0.66300005
-0.058722861 0.015785715 0.66300005
-0.057460003 0.015785715 0.66300005
-0.056197148 0.015785715 0.66300005
-0.054934289 0.015785715 0.66300005
-0.053671431 0.015785715 0.66300005
-0.05256667 0.015833335 0.66500002
-0.051300004 0.015833335 0.66500002
-0.050033338 0.015833335 0.66500002
-0.048840005 0.015857143 0.66600001
-0.047571432 0.015857143 0.66600001
-0.046372384 0.015880954 0.66700006
-0.045101907 0.015880954 0.66700006
-0.043962859 0.015928572 0.66900003
-0.042688575 0.015928572 0.66900003
-0.041476194 0.015952382 0.67000002
-0.040200002 0.015952382 0.67000002
-0.038981907 0.015976192 0.671
-0.037928574 0.016071429 0.67500001
-0.036697146 0.01609524 0.67600006
-0.035409525 0.01609524 0.67600006
-0.03422286 0.016142858 0.67800003
-0.032931432 0.016142858 0.67800003
-0.031640001 0.016142858 0.67800003
-0.030348573 0.016142858 0.67800003
-0.092609532 0.017485715 0.68000001
-0.091314293 0.017485715 0.68000001
-0.089886673 0.017460002 0.67900002
-0.088462859 0.017434286 0.67800003
-0.086914293 0.017382858 0.67600006
-0.085500002 0.017357145 0.67500001
-0.084089532 0.017331429 0.67400002
-0.082560003 0.017280001 0.67200005
-0.081159055 0.017254287 0.671
-0.079761907 0.017228572 0.67000002
-0.078368574 0.017202858 0.66900003
-0.076863818 0.01715143 0.66700006
-0.075480007 0.017125715 0.66600001
-0.074211434 0.017125715 0.66600001
-0.072833337 0.017100001 0.66500002
-0.071566671 0.017100001 0.66500002
-0.070300005 0.017100001 0.66500002
-0.06903334 0.017100001 0.66500002
-0.067766674 0.017100001 0.66500002
-0.066500001 0.017100001 0.66500002
-0.065233335 0.017100001 0.66500002
-0.063966669 0.017100001 0.66500002
-0.062700003 0.017100001 0.66500002
-0.061433338 0.017100001 0.66500002
-0.05998572 0.017048573 0.66300005
-0.058722861 0.017048573 0.66300005
-0.057460003 0.017048573 0.66300005
-0.056197148 0.017048573 0.66300005
-0.054934289 0.017048573 0.66300005
-0.053833336 0.017100001 0.66500002
-0.05256667 0.017100001 0.66500002
-0.051300004 0.017100001 0.66500002
-0.050033338 0.017100001 0.66500002
-0.048840005 0.017125715 0.66600001
-0.047642861 0.01715143 0.66700006
-0.046372384 0.01715143 0.66700006
-0.045101907 0.01715143 0.66700006
-0.043962859 0.017202858 0.66900003
-0.042688575 0.017202858 0.66900003
-0.041476194 0.017228572 0.67000002
-0.040200002 0.017228572 0.67000002
-0.038981907 0.017254287 0.671
-0.037928574 0.017357145 0.67500001
-0.036697146 0.017382858 0.67600006
-0.035409525 0.017382858 0.67600006
-0.03422286 0.017434286 0.67800003
-0.032931432 0.017434286 0.67800003
-0.031640001 0.017434286 0.67800003
-0.030348573 0.017434286 0.67800003
0.16839334 0.022397144 0.87100005
-0.092609532 0.018780954 0.68000001
-0.091180004 0.018753335 0.67900002
-0.089886673 0.018753335 0.67900002
-0.088462859 0.018725716 0.67800003
-0.086914293 0.018670477 0.67600006
-0.085500002 0.018642858 0.67500001
-0.084089532 0.01861524 0.67400002
-0.082560003 0.018560002 0.67200005
-0.081280008 0.018560002 0.67200005
-0.07988096 0.018532382 0.671
-0.07848572 0.018504763 0.67000002
-0.077094294 0.018477144 0.66900003
-0.075593337 0.018421905 0.66700006
-0.074211434 0.018394288 0.66600001
-0.07294286 0.018394288 0.66600001
-0.071674287 0.018394288 0.66600001
-0.070300005 0.018366668 0.66500002
-0.06903334 0.018366668 0.66500002
-0.067766674 0.018366668 0.66500002
-0.066500001 0.018366668 0.66500002
-0.065233335 0.018366668 0.66500002
-0.063966669 0.018366668 0.66500002
-0.062700003 0.018366668 0.66500002
-0.061433338 0.018366668 0.66500002
-0.060166672 0.018366668 0.66500002
-0.058900002 0.018366668 0.66500002
-0.057633337 0.018366668 0.66500002
-0.056366671 0.018366668 0.66500002
-0.055100005 0.018366668 0.66500002
-0.053833336 0.018366668 0.66500002
-0.05256667 0.018366668 0.66500002
-0.051300004 0.018366668 0.66500002
-0.050033338 0.018366668 0.66500002
-0.048840005 0.018394288 0.66600001
-0.047642861 0.018421905 0.66700006
-0.04651143 0.018477144 0.66900003
-0.045237146 0.018477144 0.66900003
-0.043962859 0.018477144 0.66900003
-0.042752385 0.018504763 0.67000002
-0.041476194 0.018504763 0.67000002
-0.040260002 0.018532382 0.671
-0.039040003 0.018560002 0.67200005
-0.037872385 0.01861524 0.67400002
-0.036697146 0.018670477 0.67600006
-0.035514288 0.018725716 0.67800003
-0.03422286 0.018725716 0.67800003
-0.032980002 0.018753335 0.67900002
-0.031686667 0.018753335 0.67900002
-0.030348573 0.018725716 0.67800003
-0.029057145 0.018725716 0.67800003
-0.092609532 0.020076191 0.68000001
-0.091180004 0.020046668 0.67900002
-0.089886673 0.020046668 0.67900002
-0.088462859 0.020017143 0.67800003
-0.086914293 0.019958096 0.67600006
-0.085500002 0.019928573 0.67500001
-0.084214292 0.019928573 0.67500001
-0.082805723 0.01989905 0.67400002
-0.081280008 0.019840002 0.67200005
-0.07988096 0.019810477 0.671
-0.07848572 0.019780954 0.67000002
-0.077094294 0.01975143 0.66900003
-0.075820006 0.01975143 0.66900003
-0.074322864 0.019692382 0.66700006
-0.07294286 0.019662859 0.66600001
-0.071674287 0.019662859 0.66600001
-0.070405722 0.019662859 0.66600001
-0.069137149 0.019662859 0.66600001
-0.067766674 0.019633334 0.66500002
-0.066500001 0.019633334 0.66500002
-0.065233335 0.019633334 0.66500002
-0.063966669 0.019633334 0.66500002
-0.062700003 0.019633334 0.66500002
-0.061433338 0.019633334 0.66500002
-0.060166672 0.019633334 0.66500002
-0.058900002 0.019633334 0.66500002
-0.057633337 0.019633334 0.66500002
-0.056366671 0.019633334 0.66500002
-0.055100005 0.019633334 0.66500002
-0.053833336 0.019633334 0.66500002
-0.05256667 0.019633334 0.66500002
-0.051300004 0.019633334 0.66500002
-0.050108574 0.019662859 0.66600001
-0.048913337 0.019692382 0.66700006
-0.047642861 0.019692382 0.66700006
-0.04651143 0.01975143 0.66900003
-0.045237146 0.01975143 0.66900003
-0.044028573 0.019780954 0.67000002
-0.042752385 0.019780954 0.67000002
-0.041538097 0.019810477 0.671
-0.040260002 0.019810477 0.671
-0.039156195 0.01989905 0.67400002
-0.037928574 0.019928573 0.67500001
-0.036805715 0.020017143 0.67800003
-0.035514288 0.020017143 0.67800003
-0.034273334 0.020046668 0.67900002
-0.032980002 0.020046668 0.67900002
-0.031686667 0.020046668 0.67900002
-0.030393336 0.020046668 0.67900002
-0.091314293 0.02137143 0.68000001
-0.090019055 0.02137143 0.68000001
-0.088593341 0.021340001 0.67900002
-0.087171435 0.021308573 0.67800003
-0.085626669 0.021245716 0.67600006
-0.084214292 0.021214288 0.67500001
-0.082928576 0.021214288 0.67500001
-0.081521913 0.021182859 0.67400002
-0.080000006 0.021120001 0.67200005
-0.078602865 0.021088572 0.671
-0.077209532 0.021057144 0.67000002
-0.075933337 0.021057144 0.67000002
-0.074545719 0.021025715 0.66900003
-0.073271431 0.021025715 0.66900003
-0.071997151 0.021025715 0.66900003
-0.070511431 0.020962859 0.66700006
-0.069240957 0.020962859 0.66700006
-0.067970477 0.020962859 0.66700006
-0.066600002 0.02093143 0.66600001
-0.065429531 0.020962859 0.66700006
-0.064159051 0.020962859 0.66700006
-0.062888578 0.020962859 0.66700006
-0.061618101 0.020962859 0.66700006
-0.060257148 0.02093143 0.66600001
-0.058988575 0.02093143 0.66600001
-0.057720006 0.02093143 0.66600001
-0.056451432 0.02093143 0.66600001
-0.055182859 0.02093143 0.66600001
-0.05391429 0.02093143 0.66600001
-0.052645717 0.02093143 0.66600001
-0.051454291 0.020962859 0.66700006
-0.050183814 0.020962859 0.66700006
-0.049060002 0.021025715 0.66900003
-0.047785718 0.021025715 0.66900003
-0.046580955 0.021057144 0.67000002
-0.045304764 0.021057144 0.67000002
-0.044094287 0.021088572 0.671
-0.042816192 0.021088572 0.671
-0.041600004 0.021120001 0.67200005
-0.040440004 0.021182859 0.67400002
-0.039214287 0.021214288 0.67500001
-0.037984766 0.021245716 0.67600006
-0.036805715 0.021308573 0.67800003
-0.035566669 0.021340001 0.67900002
-0.034273334 0.021340001 0.67900002
-0.032980002 0.021340001 0.67900002
-0.031686667 0.021340001 0.67900002
-0.030393336 0.021340001 0.67900002
-0.090283819 0.022733334 0.68200004
-0.088593341 0.022633335 0.67900002
-0.087171435 0.022600001 0.67800003
-0.085626669 0.022533335 0.67600006
-0.084339052 0.022533335 0.67600006
-0.082928576 0.022500001 0.67500001
-0.081521913 0.022466669 0.67400002
-0.080238104 0.022466669 0.67400002
-0.078720003 0.022400001 0.67200005
-0.07732477 0.022366669 0.671
-0.075933337 0.022333335 0.67000002
-0.07465715 0.022333335 0.67000002
-0.073380955 0.022333335 0.67000002
-0.071997151 0.022300001 0.66900003
-0.070722863 0.022300001 0.66900003
-0.069448575 0.022300001 0.66900003
-0.068174288 0.022300001 0.66900003
-0.066700004 0.022233335 0.66700006
-0.06562572 0.022300001 0.66900003
-0.064351432 0.022300001 0.66900003
-0.063077144 0.022300001 0.66900003
-0.06180286 0.022300001 0.66900003
-0.060347624 0.022233335 0.66700006
-0.059077147 0.022233335 0.66700006
-0.057806671 0.022233335 0.66700006
-0.056536194 0.022233335 0.66700006
-0.055265717 0.022233335 0.66700006
-0.05391429 0.022200001 0.66600001
-0.052724764 0.022233335 0.66700006
-0.051454291 0.022233335 0.66700006
-0.05033429 0.022300001 0.66900003
-0.049060002 0.022300001 0.66900003
-0.047857147 0.022333335 0.67000002
-0.04665048 0.022366669 0.671
-0.045372386 0.022366669 0.671
-0.044160005 0.022400001 0.67200005
-0.042880002 0.022400001 0.67200005
-0.041723814 0.022466669 0.67400002
-0.040440004 0.022466669 0.67400002
-0.039272383 0.022533335 0.67600006
-0.037984766 0.022533335 0.67600006
-0.036860004 0.022633335 0.67900002
-0.035566669 0.022633335 0.67900002
-0.034273334 0.022633335 0.67900002
-0.033028573 0.022666669 0.68000001
-0.031733334 0.022666669 0.68000001
-0.030438097 0.022666669 0.68000001
-0.090416193 0.02406762 0.68300003
-0.088593341 0.023926668 0.67900002
-0.087300003 0.023926668 0.67900002
-0.085880004 0.02389143 0.67800003
-0.084339052 0.023820953 0.67600006
-0.083051436 0.023820953 0.67600006
-0.081642866 0.023785716 0.67500001
-0.080238104 0.023750478 0.67400002
-0.078954294 0.023750478 0.67400002
-0.077440009 0.023680001 0.67200005
-0.076046668 0.023644764 0.671
-0.074768573 0.023644764 0.671
-0.073380955 0.023609525 0.67000002
-0.072104767 0.023609525 0.67000002
-0.070722863 0.023574287 0.66900003
-0.069448575 0.023574287 0.66900003
-0.068174288 0.023574287 0.66900003
-0.066900007 0.023574287 0.66900003
-0.06562572 0.023574287 0.66900003
-0.064351432 0.023574287 0.66900003
-0.063077144 0.023574287 0.66900003
-0.06180286 0.023574287 0.66900003
-0.060528576 0.023574287 0.66900003
-0.059254289 0.023574287 0.66900003
-0.057980005 0.023574287 0.66900003
-0.056705717 0.023574287 0.66900003
-0.055431433 0.023574287 0.66900003
-0.054157145 0.023574287 0.66900003
-0.052882861 0.023574287 0.66900003
-0.051608574 0.023574287 0.66900003
-0.050409526 0.023609525 0.67000002
-0.049133338 0.023609525 0.67000002
-0.047928575 0.023644764 0.671
-0.046720002 0.023680001 0.67200005
-0.045440003 0.023680001 0.67200005
-0.044291433 0.023750478 0.67400002
-0.043007623 0.023750478 0.67400002
-0.041785717 0.023785716 0.67500001
-0.040500004 0.023785716 0.67500001
-0.039272383 0.023820953 0.67600006
-0.038097147 0.02389143 0.67800003
-0.036860004 0.023926668 0.67900002
-0.035566669 0.023926668 0.67900002
-0.034323812 0.023961907 0.68000001
-0.033125717 0.024032382 0.68200004
-0.031826667 0.024032382 0.68200004
-0.030572383 0.02406762 0.68300003
-0.090548575 0.025405716 0.68400002
-0.088723816 0.025257144 0.68000001
-0.087300003 0.025220001 0.67900002
-0.086006671 0.025220001 0.67900002
-0.08458858 0.025182858 0.67800003
-0.083051436 0.025108574 0.67600006
-0.081642866 0.025071431 0.67500001
-0.080357149 0.025071431 0.67500001
-0.078954294 0.025034288 0.67400002
-0.077440009 0.024960002 0.67200005
-0.076160006 0.024960002 0.67200005
-0.074768573 0.024922859 0.671
-0.073490478 0.024922859 0.671
-0.072104767 0.024885716 0.67000002
-0.070828579 0.024885716 0.67000002
-0.069552384 0.024885716 0.67000002
-0.068276197 0.024885716 0.67000002
-0.066900007 0.024848573 0.66900003
-0.06562572 0.024848573 0.66900003
-0.064351432 0.024848573 0.66900003
-0.063077144 0.024848573 0.66900003
-0.06180286 0.024848573 0.66900003
-0.060528576 0.024848573 0.66900003
-0.059254289 0.024848573 0.66900003
-0.057980005 0.024848573 0.66900003
-0.056705717 0.024848573 0.66900003
-0.055431433 0.024848573 0.66900003
-0.054157145 0.024848573 0.66900003
-0.052882861 0.024848573 0.66900003
-0.051685717 0.024885716 0.67000002
-0.050484765 0.024922859 0.671
-0.04920667 0.024922859 0.671
-0.048000004 0.024960002 0.67200005
-0.046859052 0.025034288 0.67400002
-0.045575242 0.025034288 0.67400002
-0.044291433 0.025034288 0.67400002
-0.043007623 0.025034288 0.67400002
-0.041785717 0.025071431 0.67500001
-0.040500004 0.025071431 0.67500001
-0.039272383 0.025108574 0.67600006
-0.038097147 0.025182858 0.67800003
-0.036860004 0.025220001 0.67900002
-0.03561905 0.025257144 0.68000001
-0.034424763 0.02533143 0.68200004
-0.033174288 0.025368573 0.68300003
-0.031873334 0.025368573 0.68300003
-0.030617144 0.025405716 0.68400002
-0.092120007 0.026786668 0.68600005
-0.090548575 0.026708573 0.68400002
-0.088984765 0.026630478 0.68200004
-0.087428577 0.026552383 0.68000001
-0.086006671 0.026513334 0.67900002
-0.08471334 0.026513334 0.67900002
-0.083297148 0.026474288 0.67800003
-0.081763811 0.026396193 0.67600006
-0.080357149 0.026357144 0.67500001
-0.079071432 0.026357144 0.67500001
-0.077670485 0.026318097 0.67400002
-0.076160006 0.026240002 0.67200005
-0.074880004 0.026240002 0.67200005
-0.073490478 0.026200954 0.671
-0.072212383 0.026200954 0.671
-0.070934288 0.026200954 0.671
-0.069552384 0.026161907 0.67000002
-0.068276197 0.026161907 0.67000002
-0.067000002 0.026161907 0.67000002
-0.065723814 0.026161907 0.67000002
-0.064447626 0.026161907 0.67000002
-0.063171431 0.026161907 0.67000002
-0.061895244 0.026161907 0.67000002
-0.060528576 0.026122859 0.66900003
-0.059254289 0.026122859 0.66900003
-0.05806667 0.026161907 0.67000002
-0.056705717 0.026122859 0.66900003
-0.055431433 0.026122859 0.66900003
-0.054157145 0.026122859 0.66900003
-0.052961908 0.026161907 0.67000002
-0.05176286 0.026200954 0.671
-0.050484765 0.026200954 0.671
-0.049280003 0.026240002 0.67200005
-0.048000004 0.026240002 0.67200005
-0.046859052 0.026318097 0.67400002
-0.045575242 0.026318097 0.67400002
-0.044357147 0.026357144 0.67500001
-0.04307143 0.026357144 0.67500001
-0.04184762 0.026396193 0.67600006
-0.040560003 0.026396193 0.67600006
-0.039388575 0.026474288 0.67800003
-0.038153335 0.026513334 0.67900002
-0.036914289 0.026552383 0.68000001
-0.03561905 0.026552383 0.68000001
-0.034424763 0.026630478 0.68200004
-0.033174288 0.026669526 0.68300003
-0.031920001 0.026708573 0.68400002
-0.030617144 0.026708573 0.68400002
-0.097300008 0.028461907 0.69500005
-0.095976196 0.028461907 0.69500005
-0.093971431 0.028257145 0.69000006
-0.092254288 0.028134288 0.68700004
-0.090813339 0.028093334 0.68600005
-0.089245722 0.02801143 0.68400002
-0.087685719 0.027929526 0.68200004
-0.086133339 0.027847622 0.68000001
-0.08471334 0.027806668 0.67900002
-0.083420008 0.027806668 0.67900002
-0.082005717 0.027765715 0.67800003
-0.080476195 0.027683811 0.67600006
-0.079071432 0.027642859 0.67500001
-0.077785723 0.027642859 0.67500001
-0.076386675 0.027601907 0.67400002
-0.075102866 0.027601907 0.67400002
-0.073600002 0.027520001 0.67200005
-0.072320007 0.027520001 0.67200005
-0.071040004 0.027520001 0.67200005
-0.069656193 0.027479049 0.671
-0.068276197 0.027438097 0.67000002
-0.067000002 0.027438097 0.67000002
-0.065723814 0.027438097 0.67000002
-0.064447626 0.027438097 0.67000002
-0.063171431 0.027438097 0.67000002
-0.061895244 0.027438097 0.67000002
-0.060619052 0.027438097 0.67000002
-0.059342861 0.027438097 0.67000002
-0.05806667 0.027438097 0.67000002
-0.056790479 0.027438097 0.67000002
-0.055514291 0.027438097 0.67000002
-0.0542381 0.027438097 0.67000002
-0.052961908 0.027438097 0.67000002
-0.05176286 0.027479049 0.671
-0.050560005 0.027520001 0.67200005
-0.049280003 0.027520001 0.67200005
-0.048142862 0.027601907 0.67400002
-0.046859052 0.027601907 0.67400002
-0.04564286 0.027642859 0.67500001
-0.044357147 0.027642859 0.67500001
-0.043135241 0.027683811 0.67600006
-0.04184762 0.027683811 0.67600006
-0.040680002 0.027765715 0.67800003
-0.039446671 0.027806668 0.67900002
-0.038153335 0.027806668 0.67900002
-0.036914289 0.027847622 0.68000001
-0.035723813 0.027929526 0.68200004
-0.034475241 0.027970478 0.68300003
-0.033222858 0.02801143 0.68400002
-0.031920001 0.02801143 0.68400002
-0.030751431 0.028134288 0.68700004
-0.094107628 0.029614288 0.69100004
-0.09252286 0.029528573 0.68900001
-0.090945721 0.02944286 0.68700004
-0.089506671 0.029400002 0.68600005
-0.087685719 0.029228574 0.68200004
-0.086133339 0.029142858 0.68000001
-0.0848381 0.029142858 0.68000001
-0.083420008 0.029100003 0.67900002
-0.082005717 0.029057145 0.67800003
-0.080476195 0.02897143 0.67600006
-0.079188578 0.02897143 0.67600006
-0.077785723 0.028928574 0.67500001
-0.076386675 0.028885717 0.67400002
-0.075102866 0.028885717 0.67400002
-0.073819056 0.028885717 0.67400002
-0.072535239 0.028885717 0.67400002
-0.071040004 0.028800001 0.67200005
-0.069760002 0.028800001 0.67200005
-0.068378098 0.028757146 0.671
-0.067100003 0.028757146 0.671
-0.065723814 0.028714288 0.67000002
-0.064447626 0.028714288 0.67000002
-0.063171431 0.028714288 0.67000002
-0.061895244 0.028714288 0.67000002
-0.060619052 0.028714288 0.67000002
-0.059342861 0.028714288 0.67000002
-0.05806667 0.028714288 0.67000002
-0.056790479 0.028714288 0.67000002
-0.055597145 0.028757146 0.671
-0.05431905 0.028757146 0.671
-0.053040955 0.028757146 0.671
-0.05176286 0.028757146 0.671
-0.050560005 0.028800001 0.67200005
-0.049426671 0.028885717 0.67400002
-0.048142862 0.028885717 0.67400002
-0.046859052 0.028885717 0.67400002
-0.04564286 0.028928574 0.67500001
-0.044357147 0.028928574 0.67500001
-0.043135241 0.02897143 0.67600006
-0.04197143 0.029057145 0.67800003
-0.040680002 0.029057145 0.67800003
-0.039446671 0.029100003 0.67900002
-0.038153335 0.029100003 0.67900002
-0.036914289 0.029142858 0.68000001
-0.035723813 0.029228574 0.68200004
-0.034475241 0.029271431 0.68300003
-0.033320002 0.029400002 0.68600005
-0.032013334 0.029400002 0.68600005
-0.030840954 0.029528573 0.68900001
-0.095700003 0.031020002 0.69300002
-0.093971431 0.030885717 0.69000006
-0.092657149 0.030885717 0.69000006
-0.090945721 0.030751431 0.68700004
-0.089506671 0.030706668 0.68600005
-0.087814294 0.030572383 0.68300003
-0.086386673 0.030527622 0.68200004
-0.0848381 0.030438097 0.68000001
-0.083542861 0.030438097 0.68000001
-0.08212667 0.030393336 0.67900002
-0.080714293 0.030348573 0.67800003
-0.079188578 0.03025905 0.67600006
-0.077785723 0.030214287 0.67500001
-0.076500006 0.030214287 0.67500001
-0.075214289 0.030214287 0.67500001
-0.073819056 0.030169526 0.67400002
-0.072535239 0.030169526 0.67400002
-0.07125143 0.030169526 0.67400002
-0.069760002 0.030080002 0.67200005
-0.068480007 0.030080002 0.67200005
-0.067100003 0.030035241 0.671
-0.065723814 0.029990477 0.67000002
-0.064543813 0.030035241 0.671
-0.063265719 0.030035241 0.671
-0.061987624 0.030035241 0.671
-0.060709529 0.030035241 0.671
-0.059431434 0.030035241 0.671
-0.058153339 0.030035241 0.671
-0.056960005 0.030080002 0.67200005
-0.055680003 0.030080002 0.67200005
-0.054400004 0.030080002 0.67200005
-0.053120002 0.030080002 0.67200005
-0.051840004 0.030080002 0.67200005
-0.050710481 0.030169526 0.67400002
-0.049426671 0.030169526 0.67400002
-0.048142862 0.030169526 0.67400002
-0.046928573 0.030214287 0.67500001
-0.04564286 0.030214287 0.67500001
-0.044422861 0.03025905 0.67600006
-0.043135241 0.03025905 0.67600006
-0.04197143 0.030348573 0.67800003
-0.040740002 0.030393336 0.67900002
-0.039446671 0.030393336 0.67900002
-0.038209528 0.030438097 0.68000001
-0.037022859 0.030527622 0.68200004
-0.035723813 0.030527622 0.68200004
-0.034475241 0.030572383 0.68300003
-0.033320002 0.030706668 0.68600005
-0.032013334 0.030706668 0.68600005
-0.030840954 0.030840954 0.68900001
-0.095700003 0.032340001 0.69300002
-0.094107628 0.032246668 0.69100004
-0.092657149 0.032200001 0.69000006
-0.091210485 0.032153334 0.68900001
-0.089637145 0.032060001 0.68700004
-0.087942861 0.031920001 0.68400002
-0.08651334 0.031873334 0.68300003
-0.085087627 0.031826667 0.68200004
-0.083542861 0.031733334 0.68000001
-0.08212667 0.031686667 0.67900002
-0.080833338 0.031686667 0.67900002
-0.079422861 0.031640001 0.67800003
-0.077900961 0.031546667 0.67600006
-0.076500006 0.031500001 0.67500001
-0.075214289 0.031500001 0.67500001
-0.07392858 0.031500001 0.67500001
-0.072535239 0.031453334 0.67400002
-0.07125143 0.031453334 0.67400002
-0.06996762 0.031453334 0.67400002
-0.068480007 0.03136 0.67200005
-0.067200005 0.03136 0.67200005
-0.065821908 0.031313334 0.671
-0.064543813 0.031313334 0.671
-0.063360006 0.03136 0.67200005
-0.061987624 0.031313334 0.671
-0.060800005 0.03136 0.67200005
-0.059520002 0.03136 0.67200005
-0.058240004 0.03136 0.67200005
-0.056960005 0.03136 0.67200005
-0.055845719 0.031453334 0.67400002
-0.054561909 0.031453334 0.67400002
-0.053120002 0.03136 0.67200005
-0.05199429 0.031453334 0.67400002
-0.050710481 0.031453334 0.67400002
-0.049426671 0.031453334 0.67400002
-0.04821429 0.031500001 0.67500001
-0.046928573 0.031500001 0.67500001
-0.04564286 0.031500001 0.67500001
-0.044422861 0.031546667 0.67600006
-0.043262862 0.031640001 0.67800003
-0.042033337 0.031686667 0.67900002
-0.040740002 0.031686667 0.67900002
-0.039504763 0.031733334 0.68000001
-0.038321909 0.031826667 0.68200004
-0.037077144 0.031873334 0.68300003
-0.035776194 0.031873334 0.68300003
-0.034525715 0.031920001 0.68400002
-0.033320002 0.032013334 0.68600005
-0.032013334 0.032013334 0.68600005
-0.030885717 0.032200001 0.69000006
-0.095700003 0.033660002 0.69300002
-0.094107628 0.033562858 0.69100004
-0.092791438 0.033562858 0.69100004
-0.091210485 0.033465717 0.68900001
-0.089637145 0.033368573 0.68700004
-0.087942861 0.033222858 0.68400002
-0.08651334 0.033174288 0.68300003
-0.085087627 0.033125717 0.68200004
-0.083542861 0.033028573 0.68000001
-0.082247622 0.033028573 0.68000001
-0.080833338 0.032980002 0.67900002
-0.079422861 0.032931432 0.67800003
-0.078131437 0.032931432 0.67800003
-0.076500006 0.032785717 0.67500001
-0.075214289 0.032785717 0.67500001
-0.07392858 0.032785717 0.67500001
-0.072642863 0.032785717 0.67500001
-0.071357146 0.032785717 0.67500001
-0.06996762 0.032737143 0.67400002
-0.068683811 0.032737143 0.67400002
-0.067400001 0.032737143 0.67400002
-0.065920003 0.032640003 0.67200005
-0.064640008 0.032640003 0.67200005
-0.063360006 0.032640003 0.67200005
-0.062080003 0.032640003 0.67200005
-0.060800005 0.032640003 0.67200005
-0.059697147 0.032737143 0.67400002
-0.058413338 0.032737143 0.67400002
-0.057129528 0.032737143 0.67400002
-0.055845719 0.032737143 0.67400002
-0.054561909 0.032737143 0.67400002
-0.0532781 0.032737143 0.67400002
-0.05199429 0.032737143 0.67400002
-0.050710481 0.032737143 0.67400002
-0.049426671 0.032737143 0.67400002
-0.04821429 0.032785717 0.67500001
-0.046928573 0.032785717 0.67500001
-0.045710478 0.032834288 0.67600006
-0.044554289 0.032931432 0.67800003
-0.043262862 0.032931432 0.67800003
-0.042033337 0.032980002 0.67900002
-0.040800001 0.033028573 0.68000001
-0.039620955 0.033125717 0.68200004
-0.038378097 0.033174288 0.68300003
-0.037131432 0.033222858 0.68400002
-0.035776194 0.033174288 0.68300003
-0.034525715 0.033222858 0.68400002
-0.033320002 0.033320002 0.68600005
-0.032246668 0.033562858 0.69100004
-0.031020002 0.033660002 0.69300002
-0.029785717 0.033757146 0.69500005
-0.028461907 0.033757146 0.69500005
-0.096740007 0.034879051 0.69100004
-0.095423818 0.034879051 0.69100004
-0.094107628 0.034879051 0.69100004
-0.092791438 0.034879051 0.69100004
-0.091342866 0.034828573 0.69000006
-0.090028577 0.034828573 0.69000006
-0.088585719 0.034778096 0.68900001
-0.086893342 0.03462667 0.68600005
-0.085212387 0.034475241 0.68300003
-0.083788574 0.034424763 0.68200004
-0.082247622 0.034323812 0.68000001
-0.080952384 0.034323812 0.68000001
-0.079540007 0.034273334 0.67900002
-0.078246675 0.034273334 0.67900002
-0.076840006 0.03422286 0.67800003
-0.07532572 0.034121908 0.67600006
-0.074038103 0.034121908 0.67600006
-0.072750479 0.034121908 0.67600006
-0.071462862 0.034121908 0.67600006
-0.070071436 0.034071431 0.67500001
-0.06878572 0.034071431 0.67500001
-0.067500003 0.034071431 0.67500001
-0.066214293 0.034071431 0.67500001
-0.064832382 0.034020953 0.67400002
-0.063548572 0.034020953 0.67400002
-0.062264767 0.034020953 0.67400002
-0.060980957 0.034020953 0.67400002
-0.059697147 0.034020953 0.67400002
-0.058413338 0.034020953 0.67400002
-0.057129528 0.034020953 0.67400002
-0.055928577 0.034071431 0.67500001
-0.05464286 0.034071431 0.67500001
-0.053357147 0.034071431 0.67500001
-0.052071434 0.034071431 0.67500001
-0.050785717 0.034071431 0.67500001
-0.049500003 0.034071431 0.67500001
-0.048285719 0.034121908 0.67600006
-0.046998098 0.034121908 0.67600006
-0.045845717 0.03422286 0.67800003
-0.044620004 0.034273334 0.67900002
-0.043326668 0.034273334 0.67900002
-0.04209524 0.034323812 0.68000001
-0.040920004 0.034424763 0.68200004
-0.03967905 0.034475241 0.68300003
-0.038434289 0.034525715 0.68400002
-0.037240002 0.03462667 0.68600005
-0.035828575 0.034525715 0.68400002
-0.034525715 0.034525715 0.68400002
-0.033465717 0.034778096 0.68900001
-0.032246668 0.034879051 0.69100004
-0.031020002 0.034980003 0.69300002
-0.029785717 0.035080954 0.69500005
-0.028461907 0.035080954 0.69500005
-0.098056197 0.036195241 0.69100004
-0.096740007 0.036195241 0.69100004
-0.095423818 0.036195241 0.69100004
-0.094107628 0.036195241 0.69100004
-0.092791438 0.036195241 0.69100004
-0.091475241 0.036195241 0.69100004
-0.090028577 0.03614286 0.69000006
-0.088714294 0.03614286 0.69000006
-0.086893342 0.035933334 0.68600005
-0.085337147 0.035828575 0.68400002
-0.083911434 0.035776194 0.68300003
-0.082489528 0.035723813 0.68200004
-0.080952384 0.03561905 0.68000001
-0.079540007 0.035566669 0.67900002
-0.078246675 0.035566669 0.67900002
-0.076840006 0.035514288 0.67800003
-0.075548574 0.035514288 0.67800003
-0.07425715 0.035514288 0.67800003
-0.072965719 0.035514288 0.67800003
-0.071462862 0.035409525 0.67600006
-0.070175245 0.035409525 0.67600006
-0.06878572 0.035357144 0.67500001
-0.067500003 0.035357144 0.67500001
-0.066214293 0.035357144 0.67500001
-0.064832382 0.035304762 0.67400002
-0.063548572 0.035304762 0.67400002
-0.062264767 0.035304762 0.67400002
-0.061071433 0.035357144 0.67500001
-0.05978572 0.035357144 0.67500001
-0.058500003 0.035357144 0.67500001
-0.05721429 0.035357144 0.67500001
-0.055928577 0.035357144 0.67500001
-0.05464286 0.035357144 0.67500001
-0.053357147 0.035357144 0.67500001
-0.052071434 0.035357144 0.67500001
-0.050785717 0.035357144 0.67500001
-0.049573336 0.035409525 0.67600006
-0.048428576 0.035514288 0.67800003
-0.047137145 0.035514288 0.67800003
-0.045845717 0.035514288 0.67800003
-0.044620004 0.035566669 0.67900002
-0.043390479 0.03561905 0.68000001
-0.04209524 0.03561905 0.68000001
-0.040980004 0.035776194 0.68300003
-0.039737146 0.035828575 0.68400002
-0.038434289 0.035828575 0.68400002
-0.037240002 0.035933334 0.68600005
-0.035828575 0.035828575 0.68400002
-0.03462667 0.035933334 0.68600005
-0.033465717 0.036090478 0.68900001
-0.032246668 0.036195241 0.69100004
-0.031020002 0.036300004 0.69300002
-0.029785717 0.036404766 0.69500005
-0.028461907 0.036404766 0.69500005
-0.095423818 0.037511431 0.69100004
-0.094107628 0.037511431 0.69100004
-0.093060009 0.037620004 0.69300002
-0.091475241 0.037511431 0.69100004
-0.090159051 0.037511431 0.69100004
-0.088714294 0.037457146 0.69000006
-0.087020002 0.037294287 0.68700004
-0.085586675 0.037240002 0.68600005
-0.084034294 0.037131432 0.68400002
-0.08261048 0.037077144 0.68300003
-0.081190482 0.037022859 0.68200004
-0.079657145 0.036914289 0.68000001
-0.078361914 0.036914289 0.68000001
-0.076953337 0.036860004 0.67900002
-0.075660005 0.036860004 0.67900002
-0.074366674 0.036860004 0.67900002
-0.072965719 0.036805715 0.67800003
-0.071674287 0.036805715 0.67800003
-0.070382863 0.036805715 0.67800003
-0.068887621 0.036697146 0.67600006
-0.067500003 0.036642861 0.67500001
-0.066214293 0.036642861 0.67500001
-0.064928576 0.036642861 0.67500001
-0.063642859 0.036642861 0.67500001
-0.062357146 0.036642861 0.67500001
-0.061071433 0.036642861 0.67500001
-0.05978572 0.036642861 0.67500001
-0.058500003 0.036642861 0.67500001
-0.05721429 0.036642861 0.67500001
-0.055928577 0.036642861 0.67500001
-0.05464286 0.036642861 0.67500001
-0.053436194 0.036697146 0.67600006
-0.052148573 0.036697146 0.67600006
-0.050860956 0.036697146 0.67600006
-0.049573336 0.036697146 0.67600006
-0.048428576 0.036805715 0.67800003
-0.047137145 0.036805715 0.67800003
-0.045913335 0.036860004 0.67900002
-0.044620004 0.036860004 0.67900002
-0.043390479 0.036914289 0.68000001
-0.04221905 0.037022859 0.68200004
-0.040980004 0.037077144 0.68300003
-0.039737146 0.037131432 0.68400002
-0.03854667 0.037240002 0.68600005
-0.037294287 0.037294287 0.68700004
-0.035933334 0.037240002 0.68600005
-0.034677144 0.037294287 0.68700004
-0.033514287 0.037457146 0.69000006
-0.032340001 0.037620004 0.69300002
-0.031020002 0.037620004 0.69300002
-0.029785717 0.037728574 0.69500005
-0.028461907 0.037728574 0.69500005
-0.095423818 0.03882762 0.69100004
-0.094107628 0.03882762 0.69100004
-0.093060009 0.038940001 0.69300002
-0.091740005 0.038940001 0.69300002
-0.090159051 0.03882762 0.69100004
-0.088842861 0.03882762 0.69100004
-0.087273337 0.03871524 0.68900001
-0.085586675 0.03854667 0.68600005
-0.084280007 0.03854667 0.68600005
-0.082731433 0.038434289 0.68400002
-0.081309527 0.038378097 0.68300003
-0.079891436 0.038321909 0.68200004
-0.078361914 0.038209528 0.68000001
-0.077066675 0.038209528 0.68000001
-0.075660005 0.038153335 0.67900002
-0.074366674 0.038153335 0.67900002
-0.073073335 0.038153335 0.67900002
-0.071674287 0.038097147 0.67800003
-0.070382863 0.038097147 0.67800003
-0.069091432 0.038097147 0.67800003
-0.067600004 0.037984766 0.67600006
-0.066312388 0.037984766 0.67600006
-0.065024763 0.037984766 0.67600006
-0.063642859 0.037928574 0.67500001
-0.062357146 0.037928574 0.67500001
-0.061071433 0.037928574 0.67500001
-0.05978572 0.037928574 0.67500001
-0.058586672 0.037984766 0.67600006
-0.05721429 0.037928574 0.67500001
-0.056011431 0.037984766 0.67600006
-0.054723814 0.037984766 0.67600006
-0.053436194 0.037984766 0.67600006
-0.052148573 0.037984766 0.67600006
-0.050860956 0.037984766 0.67600006
-0.049720004 0.038097147 0.67800003
-0.048428576 0.038097147 0.67800003
-0.04720667 0.038153335 0.67900002
-0.045913335 0.038153335 0.67900002
-0.044685718 0.038209528 0.68000001
-0.043390479 0.038209528 0.68000001
-0.042280953 0.038378097 0.68300003
-0.041040003 0.038434289 0.68400002
-0.039853334 0.03854667 0.68600005
-0.03854667 0.03854667 0.68600005
-0.037294287 0.038602859 0.68700004
-0.035985716 0.038602859 0.68700004
-0.034778096 0.03871524 0.68900001
-0.033514287 0.038771432 0.69000006
-0.032340001 0.038940001 0.69300002
-0.031020002 0.038940001 0.69300002
-0.029785717 0.039052382 0.69500005
-0.093194291 0.040318098 0.69400001
-0.091740005 0.040260002 0.69300002
-0.090420008 0.040260002 0.69300002
-0.088842861 0.040143814 0.69100004
-0.087273337 0.040027622 0.68900001
-0.085586675 0.039853334 0.68600005
-0.084280007 0.039853334 0.68600005
-0.082731433 0.039737146 0.68400002
-0.08142858 0.039737146 0.68400002
-0.080008574 0.03967905 0.68300003
-0.07859239 0.039620955 0.68200004
-0.077293336 0.039620955 0.68200004
-0.075771436 0.039504763 0.68000001
-0.074476197 0.039504763 0.68000001
-0.073073335 0.039446671 0.67900002
-0.071780004 0.039446671 0.67900002
-0.070486672 0.039446671 0.67900002
-0.069091432 0.039388575 0.67800003
-0.067800008 0.039388575 0.67800003
-0.066508576 0.039388575 0.67800003
-0.065024763 0.039272383 0.67600006
-0.063642859 0.039214287 0.67500001
-0.062357146 0.039214287 0.67500001
-0.061161909 0.039272383 0.67600006
-0.059874289 0.039272383 0.67600006
-0.058586672 0.039272383 0.67600006
-0.057299051 0.039272383 0.67600006
-0.056011431 0.039272383 0.67600006
-0.054723814 0.039272383 0.67600006
-0.053436194 0.039272383 0.67600006
-0.05230286 0.039388575 0.67800003
-0.051011432 0.039388575 0.67800003
-0.049720004 0.039388575 0.67800003
-0.048500001 0.039446671 0.67900002
-0.04720667 0.039446671 0.67900002
-0.045980956 0.039504763 0.68000001
-0.044685718 0.039504763 0.68000001
-0.0435181 0.039620955 0.68200004
-0.042280953 0.03967905 0.68300003
-0.041040003 0.039737146 0.68400002
-0.039853334 0.039853334 0.68600005
-0.038602859 0.03991143 0.68700004
-0.037294287 0.03991143 0.68700004
-0.036090478 0.040027622 0.68900001
-0.034828573 0.040085718 0.69000006
-0.033562858 0.040143814 0.69100004
-0.032340001 0.040260002 0.69300002
-0.031064764 0.040318098 0.69400001
-0.029785717 0.040376194 0.69500005
-0.090420008 0.041580003 0.69300002
-0.089100003 0.041580003 0.69300002
-0.087526672 0.041460004 0.69100004
-0.085711434 0.041220002 0.68700004
-0.084280007 0.041160002 0.68600005
-0.082973339 0.041160002 0.68600005
-0.08142858 0.041040003 0.68400002
-0.080125719 0.041040003 0.68400002
-0.078707621 0.040980004 0.68300003
-0.077406675 0.040980004 0.68300003
-0.075771436 0.040800001 0.68000001
-0.074476197 0.040800001 0.68000001
-0.073180959 0.040800001 0.68000001
-0.071780004 0.040740002 0.67900002
-0.070486672 0.040740002 0.67900002
-0.069193341 0.040740002 0.67900002
-0.067900002 0.040740002 0.67900002
-0.066508576 0.040680002 0.67800003
-0.065217145 0.040680002 0.67800003
-0.063737147 0.040560003 0.67600006
-0.06244953 0.040560003 0.67600006
-0.061161909 0.040560003 0.67600006
-0.059874289 0.040560003 0.67600006
-0.058586672 0.040560003 0.67600006
-0.057299051 0.040560003 0.67600006
-0.056011431 0.040560003 0.67600006
-0.054723814 0.040560003 0.67600006
-0.053594287 0.040680002 0.67800003
-0.05230286 0.040680002 0.67800003
-0.051011432 0.040680002 0.67800003
-0.049720004 0.040680002 0.67800003
-0.048500001 0.040740002 0.67900002
-0.047276195 0.040800001 0.68000001
-0.045980956 0.040800001 0.68000001
-0.044817146 0.040920004 0.68200004
-0.043581907 0.040980004 0.68300003
-0.042280953 0.040980004 0.68300003
-0.041040003 0.041040003 0.68400002
-0.039853334 0.041160002 0.68600005
-0.038602859 0.041220002 0.68700004
-0.037402861 0.041340001 0.68900001
-0.036090478 0.041340001 0.68900001
-0.034828573 0.041400004 0.69000006
-0.033562858 0.041460004 0.69100004
-0.032386668 0.041640002 0.69400001
-0.031064764 0.041640002 0.69400001
-0.029785717 0.041700002 0.69500005
-0.090420008 0.042900003 0.69300002
