# .PCD v0.7 - Point Cloud Data file format
VERSION 0.7
FIELDS x y z
SIZE 4 4 4
TYPE F F F
COUNT 1 1 1
WIDTH 1349
HEIGHT 1
VIEWPOINT 0 0 0 1 0 0 0
POINTS 1349
DATA ascii
-0.027857145 0.062523812 0.65000004
-0.026537145 0.062331434 0.648
-0.025263811 0.062235244 0.64700001
-0.02403143 0.062235244 0.64700001
-0.022728574 0.062042862 0.64500004
-0.021500001 0.062042862 0.64500004
-0.020240001 0.061946671 0.64400005
-0.019013334 0.061946671 0.64400005
-0.01773143 0.06175429 0.64200002
-0.016508572 0.06175429 0.64200002
-0.015285715 0.06175429 0.64200002
-0.014062858 0.06175429 0.64200002
-0.012840001 0.06175429 0.64200002
-0.011617144 0.06175429 0.64200002
-0.010394286 0.06175429 0.64200002
-0.0091714291 0.06175429 0.64200002
-0.0079485718 0.06175429 0.64200002
-0.0067257145 0.06175429 0.64200002
-0.0055028577 0.06175429 0.64200002
-0.0042800005 0.06175429 0.64200002
-0.003057143 0.06175429 0.64200002
-0.0018342858 0.06175429 0.64200002
-0.00061142864 0.06175429 0.64200002
0.00061333337 0.061946671 0.64400005
0.0018400002 0.061946671 0.64400005
0.0030714287 0.062042862 0.64500004
0.004306667 0.062139053 0.64600003
0.0055371434 0.062139053 0.64600003
0.0067780958 0.062235244 0.64700001
0.0080104768 0.062235244 0.64700001
0.0092571434 0.062331434 0.648
0.010491429 0.062331434 0.648
0.011761906 0.062523812 0.65000004
0.013040001 0.062716193 0.65200001
0.014303811 0.062812388 0.65300006
0.015595239 0.063004769 0.65500003
0.016842859 0.063004769 0.65500003
0.018118097 0.063100956 0.65600002
0.019397143 0.063197143 0.65700001
0.020680001 0.063293338 0.65800005
0.022000002 0.063485719 0.66000003
-0.042752385 0.065723814 0.67000002
-0.041414287 0.06562572 0.66900003
-0.039960004 0.065331429 0.66600001
-0.038633335 0.065233335 0.66500002
-0.037254289 0.065037146 0.66300005
-0.035937145 0.064939052 0.66200006
-0.034571432 0.064742863 0.66000003
-0.033213336 0.064546674 0.65800005
-0.031862859 0.064350478 0.65600002
-0.030566668 0.064252384 0.65500003
-0.029184764 0.063958101 0.65200001
-0.027857145 0.063761912 0.65000004
-0.026619049 0.063761912 0.65000004
-0.025302859 0.063565716 0.648
-0.02403143 0.063467622 0.64700001
-0.022728574 0.063271433 0.64500004
-0.021500001 0.063271433 0.64500004
-0.02027143 0.063271433 0.64500004
-0.019013334 0.063173339 0.64400005
-0.017786669 0.063173339 0.64400005
-0.016560001 0.063173339 0.64400005
-0.015333334 0.063173339 0.64400005
-0.014106668 0.063173339 0.64400005
-0.012880001 0.063173339 0.64400005
-0.011653334 0.063173339 0.64400005
-0.010426668 0.063173339 0.64400005
-0.0091714291 0.06297715 0.64200002
-0.0079485718 0.06297715 0.64200002
-0.0067257145 0.06297715 0.64200002
-0.0055028577 0.06297715 0.64200002
-0.0042800005 0.06297715 0.64200002
-0.003057143 0.06297715 0.64200002
-0.0018342858 0.06297715 0.64200002
-0.00061142864 0.06297715 0.64200002
0.00061333337 0.063173339 0.64400005
0.0018428572 0.063271433 0.64500004
0.0030761906 0.063369527 0.64600003
0.004306667 0.063369527 0.64600003
0.0055457149 0.063467622 0.64700001
0.0067780958 0.063467622 0.64700001
0.0080228578 0.063565716 0.648
0.0092571434 0.063565716 0.648
0.010540001 0.063860007 0.65100002
0.011780001 0.063860007 0.65100002
0.013040001 0.063958101 0.65200001
0.014303811 0.064056195 0.65300006
0.015595239 0.064252384 0.65500003
0.016842859 0.064252384 0.65500003
0.018118097 0.064350478 0.65600002
0.019397143 0.064448573 0.65700001
0.020742858 0.064742863 0.66000003
-0.042752385 0.067000002 0.67000002
-0.041414287 0.066900007 0.66900003
-0.039960004 0.066600002 0.66600001
-0.038633335 0.066500001 0.66500002
-0.037254289 0.066300005 0.66300005
-0.035937145 0.066200003 0.66200006
-0.034623813 0.066100001 0.66100001
-0.033213336 0.065800004 0.65800005
-0.031862859 0.065600008 0.65600002
-0.030566668 0.065500006 0.65500003
-0.029184764 0.065200001 0.65200001
-0.027857145 0.065000005 0.65000004
-0.026619049 0.065000005 0.65000004
-0.025302859 0.064800002 0.648
-0.02403143 0.064700007 0.64700001
-0.022763811 0.064600006 0.64600003
-0.021533335 0.064600006 0.64600003
-0.02027143 0.064500004 0.64500004
-0.019042859 0.064500004 0.64500004
-0.017814286 0.064500004 0.64500004
-0.016560001 0.064400002 0.64400005
-0.015333334 0.064400002 0.64400005
-0.014106668 0.064400002 0.64400005
-0.012880001 0.064400002 0.64400005
-0.011653334 0.064400002 0.64400005
-0.010426668 0.064400002 0.64400005
-0.0092000002 0.064400002 0.64400005
-0.0079733338 0.064400002 0.64400005
-0.0067257145 0.064200006 0.64200002
-0.0055028577 0.064200006 0.64200002
-0.0042933337 0.064400002 0.64400005
-0.0030666669 0.064400002 0.64400005
-0.0018400002 0.064400002 0.64400005
-0.00061333337 0.064400002 0.64400005
0.00061333337 0.064400002 0.64400005
0.0018428572 0.064500004 0.64500004
0.0030761906 0.064600006 0.64600003
0.0043133334 0.064700007 0.64700001
0.0055457149 0.064700007 0.64700001
0.0067885718 0.064800002 0.648
0.0080476198 0.065000005 0.65000004
0.0092857145 0.065000005 0.65000004
0.010540001 0.065100007 0.65100002
0.011798096 0.065200001 0.65200001
0.013060001 0.065300003 0.65300006
0.014303811 0.065300003 0.65300006
0.015619049 0.065600008 0.65600002
0.016868573 0.065600008 0.65600002
0.018145716 0.065700002 0.65700001
0.019426668 0.065800004 0.65800005
0.020774286 0.066100001 0.66100001
-0.044094287 0.068378098 0.671
-0.042752385 0.068276197 0.67000002
-0.041414287 0.068174288 0.66900003
-0.039960004 0.067868575 0.66600001
-0.038633335 0.067766674 0.66500002
-0.037254289 0.067562863 0.66300005
-0.035937145 0.067460954 0.66200006
-0.034623813 0.067359053 0.66100001
-0.033314288 0.067257144 0.66000003
-0.031960003 0.06705334 0.65800005
-0.030613335 0.06684953 0.65600002
-0.029229525 0.066543818 0.65300006
-0.027900001 0.066340007 0.65100002
-0.026619049 0.066238098 0.65000004
-0.025302859 0.066034287 0.648
-0.024068573 0.066034287 0.648
-0.022799049 0.065932386 0.64700001
-0.021566669 0.065932386 0.64700001
-0.020302858 0.065830484 0.64600003
-0.019072382 0.065830484 0.64600003
-0.017814286 0.065728575 0.64500004
-0.016585715 0.065728575 0.64500004
-0.015357144 0.065728575 0.64500004
-0.014128572 0.065728575 0.64500004
-0.0129 0.065728575 0.64500004
-0.011671429 0.065728575 0.64500004
-0.010442858 0.065728575 0.64500004
-0.0092142867 0.065728575 0.64500004
-0.0079733338 0.065626673 0.64400005
-0.006746667 0.065626673 0.64400005
-0.0055200006 0.065626673 0.64400005
-0.0042933337 0.065626673 0.64400005
-0.0030714287 0.065728575 0.64500004
-0.0018400002 0.065626673 0.64400005
-0.00061428576 0.065728575 0.64500004
0.00061428576 0.065728575 0.64500004
0.0018457144 0.065830484 0.64600003
0.0030809527 0.065932386 0.64700001
0.0043133334 0.065932386 0.64700001
0.0055542863 0.066034287 0.648
0.0067885718 0.066034287 0.648
0.0080476198 0.066238098 0.65000004
0.0092857145 0.066238098 0.65000004
0.010540001 0.066340007 0.65100002
0.011798096 0.066441908 0.65200001
0.013060001 0.066543818 0.65300006
0.01434762 0.066747621 0.65500003
0.015619049 0.06684953 0.65600002
0.016894286 0.066951431 0.65700001
0.018173335 0.06705334 0.65800005
0.019426668 0.06705334 0.65800005
0.020837145 0.067562863 0.66300005
-0.044094287 0.069656193 0.671
-0.042752385 0.069552384 0.67000002
-0.041476194 0.069552384 0.67000002
-0.040020004 0.069240957 0.66700006
-0.038633335 0.06903334 0.66500002
-0.037254289 0.068825722 0.66300005
-0.035937145 0.068721913 0.66200006
-0.034623813 0.068618096 0.66100001
-0.033314288 0.068514287 0.66000003
-0.031960003 0.06830667 0.65800005
-0.030613335 0.068099052 0.65600002
-0.029229525 0.067787625 0.65300006
-0.027942859 0.067683816 0.65200001
-0.026660001 0.067580007 0.65100002
-0.025380954 0.067476198 0.65000004
-0.024068573 0.067268573 0.648
-0.022799049 0.067164764 0.64700001
-0.021566669 0.067164764 0.64700001
-0.020334287 0.067164764 0.64700001
-0.019072382 0.067060955 0.64600003
-0.017841905 0.067060955 0.64600003
-0.016611429 0.067060955 0.64600003
-0.015380953 0.067060955 0.64600003
-0.014150477 0.067060955 0.64600003
-0.012920001 0.067060955 0.64600003
-0.011671429 0.066957146 0.64500004
-0.010442858 0.066957146 0.64500004
-0.0092142867 0.066957146 0.64500004
-0.0079857148 0.066957146 0.64500004
-0.006746667 0.066853337 0.64400005
-0.0055200006 0.066853337 0.64400005
-0.0043000001 0.066957146 0.64500004
-0.0030714287 0.066957146 0.64500004
-0.0018428572 0.066957146 0.64500004
-0.00061428576 0.066957146 0.64500004
0.00061523815 0.067060955 0.64600003
0.0018457144 0.067060955 0.64600003
0.0030809527 0.067164764 0.64700001
0.0043133334 0.067164764 0.64700001
0.0055542863 0.067268573 0.648
0.0068095243 0.067476198 0.65000004
0.0080476198 0.067476198 0.65000004
0.009300001 0.067580007 0.65100002
0.010556191 0.067683816 0.65200001
0.011816191 0.067787625 0.65300006
0.013060001 0.067787625 0.65300006
0.01434762 0.067995243 0.65500003
0.015642859 0.068202861 0.65700001
0.01692 0.06830667 0.65800005
0.018228572 0.068514287 0.66000003
0.019544763 0.068721913 0.66200006
0.020900002 0.06903334 0.66500002
0.022200001 0.069137149 0.66600001
-0.044094287 0.070934288 0.671
-0.042816192 0.070934288 0.671
-0.041476194 0.070828579 0.67000002
-0.040140003 0.070722863 0.66900003
-0.038633335 0.070300005 0.66500002
-0.037254289 0.070088573 0.66300005
-0.035937145 0.069982864 0.66200006
-0.034623813 0.069877148 0.66100001
-0.033314288 0.069771431 0.66000003
-0.031960003 0.069560006 0.65800005
-0.030613335 0.069348574 0.65600002
-0.029229525 0.069031432 0.65300006
-0.027942859 0.068925716 0.65200001
-0.026660001 0.068820007 0.65100002
-0.025380954 0.068714291 0.65000004
-0.024068573 0.068502858 0.648
-0.022834288 0.068502858 0.648
-0.021566669 0.068397149 0.64700001
-0.020334287 0.068397149 0.64700001
-0.019101907 0.068397149 0.64700001
-0.017869525 0.068397149 0.64700001
-0.016637145 0.068397149 0.64700001
-0.015404763 0.068397149 0.64700001
-0.014150477 0.068291433 0.64600003
-0.012920001 0.068291433 0.64600003
-0.011689524 0.068291433 0.64600003
-0.010459049 0.068291433 0.64600003
-0.0092285722 0.068291433 0.64600003
-0.0079857148 0.068185717 0.64500004
-0.0067571434 0.068185717 0.64500004
-0.005528572 0.068185717 0.64500004
-0.0043000001 0.068185717 0.64500004
-0.0030761906 0.068291433 0.64600003
-0.0018428572 0.068185717 0.64500004
-0.00061523815 0.068291433 0.64600003
0.00061523815 0.068291433 0.64600003
0.0018485716 0.068397149 0.64700001
0.0030809527 0.068397149 0.64700001
0.0043200003 0.068502858 0.648
0.0055714292 0.068714291 0.65000004
0.0068095243 0.068714291 0.65000004
0.0080600008 0.068820007 0.65100002
0.009300001 0.068820007 0.65100002
0.010556191 0.068925716 0.65200001
0.011816191 0.069031432 0.65300006
0.013060001 0.069031432 0.65300006
0.01434762 0.069242865 0.65500003
0.015642859 0.06945429 0.65700001
0.016894286 0.06945429 0.65700001
0.018228572 0.069771431 0.66000003
0.019515239 0.069877148 0.66100001
0.020837145 0.070088573 0.66300005
0.022233335 0.070511431 0.66700006
-0.040140003 0.071997151 0.66900003
-0.038633335 0.071566671 0.66500002
-0.037254289 0.071351431 0.66300005
-0.035937145 0.071243815 0.66200006
-0.034623813 0.071136191 0.66100001
-0.033314288 0.071028575 0.66000003
-0.031960003 0.070813335 0.65800005
-0.030613335 0.070598103 0.65600002
-0.029229525 0.07027524 0.65300006
-0.027942859 0.070167623 0.65200001
-0.026660001 0.070060007 0.65100002
-0.025380954 0.069952384 0.65000004
-0.02414286 0.069952384 0.65000004
-0.022834288 0.069737144 0.648
-0.021600001 0.069737144 0.648
-0.020334287 0.069629528 0.64700001
-0.019101907 0.069629528 0.64700001
-0.017869525 0.069629528 0.64700001
-0.016637145 0.069629528 0.64700001
-0.015404763 0.069629528 0.64700001
-0.014172382 0.069629528 0.64700001
-0.012940001 0.069629528 0.64700001
-0.01170762 0.069629528 0.64700001
-0.010475239 0.069629528 0.64700001
-0.0092285722 0.069521911 0.64600003
-0.0079980958 0.069521911 0.64600003
-0.0067571434 0.069414288 0.64500004
-0.005528572 0.069414288 0.64500004
-0.004306667 0.069521911 0.64600003
-0.0030761906 0.069521911 0.64600003
-0.0018428572 0.069414288 0.64500004
-0.00061523815 0.069521911 0.64600003
0.00061523815 0.069521911 0.64600003
0.0018485716 0.069629528 0.64700001
0.0030809527 0.069629528 0.64700001
0.0043200003 0.069737144 0.648
0.0055714292 0.069952384 0.65000004
0.0068095243 0.069952384 0.65000004
0.0080600008 0.070060007 0.65100002
0.0093142865 0.070167623 0.65200001
0.010556191 0.070167623 0.65200001
0.011816191 0.07027524 0.65300006
0.013100001 0.070490479 0.65500003
0.014369525 0.070598103 0.65600002
0.015666667 0.070813335 0.65800005
0.01697143 0.071028575 0.66000003
0.018256191 0.071136191 0.66100001
0.019544763 0.071243815 0.66200006
0.020837145 0.071351431 0.66300005
0.022166668 0.071566671 0.66500002
-0.037254289 0.07261429 0.66300005
-0.035937145 0.072504766 0.66200006
-0.034623813 0.072395243 0.66100001
-0.033314288 0.072285719 0.66000003
-0.031960003 0.072066672 0.65800005
-0.030660002 0.071957149 0.65700001
-0.02931905 0.071738102 0.65500003
-0.027985716 0.071519054 0.65300006
-0.026700955 0.071409531 0.65200001
-0.025420001 0.071300007 0.65100002
-0.02414286 0.071190484 0.65000004
-0.022904763 0.071190484 0.65000004
-0.021600001 0.070971437 0.648
-0.020365715 0.070971437 0.648
-0.019131429 0.070971437 0.648
-0.017897144 0.070971437 0.648
-0.016662858 0.070971437 0.648
-0.015428573 0.070971437 0.648
-0.014172382 0.070861906 0.64700001
-0.012940001 0.070861906 0.64700001
-0.01170762 0.070861906 0.64700001
-0.010475239 0.070861906 0.64700001
-0.0092428578 0.070861906 0.64700001
-0.0080104768 0.070861906 0.64700001
-0.0067676194 0.070752382 0.64600003
-0.0055371434 0.070752382 0.64600003
-0.0043133334 0.070861906 0.64700001
-0.0030809527 0.070861906 0.64700001
-0.0018485716 0.070861906 0.64700001
-0.00061619049 0.070861906 0.64700001
0.00061714288 0.070971437 0.648
0.0018514286 0.070971437 0.648
0.0030857145 0.070971437 0.648
0.0043333336 0.071190484 0.65000004
0.0055800006 0.071300007 0.65100002
0.0068200002 0.071300007 0.65100002
0.0080723818 0.071409531 0.65200001
0.0093142865 0.071409531 0.65200001
0.010572381 0.071519054 0.65300006
0.011852382 0.071738102 0.65500003
0.01314 0.071957149 0.65700001
0.014413334 0.072066672 0.65800005
0.015714286 0.072285719 0.66000003
0.016997144 0.072395243 0.66100001
0.018256191 0.072395243 0.66100001
0.019544763 0.072504766 0.66200006
0.020837145 0.07261429 0.66300005
0.022166668 0.072833337 0.66500002
-0.037254289 0.073877148 0.66300005
-0.03599143 0.073877148 0.66300005
-0.034676194 0.073765717 0.66200006
-0.033314288 0.073542863 0.66000003
-0.032057144 0.073542863 0.66000003
-0.030660002 0.073208578 0.65700001
-0.029363811 0.073097147 0.65600002
-0.027985716 0.072762862 0.65300006
-0.026741907 0.072762862 0.65300006
-0.025459049 0.072651431 0.65200001
-0.024180003 0.072540008 0.65100002
-0.022940002 0.072540008 0.65100002
-0.021666668 0.072428577 0.65000004
-0.020428572 0.072428577 0.65000004
-0.019190477 0.072428577 0.65000004
-0.017897144 0.072205722 0.648
-0.016662858 0.072205722 0.648
-0.015428573 0.072205722 0.648
-0.014194286 0.072205722 0.648
-0.012960001 0.072205722 0.648
-0.011725715 0.072205722 0.648
-0.010491429 0.072205722 0.648
-0.0092428578 0.072094291 0.64700001
-0.0080104768 0.072094291 0.64700001
-0.0067780958 0.072094291 0.64700001
-0.0055457149 0.072094291 0.64700001
-0.0043133334 0.072094291 0.64700001
-0.0030809527 0.072094291 0.64700001
-0.0018485716 0.072094291 0.64700001
-0.00061714288 0.072205722 0.648
0.00061714288 0.072205722 0.648
0.0018514286 0.072205722 0.648
0.0030952382 0.072428577 0.65000004
0.0043400005 0.072540008 0.65100002
0.0055800006 0.072540008 0.65100002
0.0068304767 0.072651431 0.65200001
0.0080723818 0.072651431 0.65200001
0.0093285721 0.072762862 0.65300006
0.010572381 0.072762862 0.65300006
0.011870477 0.073097147 0.65600002
0.01314 0.073208578 0.65700001
0.014457144 0.073542863 0.66000003
0.015738096 0.073654294 0.66100001
0.017022857 0.073765717 0.66200006
0.01828381 0.073765717 0.66200006
0.019574286 0.073877148 0.66300005
0.020837145 0.073877148 0.66300005
0.022100002 0.073877148 0.66300005
-0.038981907 0.076046668 0.671
-0.03764762 0.075933337 0.67000002
-0.036154289 0.075480007 0.66600001
-0.034728575 0.075140007 0.66300005
-0.033364765 0.074913338 0.66100001
-0.032057144 0.074800007 0.66000003
-0.030706668 0.074573338 0.65800005
-0.029363811 0.074346669 0.65600002
-0.02807143 0.074233338 0.65500003
-0.026823811 0.074233338 0.65500003
-0.025498098 0.074006669 0.65300006
-0.024217144 0.073893338 0.65200001
-0.02297524 0.073893338 0.65200001
-0.021733334 0.073893338 0.65200001
-0.020460002 0.073780008 0.65100002
-0.019220002 0.073780008 0.65100002
-0.017952383 0.073666669 0.65000004
-0.016714286 0.073666669 0.65000004
-0.015476191 0.073666669 0.65000004
-0.014194286 0.073440008 0.648
-0.012960001 0.073440008 0.648
-0.011725715 0.073440008 0.648
-0.010491429 0.073440008 0.648
-0.0092571434 0.073440008 0.648
-0.0080104768 0.07332667 0.64700001
-0.0067780958 0.07332667 0.64700001
-0.0055457149 0.07332667 0.64700001
-0.0043200003 0.073440008 0.648
-0.0030857145 0.073440008 0.648
-0.0018514286 0.073440008 0.648
-0.00061714288 0.073440008 0.648
0.00061714288 0.073440008 0.648
0.001857143 0.073666669 0.65000004
0.0030952382 0.073666669 0.65000004
0.0043400005 0.073780008 0.65100002
0.005588572 0.073893338 0.65200001
0.0068304767 0.073893338 0.65200001
0.0080847628 0.074006669 0.65300006
0.0093571432 0.074233338 0.65500003
0.010620954 0.074346669 0.65600002
0.011888572 0.074460007 0.65700001
0.013160001 0.074573338 0.65800005
0.014479049 0.074913338 0.66100001
0.015738096 0.074913338 0.66100001
0.017022857 0.075026669 0.66200006
0.01828381 0.075026669 0.66200006
0.019574286 0.075140007 0.66300005
0.020900002 0.075366668 0.66500002
0.022166668 0.075366668 0.66500002
-0.039040003 0.077440009 0.67200005
-0.037703812 0.07732477 0.671
-0.036317144 0.077094294 0.66900003
-0.034885716 0.07674858 0.66600001
-0.033465717 0.076402865 0.66300005
-0.032105718 0.076172389 0.66100001
-0.030846668 0.076172389 0.66100001
-0.029408574 0.075711437 0.65700001
-0.028114287 0.075596198 0.65600002
-0.026864763 0.075596198 0.65600002
-0.025576193 0.07548096 0.65500003
-0.024254287 0.075250484 0.65300006
-0.023010477 0.075250484 0.65300006
-0.021733334 0.075135246 0.65200001
-0.020460002 0.075020008 0.65100002
-0.019220002 0.075020008 0.65100002
-0.017980002 0.075020008 0.65100002
-0.016740002 0.075020008 0.65100002
-0.015476191 0.07490477 0.65000004
-0.014238096 0.07490477 0.65000004
-0.012960001 0.074674293 0.648
-0.011761906 0.07490477 0.65000004
-0.010491429 0.074674293 0.648
-0.0092571434 0.074674293 0.648
-0.0080228578 0.074674293 0.648
-0.0067780958 0.074559055 0.64700001
-0.0055542863 0.074674293 0.648
-0.0043200003 0.074674293 0.648
-0.0030857145 0.074674293 0.648
-0.0018514286 0.074674293 0.648
-0.00061714288 0.074674293 0.648
0.00061904767 0.07490477 0.65000004
0.001857143 0.07490477 0.65000004
0.0031000001 0.075020008 0.65100002
0.0043466669 0.075135246 0.65200001
0.005588572 0.075135246 0.65200001
0.0068409527 0.075250484 0.65300006
0.0080847628 0.075250484 0.65300006
0.0093571432 0.07548096 0.65500003
0.010637144 0.075711437 0.65700001
0.011888572 0.075711437 0.65700001
0.013200001 0.076057151 0.66000003
0.014479049 0.076172389 0.66100001
0.015761906 0.076287627 0.66200006
0.017022857 0.076287627 0.66200006
0.01828381 0.076287627 0.66200006
0.019574286 0.076402865 0.66300005
0.020837145 0.076402865 0.66300005
0.022100002 0.076402865 0.66300005
-0.039272383 0.079188578 0.67600006
-0.037760001 0.078720003 0.67200005
-0.036371432 0.07848572 0.67000002
-0.034938097 0.078134291 0.66700006
-0.033566669 0.077900007 0.66500002
-0.032202858 0.077665716 0.66300005
-0.030846668 0.077431433 0.66100001
-0.029408574 0.076962866 0.65700001
-0.028157145 0.076962866 0.65700001
-0.026864763 0.07684572 0.65600002
-0.02561524 0.07684572 0.65600002
-0.024328573 0.076728575 0.65500003
-0.023010477 0.076494291 0.65300006
-0.021766668 0.076494291 0.65300006
-0.020491431 0.076377146 0.65200001
-0.019249525 0.076377146 0.65200001
-0.018007619 0.076377146 0.65200001
-0.016765716 0.076377146 0.65200001
-0.015500001 0.076260008 0.65100002
-0.014238096 0.076142862 0.65000004
-0.013000001 0.076142862 0.65000004
-0.011761906 0.076142862 0.65000004
-0.01052381 0.076142862 0.65000004
-0.0092857145 0.076142862 0.65000004
-0.0080228578 0.075908579 0.648
-0.0067885718 0.075908579 0.648
-0.0055714292 0.076142862 0.65000004
-0.0043333336 0.076142862 0.65000004
-0.0030952382 0.076142862 0.65000004
-0.0018514286 0.075908579 0.648
-0.00061904767 0.076142862 0.65000004
0.00062000006 0.076260008 0.65100002
0.0018600001 0.076260008 0.65100002
0.0031047622 0.076377146 0.65200001
0.0043466669 0.076377146 0.65200001
0.0055971434 0.076494291 0.65300006
0.0068409527 0.076494291 0.65300006
0.0081095239 0.076728575 0.65500003
0.0093714288 0.07684572 0.65600002
0.010637144 0.076962866 0.65700001
0.011906668 0.077080004 0.65800005
0.013220001 0.077431433 0.66100001
0.014500953 0.077548578 0.66200006
0.015761906 0.077548578 0.66200006
0.017048573 0.077665716 0.66300005
0.01828381 0.077548578 0.66200006
0.019574286 0.077665716 0.66300005
0.020837145 0.077665716 0.66300005
0.022100002 0.077665716 0.66300005
-0.039214287 0.080357149 0.67500001
-0.037703812 0.07988096 0.671
-0.036371432 0.079761907 0.67000002
-0.034885716 0.079285719 0.66600001
-0.033566669 0.079166673 0.66500002
-0.032202858 0.078928575 0.66300005
-0.030893335 0.07880953 0.66200006
-0.029453335 0.078333341 0.65800005
-0.028200002 0.078333341 0.65800005
-0.026905715 0.078214288 0.65700001
-0.025654288 0.078214288 0.65700001
-0.024365716 0.078095242 0.65600002
-0.023080954 0.077976197 0.65500003
-0.021766668 0.077738099 0.65300006
-0.020522859 0.077738099 0.65300006
-0.019249525 0.077619053 0.65200001
-0.018007619 0.077619053 0.65200001
-0.016765716 0.077619053 0.65200001
-0.015523811 0.077619053 0.65200001
-0.014260001 0.077500008 0.65100002
-0.01302 0.077500008 0.65100002
-0.011780001 0.077500008 0.65100002
-0.010540001 0.077500008 0.65100002
-0.009300001 0.077500008 0.65100002
-0.0080476198 0.077380955 0.65000004
-0.0067885718 0.077142864 0.648
-0.0055714292 0.077380955 0.65000004
-0.0043333336 0.077380955 0.65000004
-0.0030952382 0.077380955 0.65000004
-0.001857143 0.077380955 0.65000004
-0.00061904767 0.077380955 0.65000004
0.00062000006 0.077500008 0.65100002
0.0018628573 0.077619053 0.65200001
0.0031047622 0.077619053 0.65200001
0.0043533337 0.077738099 0.65300006
0.0055971434 0.077738099 0.65300006
0.0068619051 0.077976197 0.65500003
0.0081342859 0.078214288 0.65700001
0.0093857152 0.078214288 0.65700001
0.010653334 0.078333341 0.65800005
0.011942858 0.078571431 0.66000003
0.013220001 0.078690484 0.66100001
0.014500953 0.07880953 0.66200006
0.015761906 0.07880953 0.66200006
0.017048573 0.078928575 0.66300005
0.01828381 0.07880953 0.66200006
0.019574286 0.078928575 0.66300005
0.020837145 0.078928575 0.66300005
-0.039272383 0.081763811 0.67600006
-0.037760001 0.081280008 0.67200005
-0.036371432 0.081038103 0.67000002
-0.034938097 0.080675244 0.66700006
-0.033617146 0.080554292 0.66600001
-0.032300003 0.080433339 0.66500002
-0.030940002 0.080191433 0.66300005
-0.02954286 0.079828575 0.66000003
-0.028200002 0.07958667 0.65800005
-0.026946668 0.07958667 0.65800005
-0.025654288 0.079465717 0.65700001
-0.024365716 0.079344764 0.65600002
-0.023116192 0.079344764 0.65600002
-0.021833334 0.079223812 0.65500003
-0.020585716 0.079223812 0.65500003
-0.01927905 0.078981914 0.65300006
-0.018035239 0.078981914 0.65300006
-0.016791429 0.078981914 0.65300006
-0.015523811 0.078860961 0.65200001
-0.014281905 0.078860961 0.65200001
-0.013040001 0.078860961 0.65200001
-0.011798096 0.078860961 0.65200001
-0.010556191 0.078860961 0.65200001
-0.0093142865 0.078860961 0.65200001
-0.0080476198 0.078619055 0.65000004
-0.0068095243 0.078619055 0.65000004
-0.0055800006 0.078740008 0.65100002
-0.0043400005 0.078740008 0.65100002
-0.0031000001 0.078740008 0.65100002
-0.001857143 0.078619055 0.65000004
-0.00062000006 0.078740008 0.65100002
0.0006209524 0.078860961 0.65200001
0.0018628573 0.078860961 0.65200001
0.003109524 0.078981914 0.65300006
0.0043533337 0.078981914 0.65300006
0.0056142863 0.079223812 0.65500003
0.0068619051 0.079223812 0.65500003
0.0081342859 0.079465717 0.65700001
0.0093857152 0.079465717 0.65700001
0.010653334 0.07958667 0.65800005
0.011960953 0.079949528 0.66100001
0.013240001 0.080070481 0.66200006
0.014500953 0.080070481 0.66200006
0.015785715 0.080191433 0.66300005
0.017048573 0.080191433 0.66300005
0.01831143 0.080191433 0.66300005
0.019633334 0.080433339 0.66500002
0.020900002 0.080433339 0.66500002
-0.040680002 0.083297148 0.67800003
-0.039272383 0.083051436 0.67600006
-0.037760001 0.082560003 0.67200005
-0.036425717 0.08243715 0.671
-0.035095241 0.08231429 0.67000002
-0.03366762 0.081945717 0.66700006
-0.032300003 0.081700005 0.66500002
-0.030940002 0.081454292 0.66300005
-0.02954286 0.081085719 0.66000003
-0.028285716 0.081085719 0.66000003
-0.026946668 0.080840006 0.65800005
-0.025693335 0.080840006 0.65800005
-0.024402859 0.080717146 0.65700001
-0.023151429 0.080717146 0.65700001
-0.021866668 0.080594294 0.65600002
-0.020617144 0.080594294 0.65600002
-0.01927905 0.080225721 0.65300006
-0.018035239 0.080225721 0.65300006
-0.016791429 0.080225721 0.65300006
-0.01554762 0.080225721 0.65300006
-0.014303811 0.080225721 0.65300006
-0.013040001 0.080102861 0.65200001
-0.011798096 0.080102861 0.65200001
-0.010556191 0.080102861 0.65200001
-0.0093142865 0.080102861 0.65200001
-0.0080723818 0.080102861 0.65200001
-0.0068200002 0.079980008 0.65100002
-0.0055800006 0.079980008 0.65100002
-0.0043400005 0.079980008 0.65100002
-0.0031000001 0.079980008 0.65100002
-0.0018600001 0.079980008 0.65100002
-0.00062000006 0.079980008 0.65100002
0.0006209524 0.080102861 0.65200001
0.0018657144 0.080225721 0.65300006
0.003109524 0.080225721 0.65300006
0.004366667 0.080471434 0.65500003
0.0056142863 0.080471434 0.65500003
0.0068723815 0.080594294 0.65600002
0.0081342859 0.080717146 0.65700001
0.0094000008 0.080840006 0.65800005
0.010685715 0.081085719 0.66000003
0.011960953 0.081208579 0.66100001
0.013240001 0.081331432 0.66200006
0.014522858 0.081454292 0.66300005
0.015785715 0.081454292 0.66300005
0.017100001 0.081700005 0.66500002
0.018366668 0.081700005 0.66500002
0.019662859 0.081822865 0.66600001
0.02093143 0.081822865 0.66600001
-0.040680002 0.08458858 0.67800003
-0.039272383 0.084339052 0.67600006
-0.037760001 0.083840005 0.67200005
-0.036425717 0.083715245 0.671
-0.035147622 0.083715245 0.671
-0.033768572 0.083465718 0.66900003
-0.032348573 0.08309143 0.66600001
-0.031033335 0.08296667 0.66500002
-0.029587621 0.082467623 0.66100001
-0.028285716 0.082342863 0.66000003
-0.026946668 0.082093336 0.65800005
-0.025693335 0.082093336 0.65800005
-0.024402859 0.081968576 0.65700001
-0.023151429 0.081968576 0.65700001
-0.021866668 0.081843816 0.65600002
-0.020617144 0.081843816 0.65600002
-0.019338097 0.081719056 0.65500003
-0.018090477 0.081719056 0.65500003
-0.016791429 0.081469528 0.65300006
-0.01554762 0.081469528 0.65300006
-0.014303811 0.081469528 0.65300006
-0.013060001 0.081469528 0.65300006
-0.011816191 0.081469528 0.65300006
-0.010572381 0.081469528 0.65300006
-0.0093285721 0.081469528 0.65300006
-0.0080723818 0.081344768 0.65200001
-0.0068304767 0.081344768 0.65200001
-0.0055800006 0.081220008 0.65100002
-0.0043400005 0.081220008 0.65100002
-0.0031000001 0.081220008 0.65100002
-0.0018600001 0.081220008 0.65100002
-0.0006209524 0.081344768 0.65200001
0.0006209524 0.081344768 0.65200001
0.0018657144 0.081469528 0.65300006
0.0031190477 0.081719056 0.65500003
0.0043733334 0.081843816 0.65600002
0.0056228577 0.081843816 0.65600002
0.0068828575 0.081968576 0.65700001
0.0081342859 0.081968576 0.65700001
0.0094000008 0.082093336 0.65800005
0.010701905 0.082467623 0.66100001
0.011979048 0.082592383 0.66200006
0.013260001 0.08271715 0.66300005
0.014522858 0.08271715 0.66300005
0.015833335 0.08296667 0.66500002
0.017125715 0.08309143 0.66600001
0.018421905 0.083216198 0.66700006
0.019692382 0.083216198 0.66700006
-0.04197143 0.085880004 0.67800003
-0.040680002 0.085880004 0.67800003
-0.039214287 0.085500002 0.67500001
-0.037872385 0.085373342 0.67400002
-0.036480002 0.085120007 0.67200005
-0.035147622 0.08499334 0.671
-0.03381905 0.084866673 0.67000002
-0.032494288 0.084740005 0.66900003
-0.031080002 0.084360003 0.66600001
-0.029632382 0.083853342 0.66200006
-0.028328573 0.083726674 0.66100001
-0.027028574 0.083600007 0.66000003
-0.025693335 0.083346672 0.65800005
-0.024440002 0.083346672 0.65800005
-0.023151429 0.083220005 0.65700001
-0.021900002 0.083220005 0.65700001
-0.020648573 0.083220005 0.65700001
-0.019338097 0.08296667 0.65500003
-0.018090477 0.08296667 0.65500003
-0.016842859 0.08296667 0.65500003
-0.01554762 0.082713336 0.65300006
-0.014303811 0.082713336 0.65300006
-0.013060001 0.082713336 0.65300006
-0.011816191 0.082713336 0.65300006
-0.010572381 0.082713336 0.65300006
-0.0093285721 0.082713336 0.65300006
-0.0080847628 0.082713336 0.65300006
-0.0068304767 0.082586668 0.65200001
-0.005588572 0.082586668 0.65200001
-0.0043466669 0.082586668 0.65200001
-0.0031047622 0.082586668 0.65200001
-0.0018628573 0.082586668 0.65200001
-0.0006209524 0.082586668 0.65200001
0.00062190479 0.082713336 0.65300006
0.0018714287 0.08296667 0.65500003
0.0031285717 0.083220005 0.65700001
0.0043800003 0.083220005 0.65700001
0.0056314291 0.083220005 0.65700001
0.006893334 0.083346672 0.65800005
0.0081466669 0.083346672 0.65800005
0.0094285719 0.083600007 0.66000003
0.010701905 0.083726674 0.66100001
0.011979048 0.083853342 0.66200006
0.013260001 0.083980009 0.66300005
0.014566667 0.084233336 0.66500002
0.015857143 0.084360003 0.66600001
0.017125715 0.084360003 0.66600001
0.018394288 0.084360003 0.66600001
0.019662859 0.084360003 0.66600001
-0.040560003 0.086914293 0.67600006
-0.039272383 0.086914293 0.67600006
-0.037872385 0.086657152 0.67400002
-0.036480002 0.086400002 0.67200005
-0.035147622 0.086271435 0.671
-0.03381905 0.08614286 0.67000002
-0.032494288 0.086014293 0.66900003
-0.031126669 0.085757151 0.66700006
-0.029811431 0.085628577 0.66600001
-0.028371431 0.085114293 0.66200006
-0.027069526 0.084985718 0.66100001
-0.025810478 0.084985718 0.66100001
-0.024514288 0.084857151 0.66000003
-0.023186669 0.084600009 0.65800005
-0.021933334 0.084600009 0.65800005
-0.020648573 0.084471434 0.65700001
-0.019397143 0.084471434 0.65700001
-0.018090477 0.084214292 0.65500003
-0.016842859 0.084214292 0.65500003
-0.015595239 0.084214292 0.65500003
-0.01434762 0.084214292 0.65500003
-0.013100001 0.084214292 0.65500003
-0.011852382 0.084214292 0.65500003
-0.010572381 0.083957151 0.65300006
-0.0093285721 0.083957151 0.65300006
-0.0080847628 0.083957151 0.65300006
-0.0068409527 0.083957151 0.65300006
-0.005588572 0.083828576 0.65200001
-0.0043466669 0.083828576 0.65200001
-0.0031047622 0.083828576 0.65200001
-0.0018657144 0.083957151 0.65300006
-0.00062190479 0.083957151 0.65300006
0.00062380958 0.084214292 0.65500003
0.0018742859 0.08434286 0.65600002
0.0031285717 0.084471434 0.65700001
0.0043800003 0.084471434 0.65700001
0.0056400006 0.084600009 0.65800005
0.006893334 0.084600009 0.65800005
0.0081466669 0.084600009 0.65800005
0.0094428575 0.084985718 0.66100001
0.010718096 0.085114293 0.66200006
0.011997144 0.08524286 0.66300005
0.013300001 0.085500002 0.66500002
0.014588572 0.085628577 0.66600001
0.015857143 0.085628577 0.66600001
0.01715143 0.085757151 0.66700006
0.018421905 0.085757151 0.66700006
0.019780954 0.08614286 0.67000002
-0.039272383 0.08820191 0.67600006
-0.037872385 0.087940961 0.67400002
-0.036588576 0.087940961 0.67400002
-0.035200004 0.087680005 0.67200005
-0.03381905 0.087419055 0.67000002
-0.032542858 0.087419055 0.67000002
-0.031220002 0.087288581 0.66900003
-0.029856192 0.087027624 0.66700006
-0.028414287 0.086505719 0.66300005
-0.027110478 0.086375244 0.66200006
-0.025849525 0.086375244 0.66200006
-0.024551431 0.086244769 0.66100001
-0.023292383 0.086244769 0.66100001
-0.022000002 0.086114295 0.66000003
-0.020680001 0.085853338 0.65800005
-0.019426668 0.085853338 0.65800005
-0.018145716 0.085722864 0.65700001
-0.016894286 0.085722864 0.65700001
-0.015619049 0.085592389 0.65600002
-0.014369525 0.085592389 0.65600002
-0.013120001 0.085592389 0.65600002
-0.011870477 0.085592389 0.65600002
-0.010620954 0.085592389 0.65600002
-0.0093714288 0.085592389 0.65600002
-0.0081095239 0.085461907 0.65500003
-0.0068619051 0.085461907 0.65500003
-0.0056142863 0.085461907 0.65500003
-0.004366667 0.085461907 0.65500003
-0.0031190477 0.085461907 0.65500003
-0.0018714287 0.085461907 0.65500003
-0.00062476192 0.085592389 0.65600002
0.00062476192 0.085592389 0.65600002
0.0018771429 0.085722864 0.65700001
0.0031285717 0.085722864 0.65700001
0.0043866672 0.085853338 0.65800005
0.0056400006 0.085853338 0.65800005
0.006893334 0.085853338 0.65800005
0.0081714289 0.086114295 0.66000003
0.009457143 0.086375244 0.66200006
0.010766667 0.086766675 0.66500002
0.01205143 0.08689715 0.66600001
0.013340001 0.087027624 0.66700006
0.014654287 0.087288581 0.66900003
0.015952382 0.087419055 0.67000002
0.017228572 0.087419055 0.67000002
0.018532382 0.08754953 0.671
0.019840002 0.087680005 0.67200005
0.021182859 0.087940961 0.67400002
-0.039446671 0.089886673 0.67900002
-0.037928574 0.089357145 0.67500001
-0.036588576 0.089224771 0.67400002
-0.035200004 0.088960007 0.67200005
-0.033869527 0.088827625 0.671
-0.032542858 0.088695243 0.67000002
-0.031220002 0.088562861 0.66900003
-0.029856192 0.088298105 0.66700006
-0.028414287 0.087768577 0.66300005
-0.02715143 0.087768577 0.66300005
-0.025849525 0.087636195 0.66200006
-0.024588574 0.087636195 0.66200006
-0.023327621 0.087636195 0.66200006
-0.022033336 0.087503813 0.66100001
-0.020742858 0.087371431 0.66000003
-0.019426668 0.087106675 0.65800005
-0.018145716 0.086974293 0.65700001
-0.016894286 0.086974293 0.65700001
-0.015642859 0.086974293 0.65700001
-0.01439143 0.086974293 0.65700001
-0.013120001 0.086841911 0.65600002
-0.011870477 0.086841911 0.65600002
-0.010620954 0.086841911 0.65600002
-0.0093714288 0.086841911 0.65600002
-0.0081219049 0.086841911 0.65600002
-0.0068723815 0.086841911 0.65600002
-0.0056228577 0.086841911 0.65600002
-0.0043733334 0.086841911 0.65600002
-0.0031238098 0.086841911 0.65600002
-0.0018742859 0.086841911 0.65600002
-0.00062476192 0.086841911 0.65600002
0.00062571431 0.086974293 0.65700001
0.0018771429 0.086974293 0.65700001
0.0031285717 0.086974293 0.65700001
0.0043866672 0.087106675 0.65800005
0.0056571434 0.087371431 0.66000003
0.0069142859 0.087371431 0.66000003
0.0081838099 0.087503813 0.66100001
0.009457143 0.087636195 0.66200006
0.010734286 0.087768577 0.66300005
0.01205143 0.088165723 0.66600001
0.013380001 0.088562861 0.66900003
0.014676192 0.088695243 0.67000002
0.015952382 0.088695243 0.67000002
0.017254287 0.088827625 0.671
0.018532382 0.088827625 0.671
0.01989905 0.089224771 0.67400002
-0.037928574 0.090642862 0.67500001
-0.036588576 0.09050858 0.67400002
-0.035200004 0.090240009 0.67200005
-0.033869527 0.09010572 0.671
-0.032542858 0.089971438 0.67000002
-0.031266667 0.089971438 0.67000002
-0.029945716 0.089837149 0.66900003
-0.028500002 0.089300007 0.66500002
-0.02715143 0.089031436 0.66300005
-0.025888573 0.089031436 0.66300005
-0.024588574 0.088897146 0.66200006
-0.023327621 0.088897146 0.66200006
-0.022066668 0.088897146 0.66200006
-0.020774286 0.088762864 0.66100001
-0.019485716 0.088628575 0.66000003
-0.018173335 0.088360004 0.65800005
-0.016894286 0.088225722 0.65700001
-0.015642859 0.088225722 0.65700001
-0.01439143 0.088225722 0.65700001
-0.01314 0.088225722 0.65700001
-0.011888572 0.088225722 0.65700001
-0.010637144 0.088225722 0.65700001
-0.0093857152 0.088225722 0.65700001
-0.0081342859 0.088225722 0.65700001
-0.0068828575 0.088225722 0.65700001
-0.0056314291 0.088225722 0.65700001
-0.0043800003 0.088225722 0.65700001
-0.0031285717 0.088225722 0.65700001
-0.0018771429 0.088225722 0.65700001
-0.00062571431 0.088225722 0.65700001
0.00062571431 0.088225722 0.65700001
0.0018800001 0.088360004 0.65800005
0.0031333335 0.088360004 0.65800005
0.0044000004 0.088628575 0.66000003
0.0056571434 0.088628575 0.66000003
0.0069247624 0.088762864 0.66100001
0.0081961909 0.088897146 0.66200006
0.0094714295 0.089031436 0.66300005
0.010766667 0.089300007 0.66500002
0.01205143 0.089434288 0.66600001
0.013380001 0.089837149 0.66900003
0.014676192 0.089971438 0.67000002
0.015976192 0.09010572 0.671
0.017254287 0.09010572 0.671
0.018560002 0.090240009 0.67200005
0.019928573 0.090642862 0.67500001
-0.037928574 0.091928579 0.67500001
-0.036588576 0.09179239 0.67400002
-0.035200004 0.091520004 0.67200005
-0.033869527 0.091383815 0.671
-0.032542858 0.091247626 0.67000002
-0.031266667 0.091247626 0.67000002
-0.029945716 0.091111436 0.66900003
-0.028500002 0.090566672 0.66500002
-0.027233334 0.090566672 0.66500002
-0.025888573 0.090294294 0.66300005
-0.024625717 0.090294294 0.66300005
-0.023362858 0.090294294 0.66300005
-0.022066668 0.090158097 0.66200006
-0.020774286 0.090021908 0.66100001
-0.019515239 0.090021908 0.66100001
-0.018173335 0.089613341 0.65800005
-0.01692 0.089613341 0.65800005
-0.015642859 0.089477152 0.65700001
-0.01439143 0.089477152 0.65700001
-0.01314 0.089477152 0.65700001
-0.011888572 0.089477152 0.65700001
-0.010637144 0.089477152 0.65700001
-0.0093857152 0.089477152 0.65700001
-0.0081342859 0.089477152 0.65700001
-0.0068828575 0.089477152 0.65700001
-0.0056314291 0.089477152 0.65700001
-0.0043800003 0.089477152 0.65700001
-0.0031285717 0.089477152 0.65700001
-0.0018771429 0.089477152 0.65700001
-0.00062571431 0.089477152 0.65700001
0.0006266667 0.089613341 0.65800005
0.0018800001 0.089613341 0.65800005
0.0031333335 0.089613341 0.65800005
0.0044000004 0.089885719 0.66000003
0.0056657149 0.090021908 0.66100001
0.0069352384 0.090158097 0.66200006
0.0081961909 0.090158097 0.66200006
0.0094714295 0.090294294 0.66300005
0.010766667 0.090566672 0.66500002
0.012069524 0.090839051 0.66700006
0.013380001 0.091111436 0.66900003
0.014698097 0.091383815 0.671
0.015976192 0.091383815 0.671
0.017254287 0.091383815 0.671
0.018560002 0.091520004 0.67200005
0.019840002 0.091520004 0.67200005
-0.036642861 0.093214288 0.67500001
-0.035304762 0.093076199 0.67400002
-0.033920001 0.092800006 0.67200005
-0.032591432 0.09266191 0.671
-0.031266667 0.092523813 0.67000002
-0.029945716 0.092385717 0.66900003
-0.028585717 0.092109531 0.66700006
-0.027233334 0.091833338 0.66500002
-0.025888573 0.091557153 0.66300005
-0.024625717 0.091557153 0.66300005
-0.023362858 0.091557153 0.66300005
-0.022066668 0.091419056 0.66200006
-0.020805717 0.091419056 0.66200006
-0.019515239 0.09128096 0.66100001
-0.018256191 0.09128096 0.66100001
-0.01692 0.09086667 0.65800005
-0.015666667 0.09086667 0.65800005
-0.014413334 0.09086667 0.65800005
-0.013160001 0.09086667 0.65800005
-0.011906668 0.09086667 0.65800005
-0.010653334 0.09086667 0.65800005
-0.0094000008 0.09086667 0.65800005
-0.0081466669 0.09086667 0.65800005
-0.006893334 0.09086667 0.65800005
-0.0056400006 0.09086667 0.65800005
-0.0043866672 0.09086667 0.65800005
-0.0031285717 0.090728581 0.65700001
-0.0018800001 0.09086667 0.65800005
-0.0006266667 0.09086667 0.65800005
0.0006266667 0.09086667 0.65800005
0.0018857144 0.091142863 0.66000003
0.0031428575 0.091142863 0.66000003
0.0044066668 0.09128096 0.66100001
0.0056742863 0.091419056 0.66200006
0.0069352384 0.091419056 0.66200006
0.0082085719 0.091557153 0.66300005
0.0094714295 0.091557153 0.66300005
0.010766667 0.091833338 0.66500002
0.012069524 0.092109531 0.66700006
0.013380001 0.092385717 0.66900003
0.014698097 0.09266191 0.671
0.016000001 0.092800006 0.67200005
0.017254287 0.09266191 0.671
0.018560002 0.092800006 0.67200005
0.019840002 0.092800006 0.67200005
-0.036914289 0.09520001 0.68000001
-0.035357144 0.094500005 0.67500001
-0.033920001 0.094080009 0.67200005
-0.032591432 0.093940005 0.671
-0.031266667 0.093800008 0.67000002
-0.029990477 0.093800008 0.67000002
-0.028585717 0.093380004 0.66700006
-0.027274288 0.093240008 0.66600001
-0.025966669 0.093100004 0.66500002
-0.024700001 0.093100004 0.66500002
-0.023362858 0.092820004 0.66300005
-0.022100002 0.092820004 0.66300005
-0.020805717 0.092680007 0.66200006
-0.019544763 0.092680007 0.66200006
-0.01828381 0.092680007 0.66200006
-0.01697143 0.092400007 0.66000003
-0.015666667 0.092120007 0.65800005
-0.014413334 0.092120007 0.65800005
-0.013160001 0.092120007 0.65800005
-0.011906668 0.092120007 0.65800005
-0.010653334 0.092120007 0.65800005
-0.0094000008 0.092120007 0.65800005
-0.0081466669 0.092120007 0.65800005
-0.006893334 0.092120007 0.65800005
-0.0056400006 0.092120007 0.65800005
-0.0043866672 0.092120007 0.65800005
-0.0031333335 0.092120007 0.65800005
-0.0018800001 0.092120007 0.65800005
-0.0006266667 0.092120007 0.65800005
0.00062857149 0.092400007 0.66000003
0.0018857144 0.092400007 0.66000003
0.0031428575 0.092400007 0.66000003
0.0044066668 0.092540003 0.66100001
0.0056742863 0.092680007 0.66200006
0.0069352384 0.092680007 0.66200006
0.0082085719 0.092820004 0.66300005
0.0095000006 0.093100004 0.66500002
0.010782857 0.093240008 0.66600001
0.012069524 0.093380004 0.66700006
0.013380001 0.093660004 0.66900003
0.014698097 0.093940005 0.671
0.016000001 0.094080009 0.67200005
0.017280001 0.094080009 0.67200005
0.01861524 0.094360009 0.67400002
0.01989905 0.094360009 0.67400002
-0.034020953 0.095643818 0.67400002
-0.032640003 0.095360003 0.67200005
-0.031313334 0.0952181 0.671
-0.029990477 0.095076196 0.67000002
-0.028585717 0.094650485 0.66700006
-0.027274288 0.094508581 0.66600001
-0.025966669 0.09436667 0.66500002
-0.024700001 0.09436667 0.66500002
-0.023433335 0.09436667 0.66500002
-0.022100002 0.094082862 0.66300005
-0.020837145 0.094082862 0.66300005
-0.019544763 0.093940958 0.66200006
-0.01828381 0.093940958 0.66200006
-0.016997144 0.093799055 0.66100001
-0.015714286 0.093657151 0.66000003
-0.014457144 0.093657151 0.66000003
-0.013200001 0.093657151 0.66000003
-0.011942858 0.093657151 0.66000003
-0.010653334 0.093373336 0.65800005
-0.0094000008 0.093373336 0.65800005
-0.0081466669 0.093373336 0.65800005
-0.006893334 0.093373336 0.65800005
-0.0056400006 0.093373336 0.65800005
-0.0043866672 0.093373336 0.65800005
-0.0031333335 0.093373336 0.65800005
-0.0018800001 0.093373336 0.65800005
-0.00062857149 0.093657151 0.66000003
0.00062952383 0.093799055 0.66100001
0.0018885715 0.093799055 0.66100001
0.0031476193 0.093799055 0.66100001
0.0044133337 0.093940958 0.66200006
0.0056742863 0.093940958 0.66200006
0.0069457148 0.094082862 0.66300005
0.0082333339 0.09436667 0.66500002
0.0095142862 0.094508581 0.66600001
0.010782857 0.094508581 0.66600001
0.012069524 0.094650485 0.66700006
0.013380001 0.094934292 0.66900003
0.014698097 0.0952181 0.671
0.016000001 0.095360003 0.67200005
0.017331429 0.095643818 0.67400002
0.018642858 0.095785722 0.67500001
0.019928573 0.095785722 0.67500001
-0.034071431 0.097071432 0.67500001
-0.032737143 0.096927628 0.67400002
-0.03136 0.096640006 0.67200005
-0.030035241 0.096496195 0.671
-0.02867143 0.09620858 0.66900003
-0.02731524 0.095920958 0.66700006
-0.026005715 0.095777147 0.66600001
-0.024737144 0.095777147 0.66600001
-0.023433335 0.095633343 0.66500002
-0.022100002 0.095345721 0.66300005
-0.020837145 0.095345721 0.66300005
-0.019574286 0.095345721 0.66300005
-0.01828381 0.09520191 0.66200006
-0.017022857 0.09520191 0.66200006
-0.015738096 0.095058098 0.66100001
-0.014479049 0.095058098 0.66100001
-0.013220001 0.095058098 0.66100001
-0.011942858 0.094914295 0.66000003
-0.010685715 0.094914295 0.66000003
-0.0094285719 0.094914295 0.66000003
-0.0081714289 0.094914295 0.66000003
-0.006893334 0.094626673 0.65800005
-0.0056571434 0.094914295 0.66000003
-0.0044000004 0.094914295 0.66000003
-0.0031428575 0.094914295 0.66000003
-0.0018857144 0.094914295 0.66000003
-0.00062952383 0.095058098 0.66100001
0.00062952383 0.095058098 0.66100001
0.0018914287 0.09520191 0.66200006
0.0031523812 0.09520191 0.66200006
0.0044133337 0.09520191 0.66200006
0.0056828577 0.095345721 0.66300005
0.0069457148 0.095345721 0.66300005
0.0082333339 0.095633343 0.66500002
0.0095142862 0.095777147 0.66600001
0.010799048 0.095920958 0.66700006
0.012069524 0.095920958 0.66700006
0.013380001 0.09620858 0.66900003
0.014720001 0.096640006 0.67200005
0.016047619 0.096927628 0.67400002
0.017357145 0.097071432 0.67500001
0.018670477 0.097215243 0.67600006
0.019958096 0.097215243 0.67600006
-0.034121908 0.098502867 0.67600006
-0.032737143 0.098211437 0.67400002
-0.03136 0.097920008 0.67200005
-0.030080002 0.097920008 0.67200005
-0.028714288 0.097628579 0.67000002
-0.027397145 0.09748286 0.66900003
-0.026044764 0.097191438 0.66700006
-0.024737144 0.09704572 0.66600001
-0.023468573 0.09704572 0.66600001
-0.022166668 0.096900009 0.66500002
-0.020900002 0.096900009 0.66500002
-0.019574286 0.096608579 0.66300005
-0.01831143 0.096608579 0.66300005
-0.017022857 0.096462861 0.66200006
-0.015761906 0.096462861 0.66200006
-0.014500953 0.096462861 0.66200006
-0.013220001 0.09631715 0.66100001
-0.011960953 0.09631715 0.66100001
-0.010701905 0.09631715 0.66100001
-0.0094428575 0.09631715 0.66100001
-0.0081714289 0.096171431 0.66000003
-0.0069142859 0.096171431 0.66000003
-0.0056571434 0.096171431 0.66000003
-0.0044000004 0.096171431 0.66000003
-0.0031476193 0.09631715 0.66100001
-0.0018885715 0.09631715 0.66100001
-0.00063047622 0.096462861 0.66200006
0.00063047622 0.096462861 0.66200006
0.0018942858 0.096608579 0.66300005
0.003157143 0.096608579 0.66300005
0.0044200001 0.096608579 0.66300005
0.0057000006 0.096900009 0.66500002
0.0069666672 0.096900009 0.66500002
0.0082457149 0.09704572 0.66600001
0.0095142862 0.09704572 0.66600001
0.010799048 0.097191438 0.66700006
0.012105715 0.09748286 0.66900003
0.013380001 0.09748286 0.66900003
0.014720001 0.097920008 0.67200005
0.016047619 0.098211437 0.67400002
0.017357145 0.098357148 0.67500001
0.018725716 0.098794289 0.67800003
0.020017143 0.098794289 0.67800003
-0.03561905 0.10038096 0.68000001
-0.034121908 0.099790484 0.67600006
-0.032785717 0.099642865 0.67500001
-0.031453334 0.099495247 0.67400002
-0.030169526 0.099495247 0.67400002
-0.028757146 0.099052384 0.671
-0.027438097 0.098904766 0.67000002
-0.026122859 0.098757148 0.66900003
-0.024774287 0.098461911 0.66700006
-0.02350381 0.098461911 0.66700006
-0.022200001 0.098314293 0.66600001
-0.020900002 0.098166674 0.66500002
-0.019574286 0.097871438 0.66300005
-0.01831143 0.097871438 0.66300005
-0.017048573 0.097871438 0.66300005
-0.015761906 0.097723819 0.66200006
-0.014500953 0.097723819 0.66200006
-0.013240001 0.097723819 0.66200006
-0.011979048 0.097723819 0.66200006
-0.010718096 0.097723819 0.66200006
-0.0094428575 0.097576194 0.66100001
-0.0081838099 0.097576194 0.66100001
-0.0069247624 0.097576194 0.66100001
-0.0056657149 0.097576194 0.66100001
-0.0044066668 0.097576194 0.66100001
-0.0031523812 0.097723819 0.66200006
-0.0018914287 0.097723819 0.66200006
-0.00063142861 0.097871438 0.66300005
0.00063142861 0.097871438 0.66300005
0.0018942858 0.097871438 0.66300005
0.003166667 0.098166674 0.66500002
0.0044333334 0.098166674 0.66500002
0.0057000006 0.098166674 0.66500002
0.0069666672 0.098166674 0.66500002
0.0082457149 0.098314293 0.66600001
0.0095142862 0.098314293 0.66600001
0.010799048 0.098461911 0.66700006
0.012105715 0.098757148 0.66900003
0.013400001 0.098904766 0.67000002
0.014720001 0.099200003 0.67200005
0.016071429 0.099642865 0.67500001
0.017434286 0.10008572 0.67800003
0.018753335 0.10023334 0.67900002
0.020076191 0.10038096 0.68000001
0.02137143 0.10038096 0.68000001
-0.03561905 0.1016762 0.68000001
-0.034273334 0.10152667 0.67900002
-0.032931432 0.10137715 0.67800003
-0.031546667 0.1010781 0.67600006
-0.030214287 0.10092857 0.67500001
-0.028800001 0.10048001 0.67200005
-0.027479049 0.10033048 0.671
-0.026122859 0.10003144 0.66900003
-0.024848573 0.10003144 0.66900003
-0.02350381 0.099732384 0.66700006
-0.022233335 0.099732384 0.66700006
-0.02093143 0.099582866 0.66600001
-0.019662859 0.099582866 0.66600001
-0.018366668 0.09943334 0.66500002
