# .PCD v0.7 - Point Cloud Data file format
VERSION 0.7
FIELDS x y z
SIZE 4 4 4
TYPE F F F
COUNT 1 1 1
WIDTH 1357
HEIGHT 1
VIEWPOINT 0 0 0 1 0 0 0
POINTS 1357
DATA ascii
-0.09433905 0.070598103 0.65600002
-0.093089528 0.070598103 0.65600002
-0.091980003 0.070705719 0.65700001
-0.090728581 0.070705719 0.65700001
-0.089613341 0.070813335 0.65800005
-0.088360004 0.070813335 0.65800005
-0.087106675 0.070813335 0.65800005
-0.085853338 0.070813335 0.65800005
-0.084600009 0.070813335 0.65800005
-0.083346672 0.070813335 0.65800005
-0.082342863 0.071028575 0.66000003
-0.081085719 0.071028575 0.66000003
-0.079828575 0.071028575 0.66000003
-0.078690484 0.071136191 0.66100001
-0.077431433 0.071136191 0.66100001
-0.076287627 0.071243815 0.66200006
-0.075140007 0.071351431 0.66300005
-0.073877148 0.071351431 0.66300005
-0.07261429 0.071351431 0.66300005
-0.071351431 0.071351431 0.66300005
-0.070088573 0.071351431 0.66300005
-0.068825722 0.071351431 0.66300005
-0.067766674 0.071566671 0.66500002
-0.066600002 0.071674287 0.66600001
-0.065331429 0.071674287 0.66600001
-0.064062864 0.071674287 0.66600001
-0.062888578 0.071781911 0.66700006
-0.061618101 0.071781911 0.66700006
-0.060528576 0.071997151 0.66900003
-0.059254289 0.071997151 0.66900003
-0.057980005 0.071997151 0.66900003
-0.056790479 0.072104767 0.67000002
-0.055514291 0.072104767 0.67000002
-0.05431905 0.072212383 0.671
-0.053040955 0.072212383 0.671
-0.051840004 0.072320007 0.67200005
-0.050560005 0.072320007 0.67200005
-0.049426671 0.072535239 0.67400002
-0.048142862 0.072535239 0.67400002
-0.046859052 0.072535239 0.67400002
-0.045575242 0.072535239 0.67400002
-0.044357147 0.072642863 0.67500001
-0.04307143 0.072642863 0.67500001
-0.04184762 0.072750479 0.67600006
-0.040680002 0.072965719 0.67800003
-0.039388575 0.072965719 0.67800003
-0.038153335 0.073073335 0.67900002
-0.036860004 0.073073335 0.67900002
-0.035566669 0.073073335 0.67900002
-0.034323812 0.073180959 0.68000001
-0.033028573 0.073180959 0.68000001
-0.031733334 0.073180959 0.68000001
-0.030438097 0.073180959 0.68000001
-0.029142858 0.073180959 0.68000001
-0.027847622 0.073180959 0.68000001
-0.026630478 0.073396198 0.68200004
-0.025368573 0.073503815 0.68300003
-0.02406762 0.073503815 0.68300003
-0.022800002 0.073611431 0.68400002
-0.021497143 0.073611431 0.68400002
-0.020253334 0.073826671 0.68600005
-0.019029524 0.074149527 0.68900001
-0.017717144 0.074149527 0.68900001
-0.016404763 0.074149527 0.68900001
-0.015114287 0.07425715 0.69000006
-0.013800001 0.07425715 0.69000006
-0.012485716 0.07425715 0.69000006
-0.011171429 0.07425715 0.69000006
-0.0098714288 0.074364766 0.69100004
-0.0086047621 0.074795246 0.69500005
-0.0072704768 0.074687622 0.69400001
0.013535239 0.080499053 0.74800003
-0.14144573 0.07294286 0.66600001
-0.13996668 0.072833337 0.66500002
-0.13870001 0.072833337 0.66500002
-0.13702001 0.07261429 0.66300005
-0.13575715 0.07261429 0.66300005
-0.1330743 0.071847625 0.65600002
-0.13162382 0.071738102 0.65500003
-0.12977906 0.071409531 0.65200001
-0.12834001 0.071300007 0.65100002
-0.12690477 0.071190484 0.65000004
-0.12566668 0.071190484 0.65000004
-0.12404572 0.070971437 0.648
-0.12319048 0.071190484 0.65000004
-0.12195239 0.071190484 0.65000004
-0.12071429 0.071190484 0.65000004
-0.1194762 0.071190484 0.65000004
-0.11823811 0.071190484 0.65000004
-0.11718 0.071300007 0.65100002
-0.11594 0.071300007 0.65100002
-0.1147 0.071300007 0.65100002
-0.11346 0.071300007 0.65100002
-0.11239239 0.071409531 0.65200001
-0.11115048 0.071409531 0.65200001
-0.10990858 0.071409531 0.65200001
-0.10866667 0.071409531 0.65200001
-0.10758953 0.071519054 0.65300006
-0.10634572 0.071519054 0.65300006
-0.10510191 0.071519054 0.65300006
-0.1038581 0.071519054 0.65300006
-0.10261429 0.071519054 0.65300006
-0.10168096 0.071738102 0.65500003
-0.10043334 0.071738102 0.65500003
-0.09918572 0.071738102 0.65500003
-0.097938098 0.071738102 0.65500003
-0.096690483 0.071738102 0.65500003
-0.095442861 0.071738102 0.65500003
-0.094195247 0.071738102 0.65500003
-0.092947625 0.071738102 0.65500003
-0.091840006 0.071847625 0.65600002
-0.090590484 0.071847625 0.65600002
-0.089477152 0.071957149 0.65700001
-0.088225722 0.071957149 0.65700001
-0.087106675 0.072066672 0.65800005
-0.085853338 0.072066672 0.65800005
-0.084600009 0.072066672 0.65800005
-0.083346672 0.072066672 0.65800005
-0.082093336 0.072066672 0.65800005
-0.081085719 0.072285719 0.66000003
-0.079828575 0.072285719 0.66000003
-0.078571431 0.072285719 0.66000003
-0.077431433 0.072395243 0.66100001
-0.076287627 0.072504766 0.66200006
-0.075026669 0.072504766 0.66200006
-0.073877148 0.07261429 0.66300005
-0.07261429 0.07261429 0.66300005
-0.071351431 0.07261429 0.66300005
-0.070088573 0.07261429 0.66300005
-0.068825722 0.07261429 0.66300005
-0.067766674 0.072833337 0.66500002
-0.066500001 0.072833337 0.66500002
-0.065331429 0.07294286 0.66600001
-0.064062864 0.07294286 0.66600001
-0.062888578 0.073052384 0.66700006
-0.061618101 0.073052384 0.66700006
-0.060528576 0.073271431 0.66900003
-0.059254289 0.073271431 0.66900003
-0.057980005 0.073271431 0.66900003
-0.056790479 0.073380955 0.67000002
-0.055514291 0.073380955 0.67000002
-0.05431905 0.073490478 0.671
-0.053040955 0.073490478 0.671
-0.05176286 0.073490478 0.671
-0.050560005 0.073600002 0.67200005
-0.049280003 0.073600002 0.67200005
-0.048142862 0.073819056 0.67400002
-0.046859052 0.073819056 0.67400002
-0.045575242 0.073819056 0.67400002
-0.044357147 0.07392858 0.67500001
-0.04307143 0.07392858 0.67500001
-0.04184762 0.074038103 0.67600006
-0.040680002 0.07425715 0.67800003
-0.039388575 0.07425715 0.67800003
-0.038153335 0.074366674 0.67900002
-0.036860004 0.074366674 0.67900002
-0.035566669 0.074366674 0.67900002
-0.034323812 0.074476197 0.68000001
-0.033028573 0.074476197 0.68000001
-0.031733334 0.074476197 0.68000001
-0.030438097 0.074476197 0.68000001
-0.029142858 0.074476197 0.68000001
-0.027847622 0.074476197 0.68000001
-0.026630478 0.074695244 0.68200004
-0.025368573 0.074804768 0.68300003
-0.02406762 0.074804768 0.68300003
-0.022800002 0.074914292 0.68400002
-0.021497143 0.074914292 0.68400002
-0.020253334 0.075133339 0.68600005
-0.019029524 0.075461909 0.68900001
-0.017717144 0.075461909 0.68900001
-0.016428573 0.075571433 0.69000006
-0.015114287 0.075571433 0.69000006
-0.013800001 0.075571433 0.69000006
-0.012485716 0.075571433 0.69000006
-0.01118762 0.075680956 0.69100004
-0.0099000009 0.075900003 0.69300002
-0.0085923811 0.076009527 0.69400001
-0.14144573 0.074211434 0.66600001
-0.13996668 0.074100003 0.66500002
-0.13890858 0.074211434 0.66600001
-0.13743334 0.074100003 0.66500002
-0.13575715 0.073877148 0.66300005
-0.13287143 0.072985716 0.65500003
-0.13122192 0.072762862 0.65300006
-0.12958001 0.072540008 0.65100002
-0.12834001 0.072540008 0.65100002
-0.12690477 0.072428577 0.65000004
-0.12528001 0.072205722 0.648
-0.12404572 0.072205722 0.648
-0.12281144 0.072205722 0.648
-0.12157715 0.072205722 0.648
-0.12034287 0.072205722 0.648
-0.11910858 0.072205722 0.648
-0.11823811 0.072428577 0.65000004
-0.11700001 0.072428577 0.65000004
-0.11576191 0.072428577 0.65000004
-0.11452382 0.072428577 0.65000004
-0.11328572 0.072428577 0.65000004
-0.11222 0.072540008 0.65100002
-0.11098 0.072540008 0.65100002
-0.10974 0.072540008 0.65100002
-0.1085 0.072540008 0.65100002
-0.10742477 0.072651431 0.65200001
-0.10618287 0.072651431 0.65200001
-0.10494096 0.072651431 0.65200001
-0.1038581 0.072762862 0.65300006
-0.10261429 0.072762862 0.65300006
-0.10137048 0.072762862 0.65300006
-0.10012668 0.072762862 0.65300006
-0.098882861 0.072762862 0.65300006
-0.097639054 0.072762862 0.65300006
-0.096395247 0.072762862 0.65300006
-0.095442861 0.072985716 0.65500003
-0.094195247 0.072985716 0.65500003
-0.092947625 0.072985716 0.65500003
-0.091700003 0.072985716 0.65500003
-0.090452388 0.072985716 0.65500003
-0.089340955 0.073097147 0.65600002
-0.088225722 0.073208578 0.65700001
-0.086974293 0.073208578 0.65700001
-0.085853338 0.073320001 0.65800005
-0.084600009 0.073320001 0.65800005
-0.083346672 0.073320001 0.65800005
-0.082093336 0.073320001 0.65800005
-0.081085719 0.073542863 0.66000003
-0.079828575 0.073542863 0.66000003
-0.078571431 0.073542863 0.66000003
-0.077314287 0.073542863 0.66000003
-0.076172389 0.073654294 0.66100001
-0.074913338 0.073654294 0.66100001
-0.073765717 0.073765717 0.66200006
-0.07261429 0.073877148 0.66300005
-0.071351431 0.073877148 0.66300005
-0.070088573 0.073877148 0.66300005
-0.068825722 0.073877148 0.66300005
-0.067766674 0.074100003 0.66500002
-0.066500001 0.074100003 0.66500002
-0.065233335 0.074100003 0.66500002
-0.064062864 0.074211434 0.66600001
-0.062888578 0.074322864 0.66700006
-0.061618101 0.074322864 0.66700006
-0.060347624 0.074322864 0.66700006
-0.059254289 0.074545719 0.66900003
-0.057980005 0.074545719 0.66900003
-0.056790479 0.07465715 0.67000002
-0.055514291 0.07465715 0.67000002
-0.05431905 0.074768573 0.671
-0.053040955 0.074768573 0.671
-0.05176286 0.074768573 0.671
-0.050560005 0.074880004 0.67200005
-0.049280003 0.074880004 0.67200005
-0.048142862 0.075102866 0.67400002
-0.046859052 0.075102866 0.67400002
-0.045575242 0.075102866 0.67400002
-0.044357147 0.075214289 0.67500001
-0.04307143 0.075214289 0.67500001
-0.041785717 0.075214289 0.67500001
-0.040560003 0.07532572 0.67600006
-0.039388575 0.075548574 0.67800003
-0.038097147 0.075548574 0.67800003
-0.036860004 0.075660005 0.67900002
-0.035566669 0.075660005 0.67900002
-0.034323812 0.075771436 0.68000001
-0.033028573 0.075771436 0.68000001
-0.031733334 0.075771436 0.68000001
-0.030438097 0.075771436 0.68000001
-0.029142858 0.075771436 0.68000001
-0.027847622 0.075771436 0.68000001
-0.026630478 0.07599429 0.68200004
-0.025368573 0.076105721 0.68300003
-0.02406762 0.076105721 0.68300003
-0.022800002 0.076217145 0.68400002
-0.021560002 0.076440006 0.68600005
-0.020253334 0.076440006 0.68600005
-0.019029524 0.076774292 0.68900001
-0.017717144 0.076774292 0.68900001
-0.016428573 0.076885723 0.69000006
-0.015114287 0.076885723 0.69000006
-0.013800001 0.076885723 0.69000006
-0.01250381 0.076997146 0.69100004
-0.01118762 0.076997146 0.69100004
-0.0099142864 0.077331431 0.69400001
-0.0085923811 0.077331431 0.69400001
0.017738096 0.083014295 0.74500006
-0.13996668 0.075366668 0.66500002
-0.13870001 0.075366668 0.66500002
-0.13743334 0.075366668 0.66500002
-0.13616668 0.075366668 0.66500002
-0.13287143 0.074233338 0.65500003
-0.13102096 0.073893338 0.65200001
-0.12958001 0.073780008 0.65100002
-0.12814286 0.073666669 0.65000004
-0.12690477 0.073666669 0.65000004
-0.12528001 0.073440008 0.648
-0.12404572 0.073440008 0.648
-0.12281144 0.073440008 0.648
-0.12157715 0.073440008 0.648
-0.12034287 0.073440008 0.648
-0.11910858 0.073440008 0.648
-0.11787429 0.073440008 0.648
-0.11664001 0.073440008 0.648
-0.11540572 0.073440008 0.648
-0.11452382 0.073666669 0.65000004
-0.11328572 0.073666669 0.65000004
-0.11204763 0.073666669 0.65000004
-0.11080953 0.073666669 0.65000004
-0.10957143 0.073666669 0.65000004
-0.10833334 0.073666669 0.65000004
-0.10726 0.073780008 0.65100002
-0.10602 0.073780008 0.65100002
-0.10478 0.073780008 0.65100002
-0.10369905 0.073893338 0.65200001
-0.10245715 0.073893338 0.65200001
-0.10137048 0.074006669 0.65300006
-0.10012668 0.074006669 0.65300006
-0.098882861 0.074006669 0.65300006
-0.097639054 0.074006669 0.65300006
-0.096395247 0.074006669 0.65300006
-0.095151432 0.074006669 0.65300006
-0.094195247 0.074233338 0.65500003
-0.092947625 0.074233338 0.65500003
-0.091700003 0.074233338 0.65500003
-0.090452388 0.074233338 0.65500003
-0.089204766 0.074233338 0.65500003
-0.088091433 0.074346669 0.65600002
-0.086974293 0.074460007 0.65700001
-0.085722864 0.074460007 0.65700001
-0.084471434 0.074460007 0.65700001
-0.083346672 0.074573338 0.65800005
-0.082093336 0.074573338 0.65800005
-0.081085719 0.074800007 0.66000003
-0.079828575 0.074800007 0.66000003
-0.078571431 0.074800007 0.66000003
-0.077314287 0.074800007 0.66000003
-0.076172389 0.074913338 0.66100001
-0.074913338 0.074913338 0.66100001
-0.073765717 0.075026669 0.66200006
-0.072504766 0.075026669 0.66200006
-0.071243815 0.075026669 0.66200006
-0.070088573 0.075140007 0.66300005
-0.068825722 0.075140007 0.66300005
-0.067562863 0.075140007 0.66300005
-0.066500001 0.075366668 0.66500002
-0.065233335 0.075366668 0.66500002
-0.063966669 0.075366668 0.66500002
-0.06279429 0.075480007 0.66600001
-0.061525717 0.075480007 0.66600001
-0.060347624 0.075593337 0.66700006
-0.059077147 0.075593337 0.66700006
-0.057980005 0.075820006 0.66900003
-0.056705717 0.075820006 0.66900003
-0.055514291 0.075933337 0.67000002
-0.0542381 0.075933337 0.67000002
-0.053040955 0.076046668 0.671
-0.05176286 0.076046668 0.671
-0.050560005 0.076160006 0.67200005
-0.049280003 0.076160006 0.67200005
-0.048142862 0.076386675 0.67400002
-0.046859052 0.076386675 0.67400002
-0.045575242 0.076386675 0.67400002
-0.044357147 0.076500006 0.67500001
-0.04307143 0.076500006 0.67500001
-0.041785717 0.076500006 0.67500001
-0.040560003 0.076613337 0.67600006
-0.039388575 0.076840006 0.67800003
-0.038097147 0.076840006 0.67800003
-0.036860004 0.076953337 0.67900002
-0.035566669 0.076953337 0.67900002
-0.034323812 0.077066675 0.68000001
-0.033028573 0.077066675 0.68000001
-0.031733334 0.077066675 0.68000001
-0.030438097 0.077066675 0.68000001
-0.029142858 0.077066675 0.68000001
-0.027847622 0.077066675 0.68000001
-0.026630478 0.077293336 0.68200004
-0.025368573 0.077406675 0.68300003
-0.02406762 0.077406675 0.68300003
-0.022800002 0.077520005 0.68400002
-0.021560002 0.077746674 0.68600005
-0.020282859 0.077860005 0.68700004
-0.019029524 0.078086674 0.68900001
-0.017742859 0.078200005 0.69000006
-0.016428573 0.078200005 0.69000006
-0.015114287 0.078200005 0.69000006
-0.013820001 0.078313336 0.69100004
-0.01250381 0.078313336 0.69100004
-0.011220001 0.078540005 0.69300002
-0.0099142864 0.078653336 0.69400001
-0.0086047621 0.078766674 0.69500005
-0.0072809528 0.078766674 0.69500005
0.016275238 0.084206671 0.74300003
0.017666668 0.08409334 0.74200004
-0.13933524 0.076287627 0.66200006
-0.13828287 0.076402865 0.66300005
-0.13660668 0.076172389 0.66100001
-0.13287143 0.07548096 0.65500003
-0.13122192 0.075250484 0.65300006
-0.12938096 0.07490477 0.65000004
-0.12814286 0.07490477 0.65000004
-0.12690477 0.07490477 0.65000004
-0.12528001 0.074674293 0.648
-0.12385429 0.074559055 0.64700001
-0.12262192 0.074559055 0.64700001
-0.12138953 0.074559055 0.64700001
-0.12015715 0.074559055 0.64700001
-0.11892477 0.074559055 0.64700001
-0.11769239 0.074559055 0.64700001
-0.11664001 0.074674293 0.648
-0.11540572 0.074674293 0.648
-0.11417144 0.074674293 0.648
-0.11293715 0.074674293 0.648
-0.11204763 0.07490477 0.65000004
-0.11080953 0.07490477 0.65000004
-0.10957143 0.07490477 0.65000004
-0.10833334 0.07490477 0.65000004
-0.10709524 0.07490477 0.65000004
-0.10585715 0.07490477 0.65000004
-0.10461906 0.07490477 0.65000004
-0.10354 0.075020008 0.65100002
-0.10245715 0.075135246 0.65200001
-0.10137048 0.075250484 0.65300006
-0.10012668 0.075250484 0.65300006
-0.098882861 0.075250484 0.65300006
-0.097639054 0.075250484 0.65300006
-0.096395247 0.075250484 0.65300006
-0.095151432 0.075250484 0.65300006
-0.093907624 0.075250484 0.65300006
-0.092663817 0.075250484 0.65300006
-0.091700003 0.07548096 0.65500003
-0.090452388 0.07548096 0.65500003
-0.089204766 0.07548096 0.65500003
-0.087957151 0.07548096 0.65500003
-0.086841911 0.075596198 0.65600002
-0.085592389 0.075596198 0.65600002
-0.084471434 0.075711437 0.65700001
-0.083220005 0.075711437 0.65700001
-0.082093336 0.075826675 0.65800005
-0.080840006 0.075826675 0.65800005
-0.079828575 0.076057151 0.66000003
-0.078571431 0.076057151 0.66000003
-0.077314287 0.076057151 0.66000003
-0.076057151 0.076057151 0.66000003
-0.074913338 0.076172389 0.66100001
-0.073654294 0.076172389 0.66100001
-0.072395243 0.076172389 0.66100001
-0.071243815 0.076287627 0.66200006
-0.069982864 0.076287627 0.66200006
-0.068825722 0.076402865 0.66300005
-0.067562863 0.076402865 0.66300005
-0.066500001 0.076633342 0.66500002
-0.065233335 0.076633342 0.66500002
-0.063966669 0.076633342 0.66500002
-0.062700003 0.076633342 0.66500002
-0.061525717 0.07674858 0.66600001
-0.060347624 0.076863818 0.66700006
-0.059077147 0.076863818 0.66700006
-0.057980005 0.077094294 0.66900003
-0.056705717 0.077094294 0.66900003
-0.055514291 0.077209532 0.67000002
-0.0542381 0.077209532 0.67000002
-0.052961908 0.077209532 0.67000002
-0.05176286 0.07732477 0.671
-0.050484765 0.07732477 0.671
-0.049280003 0.077440009 0.67200005
-0.048000004 0.077440009 0.67200005
-0.046859052 0.077670485 0.67400002
-0.045575242 0.077670485 0.67400002
-0.044357147 0.077785723 0.67500001
-0.04307143 0.077785723 0.67500001
-0.041785717 0.077785723 0.67500001
-0.040560003 0.077900961 0.67600006
-0.039272383 0.077900961 0.67600006
-0.038097147 0.078131437 0.67800003
-0.036805715 0.078131437 0.67800003
-0.035566669 0.078246675 0.67900002
-0.034323812 0.078361914 0.68000001
-0.033028573 0.078361914 0.68000001
-0.031733334 0.078361914 0.68000001
-0.030527622 0.07859239 0.68200004
-0.029142858 0.078361914 0.68000001
-0.027929526 0.07859239 0.68200004
-0.026669526 0.078707621 0.68300003
-0.025368573 0.078707621 0.68300003
-0.024102859 0.078822859 0.68400002
-0.022800002 0.078822859 0.68400002
-0.021560002 0.079053335 0.68600005
-0.020282859 0.079168573 0.68700004
-0.019029524 0.079399049 0.68900001
-0.017742859 0.079514287 0.69000006
-0.016428573 0.079514287 0.69000006
-0.015136192 0.079629526 0.69100004
-0.013860001 0.079860002 0.69300002
-0.01254 0.079860002 0.69300002
-0.011220001 0.079860002 0.69300002
-0.0099142864 0.07997524 0.69400001
-0.0086047621 0.080090478 0.69500005
0.017666668 0.08550667 0.74200004
-0.12958001 0.076260008 0.65100002
-0.12814286 0.076142862 0.65000004
-0.1265143 0.075908579 0.648
-0.12528001 0.075908579 0.648
-0.12385429 0.075791433 0.64700001
-0.12243239 0.075674288 0.64600003
-0.12138953 0.075791433 0.64700001
-0.12015715 0.075791433 0.64700001
-0.11874096 0.075674288 0.64600003
-0.11751048 0.075674288 0.64600003
-0.11646001 0.075791433 0.64700001
-0.11522762 0.075791433 0.64700001
-0.11399525 0.075791433 0.64700001
-0.11276286 0.075791433 0.64700001
-0.11170287 0.075908579 0.648
-0.11046858 0.075908579 0.648
-0.1092343 0.075908579 0.648
-0.10800001 0.075908579 0.648
-0.10709524 0.076142862 0.65000004
-0.10585715 0.076142862 0.65000004
-0.10461906 0.076142862 0.65000004
-0.10338096 0.076142862 0.65000004
-0.1023 0.076260008 0.65100002
-0.10121524 0.076377146 0.65200001
-0.099973343 0.076377146 0.65200001
-0.098731436 0.076377146 0.65200001
-0.097489528 0.076377146 0.65200001
-0.096395247 0.076494291 0.65300006
-0.095151432 0.076494291 0.65300006
-0.093907624 0.076494291 0.65300006
-0.092663817 0.076494291 0.65300006
-0.091700003 0.076728575 0.65500003
-0.090176195 0.076494291 0.65300006
-0.089204766 0.076728575 0.65500003
-0.087957151 0.076728575 0.65500003
-0.086709529 0.076728575 0.65500003
-0.085592389 0.07684572 0.65600002
-0.08434286 0.07684572 0.65600002
-0.083220005 0.076962866 0.65700001
-0.082093336 0.077080004 0.65800005
-0.080840006 0.077080004 0.65800005
-0.07958667 0.077080004 0.65800005
-0.078571431 0.077314287 0.66000003
-0.077314287 0.077314287 0.66000003
-0.076057151 0.077314287 0.66000003
-0.074800007 0.077314287 0.66000003
-0.073654294 0.077431433 0.66100001
-0.072395243 0.077431433 0.66100001
-0.071243815 0.077548578 0.66200006
-0.069982864 0.077548578 0.66200006
-0.068825722 0.077665716 0.66300005
-0.067562863 0.077665716 0.66300005
-0.066500001 0.077900007 0.66500002
-0.065233335 0.077900007 0.66500002
-0.063966669 0.077900007 0.66500002
-0.062700003 0.077900007 0.66500002
-0.061525717 0.078017145 0.66600001
-0.060257148 0.078017145 0.66600001
-0.059077147 0.078134291 0.66700006
-0.057980005 0.078368574 0.66900003
-0.056705717 0.078368574 0.66900003
-0.055514291 0.07848572 0.67000002
-0.0542381 0.07848572 0.67000002
-0.052961908 0.07848572 0.67000002
-0.05176286 0.078602865 0.671
-0.050560005 0.078720003 0.67200005
-0.049280003 0.078720003 0.67200005
-0.048142862 0.078954294 0.67400002
-0.046859052 0.078954294 0.67400002
-0.045575242 0.078954294 0.67400002
-0.044357147 0.079071432 0.67500001
-0.04307143 0.079071432 0.67500001
-0.041785717 0.079071432 0.67500001
-0.040560003 0.079188578 0.67600006
-0.039388575 0.079422861 0.67800003
-0.038097147 0.079422861 0.67800003
-0.036860004 0.079540007 0.67900002
-0.035566669 0.079540007 0.67900002
-0.034323812 0.079657145 0.68000001
-0.033028573 0.079657145 0.68000001
-0.031733334 0.079657145 0.68000001
-0.030527622 0.079891436 0.68200004
-0.029142858 0.079657145 0.68000001
-0.027929526 0.079891436 0.68200004
-0.026669526 0.080008574 0.68300003
-0.025368573 0.080008574 0.68300003
-0.024102859 0.080125719 0.68400002
-0.022866668 0.080360003 0.68600005
-0.021560002 0.080360003 0.68600005
-0.020282859 0.080477148 0.68700004
-0.019029524 0.080711432 0.68900001
-0.017742859 0.080828577 0.69000006
-0.016452381 0.080945723 0.69100004
-0.015136192 0.080945723 0.69100004
-0.013860001 0.081180006 0.69300002
-0.012558096 0.081297152 0.69400001
-0.011236191 0.081297152 0.69400001
-0.0099142864 0.081297152 0.69400001
-0.0086047621 0.08141429 0.69500005
-0.12938096 0.077380955 0.65000004
-0.12774858 0.077142864 0.648
-0.1265143 0.077142864 0.648
-0.12508668 0.077023812 0.64700001
-0.12366287 0.076904766 0.64600003
-0.12243239 0.076904766 0.64600003
-0.12120191 0.076904766 0.64600003
-0.11997144 0.076904766 0.64600003
-0.11855715 0.076785721 0.64500004
-0.11732858 0.076785721 0.64500004
-0.11628 0.076904766 0.64600003
-0.11504953 0.076904766 0.64600003
-0.11381906 0.076904766 0.64600003
-0.11258858 0.076904766 0.64600003
-0.11153048 0.077023812 0.64700001
-0.11046858 0.077142864 0.648
-0.1092343 0.077142864 0.648
-0.10800001 0.077142864 0.648
-0.10676572 0.077142864 0.648
-0.10553144 0.077142864 0.648
-0.10429715 0.077142864 0.648
-0.10338096 0.077380955 0.65000004
-0.10214286 0.077380955 0.65000004
-0.10106 0.077500008 0.65100002
-0.099820003 0.077500008 0.65100002
-0.098580003 0.077500008 0.65100002
-0.09734001 0.077500008 0.65100002
-0.096395247 0.077738099 0.65300006
-0.095151432 0.077738099 0.65300006
-0.093907624 0.077738099 0.65300006
-0.092663817 0.077738099 0.65300006
-0.091420002 0.077738099 0.65300006
-0.090176195 0.077738099 0.65300006
-0.088932388 0.077738099 0.65300006
-0.087957151 0.077976197 0.65500003
-0.086709529 0.077976197 0.65500003
-0.085461907 0.077976197 0.65500003
-0.084214292 0.077976197 0.65500003
-0.083093338 0.078095242 0.65600002
-0.081968576 0.078214288 0.65700001
-0.080717146 0.078214288 0.65700001
-0.07958667 0.078333341 0.65800005
-0.078333341 0.078333341 0.65800005
-0.077314287 0.078571431 0.66000003
-0.076057151 0.078571431 0.66000003
-0.074800007 0.078571431 0.66000003
-0.073542863 0.078571431 0.66000003
-0.072395243 0.078690484 0.66100001
-0.071136191 0.078690484 0.66100001
-0.069877148 0.078690484 0.66100001
-0.068721913 0.07880953 0.66200006
-0.067562863 0.078928575 0.66300005
-0.066300005 0.078928575 0.66300005
-0.065233335 0.079166673 0.66500002
-0.063966669 0.079166673 0.66500002
-0.062700003 0.079166673 0.66500002
-0.061525717 0.079285719 0.66600001
-0.060257148 0.079285719 0.66600001
-0.059077147 0.079404764 0.66700006
-0.057980005 0.079642862 0.66900003
-0.056705717 0.079642862 0.66900003
-0.055514291 0.079761907 0.67000002
-0.0542381 0.079761907 0.67000002
-0.052961908 0.079761907 0.67000002
-0.05176286 0.07988096 0.671
-0.050560005 0.080000006 0.67200005
-0.049426671 0.080238104 0.67400002
-0.048142862 0.080238104 0.67400002
-0.046859052 0.080238104 0.67400002
-0.04564286 0.080357149 0.67500001
-0.044357147 0.080357149 0.67500001
-0.04307143 0.080357149 0.67500001
-0.041785717 0.080357149 0.67500001
-0.040560003 0.080476195 0.67600006
-0.039388575 0.080714293 0.67800003
-0.038097147 0.080714293 0.67800003
-0.036860004 0.080833338 0.67900002
-0.035566669 0.080833338 0.67900002
-0.034323812 0.080952384 0.68000001
-0.033028573 0.080952384 0.68000001
-0.031826667 0.081190482 0.68200004
-0.030572383 0.081309527 0.68300003
-0.029228574 0.081190482 0.68200004
-0.027929526 0.081190482 0.68200004
-0.026669526 0.081309527 0.68300003
-0.025405716 0.08142858 0.68400002
-0.024102859 0.08142858 0.68400002
-0.022866668 0.081666671 0.68600005
-0.021591431 0.081785716 0.68700004
-0.020341907 0.082023814 0.68900001
-0.019057143 0.08214286 0.69000006
-0.017768573 0.082261913 0.69100004
-0.016500002 0.082500003 0.69300002
-0.015180001 0.082500003 0.69300002
-0.01388 0.082619056 0.69400001
-0.012558096 0.082619056 0.69400001
-0.011236191 0.082619056 0.69400001
-0.0099142864 0.082619056 0.69400001
-0.0085923811 0.082619056 0.69400001
-0.12774858 0.07837715 0.648
-0.1265143 0.07837715 0.648
-0.12508668 0.078256197 0.64700001
-0.12366287 0.078135245 0.64600003
-0.12224287 0.078014292 0.64500004
-0.1210143 0.078014292 0.64500004
-0.11978572 0.078014292 0.64500004
-0.11855715 0.078014292 0.64500004
-0.11732858 0.078014292 0.64500004
-0.11610001 0.078014292 0.64500004
-0.11487143 0.078014292 0.64500004
-0.11381906 0.078135245 0.64600003
-0.11258858 0.078135245 0.64600003
-0.11153048 0.078256197 0.64700001
-0.1102981 0.078256197 0.64700001
-0.10906572 0.078256197 0.64700001
-0.10783334 0.078256197 0.64700001
-0.10676572 0.07837715 0.648
-0.10553144 0.07837715 0.648
-0.10429715 0.07837715 0.648
-0.10306286 0.07837715 0.648
-0.10182858 0.07837715 0.648
-0.10090477 0.078619055 0.65000004
-0.09966667 0.078619055 0.65000004
-0.098580003 0.078740008 0.65100002
-0.09734001 0.078740008 0.65100002
-0.096247628 0.078860961 0.65200001
-0.095005721 0.078860961 0.65200001
-0.093907624 0.078981914 0.65300006
-0.092663817 0.078981914 0.65300006
-0.091420002 0.078981914 0.65300006
-0.090176195 0.078981914 0.65300006
-0.088932388 0.078981914 0.65300006
-0.08768858 0.078981914 0.65300006
-0.086709529 0.079223812 0.65500003
-0.085461907 0.079223812 0.65500003
-0.084214292 0.079223812 0.65500003
-0.08296667 0.079223812 0.65500003
-0.081968576 0.079465717 0.65700001
-0.080717146 0.079465717 0.65700001
-0.07958667 0.07958667 0.65800005
-0.078333341 0.07958667 0.65800005
-0.077314287 0.079828575 0.66000003
-0.076057151 0.079828575 0.66000003
-0.074800007 0.079828575 0.66000003
-0.073542863 0.079828575 0.66000003
-0.072285719 0.079828575 0.66000003
-0.071136191 0.079949528 0.66100001
-0.069877148 0.079949528 0.66100001
-0.068721913 0.080070481 0.66200006
-0.067562863 0.080191433 0.66300005
-0.066300005 0.080191433 0.66300005
-0.065233335 0.080433339 0.66500002
-0.063966669 0.080433339 0.66500002
-0.062700003 0.080433339 0.66500002
-0.061525717 0.080554292 0.66600001
-0.060257148 0.080554292 0.66600001
-0.059077147 0.080675244 0.66700006
-0.057980005 0.08091715 0.66900003
-0.056705717 0.08091715 0.66900003
-0.055514291 0.081038103 0.67000002
-0.0542381 0.081038103 0.67000002
-0.052961908 0.081038103 0.67000002
-0.05176286 0.081159055 0.671
-0.050560005 0.081280008 0.67200005
-0.049426671 0.081521913 0.67400002
-0.048142862 0.081521913 0.67400002
-0.046859052 0.081521913 0.67400002
-0.04564286 0.081642866 0.67500001
-0.044357147 0.081642866 0.67500001
-0.04307143 0.081642866 0.67500001
-0.041785717 0.081642866 0.67500001
-0.040560003 0.081763811 0.67600006
-0.039388575 0.082005717 0.67800003
-0.038097147 0.082005717 0.67800003
-0.036860004 0.08212667 0.67900002
-0.035566669 0.08212667 0.67900002
-0.034323812 0.082247622 0.68000001
-0.033125717 0.082489528 0.68200004
-0.031826667 0.082489528 0.68200004
-0.030572383 0.08261048 0.68300003
-0.029228574 0.082489528 0.68200004
-0.027970478 0.08261048 0.68300003
-0.026669526 0.08261048 0.68300003
-0.025405716 0.082731433 0.68400002
-0.024102859 0.082731433 0.68400002
-0.022866668 0.082973339 0.68600005
-0.021591431 0.083094291 0.68700004
-0.02037143 0.08345715 0.69000006
-0.019084763 0.083578102 0.69100004
-0.017768573 0.083578102 0.69100004
-0.01652381 0.08394096 0.69400001
-0.015201906 0.08394096 0.69400001
-0.013900001 0.084061913 0.69500005
-0.012576192 0.084061913 0.69500005
-0.011236191 0.08394096 0.69400001
-0.0099142864 0.08394096 0.69400001
-0.12489334 0.079365723 0.64600003
-0.12366287 0.079365723 0.64600003
-0.12224287 0.079242863 0.64500004
-0.1210143 0.079242863 0.64500004
-0.11978572 0.079242863 0.64500004
-0.11855715 0.079242863 0.64500004
-0.11732858 0.079242863 0.64500004
-0.11610001 0.079242863 0.64500004
-0.11487143 0.079242863 0.64500004
-0.11364286 0.079242863 0.64500004
-0.11241429 0.079242863 0.64500004
-0.11135811 0.079365723 0.64600003
-0.1102981 0.079488575 0.64700001
-0.10906572 0.079488575 0.64700001
-0.10783334 0.079488575 0.64700001
-0.10676572 0.079611436 0.648
-0.10553144 0.079611436 0.648
-0.10429715 0.079611436 0.648
-0.10306286 0.079611436 0.648
-0.10182858 0.079611436 0.648
-0.10090477 0.079857148 0.65000004
-0.09966667 0.079857148 0.65000004
-0.098428577 0.079857148 0.65000004
-0.09734001 0.079980008 0.65100002
-0.096247628 0.080102861 0.65200001
-0.095005721 0.080102861 0.65200001
-0.093907624 0.080225721 0.65300006
-0.092521913 0.080102861 0.65200001
-0.091420002 0.080225721 0.65300006
-0.090176195 0.080225721 0.65300006
-0.088932388 0.080225721 0.65300006
-0.08768858 0.080225721 0.65300006
-0.086444765 0.080225721 0.65300006
-0.085461907 0.080471434 0.65500003
-0.084214292 0.080471434 0.65500003
-0.08296667 0.080471434 0.65500003
-0.081843816 0.080594294 0.65600002
-0.080717146 0.080717146 0.65700001
-0.07958667 0.080840006 0.65800005
-0.078333341 0.080840006 0.65800005
-0.077080004 0.080840006 0.65800005
-0.076057151 0.081085719 0.66000003
-0.074800007 0.081085719 0.66000003
-0.073542863 0.081085719 0.66000003
-0.072285719 0.081085719 0.66000003
-0.071136191 0.081208579 0.66100001
-0.069877148 0.081208579 0.66100001
-0.068721913 0.081331432 0.66200006
-0.067562863 0.081454292 0.66300005
-0.066300005 0.081454292 0.66300005
-0.065233335 0.081700005 0.66500002
-0.063966669 0.081700005 0.66500002
-0.062700003 0.081700005 0.66500002
-0.061525717 0.081822865 0.66600001
-0.060257148 0.081822865 0.66600001
-0.059077147 0.081945717 0.66700006
-0.057980005 0.082191437 0.66900003
-0.056705717 0.082191437 0.66900003
-0.055514291 0.08231429 0.67000002
-0.0542381 0.08231429 0.67000002
-0.052961908 0.08231429 0.67000002
-0.05176286 0.08243715 0.671
-0.050560005 0.082560003 0.67200005
-0.049426671 0.082805723 0.67400002
-0.048142862 0.082805723 0.67400002
-0.046859052 0.082805723 0.67400002
-0.04564286 0.082928576 0.67500001
-0.044357147 0.082928576 0.67500001
-0.04307143 0.082928576 0.67500001
-0.041785717 0.082928576 0.67500001
-0.040560003 0.083051436 0.67600006
-0.039388575 0.083297148 0.67800003
-0.038097147 0.083297148 0.67800003
-0.036860004 0.083420008 0.67900002
-0.035566669 0.083420008 0.67900002
-0.034424763 0.083788574 0.68200004
-0.033125717 0.083788574 0.68200004
-0.031873334 0.083911434 0.68300003
-0.030572383 0.083911434 0.68300003
-0.029271431 0.083911434 0.68300003
-0.027970478 0.083911434 0.68300003
-0.026708573 0.084034294 0.68400002
-0.025405716 0.084034294 0.68400002
-0.024173334 0.084280007 0.68600005
-0.022966668 0.084648579 0.68900001
-0.021685716 0.084771432 0.69000006
-0.020400954 0.084894292 0.69100004
-0.019140001 0.085140005 0.69300002
-0.017820001 0.085140005 0.69300002
-0.01652381 0.085262865 0.69400001
-0.015201906 0.085262865 0.69400001
-0.013900001 0.085385717 0.69500005
-0.012576192 0.085385717 0.69500005
-0.011252382 0.085385717 0.69500005
-0.12489334 0.080596194 0.64600003
-0.12347144 0.080471434 0.64500004
-0.12224287 0.080471434 0.64500004
-0.1210143 0.080471434 0.64500004
-0.11960001 0.080346674 0.64400005
-0.11837334 0.080346674 0.64400005
-0.11714667 0.080346674 0.64400005
-0.11610001 0.080471434 0.64500004
-0.11487143 0.080471434 0.64500004
-0.11364286 0.080471434 0.64500004
-0.11241429 0.080471434 0.64500004
-0.11135811 0.080596194 0.64600003
-0.11012763 0.080596194 0.64600003
-0.10889715 0.080596194 0.64600003
-0.10766667 0.080596194 0.64600003
-0.10660096 0.080720961 0.64700001
-0.10536858 0.080720961 0.64700001
-0.1041362 0.080720961 0.64700001
-0.10290381 0.080720961 0.64700001
-0.10182858 0.080845721 0.648
-0.10059429 0.080845721 0.648
-0.099360004 0.080845721 0.648
-0.098428577 0.081095241 0.65000004
-0.097190484 0.081095241 0.65000004
-0.09610001 0.081220008 0.65100002
-0.09486001 0.081220008 0.65100002
-0.093763813 0.081344768 0.65200001
-0.092521913 0.081344768 0.65200001
-0.091420002 0.081469528 0.65300006
-0.090176195 0.081469528 0.65300006
-0.088932388 0.081469528 0.65300006
-0.08768858 0.081469528 0.65300006
-0.086444765 0.081469528 0.65300006
-0.085461907 0.081719056 0.65500003
-0.084214292 0.081719056 0.65500003
-0.08296667 0.081719056 0.65500003
-0.081843816 0.081843816 0.65600002
-0.080717146 0.081968576 0.65700001
-0.079465717 0.081968576 0.65700001
-0.078333341 0.082093336 0.65800005
-0.077080004 0.082093336 0.65800005
-0.076057151 0.082342863 0.66000003
-0.074800007 0.082342863 0.66000003
-0.073542863 0.082342863 0.66000003
-0.072285719 0.082342863 0.66000003
-0.071136191 0.082467623 0.66100001
-0.069877148 0.082467623 0.66100001
-0.068721913 0.082592383 0.66200006
-0.067562863 0.08271715 0.66300005
-0.066300005 0.08271715 0.66300005
-0.065233335 0.08296667 0.66500002
-0.063966669 0.08296667 0.66500002
-0.062700003 0.08296667 0.66500002
-0.061525717 0.08309143 0.66600001
-0.060257148 0.08309143 0.66600001
-0.059077147 0.083216198 0.66700006
-0.057806671 0.083216198 0.66700006
-0.056705717 0.083465718 0.66900003
-0.055431433 0.083465718 0.66900003
-0.0542381 0.083590485 0.67000002
-0.052961908 0.083590485 0.67000002
-0.05176286 0.083715245 0.671
-0.050560005 0.083840005 0.67200005
-0.049426671 0.084089532 0.67400002
-0.048142862 0.084089532 0.67400002
-0.046859052 0.084089532 0.67400002
-0.04564286 0.084214292 0.67500001
-0.044357147 0.084214292 0.67500001
-0.04307143 0.084214292 0.67500001
-0.041785717 0.084214292 0.67500001
-0.040560003 0.084339052 0.67600006
-0.039388575 0.08458858 0.67800003
-0.038097147 0.08458858 0.67800003
-0.036860004 0.08471334 0.67900002
-0.03561905 0.0848381 0.68000001
-0.034424763 0.085087627 0.68200004
-0.033174288 0.085212387 0.68300003
-0.031873334 0.085212387 0.68300003
-0.030617144 0.085337147 0.68400002
-0.029271431 0.085212387 0.68300003
-0.02801143 0.085337147 0.68400002
-0.026786668 0.085586675 0.68600005
-0.025480002 0.085586675 0.68600005
-0.024208574 0.085711434 0.68700004
-0.022966668 0.085960954 0.68900001
-0.021685716 0.086085722 0.69000006
-0.020460002 0.086460009 0.69300002
-0.019167621 0.086584769 0.69400001
-0.017845716 0.086584769 0.69400001
-0.01654762 0.086709529 0.69500005
-0.01522381 0.086709529 0.69500005
-0.013900001 0.086709529 0.69500005
-0.012576192 0.086709529 0.69500005
-0.011252382 0.086709529 0.69500005
-0.12470001 0.081700005 0.64500004
-0.12347144 0.081700005 0.64500004
-0.12224287 0.081700005 0.64500004
-0.12082668 0.081573337 0.64400005
-0.11960001 0.081573337 0.64400005
-0.11837334 0.081573337 0.64400005
-0.11714667 0.081573337 0.64400005
-0.11592001 0.081573337 0.64400005
-0.11469334 0.081573337 0.64400005
-0.11364286 0.081700005 0.64500004
-0.11241429 0.081700005 0.64500004
-0.11118572 0.081700005 0.64500004
-0.10995715 0.081700005 0.64500004
-0.10872858 0.081700005 0.64500004
-0.10766667 0.081826672 0.64600003
-0.1064362 0.081826672 0.64600003
-0.10520572 0.081826672 0.64600003
-0.1041362 0.081953339 0.64700001
-0.10290381 0.081953339 0.64700001
-0.10167143 0.081953339 0.64700001
-0.10043906 0.081953339 0.64700001
-0.099360004 0.082080007 0.648
-0.098125719 0.082080007 0.648
-0.097190484 0.082333341 0.65000004
-0.09610001 0.082460009 0.65100002
-0.09486001 0.082460009 0.65100002
-0.093763813 0.082586668 0.65200001
-0.092521913 0.082586668 0.65200001
-0.091280006 0.082586668 0.65200001
-0.090176195 0.082713336 0.65300006
-0.088932388 0.082713336 0.65300006
-0.08768858 0.082713336 0.65300006
-0.086444765 0.082713336 0.65300006
-0.085200958 0.082713336 0.65300006
-0.084214292 0.08296667 0.65500003
-0.08296667 0.08296667 0.65500003
-0.081843816 0.083093338 0.65600002
-0.080594294 0.083093338 0.65600002
-0.079465717 0.083220005 0.65700001
-0.078333341 0.083346672 0.65800005
-0.077080004 0.083346672 0.65800005
-0.076057151 0.083600007 0.66000003
-0.074800007 0.083600007 0.66000003
-0.073542863 0.083600007 0.66000003
-0.072285719 0.083600007 0.66000003
-0.071136191 0.083726674 0.66100001
-0.069982864 0.083853342 0.66200006
-0.068721913 0.083853342 0.66200006
-0.067562863 0.083980009 0.66300005
-0.066300005 0.083980009 0.66300005
-0.065233335 0.084233336 0.66500002
-0.063966669 0.084233336 0.66500002
-0.062700003 0.084233336 0.66500002
-0.061525717 0.084360003 0.66600001
-0.060257148 0.084360003 0.66600001
-0.059077147 0.084486671 0.66700006
-0.057806671 0.084486671 0.66700006
-0.056705717 0.084740005 0.66900003
-0.055431433 0.084740005 0.66900003
-0.0542381 0.084866673 0.67000002
-0.052961908 0.084866673 0.67000002
-0.05176286 0.08499334 0.671
-0.050560005 0.085120007 0.67200005
-0.049426671 0.085373342 0.67400002
-0.048142862 0.085373342 0.67400002
-0.046928573 0.085500002 0.67500001
-0.04564286 0.085500002 0.67500001
-0.044357147 0.085500002 0.67500001
-0.04307143 0.085500002 0.67500001
-0.04184762 0.085626669 0.67600006
-0.040680002 0.085880004 0.67800003
-0.039388575 0.085880004 0.67800003
-0.038153335 0.086006671 0.67900002
-0.036914289 0.086133339 0.68000001
-0.03561905 0.086133339 0.68000001
-0.034424763 0.086386673 0.68200004
-0.033174288 0.08651334 0.68300003
-0.031920001 0.086640008 0.68400002
-0.030617144 0.086640008 0.68400002
-0.029314287 0.086640008 0.68400002
-0.028093334 0.086893342 0.68600005
-0.026825717 0.087020002 0.68700004
-0.025517145 0.087020002 0.68700004
-0.024279049 0.087273337 0.68900001
-0.023033334 0.087526672 0.69100004
-0.021780001 0.087780006 0.69300002
-0.020489525 0.087906674 0.69400001
-0.019167621 0.087906674 0.69400001
-0.01787143 0.088033341 0.69500005
-0.01654762 0.088033341 0.69500005
-0.01522381 0.088033341 0.69500005
-0.013940001 0.088286676 0.69700003
-0.012576192 0.088033341 0.69500005
-0.011284763 0.088286676 0.69700003
-0.12470001 0.082928576 0.64500004
-0.12328001 0.082800008 0.64400005
-0.12205334 0.082800008 0.64400005
-0.12082668 0.082800008 0.64400005
-0.11922858 0.082542859 0.64200002
-0.11800572 0.082542859 0.64200002
-0.11678287 0.082542859 0.64200002
-0.11592001 0.082800008 0.64400005
-0.11469334 0.082800008 0.64400005
-0.11346667 0.082800008 0.64400005
-0.11224001 0.082800008 0.64400005
-0.11101334 0.082800008 0.64400005
-0.10978667 0.082800008 0.64400005
-0.10856001 0.082800008 0.64400005
-0.10750001 0.082928576 0.64500004
-0.10627144 0.082928576 0.64500004
-0.10504287 0.082928576 0.64500004
-0.10397524 0.08305715 0.64600003
-0.10274477 0.08305715 0.64600003
-0.10151429 0.08305715 0.64600003
-0.10028382 0.08305715 0.64600003
-0.099206671 0.083185717 0.64700001
-0.097974293 0.083185717 0.64700001
-0.096891433 0.083314292 0.648
-0.095657147 0.083314292 0.648
-0.094714291 0.083571434 0.65000004
-0.093476199 0.083571434 0.65000004
-0.09238001 0.083700009 0.65100002
-0.091280006 0.083828576 0.65200001
-0.090038098 0.083828576 0.65200001
-0.088796198 0.083828576 0.65200001
-0.08768858 0.083957151 0.65300006
-0.086444765 0.083957151 0.65300006
-0.085200958 0.083957151 0.65300006
-0.083957151 0.083957151 0.65300006
-0.08296667 0.084214292 0.65500003
-0.081843816 0.08434286 0.65600002
-0.080594294 0.08434286 0.65600002
-0.079465717 0.084471434 0.65700001
-0.078333341 0.084600009 0.65800005
-0.077080004 0.084600009 0.65800005
-0.076057151 0.084857151 0.66000003
-0.074800007 0.084857151 0.66000003
-0.073542863 0.084857151 0.66000003
-0.072395243 0.084985718 0.66100001
-0.071136191 0.084985718 0.66100001
-0.069982864 0.085114293 0.66200006
-0.068721913 0.085114293 0.66200006
-0.067562863 0.08524286 0.66300005
-0.066300005 0.08524286 0.66300005
-0.065233335 0.085500002 0.66500002
-0.063966669 0.085500002 0.66500002
-0.06279429 0.085628577 0.66600001
-0.061525717 0.085628577 0.66600001
-0.060257148 0.085628577 0.66600001
-0.059077147 0.085757151 0.66700006
-0.057980005 0.086014293 0.66900003
-0.056705717 0.086014293 0.66900003
-0.055514291 0.08614286 0.67000002
-0.0542381 0.08614286 0.67000002
-0.052961908 0.08614286 0.67000002
-0.051840004 0.086400002 0.67200005
-0.050710481 0.086657152 0.67400002
-0.049426671 0.086657152 0.67400002
-0.048142862 0.086657152 0.67400002
-0.046928573 0.086785719 0.67500001
-0.04564286 0.086785719 0.67500001
-0.044357147 0.086785719 0.67500001
-0.04307143 0.086785719 0.67500001
-0.04184762 0.086914293 0.67600006
-0.040680002 0.087171435 0.67800003
-0.039446671 0.087300003 0.67900002
-0.038209528 0.087428577 0.68000001
-0.036914289 0.087428577 0.68000001
-0.035723813 0.087685719 0.68200004
-0.034475241 0.087814294 0.68300003
-0.033222858 0.087942861 0.68400002
-0.032013334 0.088200003 0.68600005
-0.030706668 0.088200003 0.68600005
-0.029400002 0.088200003 0.68600005
-0.028134288 0.088328578 0.68700004
-0.026903812 0.088585719 0.68900001
-0.025591429 0.088585719 0.68900001
-0.024314288 0.088714294 0.69000006
-0.023100002 0.089100003 0.69300002
-0.021811429 0.089228578 0.69400001
-0.020489525 0.089228578 0.69400001
-0.01919524 0.089357145 0.69500005
-0.017922858 0.089614294 0.69700003
-0.016595239 0.089614294 0.69700003
-0.01526762 0.089614294 0.69700003
-0.013940001 0.089614294 0.69700003
-0.012612382 0.089614294 0.69700003
-0.011252382 0.089357145 0.69500005
-0.12289715 0.083765723 0.64200002
-0.12167429 0.083765723 0.64200002
-0.12045144 0.083765723 0.64200002
-0.11922858 0.083765723 0.64200002
-0.11800572 0.083765723 0.64200002
-0.11678287 0.083765723 0.64200002
-0.11556001 0.083765723 0.64200002
-0.11433715 0.083765723 0.64200002
-0.11346667 0.084026672 0.64400005
-0.11224001 0.084026672 0.64400005
-0.11101334 0.084026672 0.64400005
-0.10978667 0.084026672 0.64400005
-0.10856001 0.084026672 0.64400005
-0.10750001 0.084157147 0.64500004
-0.10627144 0.084157147 0.64500004
-0.10504287 0.084157147 0.64500004
-0.10381429 0.084157147 0.64500004
-0.10274477 0.084287621 0.64600003
-0.10151429 0.084287621 0.64600003
-0.10028382 0.084287621 0.64600003
-0.099053338 0.084287621 0.64600003
-0.097974293 0.084418103 0.64700001
-0.096891433 0.084548578 0.648
-0.095657147 0.084548578 0.648
-0.094714291 0.084809527 0.65000004
-0.093476199 0.084809527 0.65000004
-0.09238001 0.084940009 0.65100002
-0.091280006 0.085070483 0.65200001
-0.090038098 0.085070483 0.65200001
-0.088796198 0.085070483 0.65200001
-0.08768858 0.085200958 0.65300006
-0.086444765 0.085200958 0.65300006
-0.085200958 0.085200958 0.65300006
-0.083957151 0.085200958 0.65300006
-0.08296667 0.085461907 0.65500003
-0.081843816 0.085592389 0.65600002
-0.080717146 0.085722864 0.65700001
-0.079465717 0.085722864 0.65700001
-0.078333341 0.085853338 0.65800005
-0.077080004 0.085853338 0.65800005
-0.076057151 0.086114295 0.66000003
-0.074800007 0.086114295 0.66000003
-0.073542863 0.086114295 0.66000003
-0.072285719 0.086114295 0.66000003
-0.071136191 0.086244769 0.66100001
-0.069982864 0.086375244 0.66200006
-0.068721913 0.086375244 0.66200006
-0.067562863 0.086505719 0.66300005
-0.066300005 0.086505719 0.66300005
-0.065233335 0.086766675 0.66500002
-0.063966669 0.086766675 0.66500002
-0.06279429 0.08689715 0.66600001
-0.061618101 0.087027624 0.66700006
-0.060347624 0.087027624 0.66700006
-0.059254289 0.087288581 0.66900003
-0.057980005 0.087288581 0.66900003
-0.056790479 0.087419055 0.67000002
-0.055514291 0.087419055 0.67000002
-0.05431905 0.08754953 0.671
-0.053040955 0.08754953 0.671
-0.051840004 0.087680005 0.67200005
-0.050710481 0.087940961 0.67400002
-0.049500003 0.088071436 0.67500001
-0.04821429 0.088071436 0.67500001
-0.046928573 0.088071436 0.67500001
-0.045710478 0.08820191 0.67600006
-0.044422861 0.08820191 0.67600006
-0.043135241 0.08820191 0.67600006
-0.04197143 0.088462859 0.67800003
-0.040740002 0.088593341 0.67900002
-0.039504763 0.088723816 0.68000001
-0.038209528 0.088723816 0.68000001
-0.037077144 0.089115247 0.68300003
-0.035776194 0.089115247 0.68300003
-0.034525715 0.089245722 0.68400002
-0.033320002 0.089506671 0.68600005
-0.032060001 0.089637145 0.68700004
-0.030751431 0.089637145 0.68700004
-0.029528573 0.089898102 0.68900001
-0.028216192 0.089898102 0.68900001
-0.026942858 0.090028577 0.69000006
-0.025665715 0.090159051 0.69100004
-0.024420002 0.090420008 0.69300002
-0.023133336 0.090550482 0.69400001
-0.021842858 0.090680957 0.69500005
-0.02051905 0.090680957 0.69500005
-0.019250477 0.090941913 0.69700003
-0.017922858 0.090941913 0.69700003
-0.016595239 0.090941913 0.69700003
-0.01526762 0.090941913 0.69700003
0.037661906 0.093812384 0.71900004
0.039031431 0.093812384 0.71900004
-0.12289715 0.084988579 0.64200002
-0.12167429 0.084988579 0.64200002
-0.12045144 0.084988579 0.64200002
-0.11922858 0.084988579 0.64200002
-0.11800572 0.084988579 0.64200002
-0.11660096 0.084856197 0.64100003
-0.11538 0.084856197 0.64100003
-0.11433715 0.084988579 0.64200002
-0.11311429 0.084988579 0.64200002
-0.11189143 0.084988579 0.64200002
-0.11066858 0.084988579 0.64200002
-0.10978667 0.085253336 0.64400005
-0.10856001 0.085253336 0.64400005
-0.10733334 0.085253336 0.64400005
-0.10610668 0.085253336 0.64400005
-0.10504287 0.085385717 0.64500004
-0.10381429 0.085385717 0.64500004
-0.10258572 0.085385717 0.64500004
-0.10135715 0.085385717 0.64500004
-0.10028382 0.085518099 0.64600003
-0.099053338 0.085518099 0.64600003
-0.097974293 0.085650481 0.64700001
-0.096891433 0.085782863 0.648
-0.095657147 0.085782863 0.648
-0.094714291 0.086047627 0.65000004
-0.093476199 0.086047627 0.65000004
-0.09238001 0.086180009 0.65100002
-0.091280006 0.086312383 0.65200001
-0.090038098 0.086312383 0.65200001
-0.088796198 0.086312383 0.65200001
-0.08768858 0.086444765 0.65300006
-0.086444765 0.086444765 0.65300006
-0.085200958 0.086444765 0.65300006
-0.083957151 0.086444765 0.65300006
-0.08296667 0.086709529 0.65500003
-0.081843816 0.086841911 0.65600002
-0.080717146 0.086974293 0.65700001
-0.079465717 0.086974293 0.65700001
-0.078333341 0.087106675 0.65800005
-0.077080004 0.087106675 0.65800005
-0.076057151 0.087371431 0.66000003
-0.074800007 0.087371431 0.66000003
-0.073542863 0.087371431 0.66000003
-0.072285719 0.087371431 0.66000003
-0.071136191 0.087503813 0.66100001
-0.069982864 0.087636195 0.66200006
-0.068721913 0.087636195 0.66200006
-0.067562863 0.087768577 0.66300005
-0.066300005 0.087768577 0.66300005
-0.065233335 0.088033341 0.66500002
-0.064062864 0.088165723 0.66600001
-0.06279429 0.088165723 0.66600001
-0.061618101 0.088298105 0.66700006
-0.060528576 0.088562861 0.66900003
-0.059254289 0.088562861 0.66900003
-0.057980005 0.088562861 0.66900003
-0.056790479 0.088695243 0.67000002
-0.055514291 0.088695243 0.67000002
-0.05431905 0.088827625 0.671
-0.053040955 0.088827625 0.671
-0.051840004 0.088960007 0.67200005
-0.050710481 0.089224771 0.67400002
-0.049500003 0.089357145 0.67500001
-0.04821429 0.089357145 0.67500001
-0.046998098 0.089489527 0.67600006
-0.045710478 0.089489527 0.67600006
-0.044554289 0.089754291 0.67800003
-0.043135241 0.089489527 0.67600006
-0.04197143 0.089754291 0.67800003
-0.040740002 0.089886673 0.67900002
-0.039504763 0.090019055 0.68000001
-0.038321909 0.090283819 0.68200004
-0.037131432 0.090548575 0.68400002
-0.035828575 0.090548575 0.68400002
-0.03462667 0.090813339 0.68600005
-0.033320002 0.090813339 0.68600005
-0.032153334 0.091210485 0.68900001
-0.030840954 0.091210485 0.68900001
-0.029528573 0.091210485 0.68900001
-0.028257145 0.091342866 0.69000006
-0.026981907 0.091475241 0.69100004
-0.025740001 0.091740005 0.69300002
-0.02445524 0.091872387 0.69400001
-0.023166668 0.092004769 0.69500005
-0.021842858 0.092004769 0.69500005
-0.020578096 0.092269532 0.69700003
-0.019278096 0.092401914 0.69800001
-0.017948573 0.092401914 0.69800001
-0.016666668 0.092666671 0.70000005
-0.015289525 0.092401914 0.69800001
0.039031431 0.095181912 0.71900004
0.040400956 0.095181912 0.71900004
-0.12289715 0.086211435 0.64200002
-0.12205334 0.086480007 0.64400005
-0.12082668 0.086480007 0.64400005
-0.11922858 0.086211435 0.64200002
