# .PCD v0.7 - Point Cloud Data file format
VERSION 0.7
FIELDS x y z
SIZE 4 4 4
TYPE F F F
COUNT 1 1 1
WIDTH 1340
HEIGHT 1
VIEWPOINT 0 0 0 1 0 0 0
POINTS 1340
DATA ascii
-0.079404764 0.0082580959 0.66700006
-0.078134291 0.0082580959 0.66700006
-0.07674858 0.0082457149 0.66600001
-0.075480007 0.0082457149 0.66600001
-0.074100003 0.0082333339 0.66500002
-0.072833337 0.0082333339 0.66500002
-0.071566671 0.0082333339 0.66500002
-0.070088573 0.0082085719 0.66300005
-0.068825722 0.0082085719 0.66300005
-0.067460954 0.0081961909 0.66200006
-0.066300005 0.0082085719 0.66300005
-0.065037146 0.0082085719 0.66300005
-0.063774288 0.0082085719 0.66300005
-0.062511429 0.0082085719 0.66300005
-0.061248574 0.0082085719 0.66300005
-0.05998572 0.0082085719 0.66300005
-0.058722861 0.0082085719 0.66300005
-0.057633337 0.0082333339 0.66500002
-0.056366671 0.0082333339 0.66500002
-0.055100005 0.0082333339 0.66500002
-0.053833336 0.0082333339 0.66500002
-0.05256667 0.0082333339 0.66500002
-0.051377147 0.0082457149 0.66600001
-0.050108574 0.0082457149 0.66600001
-0.048840005 0.0082457149 0.66600001
-0.047642861 0.0082580959 0.66700006
-0.046372384 0.0082580959 0.66700006
-0.045237146 0.0082828579 0.66900003
-0.043962859 0.0082828579 0.66900003
-0.042752385 0.0082952389 0.67000002
-0.041476194 0.0082952389 0.67000002
-0.040260002 0.00830762 0.671
-0.039214287 0.008357143 0.67500001
-0.038097147 0.008394286 0.67800003
-0.036860004 0.008406667 0.67900002
-0.03561905 0.008419048 0.68000001
-0.034424763 0.00844381 0.68200004
-0.033125717 0.00844381 0.68200004
-0.094180956 0.0097428579 0.68200004
-0.092881911 0.0097428579 0.68200004
-0.091180004 0.0097000003 0.67900002
-0.089754291 0.0096857147 0.67800003
-0.08820191 0.0096571436 0.67600006
-0.086657152 0.0096285725 0.67400002
-0.085120007 0.0096000005 0.67200005
-0.083715245 0.0095857149 0.671
-0.08231429 0.0095714293 0.67000002
-0.081038103 0.0095714293 0.67000002
-0.079642862 0.0095571438 0.66900003
-0.078134291 0.0095285717 0.66700006
-0.076863818 0.0095285717 0.66700006
-0.075480007 0.0095142862 0.66600001
-0.074211434 0.0095142862 0.66600001
-0.072833337 0.0095000006 0.66500002
-0.071566671 0.0095000006 0.66500002
-0.070300005 0.0095000006 0.66500002
-0.068825722 0.0094714295 0.66300005
-0.067562863 0.0094714295 0.66300005
-0.066300005 0.0094714295 0.66300005
-0.065037146 0.0094714295 0.66300005
-0.063774288 0.0094714295 0.66300005
-0.062511429 0.0094714295 0.66300005
-0.061433338 0.0095000006 0.66500002
-0.060166672 0.0095000006 0.66500002
-0.058900002 0.0095000006 0.66500002
-0.057633337 0.0095000006 0.66500002
-0.056366671 0.0095000006 0.66500002
-0.055100005 0.0095000006 0.66500002
-0.053833336 0.0095000006 0.66500002
-0.052645717 0.0095142862 0.66600001
-0.051377147 0.0095142862 0.66600001
-0.050183814 0.0095285717 0.66700006
-0.048913337 0.0095285717 0.66700006
-0.047642861 0.0095285717 0.66700006
-0.04651143 0.0095571438 0.66900003
-0.045237146 0.0095571438 0.66900003
-0.043962859 0.0095571438 0.66900003
-0.042752385 0.0095714293 0.67000002
-0.041538097 0.0095857149 0.671
-0.040320002 0.0096000005 0.67200005
-0.039272383 0.0096571436 0.67600006
-0.038097147 0.0096857147 0.67800003
-0.036860004 0.0097000003 0.67900002
-0.03561905 0.0097142868 0.68000001
-0.034424763 0.0097428579 0.68200004
-0.033174288 0.0097571434 0.68300003
-0.031920001 0.009771429 0.68400002
-0.030706668 0.009800001 0.68600005
-0.094180956 0.011041906 0.68200004
-0.092881911 0.011041906 0.68200004
-0.091314293 0.011009525 0.68000001
-0.089886673 0.010993334 0.67900002
-0.088462859 0.010977143 0.67800003
-0.086785719 0.010928572 0.67500001
-0.085373342 0.010912382 0.67400002
-0.083840005 0.010880001 0.67200005
-0.08243715 0.01086381 0.671
-0.081159055 0.01086381 0.671
-0.079761907 0.01084762 0.67000002
-0.078368574 0.01083143 0.66900003
-0.077094294 0.01083143 0.66900003
-0.075593337 0.010799048 0.66700006
-0.074322864 0.010799048 0.66700006
-0.07294286 0.010782857 0.66600001
-0.071674287 0.010782857 0.66600001
-0.070405722 0.010782857 0.66600001
-0.06903334 0.010766667 0.66500002
-0.067766674 0.010766667 0.66500002
-0.066500001 0.010766667 0.66500002
-0.065233335 0.010766667 0.66500002
-0.063966669 0.010766667 0.66500002
-0.062700003 0.010766667 0.66500002
-0.061433338 0.010766667 0.66500002
-0.060166672 0.010766667 0.66500002
-0.058900002 0.010766667 0.66500002
-0.057633337 0.010766667 0.66500002
-0.056366671 0.010766667 0.66500002
-0.055182859 0.010782857 0.66600001
-0.05391429 0.010782857 0.66600001
-0.052724764 0.010799048 0.66700006
-0.051454291 0.010799048 0.66700006
-0.050183814 0.010799048 0.66700006
-0.049060002 0.01083143 0.66900003
-0.047785718 0.01083143 0.66900003
-0.04651143 0.01083143 0.66900003
-0.045237146 0.01083143 0.66900003
-0.044028573 0.01084762 0.67000002
-0.042752385 0.01084762 0.67000002
-0.041538097 0.01086381 0.671
-0.040320002 0.010880001 0.67200005
-0.039214287 0.010928572 0.67500001
-0.038097147 0.010977143 0.67800003
-0.036860004 0.010993334 0.67900002
-0.03561905 0.011009525 0.68000001
-0.034424763 0.011041906 0.68200004
-0.033174288 0.011058096 0.68300003
-0.031920001 0.011074287 0.68400002
-0.096040003 0.012413334 0.68600005
-0.09445715 0.012377144 0.68400002
-0.0930181 0.012359048 0.68300003
-0.091314293 0.012304762 0.68000001
-0.089886673 0.012286668 0.67900002
-0.088462859 0.012268572 0.67800003
-0.086914293 0.012232382 0.67600006
-0.085500002 0.012214286 0.67500001
-0.084089532 0.012196192 0.67400002
-0.082560003 0.01216 0.67200005
-0.081280008 0.01216 0.67200005
-0.07988096 0.012141906 0.671
-0.07848572 0.01212381 0.67000002
-0.077094294 0.012105715 0.66900003
-0.075820006 0.012105715 0.66900003
-0.074545719 0.012105715 0.66900003
-0.073052384 0.012069524 0.66700006
-0.071781911 0.012069524 0.66700006
-0.070511431 0.012069524 0.66700006
-0.069137149 0.01205143 0.66600001
-0.067868575 0.01205143 0.66600001
-0.066600002 0.01205143 0.66600001
-0.065331429 0.01205143 0.66600001
-0.063966669 0.012033334 0.66500002
-0.062700003 0.012033334 0.66500002
-0.061525717 0.01205143 0.66600001
-0.060257148 0.01205143 0.66600001
-0.058988575 0.01205143 0.66600001
-0.057720006 0.01205143 0.66600001
-0.056451432 0.01205143 0.66600001
-0.055265717 0.012069524 0.66700006
-0.05399524 0.012069524 0.66700006
-0.052724764 0.012069524 0.66700006
-0.051454291 0.012069524 0.66700006
-0.05033429 0.012105715 0.66900003
-0.049060002 0.012105715 0.66900003
-0.047785718 0.012105715 0.66900003
-0.04651143 0.012105715 0.66900003
-0.045304764 0.01212381 0.67000002
-0.044094287 0.012141906 0.671
-0.042880002 0.01216 0.67200005
-0.041600004 0.01216 0.67200005
-0.040440004 0.012196192 0.67400002
-0.039214287 0.012214286 0.67500001
-0.038097147 0.012268572 0.67800003
-0.036860004 0.012286668 0.67900002
-0.03561905 0.012304762 0.68000001
-0.034424763 0.012340954 0.68200004
-0.033222858 0.012377144 0.68400002
-0.031920001 0.012377144 0.68400002
-0.09445715 0.013680001 0.68400002
-0.0930181 0.013660001 0.68300003
-0.091314293 0.013600001 0.68000001
-0.089886673 0.013580001 0.67900002
-0.088462859 0.013560001 0.67800003
-0.086914293 0.013520001 0.67600006
-0.085500002 0.013500001 0.67500001
-0.084214292 0.013500001 0.67500001
-0.082805723 0.013480001 0.67400002
-0.081280008 0.013440001 0.67200005
-0.080000006 0.013440001 0.67200005
-0.07848572 0.013400001 0.67000002
-0.077209532 0.013400001 0.67000002
-0.075820006 0.013380001 0.66900003
-0.074545719 0.013380001 0.66900003
-0.073271431 0.013380001 0.66900003
-0.071781911 0.013340001 0.66700006
-0.070511431 0.013340001 0.66700006
-0.069240957 0.013340001 0.66700006
-0.067970477 0.013340001 0.66700006
-0.066700004 0.013340001 0.66700006
-0.065331429 0.013320001 0.66600001
-0.064062864 0.013320001 0.66600001
-0.06279429 0.013320001 0.66600001
-0.061618101 0.013340001 0.66700006
-0.060347624 0.013340001 0.66700006
-0.059077147 0.013340001 0.66700006
-0.057806671 0.013340001 0.66700006
-0.056536194 0.013340001 0.66700006
-0.055265717 0.013340001 0.66700006
-0.05399524 0.013340001 0.66700006
-0.052724764 0.013340001 0.66700006
-0.051608574 0.013380001 0.66900003
-0.05033429 0.013380001 0.66900003
-0.049060002 0.013380001 0.66900003
-0.047857147 0.013400001 0.67000002
-0.046580955 0.013400001 0.67000002
-0.045372386 0.013420001 0.671
-0.044160005 0.013440001 0.67200005
-0.043007623 0.013480001 0.67400002
-0.041723814 0.013480001 0.67400002
-0.040500004 0.013500001 0.67500001
-0.039272383 0.013520001 0.67600006
-0.038097147 0.013560001 0.67800003
-0.036860004 0.013580001 0.67900002
-0.03561905 0.013600001 0.68000001
-0.034424763 0.01364 0.68200004
-0.033222858 0.013680001 0.68400002
-0.031920001 0.013680001 0.68400002
-0.09445715 0.014982858 0.68400002
-0.092881911 0.014939048 0.68200004
-0.091582865 0.014939048 0.68200004
-0.090283819 0.014939048 0.68200004
-0.088593341 0.014873334 0.67900002
-0.087171435 0.014851429 0.67800003
-0.085626669 0.01480762 0.67600006
-0.084214292 0.014785715 0.67500001
-0.082805723 0.014763811 0.67400002
-0.081521913 0.014763811 0.67400002
-0.080000006 0.014720001 0.67200005
-0.078602865 0.014698097 0.671
-0.077209532 0.014676192 0.67000002
-0.075933337 0.014676192 0.67000002
-0.074545719 0.014654287 0.66900003
-0.073271431 0.014654287 0.66900003
-0.071997151 0.014654287 0.66900003
-0.070722863 0.014654287 0.66900003
-0.069240957 0.014610477 0.66700006
-0.067970477 0.014610477 0.66700006
-0.066700004 0.014610477 0.66700006
-0.065429531 0.014610477 0.66700006
-0.064159051 0.014610477 0.66700006
-0.062888578 0.014610477 0.66700006
-0.061618101 0.014610477 0.66700006
-0.060347624 0.014610477 0.66700006
-0.059077147 0.014610477 0.66700006
-0.057806671 0.014610477 0.66700006
-0.056536194 0.014610477 0.66700006
-0.055431433 0.014654287 0.66900003
-0.054157145 0.014654287 0.66900003
-0.052882861 0.014654287 0.66900003
-0.051608574 0.014654287 0.66900003
-0.05033429 0.014654287 0.66900003
-0.049133338 0.014676192 0.67000002
-0.047857147 0.014676192 0.67000002
-0.04665048 0.014698097 0.671
-0.045440003 0.014720001 0.67200005
-0.044160005 0.014720001 0.67200005
-0.043007623 0.014763811 0.67400002
-0.041723814 0.014763811 0.67400002
-0.040500004 0.014785715 0.67500001
-0.039272383 0.01480762 0.67600006
-0.038097147 0.014851429 0.67800003
-0.036860004 0.014873334 0.67900002
-0.03561905 0.014895239 0.68000001
-0.034424763 0.014939048 0.68200004
-0.033222858 0.014982858 0.68400002
-0.031920001 0.014982858 0.68400002
-0.095760003 0.016285716 0.68400002
-0.09445715 0.016285716 0.68400002
-0.092881911 0.016238097 0.68200004
-0.091582865 0.016238097 0.68200004
-0.090283819 0.016238097 0.68200004
-0.088593341 0.016166668 0.67900002
-0.087171435 0.016142858 0.67800003
-0.085626669 0.01609524 0.67600006
-0.084214292 0.016071429 0.67500001
-0.082928576 0.016071429 0.67500001
-0.081521913 0.016047619 0.67400002
-0.080238104 0.016047619 0.67400002
-0.078720003 0.016000001 0.67200005
-0.07732477 0.015976192 0.671
-0.075933337 0.015952382 0.67000002
-0.07465715 0.015952382 0.67000002
-0.073271431 0.015928572 0.66900003
-0.071997151 0.015928572 0.66900003
-0.070722863 0.015928572 0.66900003
-0.069448575 0.015928572 0.66900003
-0.068174288 0.015928572 0.66900003
-0.066900007 0.015928572 0.66900003
-0.06562572 0.015928572 0.66900003
-0.064351432 0.015928572 0.66900003
-0.062888578 0.015880954 0.66700006
-0.061618101 0.015880954 0.66700006
-0.060347624 0.015880954 0.66700006
-0.059254289 0.015928572 0.66900003
-0.057980005 0.015928572 0.66900003
-0.056705717 0.015928572 0.66900003
-0.055431433 0.015928572 0.66900003
-0.054157145 0.015928572 0.66900003
-0.052882861 0.015928572 0.66900003
-0.051685717 0.015952382 0.67000002
-0.050409526 0.015952382 0.67000002
-0.049133338 0.015952382 0.67000002
-0.047928575 0.015976192 0.671
-0.046720002 0.016000001 0.67200005
-0.045440003 0.016000001 0.67200005
-0.044291433 0.016047619 0.67400002
-0.043007623 0.016047619 0.67400002
-0.041723814 0.016047619 0.67400002
-0.040500004 0.016071429 0.67500001
-0.039272383 0.01609524 0.67600006
-0.038097147 0.016142858 0.67800003
-0.036914289 0.016190477 0.68000001
-0.035723813 0.016238097 0.68200004
-0.034475241 0.016261905 0.68300003
-0.033320002 0.016333334 0.68600005
-0.032013334 0.016333334 0.68600005
-0.096040003 0.017640002 0.68600005
-0.09445715 0.017588573 0.68400002
-0.092881911 0.017537143 0.68200004
-0.091582865 0.017537143 0.68200004
-0.090283819 0.017537143 0.68200004
-0.088593341 0.017460002 0.67900002
-0.087171435 0.017434286 0.67800003
-0.085626669 0.017382858 0.67600006
-0.084339052 0.017382858 0.67600006
-0.082928576 0.017357145 0.67500001
-0.081521913 0.017331429 0.67400002
-0.080238104 0.017331429 0.67400002
-0.078720003 0.017280001 0.67200005
-0.07732477 0.017254287 0.671
-0.075933337 0.017228572 0.67000002
-0.07465715 0.017228572 0.67000002
-0.073380955 0.017228572 0.67000002
-0.071997151 0.017202858 0.66900003
-0.070722863 0.017202858 0.66900003
-0.069448575 0.017202858 0.66900003
-0.068174288 0.017202858 0.66900003
-0.066900007 0.017202858 0.66900003
-0.06562572 0.017202858 0.66900003
-0.064351432 0.017202858 0.66900003
-0.063077144 0.017202858 0.66900003
-0.06180286 0.017202858 0.66900003
-0.060528576 0.017202858 0.66900003
-0.059254289 0.017202858 0.66900003
-0.057980005 0.017202858 0.66900003
-0.056705717 0.017202858 0.66900003
-0.055431433 0.017202858 0.66900003
-0.054157145 0.017202858 0.66900003
-0.052882861 0.017202858 0.66900003
-0.051685717 0.017228572 0.67000002
-0.050409526 0.017228572 0.67000002
-0.04920667 0.017254287 0.671
-0.048000004 0.017280001 0.67200005
-0.046720002 0.017280001 0.67200005
-0.045575242 0.017331429 0.67400002
-0.044291433 0.017331429 0.67400002
-0.043007623 0.017331429 0.67400002
-0.041785717 0.017357145 0.67500001
-0.040500004 0.017357145 0.67500001
-0.039272383 0.017382858 0.67600006
-0.038153335 0.017460002 0.67900002
-0.037022859 0.017537143 0.68200004
-0.035776194 0.017562859 0.68300003
-0.034525715 0.017588573 0.68400002
-0.033320002 0.017640002 0.68600005
-0.032013334 0.017640002 0.68600005
-0.096180007 0.018974287 0.68700004
-0.094733343 0.018946668 0.68600005
-0.093154289 0.01889143 0.68400002
-0.091582865 0.018836191 0.68200004
-0.090283819 0.018836191 0.68200004
-0.088593341 0.018753335 0.67900002
-0.087300003 0.018753335 0.67900002
-0.085880004 0.018725716 0.67800003
-0.084339052 0.018670477 0.67600006
-0.082928576 0.018642858 0.67500001
-0.081642866 0.018642858 0.67500001
-0.080238104 0.01861524 0.67400002
-0.078954294 0.01861524 0.67400002
-0.077440009 0.018560002 0.67200005
-0.076046668 0.018532382 0.671
-0.07465715 0.018504763 0.67000002
-0.073380955 0.018504763 0.67000002
-0.072104767 0.018504763 0.67000002
-0.070828579 0.018504763 0.67000002
-0.069552384 0.018504763 0.67000002
-0.068174288 0.018477144 0.66900003
-0.066900007 0.018477144 0.66900003
-0.06562572 0.018477144 0.66900003
-0.064351432 0.018477144 0.66900003
-0.063077144 0.018477144 0.66900003
-0.06180286 0.018477144 0.66900003
-0.060528576 0.018477144 0.66900003
-0.059254289 0.018477144 0.66900003
-0.057980005 0.018477144 0.66900003
-0.056705717 0.018477144 0.66900003
-0.055431433 0.018477144 0.66900003
-0.054157145 0.018477144 0.66900003
-0.052882861 0.018477144 0.66900003
-0.051685717 0.018504763 0.67000002
-0.050409526 0.018504763 0.67000002
-0.04920667 0.018532382 0.671
-0.048000004 0.018560002 0.67200005
-0.046859052 0.01861524 0.67400002
-0.045575242 0.01861524 0.67400002
-0.044291433 0.01861524 0.67400002
-0.04307143 0.018642858 0.67500001
-0.041785717 0.018642858 0.67500001
-0.040560003 0.018670477 0.67600006
-0.039388575 0.018725716 0.67800003
-0.038153335 0.018753335 0.67900002
-0.037022859 0.018836191 0.68200004
-0.035776194 0.01886381 0.68300003
-0.034525715 0.01889143 0.68400002
-0.033320002 0.018946668 0.68600005
-0.032013334 0.018946668 0.68600005
-0.096600004 0.02037143 0.69000006
-0.094871432 0.020282859 0.68700004
-0.093154289 0.020194286 0.68400002
-0.091717146 0.020164764 0.68300003
-0.090283819 0.020135239 0.68200004
-0.088593341 0.020046668 0.67900002
-0.087300003 0.020046668 0.67900002
-0.085880004 0.020017143 0.67800003
-0.08458858 0.020017143 0.67800003
-0.083051436 0.019958096 0.67600006
-0.081642866 0.019928573 0.67500001
-0.080357149 0.019928573 0.67500001
-0.079071432 0.019928573 0.67500001
-0.077440009 0.019840002 0.67200005
-0.076160006 0.019840002 0.67200005
-0.074768573 0.019810477 0.671
-0.073490478 0.019810477 0.671
-0.072104767 0.019780954 0.67000002
-0.070828579 0.019780954 0.67000002
-0.069552384 0.019780954 0.67000002
-0.068276197 0.019780954 0.67000002
-0.067000002 0.019780954 0.67000002
-0.06562572 0.01975143 0.66900003
-0.064447626 0.019780954 0.67000002
-0.063077144 0.01975143 0.66900003
-0.06180286 0.01975143 0.66900003
-0.060528576 0.01975143 0.66900003
-0.059254289 0.01975143 0.66900003
-0.05806667 0.019780954 0.67000002
-0.056790479 0.019780954 0.67000002
-0.055514291 0.019780954 0.67000002
-0.0542381 0.019780954 0.67000002
-0.052961908 0.019780954 0.67000002
-0.051685717 0.019780954 0.67000002
-0.050484765 0.019810477 0.671
-0.049280003 0.019840002 0.67200005
-0.048142862 0.01989905 0.67400002
-0.046859052 0.01989905 0.67400002
-0.045575242 0.01989905 0.67400002
-0.044357147 0.019928573 0.67500001
-0.04307143 0.019928573 0.67500001
-0.041785717 0.019928573 0.67500001
-0.040560003 0.019958096 0.67600006
-0.039388575 0.020017143 0.67800003
-0.038209528 0.020076191 0.68000001
-0.037077144 0.020164764 0.68300003
-0.035828575 0.020194286 0.68400002
-0.03462667 0.020253334 0.68600005
-0.033320002 0.020253334 0.68600005
-0.032060001 0.020282859 0.68700004
-0.097020008 0.021780001 0.69300002
-0.095147625 0.021654287 0.68900001
-0.093562864 0.021591431 0.68700004
-0.092120007 0.021560002 0.68600005
-0.090416193 0.021465715 0.68300003
-0.088723816 0.02137143 0.68000001
-0.087428577 0.02137143 0.68000001
-0.086006671 0.021340001 0.67900002
-0.08458858 0.021308573 0.67800003
-0.083297148 0.021308573 0.67800003
-0.081763811 0.021245716 0.67600006
-0.080357149 0.021214288 0.67500001
-0.079071432 0.021214288 0.67500001
-0.077670485 0.021182859 0.67400002
-0.076386675 0.021182859 0.67400002
-0.074880004 0.021120001 0.67200005
-0.073600002 0.021120001 0.67200005
-0.072320007 0.021120001 0.67200005
-0.071040004 0.021120001 0.67200005
-0.069656193 0.021088572 0.671
-0.068378098 0.021088572 0.671
-0.067100003 0.021088572 0.671
-0.065821908 0.021088572 0.671
-0.064543813 0.021088572 0.671
-0.063265719 0.021088572 0.671
-0.061987624 0.021088572 0.671
-0.060619052 0.021057144 0.67000002
-0.059342861 0.021057144 0.67000002
-0.05806667 0.021057144 0.67000002
-0.056790479 0.021057144 0.67000002
-0.055597145 0.021088572 0.671
-0.05431905 0.021088572 0.671
-0.053040955 0.021088572 0.671
-0.05176286 0.021088572 0.671
-0.050710481 0.021182859 0.67400002
-0.049426671 0.021182859 0.67400002
-0.048142862 0.021182859 0.67400002
-0.046928573 0.021214288 0.67500001
-0.04564286 0.021214288 0.67500001
-0.044357147 0.021214288 0.67500001
-0.043135241 0.021245716 0.67600006
-0.04184762 0.021245716 0.67600006
-0.040740002 0.021340001 0.67900002
-0.039504763 0.02137143 0.68000001
-0.038378097 0.021465715 0.68300003
-0.037077144 0.021465715 0.68300003
-0.035828575 0.021497143 0.68400002
-0.03462667 0.021560002 0.68600005
-0.033320002 0.021560002 0.68600005
-0.032200001 0.021685716 0.69000006
-0.030885717 0.021685716 0.69000006
-0.097160004 0.023133336 0.69400001
-0.0958381 0.023133336 0.69400001
-0.093971431 0.023000002 0.69000006
-0.092254288 0.022900002 0.68700004
-0.090813339 0.022866668 0.68600005
-0.088984765 0.022733334 0.68200004
-0.087428577 0.022666669 0.68000001
-0.086006671 0.022633335 0.67900002
-0.08471334 0.022633335 0.67900002
-0.083297148 0.022600001 0.67800003
-0.081763811 0.022533335 0.67600006
-0.080476195 0.022533335 0.67600006
-0.079071432 0.022500001 0.67500001
-0.077785723 0.022500001 0.67500001
-0.076386675 0.022466669 0.67400002
-0.075102866 0.022466669 0.67400002
-0.073819056 0.022466669 0.67400002
-0.072535239 0.022466669 0.67400002
-0.071040004 0.022400001 0.67200005
-0.069760002 0.022400001 0.67200005
-0.068480007 0.022400001 0.67200005
-0.067200005 0.022400001 0.67200005
-0.065920003 0.022400001 0.67200005
-0.064640008 0.022400001 0.67200005
-0.063360006 0.022400001 0.67200005
-0.062080003 0.022400001 0.67200005
-0.060709529 0.022366669 0.671
-0.059431434 0.022366669 0.671
-0.058153339 0.022366669 0.671
-0.05687524 0.022366669 0.671
-0.055680003 0.022400001 0.67200005
-0.05431905 0.022366669 0.671
-0.053120002 0.022400001 0.67200005
-0.051840004 0.022400001 0.67200005
-0.050710481 0.022466669 0.67400002
-0.049426671 0.022466669 0.67400002
-0.04821429 0.022500001 0.67500001
-0.046928573 0.022500001 0.67500001
-0.04564286 0.022500001 0.67500001
-0.044422861 0.022533335 0.67600006
-0.043135241 0.022533335 0.67600006
-0.04197143 0.022600001 0.67800003
-0.040740002 0.022633335 0.67900002
-0.039620955 0.022733334 0.68200004
-0.038378097 0.022766668 0.68300003
-0.037131432 0.022800002 0.68400002
-0.035933334 0.022866668 0.68600005
-0.03462667 0.022866668 0.68600005
-0.033320002 0.022866668 0.68600005
-0.032153334 0.022966668 0.68900001
-0.030840954 0.022966668 0.68900001
-0.09862382 0.024490478 0.69500005
-0.097300008 0.024490478 0.69500005
-0.095976196 0.024490478 0.69500005
-0.094380006 0.024420002 0.69300002
-0.092657149 0.024314288 0.69000006
-0.090945721 0.024208574 0.68700004
-0.089245722 0.024102859 0.68400002
-0.087685719 0.024032382 0.68200004
-0.086133339 0.023961907 0.68000001
-0.08471334 0.023926668 0.67900002
-0.083420008 0.023926668 0.67900002
-0.082005717 0.02389143 0.67800003
-0.080714293 0.02389143 0.67800003
-0.079188578 0.023820953 0.67600006
-0.077785723 0.023785716 0.67500001
-0.076500006 0.023785716 0.67500001
-0.075102866 0.023750478 0.67400002
-0.073819056 0.023750478 0.67400002
-0.072535239 0.023750478 0.67400002
-0.07125143 0.023750478 0.67400002
-0.06996762 0.023750478 0.67400002
-0.068683811 0.023750478 0.67400002
-0.067400001 0.023750478 0.67400002
-0.066116191 0.023750478 0.67400002
-0.064832382 0.023750478 0.67400002
-0.063548572 0.023750478 0.67400002
-0.062080003 0.023680001 0.67200005
-0.060800005 0.023680001 0.67200005
-0.059520002 0.023680001 0.67200005
-0.058240004 0.023680001 0.67200005
-0.056960005 0.023680001 0.67200005
-0.055845719 0.023750478 0.67400002
-0.054400004 0.023680001 0.67200005
-0.0532781 0.023750478 0.67400002
-0.05199429 0.023750478 0.67400002
-0.050710481 0.023750478 0.67400002
-0.049500003 0.023785716 0.67500001
-0.04821429 0.023785716 0.67500001
-0.046928573 0.023785716 0.67500001
-0.045710478 0.023820953 0.67600006
-0.044422861 0.023820953 0.67600006
-0.043262862 0.02389143 0.67800003
-0.042033337 0.023926668 0.67900002
-0.040800001 0.023961907 0.68000001
-0.039620955 0.024032382 0.68200004
-0.038378097 0.02406762 0.68300003
-0.037131432 0.024102859 0.68400002
-0.035933334 0.024173334 0.68600005
-0.03462667 0.024173334 0.68600005
-0.033368573 0.024208574 0.68700004
-0.032153334 0.024279049 0.68900001
-0.030840954 0.024279049 0.68900001
-0.09862382 0.025814287 0.69500005
-0.097300008 0.025814287 0.69500005
-0.095976196 0.025814287 0.69500005
-0.094516195 0.025777144 0.69400001
-0.092791438 0.025665715 0.69100004
-0.091210485 0.025591429 0.68900001
-0.089506671 0.025480002 0.68600005
-0.087685719 0.02533143 0.68200004
-0.086133339 0.025257144 0.68000001
-0.0848381 0.025257144 0.68000001
-0.083420008 0.025220001 0.67900002
-0.08212667 0.025220001 0.67900002
-0.080714293 0.025182858 0.67800003
-0.079422861 0.025182858 0.67800003
-0.077785723 0.025071431 0.67500001
-0.076500006 0.025071431 0.67500001
-0.075214289 0.025071431 0.67500001
-0.073819056 0.025034288 0.67400002
-0.072535239 0.025034288 0.67400002
-0.07125143 0.025034288 0.67400002
-0.06996762 0.025034288 0.67400002
-0.068683811 0.025034288 0.67400002
-0.067400001 0.025034288 0.67400002
-0.066116191 0.025034288 0.67400002
-0.064832382 0.025034288 0.67400002
-0.063548572 0.025034288 0.67400002
-0.062264767 0.025034288 0.67400002
-0.060980957 0.025034288 0.67400002
-0.059697147 0.025034288 0.67400002
-0.058413338 0.025034288 0.67400002
-0.057129528 0.025034288 0.67400002
-0.055845719 0.025034288 0.67400002
-0.054561909 0.025034288 0.67400002
-0.0532781 0.025034288 0.67400002
-0.05199429 0.025034288 0.67400002
-0.050785717 0.025071431 0.67500001
-0.049500003 0.025071431 0.67500001
-0.04821429 0.025071431 0.67500001
-0.046998098 0.025108574 0.67600006
-0.045710478 0.025108574 0.67600006
-0.044554289 0.025182858 0.67800003
-0.043262862 0.025182858 0.67800003
-0.042033337 0.025220001 0.67900002
-0.040800001 0.025257144 0.68000001
-0.039620955 0.02533143 0.68200004
-0.038434289 0.025405716 0.68400002
-0.037240002 0.025480002 0.68600005
-0.035985716 0.025517145 0.68700004
-0.034778096 0.025591429 0.68900001
-0.033465717 0.025591429 0.68900001
-0.032200001 0.025628572 0.69000006
-0.031020002 0.025740001 0.69300002
-0.097580008 0.027216192 0.69700003
-0.096252389 0.027216192 0.69700003
-0.094516195 0.027099049 0.69400001
-0.092791438 0.026981907 0.69100004
-0.091210485 0.026903812 0.68900001
-0.089637145 0.026825717 0.68700004
-0.087814294 0.026669526 0.68300003
-0.086386673 0.026630478 0.68200004
-0.0848381 0.026552383 0.68000001
-0.083542861 0.026552383 0.68000001
-0.08212667 0.026513334 0.67900002
-0.080833338 0.026513334 0.67900002
-0.079422861 0.026474288 0.67800003
-0.077900961 0.026396193 0.67600006
-0.076500006 0.026357144 0.67500001
-0.075214289 0.026357144 0.67500001
-0.07392858 0.026357144 0.67500001
-0.072642863 0.026357144 0.67500001
-0.071357146 0.026357144 0.67500001
-0.06996762 0.026318097 0.67400002
-0.068683811 0.026318097 0.67400002
-0.067400001 0.026318097 0.67400002
-0.066116191 0.026318097 0.67400002
-0.064832382 0.026318097 0.67400002
-0.063548572 0.026318097 0.67400002
-0.062264767 0.026318097 0.67400002
-0.060980957 0.026318097 0.67400002
-0.059697147 0.026318097 0.67400002
-0.058413338 0.026318097 0.67400002
-0.057129528 0.026318097 0.67400002
-0.055928577 0.026357144 0.67500001
-0.05464286 0.026357144 0.67500001
-0.053357147 0.026357144 0.67500001
-0.052071434 0.026357144 0.67500001
-0.050785717 0.026357144 0.67500001
-0.049573336 0.026396193 0.67600006
-0.048285719 0.026396193 0.67600006
-0.047137145 0.026474288 0.67800003
-0.045845717 0.026474288 0.67800003
-0.044620004 0.026513334 0.67900002
-0.043326668 0.026513334 0.67900002
-0.04209524 0.026552383 0.68000001
-0.040920004 0.026630478 0.68200004
-0.03967905 0.026669526 0.68300003
-0.038434289 0.026708573 0.68400002
-0.037240002 0.026786668 0.68600005
-0.035985716 0.026825717 0.68700004
-0.034778096 0.026903812 0.68900001
-0.033465717 0.026903812 0.68900001
-0.032200001 0.026942858 0.69000006
-0.030885717 0.026942858 0.69000006
-0.095976196 0.028461907 0.69500005
-0.094380006 0.028380001 0.69300002
-0.093060009 0.028380001 0.69300002
-0.091210485 0.028216192 0.68900001
-0.089637145 0.028134288 0.68700004
-0.087942861 0.02801143 0.68400002
-0.08651334 0.027970478 0.68300003
-0.085087627 0.027929526 0.68200004
-0.083542861 0.027847622 0.68000001
-0.082247622 0.027847622 0.68000001
-0.080833338 0.027806668 0.67900002
-0.079540007 0.027806668 0.67900002
-0.078131437 0.027765715 0.67800003
-0.076613337 0.027683811 0.67600006
-0.075214289 0.027642859 0.67500001
-0.07392858 0.027642859 0.67500001
-0.072642863 0.027642859 0.67500001
-0.071357146 0.027642859 0.67500001
-0.070071436 0.027642859 0.67500001
-0.06878572 0.027642859 0.67500001
-0.067400001 0.027601907 0.67400002
-0.066116191 0.027601907 0.67400002
-0.064832382 0.027601907 0.67400002
-0.063642859 0.027642859 0.67500001
-0.062357146 0.027642859 0.67500001
-0.060980957 0.027601907 0.67400002
-0.05978572 0.027642859 0.67500001
-0.058500003 0.027642859 0.67500001
-0.05721429 0.027642859 0.67500001
-0.055928577 0.027642859 0.67500001
-0.05464286 0.027642859 0.67500001
-0.053357147 0.027642859 0.67500001
-0.052148573 0.027683811 0.67600006
-0.050860956 0.027683811 0.67600006
-0.049573336 0.027683811 0.67600006
-0.048428576 0.027765715 0.67800003
-0.047137145 0.027765715 0.67800003
-0.045913335 0.027806668 0.67900002
-0.044620004 0.027806668 0.67900002
-0.043390479 0.027847622 0.68000001
-0.04221905 0.027929526 0.68200004
-0.040920004 0.027929526 0.68200004
-0.039737146 0.02801143 0.68400002
-0.038434289 0.02801143 0.68400002
-0.037240002 0.028093334 0.68600005
-0.036090478 0.028216192 0.68900001
-0.034778096 0.028216192 0.68900001
-0.033514287 0.028257145 0.69000006
-0.032246668 0.028298097 0.69100004
-0.030930478 0.028298097 0.69100004
-0.097300008 0.029785717 0.69500005
-0.095976196 0.029785717 0.69500005
-0.094516195 0.029742859 0.69400001
-0.093194291 0.029742859 0.69400001
-0.091475241 0.029614288 0.69100004
-0.089898102 0.029528573 0.68900001
-0.088200003 0.029400002 0.68600005
-0.086640008 0.029314287 0.68400002
-0.085212387 0.029271431 0.68300003
-0.083788574 0.029228574 0.68200004
-0.082247622 0.029142858 0.68000001
-0.080833338 0.029100003 0.67900002
-0.079540007 0.029100003 0.67900002
-0.078131437 0.029057145 0.67800003
-0.076613337 0.02897143 0.67600006
-0.07532572 0.02897143 0.67600006
-0.07392858 0.028928574 0.67500001
-0.072642863 0.028928574 0.67500001
-0.071357146 0.028928574 0.67500001
-0.070071436 0.028928574 0.67500001
-0.06878572 0.028928574 0.67500001
-0.067500003 0.028928574 0.67500001
-0.066214293 0.028928574 0.67500001
-0.064928576 0.028928574 0.67500001
-0.063642859 0.028928574 0.67500001
-0.062357146 0.028928574 0.67500001
-0.061071433 0.028928574 0.67500001
-0.05978572 0.028928574 0.67500001
-0.058500003 0.028928574 0.67500001
-0.05721429 0.028928574 0.67500001
-0.055928577 0.028928574 0.67500001
-0.05464286 0.028928574 0.67500001
-0.053436194 0.02897143 0.67600006
-0.052148573 0.02897143 0.67600006
-0.050860956 0.02897143 0.67600006
-0.049720004 0.029057145 0.67800003
-0.048428576 0.029057145 0.67800003
-0.04720667 0.029100003 0.67900002
-0.045913335 0.029100003 0.67900002
-0.044685718 0.029142858 0.68000001
-0.043390479 0.029142858 0.68000001
-0.04221905 0.029228574 0.68200004
-0.040980004 0.029271431 0.68300003
-0.039737146 0.029314287 0.68400002
-0.03854667 0.029400002 0.68600005
-0.037240002 0.029400002 0.68600005
-0.035985716 0.02944286 0.68700004
-0.034778096 0.029528573 0.68900001
-0.033514287 0.029571431 0.69000006
-0.032246668 0.029614288 0.69100004
-0.030930478 0.029614288 0.69100004
-0.094516195 0.031064764 0.69400001
-0.093194291 0.031064764 0.69400001
-0.091475241 0.030930478 0.69100004
-0.090028577 0.030885717 0.69000006
-0.088328578 0.030751431 0.68700004
-0.086640008 0.030617144 0.68400002
-0.085212387 0.030572383 0.68300003
-0.083788574 0.030527622 0.68200004
-0.082247622 0.030438097 0.68000001
-0.080952384 0.030438097 0.68000001
-0.079540007 0.030393336 0.67900002
-0.078246675 0.030393336 0.67900002
-0.076840006 0.030348573 0.67800003
-0.07532572 0.03025905 0.67600006
-0.074038103 0.03025905 0.67600006
-0.072750479 0.03025905 0.67600006
-0.071462862 0.03025905 0.67600006
-0.070071436 0.030214287 0.67500001
-0.06878572 0.030214287 0.67500001
-0.067500003 0.030214287 0.67500001
-0.066214293 0.030214287 0.67500001
-0.064928576 0.030214287 0.67500001
-0.063642859 0.030214287 0.67500001
-0.062357146 0.030214287 0.67500001
-0.061071433 0.030214287 0.67500001
-0.05978572 0.030214287 0.67500001
-0.058500003 0.030214287 0.67500001
-0.057299051 0.03025905 0.67600006
-0.056011431 0.03025905 0.67600006
-0.054723814 0.03025905 0.67600006
-0.053594287 0.030348573 0.67800003
-0.05230286 0.030348573 0.67800003
-0.051011432 0.030348573 0.67800003
-0.049720004 0.030348573 0.67800003
-0.048500001 0.030393336 0.67900002
-0.04720667 0.030393336 0.67900002
-0.045980956 0.030438097 0.68000001
-0.044685718 0.030438097 0.68000001
-0.0435181 0.030527622 0.68200004
-0.042280953 0.030572383 0.68300003
-0.040980004 0.030572383 0.68300003
-0.039737146 0.030617144 0.68400002
-0.03854667 0.030706668 0.68600005
-0.037294287 0.030751431 0.68700004
-0.036090478 0.030840954 0.68900001
-0.034828573 0.030885717 0.69000006
-0.033562858 0.030930478 0.69100004
-0.032246668 0.030930478 0.69100004
-0.095976196 0.032433335 0.69500005
-0.094516195 0.032386668 0.69400001
-0.093194291 0.032386668 0.69400001
-0.091740005 0.032340001 0.69300002
-0.090028577 0.032200001 0.69000006
-0.088585719 0.032153334 0.68900001
-0.086893342 0.032013334 0.68600005
-0.085337147 0.031920001 0.68400002
-0.083911434 0.031873334 0.68300003
-0.082489528 0.031826667 0.68200004
-0.080952384 0.031733334 0.68000001
-0.079657145 0.031733334 0.68000001
-0.078246675 0.031686667 0.67900002
-0.076953337 0.031686667 0.67900002
-0.075548574 0.031640001 0.67800003
-0.07425715 0.031640001 0.67800003
-0.072965719 0.031640001 0.67800003
-0.071462862 0.031546667 0.67600006
-0.070175245 0.031546667 0.67600006
-0.068887621 0.031546667 0.67600006
-0.067500003 0.031500001 0.67500001
-0.066214293 0.031500001 0.67500001
-0.064928576 0.031500001 0.67500001
-0.063642859 0.031500001 0.67500001
-0.062357146 0.031500001 0.67500001
-0.061071433 0.031500001 0.67500001
-0.059874289 0.031546667 0.67600006
-0.058586672 0.031546667 0.67600006
-0.057299051 0.031546667 0.67600006
-0.056177147 0.031640001 0.67800003
-0.054885719 0.031640001 0.67800003
-0.053594287 0.031640001 0.67800003
-0.052380003 0.031686667 0.67900002
-0.051011432 0.031640001 0.67800003
-0.049793337 0.031686667 0.67900002
-0.048500001 0.031686667 0.67900002
-0.04720667 0.031686667 0.67900002
-0.045980956 0.031733334 0.68000001
-0.044817146 0.031826667 0.68200004
-0.0435181 0.031826667 0.68200004
-0.042280953 0.031873334 0.68300003
-0.041040003 0.031920001 0.68400002
-0.039853334 0.032013334 0.68600005
-0.038602859 0.032060001 0.68700004
-0.037402861 0.032153334 0.68900001
-0.03614286 0.032200001 0.69000006
-0.034879051 0.032246668 0.69100004
-0.033562858 0.032246668 0.69100004
-0.032340001 0.032340001 0.69300002
-0.031020002 0.032340001 0.69300002
0.16900097 0.039246671 0.84100002
-0.092791438 0.033562858 0.69100004
-0.091475241 0.033562858 0.69100004
-0.090028577 0.033514287 0.69000006
-0.088585719 0.033465717 0.68900001
-0.086893342 0.033320002 0.68600005
-0.085337147 0.033222858 0.68400002
-0.083911434 0.033174288 0.68300003
-0.082489528 0.033125717 0.68200004
-0.081190482 0.033125717 0.68200004
-0.079657145 0.033028573 0.68000001
-0.078361914 0.033028573 0.68000001
-0.076953337 0.032980002 0.67900002
-0.075548574 0.032931432 0.67800003
-0.07425715 0.032931432 0.67800003
-0.072965719 0.032931432 0.67800003
-0.071674287 0.032931432 0.67800003
-0.070175245 0.032834288 0.67600006
-0.068887621 0.032834288 0.67600006
-0.067600004 0.032834288 0.67600006
-0.066312388 0.032834288 0.67600006
-0.065024763 0.032834288 0.67600006
-0.063737147 0.032834288 0.67600006
-0.06244953 0.032834288 0.67600006
-0.061161909 0.032834288 0.67600006
-0.059874289 0.032834288 0.67600006
-0.058586672 0.032834288 0.67600006
-0.057468574 0.032931432 0.67800003
-0.056177147 0.032931432 0.67800003
-0.054885719 0.032931432 0.67800003
-0.053594287 0.032931432 0.67800003
-0.052380003 0.032980002 0.67900002
-0.051086672 0.032980002 0.67900002
-0.049793337 0.032980002 0.67900002
-0.048500001 0.032980002 0.67900002
-0.047276195 0.033028573 0.68000001
-0.045980956 0.033028573 0.68000001
-0.044817146 0.033125717 0.68200004
-0.043581907 0.033174288 0.68300003
-0.04234286 0.033222858 0.68400002
-0.041040003 0.033222858 0.68400002
-0.03991143 0.033368573 0.68700004
-0.03871524 0.033465717 0.68900001
-0.037457146 0.033514287 0.69000006
-0.03614286 0.033514287 0.69000006
-0.034879051 0.033562858 0.69100004
-0.033562858 0.033562858 0.69100004
-0.032340001 0.033660002 0.69300002
-0.031020002 0.033660002 0.69300002
-0.094516195 0.035030477 0.69400001
-0.093194291 0.035030477 0.69400001
-0.091740005 0.034980003 0.69300002
-0.090159051 0.034879051 0.69100004
-0.088842861 0.034879051 0.69100004
-0.087020002 0.034677144 0.68700004
-0.085586675 0.03462667 0.68600005
-0.084280007 0.03462667 0.68600005
-0.082731433 0.034525715 0.68400002
-0.081309527 0.034475241 0.68300003
-0.079891436 0.034424763 0.68200004
-0.078361914 0.034323812 0.68000001
-0.077066675 0.034323812 0.68000001
-0.075771436 0.034323812 0.68000001
-0.074476197 0.034323812 0.68000001
-0.073180959 0.034323812 0.68000001
-0.071780004 0.034273334 0.67900002
-0.070486672 0.034273334 0.67900002
-0.069193341 0.034273334 0.67900002
-0.067900002 0.034273334 0.67900002
-0.066606671 0.034273334 0.67900002
-0.065217145 0.03422286 0.67800003
-0.063925721 0.03422286 0.67800003
-0.062634289 0.03422286 0.67800003
-0.061342862 0.03422286 0.67800003
-0.060051434 0.03422286 0.67800003
-0.058760002 0.03422286 0.67800003
-0.057553336 0.034273334 0.67900002
-0.056260005 0.034273334 0.67900002
-0.05496667 0.034273334 0.67900002
-0.053673338 0.034273334 0.67900002
-0.052380003 0.034273334 0.67900002
-0.051086672 0.034273334 0.67900002
-0.049866669 0.034323812 0.68000001
-0.04857143 0.034323812 0.68000001
-0.047415242 0.034424763 0.68200004
-0.046116192 0.034424763 0.68200004
-0.04488286 0.034475241 0.68300003
-0.043645717 0.034525715 0.68400002
-0.04246667 0.03462667 0.68600005
-0.041220002 0.034677144 0.68700004
-0.040027622 0.034778096 0.68900001
-0.038771432 0.034828573 0.69000006
-0.037511431 0.034879051 0.69100004
-0.036195241 0.034879051 0.69100004
-0.034980003 0.034980003 0.69300002
-0.033660002 0.034980003 0.69300002
-0.032386668 0.035030477 0.69400001
-0.031064764 0.035030477 0.69400001
-0.094652385 0.036404766 0.69500005
-0.09332858 0.036404766 0.69500005
-0.091872387 0.036352385 0.69400001
-0.090420008 0.036300004 0.69300002
-0.088842861 0.036195241 0.69100004
-0.087273337 0.036090478 0.68900001
-0.085711434 0.035985716 0.68700004
-0.084280007 0.035933334 0.68600005
-0.082731433 0.035828575 0.68400002
-0.08142858 0.035828575 0.68400002
-0.080008574 0.035776194 0.68300003
-0.07859239 0.035723813 0.68200004
-0.077293336 0.035723813 0.68200004
-0.075771436 0.03561905 0.68000001
-0.074476197 0.03561905 0.68000001
-0.073180959 0.03561905 0.68000001
-0.07188572 0.03561905 0.68000001
-0.070590481 0.03561905 0.68000001
-0.069295242 0.03561905 0.68000001
-0.067900002 0.035566669 0.67900002
-0.066606671 0.035566669 0.67900002
-0.065313339 0.035566669 0.67900002
-0.063925721 0.035514288 0.67800003
-0.062634289 0.035514288 0.67800003
-0.061433338 0.035566669 0.67900002
-0.060051434 0.035514288 0.67800003
-0.058760002 0.035514288 0.67800003
-0.057553336 0.035566669 0.67900002
-0.056260005 0.035566669 0.67900002
-0.05496667 0.035566669 0.67900002
-0.053673338 0.035566669 0.67900002
-0.052457146 0.03561905 0.68000001
-0.051161908 0.03561905 0.68000001
-0.049866669 0.03561905 0.68000001
-0.04857143 0.03561905 0.68000001
-0.047415242 0.035723813 0.68200004
-0.046183813 0.035776194 0.68300003
-0.044948574 0.035828575 0.68400002
-0.043773334 0.035933334 0.68600005
-0.04246667 0.035933334 0.68600005
-0.041220002 0.035985716 0.68700004
-0.040085718 0.03614286 0.69000006
-0.03882762 0.036195241 0.69100004
-0.037511431 0.036195241 0.69100004
-0.036300004 0.036300004 0.69300002
-0.034980003 0.036300004 0.69300002
-0.033660002 0.036300004 0.69300002
-0.032386668 0.036352385 0.69400001
-0.031064764 0.036352385 0.69400001
-0.096252389 0.037837144 0.69700003
-0.094652385 0.037728574 0.69500005
-0.09332858 0.037728574 0.69500005
-0.092004769 0.037728574 0.69500005
-0.090550482 0.037674289 0.69400001
-0.089100003 0.037620004 0.69300002
-0.087526672 0.037511431 0.69100004
-0.085960954 0.037402861 0.68900001
-0.084402859 0.037294287 0.68700004
-0.082973339 0.037240002 0.68600005
-0.08142858 0.037131432 0.68400002
-0.080008574 0.037077144 0.68300003
-0.078707621 0.037077144 0.68300003
-0.077293336 0.037022859 0.68200004
-0.07599429 0.037022859 0.68200004
-0.074695244 0.037022859 0.68200004
-0.073396198 0.037022859 0.68200004
-0.07188572 0.036914289 0.68000001
-0.070590481 0.036914289 0.68000001
-0.069295242 0.036914289 0.68000001
-0.068000004 0.036914289 0.68000001
-0.066704765 0.036914289 0.68000001
-0.065409526 0.036914289 0.68000001
-0.064020008 0.036860004 0.67900002
-0.062726669 0.036860004 0.67900002
-0.061433338 0.036860004 0.67900002
-0.060140003 0.036860004 0.67900002
-0.058846671 0.036860004 0.67900002
-0.057553336 0.036860004 0.67900002
-0.056260005 0.036860004 0.67900002
-0.055047624 0.036914289 0.68000001
-0.053752385 0.036914289 0.68000001
-0.052457146 0.036914289 0.68000001
-0.051161908 0.036914289 0.68000001
-0.049866669 0.036914289 0.68000001
-0.048714288 0.037022859 0.68200004
-0.047484767 0.037077144 0.68300003
-0.046183813 0.037077144 0.68300003
-0.044948574 0.037131432 0.68400002
-0.043773334 0.037240002 0.68600005
-0.04246667 0.037240002 0.68600005
-0.041340001 0.037402861 0.68900001
-0.040085718 0.037457146 0.69000006
-0.03882762 0.037511431 0.69100004
-0.037511431 0.037511431 0.69100004
-0.036300004 0.037620004 0.69300002
-0.034980003 0.037620004 0.69300002
-0.033708572 0.037674289 0.69400001
-0.032433335 0.037728574 0.69500005
-0.031064764 0.037674289 0.69400001
-0.096390486 0.039220955 0.69800001
-0.09492477 0.039164763 0.69700003
-0.09332858 0.039052382 0.69500005
-0.092004769 0.039052382 0.69500005
-0.090550482 0.038996194 0.69400001
-0.089100003 0.038940001 0.69300002
-0.087526672 0.03882762 0.69100004
-0.086085722 0.038771432 0.69000006
-0.084648579 0.03871524 0.68900001
-0.083094291 0.038602859 0.68700004
-0.081666671 0.03854667 0.68600005
-0.080125719 0.038434289 0.68400002
-0.078822859 0.038434289 0.68400002
-0.077406675 0.038378097 0.68300003
-0.076105721 0.038378097 0.68300003
-0.074804768 0.038378097 0.68300003
-0.073396198 0.038321909 0.68200004
-0.072097145 0.038321909 0.68200004
-0.070798099 0.038321909 0.68200004
-0.069295242 0.038209528 0.68000001
-0.068000004 0.038209528 0.68000001
-0.066704765 0.038209528 0.68000001
-0.065409526 0.038209528 0.68000001
-0.064114287 0.038209528 0.68000001
-0.062726669 0.038153335 0.67900002
-0.061433338 0.038153335 0.67900002
-0.060228575 0.038209528 0.68000001
-0.058933336 0.038209528 0.68000001
-0.057638098 0.038209528 0.68000001
-0.056342863 0.038209528 0.68000001
-0.055047624 0.038209528 0.68000001
-0.053752385 0.038209528 0.68000001
-0.052457146 0.038209528 0.68000001
-0.051161908 0.038209528 0.68000001
-0.050013337 0.038321909 0.68200004
-0.048714288 0.038321909 0.68200004
-0.047484767 0.038378097 0.68300003
-0.046251431 0.038434289 0.68400002
-0.044948574 0.038434289 0.68400002
-0.043773334 0.03854667 0.68600005
-0.04246667 0.03854667 0.68600005
-0.041340001 0.03871524 0.68900001
-0.040085718 0.038771432 0.69000006
-0.03882762 0.03882762 0.69100004
-0.037511431 0.03882762 0.69100004
-0.036300004 0.038940001 0.69300002
-0.035030477 0.038996194 0.69400001
-0.033708572 0.038996194 0.69400001
-0.032433335 0.039052382 0.69500005
-0.096666671 0.04066667 0.70000005
-0.09492477 0.040492382 0.69700003
-0.093597151 0.040492382 0.69700003
-0.092004769 0.040376194 0.69500005
-0.090550482 0.040318098 0.69400001
-0.089228578 0.040318098 0.69400001
-0.087526672 0.040143814 0.69100004
-0.086085722 0.040085718 0.69000006
-0.084771432 0.040085718 0.69000006
-0.083336197 0.040027622 0.68900001
-0.081785716 0.03991143 0.68700004
-0.080360003 0.039853334 0.68600005
-0.079053335 0.039853334 0.68600005
-0.077520005 0.039737146 0.68400002
-0.076217145 0.039737146 0.68400002
-0.074804768 0.03967905 0.68300003
-0.073503815 0.03967905 0.68300003
-0.072202861 0.03967905 0.68300003
-0.070901908 0.03967905 0.68300003
-0.069499053 0.039620955 0.68200004
-0.068200007 0.039620955 0.68200004
-0.066704765 0.039504763 0.68000001
-0.065409526 0.039504763 0.68000001
-0.064114287 0.039504763 0.68000001
-0.062819049 0.039504763 0.68000001
-0.061523814 0.039504763 0.68000001
-0.060228575 0.039504763 0.68000001
-0.058933336 0.039504763 0.68000001
-0.057638098 0.039504763 0.68000001
-0.056342863 0.039504763 0.68000001
-0.055047624 0.039504763 0.68000001
-0.053752385 0.039504763 0.68000001
-0.052611433 0.039620955 0.68200004
-0.051312383 0.039620955 0.68200004
-0.050013337 0.039620955 0.68200004
-0.048785716 0.03967905 0.68300003
-0.047484767 0.03967905 0.68300003
-0.046251431 0.039737146 0.68400002
-0.045080002 0.039853334 0.68600005
-0.043837145 0.03991143 0.68700004
-0.042528573 0.03991143 0.68700004
-0.041400004 0.040085718 0.69000006
-0.040143814 0.040143814 0.69100004
-0.03882762 0.040143814 0.69100004
-0.037620004 0.040260002 0.69300002
-0.036300004 0.040260002 0.69300002
-0.035030477 0.040318098 0.69400001
-0.033757146 0.040376194 0.69500005
-0.032433335 0.040376194 0.69500005
-0.096804768 0.042060003 0.70100003
-0.095333338 0.042000003 0.70000005
-0.093597151 0.041820005 0.69700003
-0.092269532 0.041820005 0.69700003
-0.090680957 0.041700002 0.69500005
-0.089357145 0.041700002 0.69500005
-0.087906674 0.041640002 0.69400001
-0.086210482 0.041460004 0.69100004
-0.084771432 0.041400004 0.69000006
-0.083336197 0.041340001 0.68900001
-0.082023814 0.041340001 0.68900001
-0.080477148 0.041220002 0.68700004
-0.079053335 0.041160002 0.68600005
-0.077746674 0.041160002 0.68600005
-0.076217145 0.041040003 0.68400002
-0.074914292 0.041040003 0.68400002
-0.073611431 0.041040003 0.68400002
-0.072308578 0.041040003 0.68400002
-0.070901908 0.040980004 0.68300003
-0.069600955 0.040980004 0.68300003
-0.068300001 0.040980004 0.68300003
-0.066900954 0.040920004 0.68200004
-0.065601908 0.040920004 0.68200004
-0.064302862 0.040920004 0.68200004
-0.062819049 0.040800001 0.68000001
-0.061523814 0.040800001 0.68000001
-0.06040572 0.040920004 0.68200004
-0.05910667 0.040920004 0.68200004
-0.057807624 0.040920004 0.68200004
-0.056508575 0.040920004 0.68200004
-0.055209529 0.040920004 0.68200004
-0.053910479 0.040920004 0.68200004
-0.052611433 0.040920004 0.68200004
-0.051387623 0.040980004 0.68300003
-0.05008667 0.040980004 0.68300003
-0.048785716 0.040980004 0.68300003
-0.047554288 0.041040003 0.68400002
-0.04638667 0.041160002 0.68600005
-0.045145717 0.041220002 0.68700004
-0.043964766 0.041340001 0.68900001
-0.042652383 0.041340001 0.68900001
-0.041400004 0.041400004 0.69000006
-0.040143814 0.041460004 0.69100004
-0.03882762 0.041460004 0.69100004
-0.037620004 0.041580003 0.69300002
-0.036352385 0.041640002 0.69400001
-0.035080954 0.041700002 0.69500005
-0.033757146 0.041700002 0.69500005
-0.032526668 0.041820005 0.69700003
-0.031199049 0.041820005 0.69700003
-0.097080961 0.04351905 0.70300001
-0.095333338 0.043333337 0.70000005
-0.093731433 0.043209527 0.69800001
-0.092269532 0.043147624 0.69700003
-0.090941913 0.043147624 0.69700003
-0.089357145 0.043023814 0.69500005
-0.088033341 0.043023814 0.69500005
-0.086584769 0.042961907 0.69400001
-0.084894292 0.042776193 0.69100004
-0.08345715 0.04271429 0.69000006
-0.082023814 0.042652383 0.68900001
-0.080711432 0.042652383 0.68900001
-0.079168573 0.042528573 0.68700004
-0.077746674 0.04246667 0.68600005
-0.076440006 0.04246667 0.68600005
-0.074914292 0.04234286 0.68400002
-0.073611431 0.04234286 0.68400002
-0.072308578 0.04234286 0.68400002
-0.071005717 0.04234286 0.68400002
-0.069600955 0.042280953 0.68300003
-0.068300001 0.042280953 0.68300003
-0.066900954 0.04221905 0.68200004
-0.065601908 0.04221905 0.68200004
-0.064302862 0.04221905 0.68200004
-0.063003816 0.04221905 0.68200004
-0.061704766 0.04221905 0.68200004
-0.06040572 0.04221905 0.68200004
-0.05910667 0.04221905 0.68200004
-0.057892386 0.042280953 0.68300003
-0.056508575 0.04221905 0.68200004
-0.055290479 0.042280953 0.68300003
-0.053989526 0.042280953 0.68300003
-0.052688576 0.042280953 0.68300003
-0.051387623 0.042280953 0.68300003
-0.05008667 0.042280953 0.68300003
-0.048857145 0.04234286 0.68400002
-0.047554288 0.04234286 0.68400002
-0.04638667 0.04246667 0.68600005
-0.045145717 0.042528573 0.68700004
-0.043964766 0.042652383 0.68900001
-0.042652383 0.042652383 0.68900001
-0.041400004 0.04271429 0.69000006
-0.040143814 0.042776193 0.69100004
-0.038940001 0.042900003 0.69300002
-0.037674289 0.042961907 0.69400001
-0.036509525 0.043147624 0.69700003
-0.035181906 0.043147624 0.69700003
-0.033902861 0.043209527 0.69800001
-0.032573335 0.043209527 0.69800001
-0.031243812 0.043209527 0.69800001
-0.095469527 0.044730481 0.70100003
-0.094000004 0.04466667 0.70000005
-0.092401914 0.044539049 0.69800001
-0.090941913 0.044475242 0.69700003
