# .PCD v0.7 - Point Cloud Data file format
VERSION 0.7
FIELDS x y z
SIZE 4 4 4
TYPE F F F
COUNT 1 1 1
WIDTH 1350
HEIGHT 1
VIEWPOINT 0 0 0 1 0 0 0
POINTS 1350
DATA ascii
-0.029199049 0.033273336 0.71300006
-0.027880002 0.033320002 0.71400005
-0.02648286 0.033273336 0.71300006
-0.025124764 0.033273336 0.71300006
-0.023766669 0.033273336 0.71300006
-0.022408573 0.033273336 0.71300006
-0.021050477 0.033273336 0.71300006
-0.019692382 0.033273336 0.71300006
-0.018334286 0.033273336 0.71300006
-0.017000001 0.033320002 0.71400005
-0.015640002 0.033320002 0.71400005
-0.014280001 0.033320002 0.71400005
-0.012920001 0.033320002 0.71400005
-0.01156 0.033320002 0.71400005
-0.010228572 0.033413336 0.71600002
-0.0088647623 0.033413336 0.71600002
-0.007500953 0.033413336 0.71600002
-0.0061371434 0.033413336 0.71600002
-0.0047733337 0.033413336 0.71600002
-0.003409524 0.033413336 0.71600002
-0.0020457145 0.033413336 0.71600002
-0.00068190478 0.033413336 0.71600002
0.00068190478 0.033413336 0.71600002
0.0020457145 0.033413336 0.71600002
0.003409524 0.033413336 0.71600002
0.0047600004 0.033320002 0.71400005
0.0061114291 0.033273336 0.71300006
-0.09038572 0.034145717 0.70300001
-0.089046672 0.034145717 0.70300001
-0.087707624 0.034145717 0.70300001
-0.10166667 0.041480001 0.85400003
-0.10004 0.041480001 0.85400003
-0.081473336 0.034340002 0.70700002
-0.080240004 0.034388572 0.708
-0.078891434 0.034388572 0.708
-0.077542864 0.034388572 0.708
-0.076194294 0.034388572 0.708
-0.074845716 0.034388572 0.708
-0.073393337 0.034340002 0.70700002
-0.072148576 0.034388572 0.708
-0.070700005 0.034340002 0.70700002
-0.069353335 0.034340002 0.70700002
-0.068102859 0.034388572 0.708
-0.066754289 0.034388572 0.708
-0.065405719 0.034388572 0.708
-0.064057149 0.034388572 0.708
-0.062708579 0.034388572 0.708
-0.061360005 0.034388572 0.708
-0.060011432 0.034388572 0.708
-0.058662862 0.034388572 0.708
-0.057314288 0.034388572 0.708
-0.055965718 0.034388572 0.708
-0.054617148 0.034388572 0.708
-0.05341905 0.034485716 0.71000004
-0.051920004 0.034388572 0.708
-0.050714288 0.034485716 0.71000004
-0.049361907 0.034485716 0.71000004
-0.048009526 0.034485716 0.71000004
-0.046657145 0.034485716 0.71000004
-0.045177147 0.034388572 0.708
-0.043828573 0.034388572 0.708
-0.042480003 0.034388572 0.708
-0.041131433 0.034388572 0.708
-0.039782859 0.034388572 0.708
-0.038434289 0.034388572 0.708
-0.037085716 0.034388572 0.708
-0.035838097 0.034485716 0.71000004
-0.034485716 0.034485716 0.71000004
-0.033133335 0.034485716 0.71000004
-0.031825718 0.034534287 0.71100003
-0.030471431 0.034534287 0.71100003
-0.029117145 0.034534287 0.71100003
-0.027762858 0.034534287 0.71100003
-0.026408574 0.034534287 0.71100003
-0.025054287 0.034534287 0.71100003
-0.023700001 0.034534287 0.71100003
-0.022345716 0.034534287 0.71100003
-0.02099143 0.034534287 0.71100003
-0.019637143 0.034534287 0.71100003
-0.018282859 0.034534287 0.71100003
-0.016928572 0.034534287 0.71100003
-0.015574287 0.034534287 0.71100003
-0.014220001 0.034534287 0.71100003
-0.012901906 0.034631431 0.71300006
-0.01154381 0.034631431 0.71300006
-0.010185715 0.034631431 0.71300006
-0.0088400003 0.034680001 0.71400005
-0.0074800006 0.034680001 0.71400005
-0.0061200005 0.034680001 0.71400005
-0.0047533335 0.034631431 0.71300006
-0.0034000003 0.034680001 0.71400005
-0.0020400002 0.034680001 0.71400005
-0.00068000006 0.034680001 0.71400005
0.00068000006 0.034680001 0.71400005
0.0020371431 0.034631431 0.71300006
0.0033952384 0.034631431 0.71300006
0.0047533335 0.034631431 0.71300006
0.0061114291 0.034631431 0.71300006
0.0074695242 0.034631431 0.71300006
-0.097080961 0.035484765 0.70300001
-0.095741913 0.035484765 0.70300001
-0.094402865 0.035484765 0.70300001
-0.093063816 0.035484765 0.70300001
-0.091724768 0.035484765 0.70300001
-0.09038572 0.035484765 0.70300001
-0.089046672 0.035484765 0.70300001
-0.087707624 0.035484765 0.70300001
-0.086368576 0.035484765 0.70300001
-0.085029528 0.035484765 0.70300001
-0.082585722 0.035585716 0.70500004
-0.081473336 0.035686668 0.70700002
-0.080126673 0.035686668 0.70700002
-0.078780003 0.035686668 0.70700002
-0.07743334 0.035686668 0.70700002
-0.07608667 0.035686668 0.70700002
-0.074740008 0.035686668 0.70700002
-0.073393337 0.035686668 0.70700002
-0.072046675 0.035686668 0.70700002
-0.070700005 0.035686668 0.70700002
-0.069353335 0.035686668 0.70700002
-0.068006672 0.035686668 0.70700002
-0.066660002 0.035686668 0.70700002
-0.065405719 0.035737146 0.708
-0.064057149 0.035737146 0.708
-0.062708579 0.035737146 0.708
-0.061360005 0.035737146 0.708
-0.05992667 0.035686668 0.70700002
-0.058580004 0.035686668 0.70700002
-0.057233337 0.035686668 0.70700002
-0.055886671 0.035686668 0.70700002
-0.054540005 0.035686668 0.70700002
-0.053042859 0.035585716 0.70500004
-0.051846672 0.035686668 0.70700002
-0.050500002 0.035686668 0.70700002
-0.049153335 0.035686668 0.70700002
-0.047806669 0.035686668 0.70700002
-0.046460003 0.035686668 0.70700002
-0.045113336 0.035686668 0.70700002
-0.04376667 0.035686668 0.70700002
-0.042420004 0.035686668 0.70700002
-0.041073337 0.035686668 0.70700002
-0.039726671 0.035686668 0.70700002
-0.038434289 0.035737146 0.708
-0.037085716 0.035737146 0.708
-0.035737146 0.035737146 0.708
-0.034388572 0.035737146 0.708
-0.033040002 0.035737146 0.708
-0.031691432 0.035737146 0.708
-0.030428573 0.035838097 0.71000004
-0.029076193 0.035838097 0.71000004
-0.027723812 0.035838097 0.71000004
-0.026371431 0.035838097 0.71000004
-0.02501905 0.035838097 0.71000004
-0.023666669 0.035838097 0.71000004
-0.022314288 0.035838097 0.71000004
-0.020961907 0.035838097 0.71000004
-0.019609526 0.035838097 0.71000004
-0.018257145 0.035838097 0.71000004
-0.016904764 0.035838097 0.71000004
-0.015574287 0.035888575 0.71100003
-0.014220001 0.035888575 0.71100003
-0.012865715 0.035888575 0.71100003
-0.011511429 0.035888575 0.71100003
-0.010185715 0.035989527 0.71300006
-0.0088276193 0.035989527 0.71300006
-0.0074695242 0.035989527 0.71300006
-0.0061200005 0.036040001 0.71400005
-0.0047533335 0.035989527 0.71300006
-0.0033952384 0.035989527 0.71300006
-0.0020371431 0.035989527 0.71300006
-0.00067904766 0.035989527 0.71300006
0.00067904766 0.035989527 0.71300006
0.0020371431 0.035989527 0.71300006
0.0033952384 0.035989527 0.71300006
0.0047533335 0.035989527 0.71300006
0.0061114291 0.035989527 0.71300006
0.0074695242 0.035989527 0.71300006
-0.099475242 0.03671905 0.70100003
-0.098420009 0.036823813 0.70300001
-0.097080961 0.036823813 0.70300001
-0.095741913 0.036823813 0.70300001
-0.094402865 0.036823813 0.70300001
-0.093063816 0.036823813 0.70300001
-0.091724768 0.036823813 0.70300001
-0.09038572 0.036823813 0.70300001
-0.089046672 0.036823813 0.70300001
-0.087707624 0.036823813 0.70300001
-0.086368576 0.036823813 0.70300001
-0.085029528 0.036823813 0.70300001
-0.082468577 0.036876194 0.70400006
-0.081242859 0.036928575 0.70500004
-0.079900004 0.036928575 0.70500004
-0.078557149 0.036928575 0.70500004
-0.07743334 0.037033334 0.70700002
-0.07587143 0.036928575 0.70500004
-0.074528575 0.036928575 0.70500004
-0.07318572 0.036928575 0.70500004
-0.071842864 0.036928575 0.70500004
-0.070400007 0.036876194 0.70400006
-0.069157146 0.036928575 0.70500004
-0.067814291 0.036928575 0.70500004
-0.066471435 0.036928575 0.70500004
-0.065313339 0.037033334 0.70700002
-0.063966669 0.037033334 0.70700002
-0.062620007 0.037033334 0.70700002
-0.061273336 0.037033334 0.70700002
-0.059757147 0.036928575 0.70500004
-0.058414288 0.036928575 0.70500004
-0.057071432 0.036928575 0.70500004
-0.055728573 0.036928575 0.70500004
-0.054308575 0.036876194 0.70400006
-0.052967623 0.036876194 0.70400006
-0.051626671 0.036876194 0.70400006
-0.050285719 0.036876194 0.70400006
-0.049014289 0.036928575 0.70500004
-0.047671434 0.036928575 0.70500004
-0.046328574 0.036928575 0.70500004
-0.044985719 0.036928575 0.70500004
-0.04364286 0.036928575 0.70500004
-0.042420004 0.037033334 0.70700002
-0.041073337 0.037033334 0.70700002
-0.039726671 0.037033334 0.70700002
-0.038380001 0.037033334 0.70700002
-0.037033334 0.037033334 0.70700002
-0.035686668 0.037033334 0.70700002
-0.034340002 0.037033334 0.70700002
-0.032993335 0.037033334 0.70700002
-0.031691432 0.037085716 0.708
-0.030342858 0.037085716 0.708
-0.028994288 0.037085716 0.708
-0.027645716 0.037085716 0.708
-0.026297145 0.037085716 0.708
-0.02501905 0.037190478 0.71000004
-0.023666669 0.037190478 0.71000004
-0.022314288 0.037190478 0.71000004
-0.020961907 0.037190478 0.71000004
-0.019609526 0.037190478 0.71000004
-0.018257145 0.037190478 0.71000004
-0.016904764 0.037190478 0.71000004
-0.015552382 0.037190478 0.71000004
-0.014200001 0.037190478 0.71000004
-0.01284762 0.037190478 0.71000004
-0.011511429 0.03724286 0.71100003
-0.010157144 0.03724286 0.71100003
-0.0088276193 0.037347622 0.71300006
-0.0074695242 0.037347622 0.71300006
-0.0061114291 0.037347622 0.71300006
-0.0047533335 0.037347622 0.71300006
-0.0033952384 0.037347622 0.71300006
-0.0020371431 0.037347622 0.71300006
-0.00067904766 0.037347622 0.71300006
0.00067904766 0.037347622 0.71300006
0.0020371431 0.037347622 0.71300006
0.0033952384 0.037347622 0.71300006
0.0047533335 0.037347622 0.71300006
0.0061114291 0.037347622 0.71300006
0.0074695242 0.037347622 0.71300006
0.0088276193 0.037347622 0.71300006
-0.1030381 0.037891433 0.69800001
-0.10200001 0.038000003 0.70000005
-0.10081048 0.038054287 0.70100003
-0.099333338 0.038000003 0.70000005
-0.098140009 0.038054287 0.70100003
-0.096804768 0.038054287 0.70100003
-0.095469527 0.038054287 0.70100003
-0.094402865 0.038162861 0.70300001
-0.093063816 0.038162861 0.70300001
-0.091724768 0.038162861 0.70300001
-0.09038572 0.038162861 0.70300001
-0.089046672 0.038162861 0.70300001
-0.087458104 0.038054287 0.70100003
-0.086122863 0.038054287 0.70100003
-0.084787622 0.038054287 0.70100003
-0.083452389 0.038054287 0.70100003
-0.082351431 0.038162861 0.70300001
-0.081127621 0.038217146 0.70400006
-0.079786673 0.038217146 0.70400006
-0.078445718 0.038217146 0.70400006
-0.077214293 0.038271431 0.70500004
-0.075763814 0.038217146 0.70400006
-0.074422859 0.038217146 0.70400006
-0.073081911 0.038217146 0.70400006
-0.071740955 0.038217146 0.70400006
-0.070400007 0.038217146 0.70400006
-0.069059052 0.038217146 0.70400006
-0.067718096 0.038217146 0.70400006
-0.066377148 0.038217146 0.70400006
-0.065036193 0.038217146 0.70400006
-0.063785717 0.038271431 0.70500004
-0.062442861 0.038271431 0.70500004
-0.061100002 0.038271431 0.70500004
-0.059672385 0.038217146 0.70400006
-0.058331434 0.038217146 0.70400006
-0.056990478 0.038217146 0.70400006
-0.055649526 0.038217146 0.70400006
-0.054308575 0.038217146 0.70400006
-0.052892383 0.038162861 0.70300001
-0.051553335 0.038162861 0.70300001
-0.050214291 0.038162861 0.70300001
-0.048944764 0.038217146 0.70400006
-0.047603812 0.038217146 0.70400006
-0.04626286 0.038217146 0.70400006
-0.044921909 0.038217146 0.70400006
-0.043580957 0.038217146 0.70400006
-0.042300005 0.038271431 0.70500004
-0.040957145 0.038271431 0.70500004
-0.03961429 0.038271431 0.70500004
-0.038271431 0.038271431 0.70500004
-0.037033334 0.038380001 0.70700002
-0.035686668 0.038380001 0.70700002
-0.034340002 0.038380001 0.70700002
-0.032993335 0.038380001 0.70700002
-0.031646669 0.038380001 0.70700002
-0.030300003 0.038380001 0.70700002
-0.028953334 0.038380001 0.70700002
-0.027645716 0.038434289 0.708
-0.026297145 0.038434289 0.708
-0.024948573 0.038434289 0.708
-0.023600001 0.038434289 0.708
-0.022251431 0.038434289 0.708
-0.020902859 0.038434289 0.708
-0.019554287 0.038434289 0.708
-0.018205715 0.038434289 0.708
-0.016857143 0.038434289 0.708
-0.015508573 0.038434289 0.708
-0.014160001 0.038434289 0.708
-0.01284762 0.038542859 0.71000004
-0.011495239 0.038542859 0.71000004
-0.010157144 0.038597144 0.71100003
-0.0088276193 0.038705718 0.71300006
-0.0074695242 0.038705718 0.71300006
-0.0061114291 0.038705718 0.71300006
-0.0047400002 0.038597144 0.71100003
-0.0033952384 0.038705718 0.71300006
-0.0020371431 0.038705718 0.71300006
-0.00067904766 0.038705718 0.71300006
0.00067904766 0.038705718 0.71300006
0.0020371431 0.038705718 0.71300006
0.0033952384 0.038705718 0.71300006
0.0047533335 0.038705718 0.71300006
0.0061114291 0.038705718 0.71300006
0.0074695242 0.038705718 0.71300006
0.013179049 0.044188574 0.81400001
-0.11186191 0.039052382 0.69500005
-0.1105381 0.039052382 0.69500005
-0.10921429 0.039052382 0.69500005
-0.10820096 0.039164763 0.69700003
-0.10687334 0.039164763 0.69700003
-0.10554572 0.039164763 0.69700003
-0.1042181 0.039164763 0.69700003
-0.1030381 0.039220955 0.69800001
-0.10170858 0.039220955 0.69800001
-0.10066667 0.039333336 0.70000005
-0.099333338 0.039333336 0.70000005
-0.098000005 0.039333336 0.70000005
-0.096804768 0.039389525 0.70100003
-0.095469527 0.039389525 0.70100003
-0.094134293 0.039389525 0.70100003
-0.092799053 0.039389525 0.70100003
-0.091463819 0.039389525 0.70100003
-0.090128578 0.039389525 0.70100003
-0.088793337 0.039389525 0.70100003
-0.087458104 0.039389525 0.70100003
-0.086000003 0.039333336 0.70000005
-0.084787622 0.039389525 0.70100003
-0.083333336 0.039333336 0.70000005
-0.082351431 0.039501909 0.70300001
-0.081012383 0.039501909 0.70300001
-0.079673335 0.039501909 0.70300001
-0.078334294 0.039501909 0.70300001
-0.07710477 0.039558098 0.70400006
-0.075763814 0.039558098 0.70400006
-0.074422859 0.039558098 0.70400006
-0.072978102 0.039501909 0.70300001
-0.071639054 0.039501909 0.70300001
-0.070300005 0.039501909 0.70300001
-0.068960957 0.039501909 0.70300001
-0.067621909 0.039501909 0.70300001
-0.066282861 0.039501909 0.70300001
-0.064943813 0.039501909 0.70300001
-0.063604765 0.039501909 0.70300001
-0.06226572 0.039501909 0.70300001
-0.060926672 0.039501909 0.70300001
-0.059587624 0.039501909 0.70300001
-0.058248576 0.039501909 0.70300001
-0.056909528 0.039501909 0.70300001
-0.055570479 0.039501909 0.70300001
-0.054231431 0.039501909 0.70300001
-0.052892383 0.039501909 0.70300001
-0.051553335 0.039501909 0.70300001
-0.050214291 0.039501909 0.70300001
-0.048875242 0.039501909 0.70300001
-0.047536194 0.039501909 0.70300001
-0.046197146 0.039501909 0.70300001
-0.044858098 0.039501909 0.70300001
-0.04351905 0.039501909 0.70300001
-0.042240001 0.039558098 0.70400006
-0.040899049 0.039558098 0.70400006
-0.03961429 0.03961429 0.70500004
-0.038271431 0.03961429 0.70500004
-0.036928575 0.03961429 0.70500004
-0.035585716 0.03961429 0.70500004
-0.034242861 0.03961429 0.70500004
-0.032993335 0.039726671 0.70700002
-0.031646669 0.039726671 0.70700002
-0.030300003 0.039726671 0.70700002
-0.028953334 0.039726671 0.70700002
-0.027606668 0.039726671 0.70700002
-0.026260002 0.039726671 0.70700002
-0.024913335 0.039726671 0.70700002
-0.023566669 0.039726671 0.70700002
-0.022220001 0.039726671 0.70700002
-0.020873334 0.039726671 0.70700002
-0.019554287 0.039782859 0.708
-0.018180002 0.039726671 0.70700002
-0.016857143 0.039782859 0.708
-0.015508573 0.039782859 0.708
-0.014160001 0.039782859 0.708
-0.01281143 0.039782859 0.708
-0.011462858 0.039782859 0.708
-0.010142858 0.03989524 0.71000004
-0.0088028582 0.039951432 0.71100003
-0.0074485717 0.039951432 0.71100003
-0.0061114291 0.040063813 0.71300006
-0.0047400002 0.039951432 0.71100003
-0.0033857145 0.039951432 0.71100003
-0.0020314287 0.039951432 0.71100003
-0.00067714287 0.039951432 0.71100003
0.00067904766 0.040063813 0.71300006
0.0020314287 0.039951432 0.71100003
0.0033952384 0.040063813 0.71300006
0.0047533335 0.040063813 0.71300006
0.0061114291 0.040063813 0.71300006
0.0074695242 0.040063813 0.71300006
0.0088276193 0.040063813 0.71300006
-0.11186191 0.040376194 0.69500005
-0.1105381 0.040376194 0.69500005
-0.10921429 0.040376194 0.69500005
-0.10789049 0.040376194 0.69500005
-0.10656668 0.040376194 0.69500005
-0.10524286 0.040376194 0.69500005
-0.10391905 0.040376194 0.69500005
-0.10289048 0.040492382 0.69700003
-0.10156287 0.040492382 0.69700003
-0.10037906 0.040550478 0.69800001
-0.099049531 0.040550478 0.69800001
-0.097720005 0.040550478 0.69800001
-0.096390486 0.040550478 0.69800001
-0.095333338 0.04066667 0.70000005
-0.094000004 0.04066667 0.70000005
-0.092666671 0.04066667 0.70000005
-0.091333337 0.04066667 0.70000005
-0.090000004 0.04066667 0.70000005
-0.08866667 0.04066667 0.70000005
-0.087333336 0.04066667 0.70000005
-0.086000003 0.04066667 0.70000005
-0.084666669 0.04066667 0.70000005
-0.083333336 0.04066667 0.70000005
-0.082117148 0.040724766 0.70100003
-0.080781907 0.040724766 0.70100003
-0.079446673 0.040724766 0.70100003
-0.078111432 0.040724766 0.70100003
-0.076776199 0.040724766 0.70100003
-0.075440958 0.040724766 0.70100003
-0.074105717 0.040724766 0.70100003
-0.072770484 0.040724766 0.70100003
-0.071435243 0.040724766 0.70100003
-0.070100002 0.040724766 0.70100003
-0.068764769 0.040724766 0.70100003
-0.067429528 0.040724766 0.70100003
-0.066000007 0.04066667 0.70000005
-0.064759053 0.040724766 0.70100003
-0.063423812 0.040724766 0.70100003
-0.062088575 0.040724766 0.70100003
-0.060753338 0.040724766 0.70100003
-0.059418101 0.040724766 0.70100003
-0.05808286 0.040724766 0.70100003
-0.056747623 0.040724766 0.70100003
-0.055412386 0.040724766 0.70100003
-0.054077145 0.040724766 0.70100003
-0.052741908 0.040724766 0.70100003
-0.05140667 0.040724766 0.70100003
-0.050071433 0.040724766 0.70100003
-0.048736192 0.040724766 0.70100003
-0.047400955 0.040724766 0.70100003
-0.046197146 0.040840954 0.70300001
-0.044858098 0.040840954 0.70300001
-0.04351905 0.040840954 0.70300001
-0.042180002 0.040840954 0.70300001
-0.040840954 0.040840954 0.70300001
-0.039558098 0.040899049 0.70400006
-0.038217146 0.040899049 0.70400006
-0.036928575 0.040957145 0.70500004
-0.035585716 0.040957145 0.70500004
-0.034242861 0.040957145 0.70500004
-0.032900002 0.040957145 0.70500004
-0.031646669 0.041073337 0.70700002
-0.030300003 0.041073337 0.70700002
-0.028953334 0.041073337 0.70700002
-0.027606668 0.041073337 0.70700002
-0.026260002 0.041073337 0.70700002
-0.024913335 0.041073337 0.70700002
-0.023566669 0.041073337 0.70700002
-0.022220001 0.041073337 0.70700002
-0.020873334 0.041073337 0.70700002
-0.019526668 0.041073337 0.70700002
-0.018180002 0.041073337 0.70700002
-0.016833335 0.041073337 0.70700002
-0.015508573 0.041131433 0.708
-0.014160001 0.041131433 0.708
-0.01281143 0.041131433 0.708
-0.011462858 0.041131433 0.708
-0.010142858 0.041247621 0.71000004
-0.0087904772 0.041247621 0.71000004
-0.0074485717 0.041305717 0.71100003
-0.0061114291 0.041421909 0.71300006
-0.0047400002 0.041305717 0.71100003
-0.0033857145 0.041305717 0.71100003
-0.0020314287 0.041305717 0.71100003
-0.00067714287 0.041305717 0.71100003
0.00067714287 0.041305717 0.71100003
0.0020314287 0.041305717 0.71100003
0.0033857145 0.041305717 0.71100003
0.0047400002 0.041305717 0.71100003
0.0060942862 0.041305717 0.71100003
0.0074485717 0.041305717 0.71100003
0.0088028582 0.041305717 0.71100003
-0.11616667 0.041820005 0.69700003
-0.11483905 0.041820005 0.69700003
-0.11318572 0.041700002 0.69500005
-0.11186191 0.041700002 0.69500005
-0.11037906 0.041640002 0.69400001
-0.10905715 0.041640002 0.69400001
-0.10773525 0.041640002 0.69400001
-0.10656668 0.041700002 0.69500005
-0.10524286 0.041700002 0.69500005
-0.10391905 0.041700002 0.69500005
-0.10289048 0.041820005 0.69700003
-0.10156287 0.041820005 0.69700003
-0.10023525 0.041820005 0.69700003
-0.098907627 0.041820005 0.69700003
-0.097720005 0.041880004 0.69800001
-0.096390486 0.041880004 0.69800001
-0.095060959 0.041880004 0.69800001
-0.094000004 0.042000003 0.70000005
-0.092666671 0.042000003 0.70000005
-0.091072388 0.041880004 0.69800001
-0.089742862 0.041880004 0.69800001
-0.088413343 0.041880004 0.69800001
-0.087083817 0.041880004 0.69800001
-0.08575429 0.041880004 0.69800001
-0.084303819 0.041820005 0.69700003
-0.082976192 0.041820005 0.69700003
-0.081765719 0.041880004 0.69800001
-0.080436192 0.041880004 0.69800001
-0.079333335 0.042000003 0.70000005
-0.078000002 0.042000003 0.70000005
-0.076666668 0.042000003 0.70000005
-0.075333342 0.042000003 0.70000005
-0.074000008 0.042000003 0.70000005
-0.072666675 0.042000003 0.70000005
-0.071333341 0.042000003 0.70000005
-0.070000008 0.042000003 0.70000005
-0.068666674 0.042000003 0.70000005
-0.067333341 0.042000003 0.70000005
-0.065811433 0.041880004 0.69800001
-0.064666674 0.042000003 0.70000005
-0.06333334 0.042000003 0.70000005
-0.062000003 0.042000003 0.70000005
-0.060666669 0.042000003 0.70000005
-0.059333336 0.042000003 0.70000005
-0.058000002 0.042000003 0.70000005
-0.056747623 0.042060003 0.70100003
-0.055333339 0.042000003 0.70000005
-0.054000005 0.042000003 0.70000005
-0.052666672 0.042000003 0.70000005
-0.051333338 0.042000003 0.70000005
-0.050071433 0.042060003 0.70100003
-0.048736192 0.042060003 0.70100003
-0.047400955 0.042060003 0.70100003
-0.046065718 0.042060003 0.70100003
-0.044730481 0.042060003 0.70100003
-0.04339524 0.042060003 0.70100003
-0.042180002 0.042180002 0.70300001
-0.040840954 0.042180002 0.70300001
-0.039501909 0.042180002 0.70300001
-0.038162861 0.042180002 0.70300001
-0.036876194 0.042240001 0.70400006
-0.035535239 0.042240001 0.70400006
-0.034194287 0.042240001 0.70400006
-0.032900002 0.042300005 0.70500004
-0.031557146 0.042300005 0.70500004
-0.030214287 0.042300005 0.70500004
-0.02887143 0.042300005 0.70500004
-0.027528573 0.042300005 0.70500004
-0.026185716 0.042300005 0.70500004
-0.024913335 0.042420004 0.70700002
-0.023566669 0.042420004 0.70700002
-0.022220001 0.042420004 0.70700002
-0.020873334 0.042420004 0.70700002
-0.019526668 0.042420004 0.70700002
-0.018180002 0.042420004 0.70700002
-0.016833335 0.042420004 0.70700002
-0.015486668 0.042420004 0.70700002
-0.014160001 0.042480003 0.708
-0.01281143 0.042480003 0.708
-0.011462858 0.042480003 0.708
-0.010114286 0.042480003 0.708
-0.0087904772 0.042600002 0.71000004
-0.0074380958 0.042600002 0.71000004
-0.0060942862 0.042660002 0.71100003
-0.0047333338 0.042600002 0.71000004
-0.0033857145 0.042660002 0.71100003
-0.0020314287 0.042660002 0.71100003
-0.00067714287 0.042660002 0.71100003
0.00067714287 0.042660002 0.71100003
0.0020314287 0.042660002 0.71100003
0.0033857145 0.042660002 0.71100003
0.0047400002 0.042660002 0.71100003
0.0060942862 0.042660002 0.71100003
0.0074485717 0.042660002 0.71100003
0.0088028582 0.042660002 0.71100003
-0.14448287 0.051319052 0.82900006
-0.14290382 0.051319052 0.82900006
-0.11848096 0.043023814 0.69500005
-0.14008287 0.051442862 0.83100003
-0.11616667 0.043147624 0.69700003
-0.11483905 0.043147624 0.69700003
-0.11318572 0.043023814 0.69500005
-0.11170096 0.042961907 0.69400001
-0.11037906 0.042961907 0.69400001
-0.10905715 0.042961907 0.69400001
-0.10773525 0.042961907 0.69400001
-0.10656668 0.043023814 0.69500005
-0.10524286 0.043023814 0.69500005
-0.10391905 0.043023814 0.69500005
-0.10289048 0.043147624 0.69700003
-0.10156287 0.043147624 0.69700003
-0.10023525 0.043147624 0.69700003
-0.098907627 0.043147624 0.69700003
-0.097580008 0.043147624 0.69700003
-0.096252389 0.043147624 0.69700003
-0.09492477 0.043147624 0.69700003
-0.093597151 0.043147624 0.69700003
-0.092269532 0.043147624 0.69700003
-0.090680957 0.043023814 0.69500005
-0.089357145 0.043023814 0.69500005
-0.088033341 0.043023814 0.69500005
-0.086709529 0.043023814 0.69500005
-0.085631438 0.043147624 0.69700003
-0.084061913 0.043023814 0.69500005
-0.082738101 0.043023814 0.69500005
-0.081648573 0.043147624 0.69700003
-0.080320954 0.043147624 0.69700003
-0.078993335 0.043147624 0.69700003
-0.077777147 0.043209527 0.69800001
-0.076338097 0.043147624 0.69700003
-0.075118102 0.043209527 0.69800001
-0.073788576 0.043209527 0.69800001
-0.07245905 0.043209527 0.69800001
-0.071129531 0.043209527 0.69800001
-0.069800004 0.043209527 0.69800001
-0.068470478 0.043209527 0.69800001
-0.067140959 0.043209527 0.69800001
-0.065811433 0.043209527 0.69800001
-0.064481907 0.043209527 0.69800001
-0.063152388 0.043209527 0.69800001
-0.061822861 0.043209527 0.69800001
-0.060493339 0.043209527 0.69800001
-0.059333336 0.043333337 0.70000005
-0.058000002 0.043333337 0.70000005
-0.056666672 0.043333337 0.70000005
-0.055175241 0.043209527 0.69800001
-0.054000005 0.043333337 0.70000005
-0.052666672 0.043333337 0.70000005
-0.051333338 0.043333337 0.70000005
-0.050000004 0.043333337 0.70000005
-0.048666671 0.043333337 0.70000005
-0.047333337 0.043333337 0.70000005
-0.046000004 0.043333337 0.70000005
-0.044730481 0.04339524 0.70100003
-0.04339524 0.04339524 0.70100003
-0.042060003 0.04339524 0.70100003
-0.040724766 0.04339524 0.70100003
-0.039501909 0.04351905 0.70300001
-0.038162861 0.04351905 0.70300001
-0.036823813 0.04351905 0.70300001
-0.035484765 0.04351905 0.70300001
-0.034194287 0.043580957 0.70400006
-0.032853335 0.043580957 0.70400006
-0.031512383 0.043580957 0.70400006
-0.03017143 0.043580957 0.70400006
-0.028830478 0.043580957 0.70400006
-0.027528573 0.04364286 0.70500004
-0.026185716 0.04364286 0.70500004
-0.024913335 0.04376667 0.70700002
-0.023500001 0.04364286 0.70500004
-0.022220001 0.04376667 0.70700002
-0.020873334 0.04376667 0.70700002
-0.019526668 0.04376667 0.70700002
-0.018180002 0.04376667 0.70700002
-0.016833335 0.04376667 0.70700002
-0.015486668 0.04376667 0.70700002
-0.014160001 0.043828573 0.708
-0.01281143 0.043828573 0.708
-0.011462858 0.043828573 0.708
-0.010114286 0.043828573 0.708
-0.0087904772 0.043952383 0.71000004
-0.0074380958 0.043952383 0.71000004
-0.0060942862 0.04401429 0.71100003
-0.0047333338 0.043952383 0.71000004
-0.0033857145 0.04401429 0.71100003
-0.0020285717 0.043952383 0.71000004
-0.00067714287 0.04401429 0.71100003
0.00067714287 0.04401429 0.71100003
0.0020314287 0.04401429 0.71100003
0.0033857145 0.04401429 0.71100003
0.0047400002 0.04401429 0.71100003
0.0060942862 0.04401429 0.71100003
0.0074485717 0.04401429 0.71100003
0.0088028582 0.04401429 0.71100003
-0.11715715 0.044347622 0.69500005
-0.11583334 0.044347622 0.69500005
-0.11450953 0.044347622 0.69500005
-0.11318572 0.044347622 0.69500005
-0.11170096 0.044283811 0.69400001
-0.11022001 0.044220004 0.69300002
-0.10905715 0.044283811 0.69400001
-0.10758001 0.044220004 0.69300002
-0.10641334 0.044283811 0.69400001
-0.10509144 0.044283811 0.69400001
-0.10391905 0.044347622 0.69500005
-0.10259525 0.044347622 0.69500005
-0.10127144 0.044347622 0.69500005
-0.10023525 0.044475242 0.69700003
-0.09862382 0.044347622 0.69500005
-0.097300008 0.044347622 0.69500005
-0.095976196 0.044347622 0.69500005
-0.094652385 0.044347622 0.69500005
-0.09332858 0.044347622 0.69500005
-0.091872387 0.044283811 0.69400001
-0.090550482 0.044283811 0.69400001
-0.089228578 0.044283811 0.69400001
-0.087906674 0.044283811 0.69400001
-0.086584769 0.044283811 0.69400001
-0.085262865 0.044283811 0.69400001
-0.08394096 0.044283811 0.69400001
-0.082619056 0.044283811 0.69400001
-0.08141429 0.044347622 0.69500005
-0.080090478 0.044347622 0.69500005
-0.078766674 0.044347622 0.69500005
-0.077442862 0.044347622 0.69500005
-0.07611905 0.044347622 0.69500005
-0.075010478 0.044475242 0.69700003
-0.07368286 0.044475242 0.69700003
-0.072355241 0.044475242 0.69700003
-0.071027622 0.044475242 0.69700003
-0.069700003 0.044475242 0.69700003
-0.068372384 0.044475242 0.69700003
-0.067044765 0.044475242 0.69700003
-0.065811433 0.044539049 0.69800001
-0.064481907 0.044539049 0.69800001
-0.063152388 0.044539049 0.69800001
-0.061822861 0.044539049 0.69800001
-0.060493339 0.044539049 0.69800001
-0.059163813 0.044539049 0.69800001
-0.05783429 0.044539049 0.69800001
-0.056504767 0.044539049 0.69800001
-0.055175241 0.044539049 0.69800001
-0.053845719 0.044539049 0.69800001
-0.052516192 0.044539049 0.69800001
-0.05118667 0.044539049 0.69800001
-0.050000004 0.04466667 0.70000005
-0.048666671 0.04466667 0.70000005
-0.047333337 0.04466667 0.70000005
-0.046000004 0.04466667 0.70000005
-0.044730481 0.044730481 0.70100003
-0.04339524 0.044730481 0.70100003
-0.042060003 0.044730481 0.70100003
-0.040724766 0.044730481 0.70100003
-0.039389525 0.044730481 0.70100003
-0.038162861 0.044858098 0.70300001
-0.036823813 0.044858098 0.70300001
-0.035484765 0.044858098 0.70300001
-0.034145717 0.044858098 0.70300001
-0.032806668 0.044858098 0.70300001
-0.03146762 0.044858098 0.70300001
-0.03017143 0.044921909 0.70400006
-0.028830478 0.044921909 0.70400006
-0.027489526 0.044921909 0.70400006
-0.026185716 0.044985719 0.70500004
-0.024842858 0.044985719 0.70500004
-0.023500001 0.044985719 0.70500004
-0.022157144 0.044985719 0.70500004
-0.020873334 0.045113336 0.70700002
-0.019526668 0.045113336 0.70700002
-0.018180002 0.045113336 0.70700002
-0.016833335 0.045113336 0.70700002
-0.015486668 0.045113336 0.70700002
-0.014140001 0.045113336 0.70700002
-0.012793334 0.045113336 0.70700002
-0.011462858 0.045177147 0.708
-0.010114286 0.045177147 0.708
-0.0087904772 0.045304764 0.71000004
-0.0074171433 0.045177147 0.708
-0.0060857148 0.045304764 0.71000004
-0.0047200001 0.045177147 0.708
-0.0033809526 0.045304764 0.71000004
-0.0020285717 0.045304764 0.71000004
-0.00067619054 0.045304764 0.71000004
0.00067619054 0.045304764 0.71000004
0.0020314287 0.045368575 0.71100003
0.0033857145 0.045368575 0.71100003
0.0047400002 0.045368575 0.71100003
0.0060942862 0.045368575 0.71100003
0.0074485717 0.045368575 0.71100003
0.0088028582 0.045368575 0.71100003
0.010185715 0.045496192 0.71300006
-0.11831048 0.045605719 0.69400001
-0.11698858 0.045605719 0.69400001
-0.11566667 0.045605719 0.69400001
-0.11450953 0.045671433 0.69500005
-0.11302286 0.045605719 0.69400001
-0.11170096 0.045605719 0.69400001
-0.11022001 0.045540001 0.69300002
-0.10890001 0.045540001 0.69300002
-0.10758001 0.045540001 0.69300002
-0.10626001 0.045540001 0.69300002
-0.10509144 0.045605719 0.69400001
-0.10376953 0.045605719 0.69400001
-0.10244763 0.045605719 0.69400001
-0.10112572 0.045605719 0.69400001
-0.099947624 0.045671433 0.69500005
-0.098481908 0.045605719 0.69400001
-0.097160004 0.045605719 0.69400001
-0.0958381 0.045605719 0.69400001
-0.094516195 0.045605719 0.69400001
-0.093060009 0.045540001 0.69300002
-0.091740005 0.045540001 0.69300002
-0.090420008 0.045540001 0.69300002
-0.089100003 0.045540001 0.69300002
-0.087780006 0.045540001 0.69300002
-0.086460009 0.045540001 0.69300002
-0.085140005 0.045540001 0.69300002
-0.083820008 0.045540001 0.69300002
-0.082500003 0.045540001 0.69300002
-0.081297152 0.045605719 0.69400001
-0.07997524 0.045605719 0.69400001
-0.078653336 0.045605719 0.69400001
-0.077331431 0.045605719 0.69400001
-0.07611905 0.045671433 0.69500005
-0.074795246 0.045671433 0.69500005
-0.073471434 0.045671433 0.69500005
-0.072147623 0.045671433 0.69500005
-0.071027622 0.045802861 0.69700003
-0.069700003 0.045802861 0.69700003
-0.068372384 0.045802861 0.69700003
-0.067044765 0.045802861 0.69700003
-0.065717146 0.045802861 0.69700003
-0.064389527 0.045802861 0.69700003
-0.063061908 0.045802861 0.69700003
-0.061734289 0.045802861 0.69700003
-0.06040667 0.045802861 0.69700003
-0.059079051 0.045802861 0.69700003
-0.057751432 0.045802861 0.69700003
-0.056504767 0.045868576 0.69800001
-0.055096194 0.045802861 0.69700003
-0.053768575 0.045802861 0.69700003
-0.052516192 0.045868576 0.69800001
-0.05118667 0.045868576 0.69800001
-0.049857147 0.045868576 0.69800001
-0.048527621 0.045868576 0.69800001
-0.047198098 0.045868576 0.69800001
-0.045868576 0.045868576 0.69800001
-0.04466667 0.046000004 0.70000005
-0.043333337 0.046000004 0.70000005
-0.042000003 0.046000004 0.70000005
-0.040724766 0.046065718 0.70100003
-0.039389525 0.046065718 0.70100003
-0.038054287 0.046065718 0.70100003
-0.03671905 0.046065718 0.70100003
-0.035484765 0.046197146 0.70300001
-0.034145717 0.046197146 0.70300001
-0.032806668 0.046197146 0.70300001
-0.03146762 0.046197146 0.70300001
-0.030128574 0.046197146 0.70300001
-0.028789526 0.046197146 0.70300001
-0.027489526 0.04626286 0.70400006
-0.026148573 0.04626286 0.70400006
-0.024842858 0.046328574 0.70500004
-0.023500001 0.046328574 0.70500004
-0.022157144 0.046328574 0.70500004
-0.020814287 0.046328574 0.70500004
-0.019471429 0.046328574 0.70500004
-0.018128572 0.046328574 0.70500004
-0.016785715 0.046328574 0.70500004
-0.015486668 0.046460003 0.70700002
-0.014140001 0.046460003 0.70700002
-0.012793334 0.046460003 0.70700002
-0.011446668 0.046460003 0.70700002
-0.010114286 0.046525717 0.708
-0.0087657152 0.046525717 0.708
-0.0074171433 0.046525717 0.708
-0.0060857148 0.046657145 0.71000004
-0.0047200001 0.046525717 0.708
-0.0033809526 0.046657145 0.71000004
-0.0020228573 0.046525717 0.708
-0.00067619054 0.046657145 0.71000004
0.00067619054 0.046657145 0.71000004
0.0020285717 0.046657145 0.71000004
0.0033809526 0.046657145 0.71000004
0.0047400002 0.046722859 0.71100003
0.0060942862 0.046722859 0.71100003
0.0074485717 0.046722859 0.71100003
0.0088028582 0.046722859 0.71100003
0.010157144 0.046722859 0.71100003
-0.11980477 0.046995241 0.69500005
-0.11848096 0.046995241 0.69500005
-0.11698858 0.046927623 0.69400001
-0.11566667 0.046927623 0.69400001
-0.11434477 0.046927623 0.69400001
-0.11286001 0.046860002 0.69300002
-0.11154 0.046860002 0.69300002
-0.10990191 0.046724766 0.69100004
-0.10858572 0.046724766 0.69100004
-0.10726953 0.046724766 0.69100004
-0.10595334 0.046724766 0.69100004
-0.10463715 0.046724766 0.69100004
-0.10362001 0.046860002 0.69300002
-0.1023 0.046860002 0.69300002
-0.10098001 0.046860002 0.69300002
-0.099660009 0.046860002 0.69300002
-0.098340005 0.046860002 0.69300002
-0.097020008 0.046860002 0.69300002
-0.095700003 0.046860002 0.69300002
-0.094380006 0.046860002 0.69300002
-0.093060009 0.046860002 0.69300002
-0.091475241 0.046724766 0.69100004
-0.090159051 0.046724766 0.69100004
-0.088842861 0.046724766 0.69100004
-0.087526672 0.046724766 0.69100004
-0.086210482 0.046724766 0.69100004
-0.085140005 0.046860002 0.69300002
-0.083820008 0.046860002 0.69300002
-0.082500003 0.046860002 0.69300002
-0.081180006 0.046860002 0.69300002
-0.079860002 0.046860002 0.69300002
-0.078653336 0.046927623 0.69400001
-0.077331431 0.046927623 0.69400001
-0.076009527 0.046927623 0.69400001
-0.074687622 0.046927623 0.69400001
-0.073471434 0.046995241 0.69500005
-0.072147623 0.046995241 0.69500005
-0.070823811 0.046995241 0.69500005
-0.069500007 0.046995241 0.69500005
-0.068176195 0.046995241 0.69500005
-0.066852383 0.046995241 0.69500005
-0.065528579 0.046995241 0.69500005
-0.064204767 0.046995241 0.69500005
-0.063061908 0.04713048 0.69700003
-0.061734289 0.04713048 0.69700003
-0.06040667 0.04713048 0.69700003
-0.059079051 0.04713048 0.69700003
-0.057751432 0.04713048 0.69700003
-0.056423813 0.04713048 0.69700003
-0.055096194 0.04713048 0.69700003
-0.053768575 0.04713048 0.69700003
-0.052440956 0.04713048 0.69700003
-0.051113337 0.04713048 0.69700003
-0.049785718 0.04713048 0.69700003
-0.048527621 0.047198098 0.69800001
-0.047198098 0.047198098 0.69800001
-0.045868576 0.047198098 0.69800001
-0.044539049 0.047198098 0.69800001
-0.043333337 0.047333337 0.70000005
-0.042000003 0.047333337 0.70000005
-0.04066667 0.047333337 0.70000005
-0.039389525 0.047400955 0.70100003
-0.038054287 0.047400955 0.70100003
-0.03671905 0.047400955 0.70100003
-0.035383813 0.047400955 0.70100003
-0.034145717 0.047536194 0.70300001
-0.032806668 0.047536194 0.70300001
-0.03146762 0.047536194 0.70300001
-0.030128574 0.047536194 0.70300001
-0.028789526 0.047536194 0.70300001
-0.027489526 0.047603812 0.70400006
-0.026148573 0.047603812 0.70400006
-0.024807621 0.047603812 0.70400006
-0.023466669 0.047603812 0.70400006
-0.022157144 0.047671434 0.70500004
-0.020814287 0.047671434 0.70500004
-0.019471429 0.047671434 0.70500004
-0.018128572 0.047671434 0.70500004
-0.016785715 0.047671434 0.70500004
-0.015486668 0.047806669 0.70700002
-0.014140001 0.047806669 0.70700002
-0.012793334 0.047806669 0.70700002
-0.011446668 0.047806669 0.70700002
-0.010114286 0.04787429 0.708
-0.0087657152 0.04787429 0.708
-0.0074171433 0.04787429 0.708
-0.0060857148 0.048009526 0.71000004
-0.0047200001 0.04787429 0.708
-0.0033714287 0.04787429 0.708
-0.0020228573 0.04787429 0.708
-0.00067428575 0.04787429 0.708
0.00067619054 0.048009526 0.71000004
0.0020285717 0.048009526 0.71000004
0.0033809526 0.048009526 0.71000004
0.0047400002 0.048077147 0.71100003
0.0060942862 0.048077147 0.71100003
0.0074485717 0.048077147 0.71100003
0.0088028582 0.048077147 0.71100003
0.010157144 0.048077147 0.71100003
-0.12095429 0.048249528 0.69400001
-0.11980477 0.048319049 0.69500005
-0.11831048 0.048249528 0.69400001
-0.11698858 0.048249528 0.69400001
-0.11550001 0.048180003 0.69300002
-0.11385048 0.048040956 0.69100004
-0.11253429 0.048040956 0.69100004
-0.11105715 0.047971431 0.69000006
-0.10974286 0.047971431 0.69000006
-0.10842858 0.047971431 0.69000006
-0.10711429 0.047971431 0.69000006
-0.10580001 0.047971431 0.69000006
-0.10433429 0.047901906 0.68900001
-0.10302191 0.047901906 0.68900001
-0.10185715 0.047971431 0.69000006
-0.10054287 0.047971431 0.69000006
-0.099372387 0.048040956 0.69100004
-0.098056197 0.048040956 0.69100004
-0.096740007 0.048040956 0.69100004
-0.095423818 0.048040956 0.69100004
-0.094107628 0.048040956 0.69100004
-0.092791438 0.048040956 0.69100004
-0.091342866 0.047971431 0.69000006
-0.090028577 0.047971431 0.69000006
-0.088714294 0.047971431 0.69000006
-0.087400004 0.047971431 0.69000006
-0.086085722 0.047971431 0.69000006
-0.084771432 0.047971431 0.69000006
-0.08345715 0.047971431 0.69000006
-0.082261913 0.048040956 0.69100004
-0.080945723 0.048040956 0.69100004
-0.079629526 0.048040956 0.69100004
-0.078313336 0.048040956 0.69100004
-0.076997146 0.048040956 0.69100004
-0.075680956 0.048040956 0.69100004
-0.074364766 0.048040956 0.69100004
-0.073260002 0.048180003 0.69300002
-0.071940005 0.048180003 0.69300002
-0.070620008 0.048180003 0.69300002
-0.069300003 0.048180003 0.69300002
-0.067980006 0.048180003 0.69300002
-0.066756196 0.048249528 0.69400001
-0.065434292 0.048249528 0.69400001
-0.064112388 0.048249528 0.69400001
-0.062790483 0.048249528 0.69400001
-0.061557148 0.048319049 0.69500005
-0.060233336 0.048319049 0.69500005
-0.058909528 0.048319049 0.69500005
-0.057585716 0.048319049 0.69500005
-0.056261908 0.048319049 0.69500005
-0.0549381 0.048319049 0.69500005
-0.053614289 0.048319049 0.69500005
-0.052290481 0.048319049 0.69500005
-0.050966669 0.048319049 0.69500005
-0.049642861 0.048319049 0.69500005
-0.048458099 0.048458099 0.69700003
-0.04713048 0.048458099 0.69700003
-0.045802861 0.048458099 0.69700003
-0.044475242 0.048458099 0.69700003
-0.043209527 0.048527621 0.69800001
-0.042000003 0.048666671 0.70000005
-0.04066667 0.048666671 0.70000005
-0.039333336 0.048666671 0.70000005
-0.038000003 0.048666671 0.70000005
-0.03671905 0.048736192 0.70100003
-0.035383813 0.048736192 0.70100003
-0.034048572 0.048736192 0.70100003
-0.032713335 0.048736192 0.70100003
-0.031378098 0.048736192 0.70100003
-0.030128574 0.048875242 0.70300001
-0.028789526 0.048875242 0.70300001
-0.027450478 0.048875242 0.70300001
-0.026148573 0.048944764 0.70400006
-0.024807621 0.048944764 0.70400006
-0.023466669 0.048944764 0.70400006
-0.022125715 0.048944764 0.70400006
-0.020784764 0.048944764 0.70400006
-0.019471429 0.049014289 0.70500004
-0.018128572 0.049014289 0.70500004
-0.016785715 0.049014289 0.70500004
-0.015442858 0.049014289 0.70500004
-0.014100001 0.049014289 0.70500004
-0.012793334 0.049153335 0.70700002
-0.011446668 0.049153335 0.70700002
-0.010114286 0.04922286 0.708
-0.0087657152 0.04922286 0.708
-0.0074171433 0.04922286 0.708
-0.0060685719 0.04922286 0.708
-0.0047133337 0.049153335 0.70700002
-0.0033714287 0.04922286 0.708
-0.0020200002 0.049153335 0.70700002
-0.00067428575 0.04922286 0.708
0.00067428575 0.04922286 0.708
0.0020285717 0.049361907 0.71000004
0.0033809526 0.049361907 0.71000004
0.0047333338 0.049361907 0.71000004
0.0060942862 0.049431432 0.71100003
0.0074485717 0.049431432 0.71100003
0.0088028582 0.049431432 0.71100003
0.010157144 0.049431432 0.71100003
0.011511429 0.049431432 0.71100003
-0.12245239 0.049642861 0.69500005
-0.12112858 0.049642861 0.69500005
-0.11980477 0.049642861 0.69500005
-0.11831048 0.049571432 0.69400001
-0.11698858 0.049571432 0.69400001
-0.11550001 0.049500003 0.69300002
-0.11385048 0.049357146 0.69100004
-0.11237144 0.049285717 0.69000006
-0.11105715 0.049285717 0.69000006
-0.10958382 0.049214289 0.68900001
-0.10827143 0.049214289 0.68900001
-0.10664858 0.049071431 0.68700004
-0.10534 0.049071431 0.68700004
-0.10403144 0.049071431 0.68700004
-0.10272286 0.049071431 0.68700004
-0.10141429 0.049071431 0.68700004
-0.10039715 0.049214289 0.68900001
-0.099084765 0.049214289 0.68900001
-0.09777239 0.049214289 0.68900001
-0.096600004 0.049285717 0.69000006
-0.095285721 0.049285717 0.69000006
-0.093971431 0.049285717 0.69000006
-0.092657149 0.049285717 0.69000006
-0.091342866 0.049285717 0.69000006
-0.090028577 0.049285717 0.69000006
-0.088714294 0.049285717 0.69000006
-0.087400004 0.049285717 0.69000006
-0.086085722 0.049285717 0.69000006
-0.084771432 0.049285717 0.69000006
-0.08345715 0.049285717 0.69000006
-0.08214286 0.049285717 0.69000006
-0.080828577 0.049285717 0.69000006
-0.079514287 0.049285717 0.69000006
-0.078200005 0.049285717 0.69000006
-0.076997146 0.049357146 0.69100004
-0.075680956 0.049357146 0.69100004
-0.074364766 0.049357146 0.69100004
-0.073048577 0.049357146 0.69100004
-0.071732387 0.049357146 0.69100004
-0.070620008 0.049500003 0.69300002
-0.069300003 0.049500003 0.69300002
-0.067980006 0.049500003 0.69300002
-0.066660002 0.049500003 0.69300002
-0.065340005 0.049500003 0.69300002
-0.064020008 0.049500003 0.69300002
-0.062700003 0.049500003 0.69300002
-0.061468575 0.049571432 0.69400001
-0.060146671 0.049571432 0.69400001
-0.058824766 0.049571432 0.69400001
-0.057585716 0.049642861 0.69500005
-0.056261908 0.049642861 0.69500005
-0.0549381 0.049642861 0.69500005
-0.053614289 0.049642861 0.69500005
-0.052290481 0.049642861 0.69500005
-0.050966669 0.049642861 0.69500005
-0.049642861 0.049642861 0.69500005
-0.048319049 0.049642861 0.69500005
-0.04713048 0.049785718 0.69700003
-0.045802861 0.049785718 0.69700003
-0.044475242 0.049785718 0.69700003
-0.043147624 0.049785718 0.69700003
-0.041880004 0.049857147 0.69800001
-0.04066667 0.050000004 0.70000005
-0.039333336 0.050000004 0.70000005
-0.038000003 0.050000004 0.70000005
-0.03671905 0.050071433 0.70100003
-0.035383813 0.050071433 0.70100003
-0.034048572 0.050071433 0.70100003
-0.032713335 0.050071433 0.70100003
-0.031378098 0.050071433 0.70100003
-0.030042859 0.050071433 0.70100003
-0.028789526 0.050214291 0.70300001
-0.027450478 0.050214291 0.70300001
-0.026148573 0.050285719 0.70400006
-0.024807621 0.050285719 0.70400006
-0.023466669 0.050285719 0.70400006
-0.022125715 0.050285719 0.70400006
-0.020784764 0.050285719 0.70400006
-0.01944381 0.050285719 0.70400006
-0.018128572 0.050357144 0.70500004
-0.016761906 0.050285719 0.70400006
-0.015442858 0.050357144 0.70500004
-0.014100001 0.050357144 0.70500004
-0.012793334 0.050500002 0.70700002
-0.011446668 0.050500002 0.70700002
-0.010114286 0.05057143 0.708
-0.0087657152 0.05057143 0.708
-0.0074171433 0.05057143 0.708
-0.0060685719 0.05057143 0.708
-0.0047133337 0.050500002 0.70700002
-0.0033714287 0.05057143 0.708
-0.0020200002 0.050500002 0.70700002
-0.00067333336 0.050500002 0.70700002
0.00067428575 0.05057143 0.708
0.0020285717 0.050714288 0.71000004
0.0033809526 0.050714288 0.71000004
0.0047400002 0.050785717 0.71100003
0.0060942862 0.050785717 0.71100003
0.0074485717 0.050785717 0.71100003
0.0088028582 0.050785717 0.71100003
0.010157144 0.050785717 0.71100003
0.011511429 0.050785717 0.71100003
-0.12245239 0.050966669 0.69500005
-0.12112858 0.050966669 0.69500005
-0.11980477 0.050966669 0.69500005
-0.11831048 0.050893337 0.69400001
-0.11682001 0.050820004 0.69300002
-0.11516667 0.050673336 0.69100004
-0.11368572 0.050600003 0.69000006
-0.11237144 0.050600003 0.69000006
-0.1108962 0.050526671 0.68900001
-0.10926572 0.050380003 0.68700004
-0.10795715 0.050380003 0.68700004
-0.10649334 0.05030667 0.68600005
-0.10518667 0.05030667 0.68600005
-0.10388001 0.05030667 0.68600005
-0.10257334 0.05030667 0.68600005
-0.10126667 0.05030667 0.68600005
-0.099960007 0.05030667 0.68600005
-0.09879715 0.050380003 0.68700004
-0.097488575 0.050380003 0.68700004
-0.096180007 0.050380003 0.68700004
-0.095147625 0.050526671 0.68900001
-0.093835242 0.050526671 0.68900001
-0.092657149 0.050600003 0.69000006
-0.091342866 0.050600003 0.69000006
-0.089898102 0.050526671 0.68900001
-0.088585719 0.050526671 0.68900001
-0.087400004 0.050600003 0.69000006
-0.086085722 0.050600003 0.69000006
-0.084771432 0.050600003 0.69000006
-0.08345715 0.050600003 0.69000006
-0.08214286 0.050600003 0.69000006
-0.080828577 0.050600003 0.69000006
-0.079514287 0.050600003 0.69000006
-0.078200005 0.050600003 0.69000006
-0.076885723 0.050600003 0.69000006
-0.075571433 0.050600003 0.69000006
-0.074364766 0.050673336 0.69100004
-0.073048577 0.050673336 0.69100004
-0.071732387 0.050673336 0.69100004
-0.070416197 0.050673336 0.69100004
-0.069100007 0.050673336 0.69100004
-0.067783818 0.050673336 0.69100004
-0.066660002 0.050820004 0.69300002
-0.065340005 0.050820004 0.69300002
-0.064020008 0.050820004 0.69300002
-0.062700003 0.050820004 0.69300002
-0.061380003 0.050820004 0.69300002
-0.060146671 0.050893337 0.69400001
-0.058824766 0.050893337 0.69400001
-0.057502862 0.050893337 0.69400001
-0.056261908 0.050966669 0.69500005
-0.0549381 0.050966669 0.69500005
-0.053614289 0.050966669 0.69500005
-0.052290481 0.050966669 0.69500005
-0.050966669 0.050966669 0.69500005
-0.049642861 0.050966669 0.69500005
-0.048319049 0.050966669 0.69500005
-0.046995241 0.050966669 0.69500005
-0.045802861 0.051113337 0.69700003
-0.044475242 0.051113337 0.69700003
-0.043147624 0.051113337 0.69700003
-0.041880004 0.05118667 0.69800001
-0.040550478 0.05118667 0.69800001
-0.039333336 0.051333338 0.70000005
-0.038000003 0.051333338 0.70000005
-0.036666669 0.051333338 0.70000005
-0.035383813 0.05140667 0.70100003
-0.034048572 0.05140667 0.70100003
-0.032713335 0.05140667 0.70100003
-0.031378098 0.05140667 0.70100003
-0.030042859 0.05140667 0.70100003
-0.028707622 0.05140667 0.70100003
-0.027450478 0.051553335 0.70300001
-0.02611143 0.051553335 0.70300001
-0.024807621 0.051626671 0.70400006
-0.023466669 0.051626671 0.70400006
-0.022125715 0.051626671 0.70400006
-0.020784764 0.051626671 0.70400006
-0.019471429 0.051700003 0.70500004
-0.018128572 0.051700003 0.70500004
-0.016785715 0.051700003 0.70500004
-0.015442858 0.051700003 0.70500004
-0.014100001 0.051700003 0.70500004
-0.012793334 0.051846672 0.70700002
-0.011446668 0.051846672 0.70700002
-0.010114286 0.051920004 0.708
-0.0087657152 0.051920004 0.708
-0.0074171433 0.051920004 0.708
-0.0060685719 0.051920004 0.708
-0.0047133337 0.051846672 0.70700002
-0.0033666668 0.051846672 0.70700002
-0.0020200002 0.051846672 0.70700002
-0.00067333336 0.051846672 0.70700002
0.00067428575 0.051920004 0.708
0.0020285717 0.052066669 0.71000004
0.0033809526 0.052066669 0.71000004
0.0047400002 0.052140005 0.71100003
0.0060942862 0.052140005 0.71100003
0.0074485717 0.052140005 0.71100003
0.0088028582 0.052140005 0.71100003
0.010157144 0.052140005 0.71100003
-0.12413239 0.052440956 0.69700003
-0.12245239 0.052290481 0.69500005
-0.12112858 0.052290481 0.69500005
-0.11980477 0.052290481 0.69500005
-0.11831048 0.052215241 0.69400001
-0.11682001 0.052140005 0.69300002
-0.11516667 0.051989526 0.69100004
-0.11368572 0.05191429 0.69000006
-0.11220858 0.05183905 0.68900001
-0.11057429 0.051688574 0.68700004
-0.10926572 0.051688574 0.68700004
-0.10780001 0.051613338 0.68600005
-0.10649334 0.051613338 0.68600005
-0.10518667 0.051613338 0.68600005
-0.10357715 0.051462859 0.68400002
-0.10227429 0.051462859 0.68400002
-0.10097144 0.051462859 0.68400002
-0.099960007 0.051613338 0.68600005
-0.098653339 0.051613338 0.68600005
-0.097346671 0.051613338 0.68600005
-0.096040003 0.051613338 0.68600005
-0.094871432 0.051688574 0.68700004
-0.093562864 0.051688574 0.68700004
-0.09252286 0.05183905 0.68900001
-0.091210485 0.05183905 0.68900001
-0.089898102 0.05183905 0.68900001
-0.088585719 0.05183905 0.68900001
-0.087273337 0.05183905 0.68900001
-0.085960954 0.05183905 0.68900001
-0.084648579 0.05183905 0.68900001
-0.083336197 0.05183905 0.68900001
