# .PCD v0.7 - Point Cloud Data file format
VERSION 0.7
FIELDS x y z
SIZE 4 4 4
TYPE F F F
COUNT 1 1 1
WIDTH 1356
HEIGHT 1
VIEWPOINT 0 0 0 1 0 0 0
POINTS 1356
DATA ascii
-0.16538858 -0.070040002 0.61800003
-0.16421144 -0.070040002 0.61800003
-0.16277048 -0.069926672 0.61700004
-0.16133334 -0.069813341 0.61600006
-0.16016001 -0.069813341 0.61600006
-0.15872858 -0.069700003 0.61500001
-0.15678859 -0.069360003 0.61200005
-0.15536858 -0.069246672 0.611
-0.15370001 -0.069020003 0.60900003
-0.15254001 -0.069020003 0.60900003
-0.15113144 -0.068906672 0.60800004
-0.14997335 -0.068906672 0.60800004
-0.14857049 -0.068793342 0.60700005
-0.14717144 -0.068680003 0.60600001
-0.14601715 -0.068680003 0.60600001
-0.14486286 -0.068680003 0.60600001
-0.14347143 -0.068566673 0.60500002
-0.14231905 -0.068566673 0.60500002
-0.14116667 -0.068566673 0.60500002
-0.14024572 -0.068680003 0.60600001
-0.13886191 -0.068566673 0.60500002
-0.13770953 -0.068566673 0.60500002
-0.13542858 -0.068000004 0.60000002
-0.13473335 -0.068226673 0.60200006
-0.13358667 -0.068226673 0.60200006
-0.13244002 -0.068226673 0.60200006
-0.13151143 -0.068340003 0.60300004
-0.13036287 -0.068340003 0.60300004
-0.12942858 -0.068453334 0.60400003
-0.12827811 -0.068453334 0.60400003
-0.12712763 -0.068453334 0.60400003
-0.12597716 -0.068453334 0.60400003
-0.12503335 -0.068566673 0.60500002
-0.12388096 -0.068566673 0.60500002
-0.12272858 -0.068566673 0.60500002
-0.1219781 -0.068793342 0.60700005
-0.12122001 -0.069020003 0.60900003
-0.11986286 -0.068906672 0.60800004
-0.11890001 -0.069020003 0.60900003
-0.11812668 -0.069246672 0.611
-0.11715429 -0.069360003 0.61200005
-0.1161781 -0.069473341 0.61300004
-0.11519811 -0.069586672 0.61400002
-0.11421429 -0.069700003 0.61500001
-0.11322667 -0.069813341 0.61600006
-0.11205334 -0.069813341 0.61600006
-0.11106001 -0.069926672 0.61700004
-0.11006287 -0.070040002 0.61800003
-0.10906191 -0.070153341 0.61900002
-0.10788286 -0.070153341 0.61900002
-0.10687619 -0.070266671 0.62
-0.10502001 -0.070606671 0.62300003
-0.10416667 -0.07083334 0.625
-0.10314096 -0.070946671 0.62600005
-0.10211144 -0.071060002 0.62700003
-0.1010781 -0.07117334 0.62800002
-0.10004096 -0.071286671 0.62900001
-0.098842867 -0.071286671 0.62900001
-0.098110482 -0.071626671 0.63200003
-0.09706001 -0.071740001 0.63300002
-0.09585429 -0.071740001 0.63300002
-0.094798103 -0.07185334 0.634
-0.09388572 -0.072080001 0.63600004
-0.092965722 -0.07230667 0.63800001
-0.091894291 -0.072420008 0.63900006
-0.090819053 -0.072533339 0.64000005
-0.089880005 -0.072760008 0.64200002
-0.088657148 -0.072760008 0.64200002
-0.087434292 -0.072760008 0.64200002
-0.17147334 -0.069420002 0.62300003
-0.17028669 -0.069420002 0.62300003
-0.1680143 -0.068974294 0.61900002
-0.16683525 -0.068974294 0.61900002
-0.16565619 -0.068974294 0.61900002
-0.16421144 -0.068862863 0.61800003
-0.16303429 -0.068862863 0.61800003
-0.16133334 -0.068640001 0.61600006
-0.16016001 -0.068640001 0.61600006
-0.15872858 -0.068528578 0.61500001
-0.15678859 -0.068194292 0.61200005
-0.15486 -0.067860007 0.60900003
-0.15370001 -0.067860007 0.60900003
-0.15254001 -0.067860007 0.60900003
-0.15113144 -0.067748576 0.60800004
-0.14997335 -0.067748576 0.60800004
-0.14857049 -0.067637146 0.60700005
-0.14692858 -0.067414291 0.60500002
-0.1457762 -0.067414291 0.60500002
-0.14486286 -0.067525722 0.60600001
-0.14347143 -0.067414291 0.60500002
-0.14208382 -0.06730286 0.60400003
-0.14093335 -0.06730286 0.60400003
-0.14001429 -0.067414291 0.60500002
-0.13840286 -0.067191429 0.60300004
-0.13634382 -0.066745721 0.59900004
-0.13520287 -0.066745721 0.59900004
-0.13428572 -0.066857144 0.60000002
-0.13314286 -0.066857144 0.60000002
-0.13222001 -0.066968575 0.60100001
-0.13129334 -0.067080006 0.60200006
-0.13014668 -0.067080006 0.60200006
-0.12921429 -0.067191429 0.60300004
-0.12806572 -0.067191429 0.60300004
-0.12691715 -0.067191429 0.60300004
-0.12597716 -0.06730286 0.60400003
-0.12482668 -0.06730286 0.60400003
-0.12388096 -0.067414291 0.60500002
-0.12272858 -0.067414291 0.60500002
-0.1219781 -0.067637146 0.60700005
-0.12102096 -0.067748576 0.60800004
-0.11986286 -0.067748576 0.60800004
-0.11890001 -0.067860007 0.60900003
-0.11812668 -0.068082862 0.611
-0.11715429 -0.068194292 0.61200005
-0.1161781 -0.068305716 0.61300004
-0.11519811 -0.068417147 0.61400002
-0.11421429 -0.068528578 0.61500001
-0.11322667 -0.068640001 0.61600006
-0.11205334 -0.068640001 0.61600006
-0.11106001 -0.068751432 0.61700004
-0.11006287 -0.068862863 0.61800003
-0.10906191 -0.068974294 0.61900002
-0.10788286 -0.068974294 0.61900002
-0.10687619 -0.069085717 0.62
-0.1060362 -0.069308579 0.62200004
-0.10502001 -0.069420002 0.62300003
-0.10416667 -0.069642864 0.625
-0.10314096 -0.069754288 0.62600005
-0.10211144 -0.069865718 0.62700003
-0.1010781 -0.069977149 0.62800002
-0.10004096 -0.070088573 0.62900001
-0.099157147 -0.070311435 0.63100004
-0.098265722 -0.070534289 0.63300002
-0.097213343 -0.07064572 0.634
-0.096005723 -0.07064572 0.634
-0.094947629 -0.070757151 0.63500005
-0.094180956 -0.071091436 0.63800001
-0.092965722 -0.071091436 0.63800001
-0.091894291 -0.071202859 0.63900006
-0.090819053 -0.07131429 0.64000005
-0.089880005 -0.071537144 0.64200002
-0.088657148 -0.071537144 0.64200002
-0.087434292 -0.071537144 0.64200002
-0.086480007 -0.071760006 0.64400005
-0.17147334 -0.068233341 0.62300003
-0.17056002 -0.068342865 0.62400001
-0.16828573 -0.067904763 0.62
-0.16683525 -0.067795239 0.61900002
-0.16565619 -0.067795239 0.61900002
-0.16421144 -0.067685716 0.61800003
-0.16303429 -0.067685716 0.61800003
-0.16159526 -0.067576192 0.61700004
-0.16016001 -0.067466669 0.61600006
-0.15821239 -0.067138098 0.61300004
-0.15653239 -0.066919051 0.611
-0.15486 -0.066700004 0.60900003
-0.15370001 -0.066700004 0.60900003
-0.15254001 -0.066700004 0.60900003
-0.15138 -0.066700004 0.60900003
-0.15022001 -0.066700004 0.60900003
-0.14832573 -0.066371433 0.60600001
-0.14717144 -0.066371433 0.60600001
-0.1457762 -0.06626191 0.60500002
-0.14462382 -0.06626191 0.60500002
-0.1432343 -0.066152386 0.60400003
-0.14208382 -0.066152386 0.60400003
-0.14093335 -0.066152386 0.60400003
-0.13978286 -0.066152386 0.60400003
-0.13817334 -0.065933339 0.60200006
-0.13611621 -0.065495245 0.59800005
-0.13497715 -0.065495245 0.59800005
-0.13406192 -0.065604769 0.59900004
-0.13292097 -0.065604769 0.59900004
-0.13200001 -0.065714292 0.60000002
-0.13107525 -0.065823816 0.60100001
-0.13014668 -0.065933339 0.60200006
-0.12900001 -0.065933339 0.60200006
-0.12806572 -0.066042863 0.60300004
-0.12691715 -0.066042863 0.60300004
-0.12576859 -0.066042863 0.60300004
-0.12462001 -0.066042863 0.60300004
-0.1236762 -0.066152386 0.60400003
-0.12252572 -0.066152386 0.60400003
-0.12177715 -0.066371433 0.60600001
-0.12102096 -0.066590481 0.60800004
-0.11986286 -0.066590481 0.60800004
-0.11890001 -0.066700004 0.60900003
-0.11774001 -0.066700004 0.60900003
-0.11715429 -0.067028575 0.61200005
-0.1161781 -0.067138098 0.61300004
-0.11501049 -0.067138098 0.61300004
-0.11421429 -0.067357145 0.61500001
-0.11304286 -0.067357145 0.61500001
-0.11205334 -0.067466669 0.61600006
-0.11088001 -0.067466669 0.61600006
-0.11006287 -0.067685716 0.61800003
-0.10906191 -0.067795239 0.61900002
-0.10788286 -0.067795239 0.61900002
-0.10687619 -0.067904763 0.62
-0.1060362 -0.068123817 0.62200004
-0.10518858 -0.068342865 0.62400001
-0.10416667 -0.068452388 0.625
-0.10314096 -0.068561912 0.62600005
-0.10227429 -0.068780959 0.62800002
-0.10123906 -0.068890482 0.62900001
-0.10035905 -0.069109529 0.63100004
-0.099314295 -0.069219053 0.63200003
-0.098265722 -0.069328576 0.63300002
-0.097213343 -0.0694381 0.634
-0.096157148 -0.069547623 0.63500005
-0.095097147 -0.069657147 0.63600004
-0.094180956 -0.069876194 0.63800001
-0.092965722 -0.069876194 0.63800001
-0.091894291 -0.069985718 0.63900006
-0.091102861 -0.070314288 0.64200002
-0.089880005 -0.070314288 0.64200002
-0.088657148 -0.070314288 0.64200002
-0.087434292 -0.070314288 0.64200002
-0.086480007 -0.070533335 0.64400005
-0.17147334 -0.067046672 0.62300003
-0.17028669 -0.067046672 0.62300003
-0.16882858 -0.066939048 0.62200004
-0.16710477 -0.066723816 0.62
-0.16565619 -0.066616192 0.61900002
-0.16447715 -0.066616192 0.61900002
-0.1632981 -0.066616192 0.61900002
-0.16185716 -0.066508576 0.61800003
-0.16016001 -0.066293336 0.61600006
-0.15821239 -0.06597048 0.61300004
-0.15653239 -0.065755241 0.611
-0.15486 -0.065540001 0.60900003
-0.15370001 -0.065540001 0.60900003
-0.15254001 -0.065540001 0.60900003
-0.15138 -0.065540001 0.60900003
-0.14997335 -0.065432385 0.60800004
-0.14832573 -0.065217145 0.60600001
-0.14668572 -0.065001912 0.60400003
-0.14529429 -0.064894289 0.60300004
-0.14414573 -0.064894289 0.60300004
-0.14276001 -0.064786673 0.60200006
-0.14161335 -0.064786673 0.60200006
-0.13976668 -0.064463817 0.59900004
-0.1383943 -0.064356193 0.59800005
-0.13702573 -0.064248577 0.597
-0.13588858 -0.064248577 0.597
-0.13452572 -0.064140953 0.59600002
-0.1336143 -0.064248577 0.597
-0.13269906 -0.064356193 0.59800005
-0.13178001 -0.064463817 0.59900004
-0.13063906 -0.064463817 0.59900004
-0.1297143 -0.064571433 0.60000002
-0.12878573 -0.064679049 0.60100001
-0.12785335 -0.064786673 0.60200006
-0.12670667 -0.064786673 0.60200006
-0.12576859 -0.064894289 0.60300004
-0.12462001 -0.064894289 0.60300004
-0.1236762 -0.065001912 0.60400003
-0.12252572 -0.065001912 0.60400003
-0.12177715 -0.065217145 0.60600001
-0.12082192 -0.065324768 0.60700005
-0.11966572 -0.065324768 0.60700005
-0.11870477 -0.065432385 0.60800004
-0.11812668 -0.065755241 0.611
-0.11715429 -0.065862864 0.61200005
-0.1161781 -0.06597048 0.61300004
-0.11519811 -0.066078097 0.61400002
-0.11421429 -0.06618572 0.61500001
-0.11322667 -0.066293336 0.61600006
-0.11205334 -0.066293336 0.61600006
-0.11106001 -0.06640096 0.61700004
-0.11024096 -0.066616192 0.61900002
-0.10906191 -0.066616192 0.61900002
-0.10788286 -0.066616192 0.61900002
-0.10687619 -0.066723816 0.62
-0.1060362 -0.066939048 0.62200004
-0.10502001 -0.067046672 0.62300003
-0.10416667 -0.067261912 0.625
-0.10314096 -0.067369528 0.62600005
-0.10243715 -0.067692384 0.62900001
-0.10123906 -0.067692384 0.62900001
-0.10035905 -0.067907624 0.63100004
-0.099471435 -0.068122864 0.63300002
-0.098420955 -0.06823048 0.634
-0.097213343 -0.06823048 0.634
-0.096157148 -0.068338096 0.63500005
-0.095097147 -0.06844572 0.63600004
-0.094180956 -0.06866096 0.63800001
-0.092965722 -0.06866096 0.63800001
-0.091894291 -0.068768576 0.63900006
-0.091102861 -0.069091432 0.64200002
-0.089880005 -0.069091432 0.64200002
-0.088657148 -0.069091432 0.64200002
-0.087434292 -0.069091432 0.64200002
-0.086480007 -0.069306672 0.64400005
-0.17147334 -0.065860003 0.62300003
-0.17028669 -0.065860003 0.62300003
-0.16882858 -0.065754287 0.62200004
-0.16710477 -0.065542862 0.62
-0.16592382 -0.065542862 0.62
-0.16474287 -0.065542862 0.62
-0.1632981 -0.065437146 0.61900002
-0.16185716 -0.065331429 0.61800003
-0.16042002 -0.06522572 0.61700004
-0.15821239 -0.064802863 0.61300004
-0.15678859 -0.064697146 0.61200005
-0.15536858 -0.06459143 0.611
-0.15420477 -0.06459143 0.611
-0.15254001 -0.064380005 0.60900003
-0.15138 -0.064380005 0.60900003
-0.14997335 -0.064274289 0.60800004
-0.14857049 -0.064168572 0.60700005
-0.14668572 -0.063851431 0.60400003
-0.14529429 -0.063745722 0.60300004
-0.14390668 -0.063640006 0.60200006
-0.14276001 -0.063640006 0.60200006
-0.14090763 -0.063322864 0.59900004
-0.13953334 -0.063217148 0.59800005
-0.1383943 -0.063217148 0.59800005
-0.13679621 -0.063005716 0.59600002
-0.13566096 -0.063005716 0.59600002
-0.13452572 -0.063005716 0.59600002
-0.1336143 -0.063111432 0.597
-0.13247715 -0.063111432 0.597
-0.13156001 -0.063217148 0.59800005
-0.13063906 -0.063322864 0.59900004
-0.1297143 -0.063428573 0.60000002
-0.12878573 -0.06353429 0.60100001
-0.12785335 -0.063640006 0.60200006
-0.12670667 -0.063640006 0.60200006
-0.12576859 -0.063745722 0.60300004
-0.12462001 -0.063745722 0.60300004
-0.1236762 -0.063851431 0.60400003
-0.12272858 -0.063957147 0.60500002
-0.12177715 -0.064062864 0.60600001
-0.12102096 -0.064274289 0.60800004
-0.12006 -0.064380005 0.60900003
-0.11929049 -0.06459143 0.611
-0.11832001 -0.064697146 0.61200005
-0.11715429 -0.064697146 0.61200005
-0.11636762 -0.064908579 0.61400002
-0.11519811 -0.064908579 0.61400002
-0.11440001 -0.065120004 0.61600006
-0.11341048 -0.06522572 0.61700004
-0.11241715 -0.065331429 0.61800003
-0.11142001 -0.065437146 0.61900002
-0.11024096 -0.065437146 0.61900002
-0.1092381 -0.065542862 0.62
-0.10805715 -0.065542862 0.62
-0.10722096 -0.065754287 0.62200004
-0.10620667 -0.065860003 0.62300003
-0.10518858 -0.06596572 0.62400001
-0.10433334 -0.066177145 0.62600005
-0.10347048 -0.066388577 0.62800002
-0.10243715 -0.066494294 0.62900001
-0.10156096 -0.066705719 0.63100004
-0.1005181 -0.066811435 0.63200003
-0.099471435 -0.066917144 0.63300002
-0.098420955 -0.06702286 0.634
-0.097213343 -0.06702286 0.634
-0.096157148 -0.067128576 0.63500005
-0.095396198 -0.067445718 0.63800001
-0.094180956 -0.067445718 0.63800001
-0.093111433 -0.067551434 0.63900006
-0.092038102 -0.06765715 0.64000005
-0.091102861 -0.067868575 0.64200002
-0.089880005 -0.067868575 0.64200002
-0.088657148 -0.067868575 0.64200002
-0.087434292 -0.067868575 0.64200002
-0.17064764 -0.064361908 0.62
-0.17056002 -0.064777151 0.62400001
-0.16910002 -0.064673334 0.62300003
-0.16710477 -0.064361908 0.62
-0.16592382 -0.064361908 0.62
-0.16474287 -0.064361908 0.62
-0.1632981 -0.064258099 0.61900002
-0.16211906 -0.064258099 0.61900002
-0.16042002 -0.064050481 0.61700004
-0.15898667 -0.063946672 0.61600006
-0.15678859 -0.063531436 0.61200005
-0.15562287 -0.063531436 0.61200005
-0.15420477 -0.06342762 0.611
-0.15254001 -0.063220002 0.60900003
-0.15138 -0.063220002 0.60900003
-0.15022001 -0.063220002 0.60900003
-0.14881524 -0.063116193 0.60800004
-0.14692858 -0.062804766 0.60500002
-0.14553525 -0.062700957 0.60400003
-0.14414573 -0.062597148 0.60300004
-0.14276001 -0.062493339 0.60200006
-0.14090763 -0.062181909 0.59900004
-0.13953334 -0.0620781 0.59800005
-0.1383943 -0.0620781 0.59800005
-0.13679621 -0.061870482 0.59600002
-0.13566096 -0.061870482 0.59600002
-0.13452572 -0.061870482 0.59600002
-0.13339049 -0.061870482 0.59600002
-0.13247715 -0.061974291 0.597
-0.13156001 -0.0620781 0.59800005
-0.13063906 -0.062181909 0.59900004
-0.1297143 -0.062285718 0.60000002
-0.12878573 -0.062389527 0.60100001
-0.12764096 -0.062389527 0.60100001
-0.12670667 -0.062493339 0.60200006
-0.12576859 -0.062597148 0.60300004
-0.12482668 -0.062700957 0.60400003
-0.12388096 -0.062804766 0.60500002
-0.12272858 -0.062804766 0.60500002
-0.12177715 -0.062908575 0.60600001
-0.12102096 -0.063116193 0.60800004
-0.12006 -0.063220002 0.60900003
-0.11929049 -0.06342762 0.611
-0.11832001 -0.063531436 0.61200005
-0.11734572 -0.063635245 0.61300004
-0.11636762 -0.063739054 0.61400002
-0.11538572 -0.063842863 0.61500001
-0.11440001 -0.063946672 0.61600006
-0.11341048 -0.064050481 0.61700004
-0.11241715 -0.06415429 0.61800003
-0.11142001 -0.064258099 0.61900002
-0.11024096 -0.064258099 0.61900002
-0.1092381 -0.064361908 0.62
-0.10805715 -0.064361908 0.62
-0.10722096 -0.064569525 0.62200004
-0.10637715 -0.064777151 0.62400001
-0.10518858 -0.064777151 0.62400001
-0.1045 -0.065088578 0.62700003
-0.10363524 -0.065296195 0.62900001
-0.10243715 -0.065296195 0.62900001
-0.10156096 -0.065503813 0.63100004
-0.1005181 -0.065607622 0.63200003
-0.099471435 -0.065711431 0.63300002
-0.098420955 -0.06581524 0.634
-0.097213343 -0.06581524 0.634
-0.096157148 -0.065919049 0.63500005
-0.095097147 -0.066022858 0.63600004
-0.094180956 -0.066230483 0.63800001
-0.093111433 -0.066334292 0.63900006
-0.092181914 -0.06654191 0.64100003
-0.091102861 -0.066645719 0.64200002
-0.090160005 -0.066853337 0.64400005
-0.088933341 -0.066853337 0.64400005
-0.08770667 -0.066853337 0.64400005
-0.086480007 -0.066853337 0.64400005
-0.17064764 -0.063180953 0.62
-0.17056002 -0.063588575 0.62400001
-0.16937144 -0.063588575 0.62400001
-0.16710477 -0.063180953 0.62
-0.16645905 -0.063384764 0.62200004
-0.16474287 -0.063180953 0.62
-0.1632981 -0.063079052 0.61900002
-0.16211906 -0.063079052 0.61900002
-0.16042002 -0.062875241 0.61700004
-0.15898667 -0.062773339 0.61600006
-0.15678859 -0.062365718 0.61200005
-0.15536858 -0.062263813 0.611
-0.15420477 -0.062263813 0.611
-0.15304096 -0.062263813 0.611
-0.15138 -0.062060002 0.60900003
-0.15022001 -0.062060002 0.60900003
-0.14857049 -0.061856195 0.60700005
-0.1474143 -0.061856195 0.60700005
-0.14553525 -0.061550479 0.60400003
-0.14414573 -0.061448574 0.60300004
-0.14299715 -0.061448574 0.60300004
-0.14161335 -0.061346672 0.60200006
-0.13976668 -0.061040957 0.59900004
-0.1383943 -0.060939051 0.59800005
-0.13702573 -0.060837146 0.597
-0.13566096 -0.060735241 0.59600002
-0.13452572 -0.060735241 0.59600002
-0.13339049 -0.060735241 0.59600002
-0.13225524 -0.060735241 0.59600002
-0.13156001 -0.060939051 0.59800005
-0.13063906 -0.061040957 0.59900004
-0.12949811 -0.061040957 0.59900004
-0.12857144 -0.061142862 0.60000002
-0.12764096 -0.061244767 0.60100001
-0.12670667 -0.061346672 0.60200006
-0.12576859 -0.061448574 0.60300004
-0.12462001 -0.061448574 0.60300004
-0.12388096 -0.061652385 0.60500002
-0.12293144 -0.06175429 0.60600001
-0.1219781 -0.061856195 0.60700005
-0.12102096 -0.061958101 0.60800004
-0.1204543 -0.062263813 0.611
-0.11929049 -0.062263813 0.611
-0.11832001 -0.062365718 0.61200005
-0.11734572 -0.062467624 0.61300004
-0.11636762 -0.062569529 0.61400002
-0.11538572 -0.06267143 0.61500001
-0.11458572 -0.062875241 0.61700004
-0.11359429 -0.06297715 0.61800003
-0.11241715 -0.06297715 0.61800003
-0.11142001 -0.063079052 0.61900002
-0.11024096 -0.063079052 0.61900002
-0.1092381 -0.063180953 0.62
-0.10840572 -0.063384764 0.62200004
-0.10739334 -0.063486673 0.62300003
-0.10637715 -0.063588575 0.62400001
-0.10518858 -0.063588575 0.62400001
-0.10466667 -0.063996196 0.62800002
-0.10363524 -0.064098097 0.62900001
-0.10276286 -0.064301908 0.63100004
-0.10156096 -0.064301908 0.63100004
-0.1005181 -0.064403817 0.63200003
-0.099471435 -0.064505719 0.63300002
-0.098420955 -0.06460762 0.634
-0.097366676 -0.064709529 0.63500005
-0.096308574 -0.064811431 0.63600004
-0.095396198 -0.065015242 0.63800001
-0.094328575 -0.065117151 0.63900006
-0.093257152 -0.065219052 0.64000005
-0.092181914 -0.065320954 0.64100003
-0.091102861 -0.065422863 0.64200002
-0.090160005 -0.065626673 0.64400005
-0.088933341 -0.065626673 0.64400005
-0.08770667 -0.065626673 0.64400005
-0.086480007 -0.065626673 0.64400005
-0.16964287 -0.062500007 0.625
-0.16818286 -0.062400006 0.62400001
-0.16672668 -0.062300004 0.62300003
-0.16527429 -0.062200002 0.62200004
-0.16356191 -0.062000003 0.62
-0.16211906 -0.061900005 0.61900002
-0.16068001 -0.061800003 0.61800003
-0.15898667 -0.061600003 0.61600006
-0.15678859 -0.061200004 0.61200005
-0.15536858 -0.061100002 0.611
-0.15420477 -0.061100002 0.611
-0.15304096 -0.061100002 0.611
-0.15187715 -0.061100002 0.611
-0.15022001 -0.060900003 0.60900003
-0.14881524 -0.060800005 0.60800004
-0.1474143 -0.060700003 0.60700005
-0.14553525 -0.060400005 0.60400003
-0.14414573 -0.060300004 0.60300004
-0.14299715 -0.060300004 0.60300004
-0.14161335 -0.060200006 0.60200006
-0.13976668 -0.059900004 0.59900004
-0.1383943 -0.059800003 0.59800005
-0.13679621 -0.059600003 0.59600002
-0.13566096 -0.059600003 0.59600002
-0.13452572 -0.059600003 0.59600002
-0.13339049 -0.059600003 0.59600002
-0.13225524 -0.059600003 0.59600002
-0.13156001 -0.059800003 0.59800005
-0.13063906 -0.059900004 0.59900004
-0.1297143 -0.060000002 0.60000002
-0.12878573 -0.060100004 0.60100001
-0.12785335 -0.060200006 0.60200006
-0.12670667 -0.060200006 0.60200006
-0.12576859 -0.060300004 0.60300004
-0.12482668 -0.060400005 0.60400003
-0.1236762 -0.060400005 0.60400003
-0.12272858 -0.060500003 0.60500002
-0.1219781 -0.060700003 0.60700005
-0.12102096 -0.060800005 0.60800004
-0.12006 -0.060900003 0.60900003
-0.11929049 -0.061100002 0.611
-0.11832001 -0.061200004 0.61200005
-0.11734572 -0.061300006 0.61300004
-0.11636762 -0.061400004 0.61400002
-0.11538572 -0.061500005 0.61500001
-0.11458572 -0.061700005 0.61700004
-0.11359429 -0.061800003 0.61800003
-0.11241715 -0.061800003 0.61800003
-0.11142001 -0.061900005 0.61900002
-0.11041906 -0.062000003 0.62
-0.10959049 -0.062200002 0.62200004
-0.10858001 -0.062300004 0.62300003
-0.10756572 -0.062400006 0.62400001
-0.10654762 -0.062500007 0.625
-0.10552572 -0.062600002 0.62600005
-0.1045 -0.062700003 0.62700003
-0.10363524 -0.062900007 0.62900001
-0.10276286 -0.063100003 0.63100004
-0.10172191 -0.063200004 0.63200003
-0.10067715 -0.063300006 0.63300002
-0.099628575 -0.063400008 0.634
-0.098576196 -0.063500002 0.63500005
-0.097366676 -0.063500002 0.63500005
-0.096308574 -0.063600004 0.63600004
-0.095396198 -0.063800007 0.63800001
-0.094328575 -0.063900001 0.63900006
-0.093257152 -0.064000003 0.64000005
-0.092325717 -0.064200006 0.64200002
-0.091386676 -0.064400002 0.64400005
-0.090160005 -0.064400002 0.64400005
-0.089071438 -0.064500004 0.64500004
-0.087979056 -0.064600006 0.64600003
-0.086748578 -0.064600006 0.64600003
-0.1684524 -0.061309528 0.625
-0.1669943 -0.061211433 0.62400001
-0.16527429 -0.061015241 0.62200004
-0.16408953 -0.061015241 0.62200004
-0.16238096 -0.060819052 0.62
-0.16068001 -0.06062286 0.61800003
-0.15924478 -0.060524765 0.61700004
-0.15704477 -0.060132384 0.61300004
-0.15562287 -0.06003429 0.61200005
-0.15445715 -0.06003429 0.61200005
-0.15304096 -0.059936196 0.611
-0.15212573 -0.06003429 0.61200005
-0.15071334 -0.059936196 0.611
-0.14881524 -0.059641909 0.60800004
-0.1474143 -0.059543815 0.60700005
-0.14553525 -0.059249528 0.60400003
-0.14414573 -0.059151433 0.60300004
-0.14299715 -0.059151433 0.60300004
-0.14161335 -0.059053339 0.60200006
-0.13976668 -0.058759052 0.59900004
-0.13862573 -0.058759052 0.59900004
-0.13702573 -0.05856286 0.597
-0.13566096 -0.058464766 0.59600002
-0.13452572 -0.058464766 0.59600002
-0.13339049 -0.058464766 0.59600002
-0.13247715 -0.05856286 0.597
-0.13156001 -0.058660958 0.59800005
-0.13063906 -0.058759052 0.59900004
-0.1297143 -0.058857147 0.60000002
-0.12900001 -0.059053339 0.60200006
-0.12785335 -0.059053339 0.60200006
-0.12670667 -0.059053339 0.60200006
-0.12576859 -0.059151433 0.60300004
-0.12482668 -0.059249528 0.60400003
-0.1236762 -0.059249528 0.60400003
-0.12272858 -0.059347622 0.60500002
-0.1219781 -0.059543815 0.60700005
-0.12122001 -0.059740003 0.60900003
-0.12006 -0.059740003 0.60900003
-0.11929049 -0.059936196 0.611
-0.11832001 -0.06003429 0.61200005
-0.11734572 -0.060132384 0.61300004
-0.11655715 -0.060328577 0.61500001
-0.11538572 -0.060328577 0.61500001
-0.11458572 -0.060524765 0.61700004
-0.11359429 -0.06062286 0.61800003
-0.11241715 -0.06062286 0.61800003
-0.11142001 -0.060720958 0.61900002
-0.11041906 -0.060819052 0.62
-0.10959049 -0.061015241 0.62200004
-0.10858001 -0.061113339 0.62300003
-0.10756572 -0.061211433 0.62400001
-0.10654762 -0.061309528 0.625
-0.10535715 -0.061309528 0.625
-0.10466667 -0.061603814 0.62800002
-0.10363524 -0.061701909 0.62900001
-0.10276286 -0.061898101 0.63100004
-0.10172191 -0.061996195 0.63200003
-0.10067715 -0.06209429 0.63300002
-0.099628575 -0.062192384 0.634
-0.098576196 -0.062290478 0.63500005
-0.097366676 -0.062290478 0.63500005
-0.096611433 -0.062584765 0.63800001
-0.095545724 -0.06268286 0.63900006
-0.094476193 -0.062780954 0.64000005
-0.093402863 -0.062879048 0.64100003
-0.092325717 -0.06297715 0.64200002
-0.091386676 -0.063173339 0.64400005
-0.090300009 -0.063271433 0.64500004
-0.089209527 -0.063369527 0.64600003
-0.088115245 -0.063467622 0.64700001
-0.087017149 -0.063565716 0.648
-0.17045715 -0.060407624 0.62800002
-0.16872191 -0.060215242 0.62600005
-0.16752954 -0.060215242 0.62600005
-0.16554001 -0.05992667 0.62300003
-0.16435334 -0.05992667 0.62300003
-0.16238096 -0.059638098 0.62
-0.16094001 -0.059541907 0.61900002
-0.15950286 -0.059445716 0.61800003
-0.15755716 -0.059157148 0.61500001
-0.15587716 -0.058964767 0.61300004
-0.15445715 -0.058868576 0.61200005
-0.15329143 -0.058868576 0.61200005
-0.15212573 -0.058868576 0.61200005
-0.15071334 -0.058772385 0.611
-0.14906001 -0.058580004 0.60900003
-0.1474143 -0.058387622 0.60700005
-0.1457762 -0.058195241 0.60500002
-0.14414573 -0.058002859 0.60300004
-0.14299715 -0.058002859 0.60300004
-0.14161335 -0.057906669 0.60200006
-0.14000002 -0.057714291 0.60000002
-0.13862573 -0.0576181 0.59900004
-0.13725525 -0.057521909 0.59800005
-0.13588858 -0.057425719 0.597
-0.13475144 -0.057425719 0.597
-0.1338381 -0.057521909 0.59800005
-0.13269906 -0.057521909 0.59800005
-0.13178001 -0.0576181 0.59900004
-0.13063906 -0.0576181 0.59900004
-0.1297143 -0.057714291 0.60000002
-0.12900001 -0.057906669 0.60200006
-0.12785335 -0.057906669 0.60200006
-0.12691715 -0.058002859 0.60300004
-0.12576859 -0.058002859 0.60300004
-0.12482668 -0.05809905 0.60400003
-0.12388096 -0.058195241 0.60500002
-0.12293144 -0.058291432 0.60600001
-0.1219781 -0.058387622 0.60700005
-0.12006 -0.058580004 0.60900003
-0.11948572 -0.058868576 0.61200005
-0.11832001 -0.058868576 0.61200005
-0.11753715 -0.059060957 0.61400002
-0.11655715 -0.059157148 0.61500001
-0.11538572 -0.059157148 0.61500001
-0.11440001 -0.059253339 0.61600006
-0.1137781 -0.059541907 0.61900002
-0.11259905 -0.059541907 0.61900002
-0.1116 -0.059638098 0.62
-0.11041906 -0.059638098 0.62
-0.10976668 -0.05992667 0.62300003
-0.10875429 -0.060022861 0.62400001
-0.1077381 -0.060119051 0.625
-0.10654762 -0.060119051 0.625
-0.10569429 -0.060311433 0.62700003
-0.10466667 -0.060407624 0.62800002
-0.10363524 -0.060503814 0.62900001
-0.10276286 -0.060696196 0.63100004
-0.10172191 -0.060792387 0.63200003
-0.10067715 -0.060888577 0.63300002
-0.099628575 -0.060984764 0.634
-0.098576196 -0.061080955 0.63500005
-0.097366676 -0.061080955 0.63500005
-0.096611433 -0.061369527 0.63800001
-0.095545724 -0.061465718 0.63900006
-0.094476193 -0.061561909 0.64000005
-0.093548581 -0.06175429 0.64200002
-0.092613339 -0.061946671 0.64400005
-0.091386676 -0.061946671 0.64400005
-0.090440005 -0.062139053 0.64600003
-0.089209527 -0.062139053 0.64600003
-0.088115245 -0.062235244 0.64700001
-0.087017149 -0.062331434 0.648
-0.086047627 -0.062523812 0.65000004
-0.17045715 -0.059211433 0.62800002
-0.16899145 -0.059117146 0.62700003
-0.16752954 -0.059022862 0.62600005
-0.16580573 -0.058834288 0.62400001
-0.16435334 -0.058740005 0.62300003
-0.16290477 -0.058645718 0.62200004
-0.16094001 -0.05836286 0.61900002
-0.15950286 -0.058268577 0.61800003
-0.15781334 -0.058080003 0.61600006
-0.15638572 -0.057985719 0.61500001
-0.15470953 -0.057797145 0.61300004
-0.15329143 -0.057702862 0.61200005
-0.15212573 -0.057702862 0.61200005
-0.15071334 -0.057608575 0.611
-0.14954953 -0.057608575 0.611
-0.14765716 -0.057325717 0.60800004
-0.14601715 -0.057137147 0.60600001
-0.14438477 -0.056948576 0.60400003
-0.1432343 -0.056948576 0.60400003
-0.14161335 -0.056760002 0.60200006
-0.14000002 -0.056571431 0.60000002
-0.13862573 -0.056477148 0.59900004
-0.13725525 -0.056382861 0.59800005
-0.13611621 -0.056382861 0.59800005
-0.13475144 -0.056288574 0.597
-0.1338381 -0.056382861 0.59800005
-0.13269906 -0.056382861 0.59800005
-0.13178001 -0.056477148 0.59900004
-0.13085715 -0.056571431 0.60000002
-0.13014668 -0.056760002 0.60200006
-0.12921429 -0.056854289 0.60300004
-0.12806572 -0.056854289 0.60300004
-0.12691715 -0.056854289 0.60300004
-0.12597716 -0.056948576 0.60400003
-0.12503335 -0.057042859 0.60500002
-0.12388096 -0.057042859 0.60500002
-0.12293144 -0.057137147 0.60600001
-0.12217905 -0.057325717 0.60800004
-0.12122001 -0.057420004 0.60900003
-0.1204543 -0.057608575 0.611
-0.11948572 -0.057702862 0.61200005
-0.11832001 -0.057702862 0.61200005
-0.11753715 -0.057891432 0.61400002
-0.11655715 -0.057985719 0.61500001
-0.11557334 -0.058080003 0.61600006
-0.11477143 -0.058268577 0.61800003
-0.1137781 -0.05836286 0.61900002
-0.11259905 -0.05836286 0.61900002
-0.1116 -0.058457147 0.62
-0.11041906 -0.058457147 0.62
-0.10959049 -0.058645718 0.62200004
-0.10875429 -0.058834288 0.62400001
-0.1077381 -0.058928575 0.625
-0.1067181 -0.059022862 0.62600005
-0.10569429 -0.059117146 0.62700003
-0.10466667 -0.059211433 0.62800002
-0.10363524 -0.05930572 0.62900001
-0.10276286 -0.059494291 0.63100004
-0.10156096 -0.059494291 0.63100004
-0.10067715 -0.059682861 0.63300002
-0.099628575 -0.059777148 0.634
-0.098576196 -0.059871431 0.63500005
-0.097366676 -0.059871431 0.63500005
-0.096308574 -0.059965719 0.63600004
-0.095396198 -0.060154289 0.63800001
-0.094623819 -0.060437147 0.64100003
-0.093548581 -0.060531434 0.64200002
-0.092613339 -0.060720004 0.64400005
-0.091670483 -0.060908575 0.64600003
-0.090580009 -0.061002862 0.64700001
-0.089347623 -0.061002862 0.64700001
-0.088115245 -0.061002862 0.64700001
-0.087017149 -0.061097145 0.648
-0.086047627 -0.061285719 0.65000004
-0.17072858 -0.058107622 0.62900001
-0.16926096 -0.058015242 0.62800002
-0.16779715 -0.057922862 0.62700003
-0.16607144 -0.057738099 0.625
-0.16461715 -0.057645719 0.62400001
-0.16316667 -0.057553336 0.62300003
-0.16120002 -0.057276193 0.62
-0.15976097 -0.057183813 0.61900002
-0.15806954 -0.05699905 0.61700004
-0.15638572 -0.056814291 0.61500001
-0.15496191 -0.056721907 0.61400002
-0.15354191 -0.056629527 0.61300004
-0.1523743 -0.056629527 0.61300004
-0.15096001 -0.056537148 0.61200005
-0.14954953 -0.056444764 0.611
-0.14790002 -0.056260005 0.60900003
-0.14601715 -0.055982862 0.60600001
-0.14486286 -0.055982862 0.60600001
-0.1432343 -0.055798098 0.60400003
-0.14184858 -0.055705719 0.60300004
-0.14023334 -0.055520955 0.60100001
-0.13862573 -0.055336192 0.59900004
-0.13748477 -0.055336192 0.59900004
-0.13611621 -0.055243813 0.59800005
-0.13497715 -0.055243813 0.59800005
-0.13406192 -0.055336192 0.59900004
-0.13292097 -0.055336192 0.59900004
-0.13200001 -0.055428576 0.60000002
-0.13107525 -0.055520955 0.60100001
-0.13014668 -0.055613335 0.60200006
-0.12921429 -0.055705719 0.60300004
-0.12806572 -0.055705719 0.60300004
-0.12691715 -0.055705719 0.60300004
-0.12618572 -0.055890478 0.60500002
-0.12503335 -0.055890478 0.60500002
-0.12408572 -0.055982862 0.60600001
-0.12313429 -0.056075241 0.60700005
-0.12217905 -0.056167621 0.60800004
-0.1216181 -0.056444764 0.611
-0.1204543 -0.056444764 0.611
-0.11948572 -0.056537148 0.61200005
-0.11832001 -0.056537148 0.61200005
-0.11753715 -0.056721907 0.61400002
-0.11655715 -0.056814291 0.61500001
-0.11557334 -0.05690667 0.61600006
-0.11477143 -0.057091434 0.61800003
-0.1137781 -0.057183813 0.61900002
-0.11259905 -0.057183813 0.61900002
-0.1116 -0.057276193 0.62
-0.11077525 -0.057460956 0.62200004
-0.10976668 -0.057553336 0.62300003
-0.10875429 -0.057645719 0.62400001
-0.10791048 -0.057830479 0.62600005
-0.10688858 -0.057922862 0.62700003
-0.10569429 -0.057922862 0.62700003
-0.10466667 -0.058015242 0.62800002
-0.10396477 -0.058292385 0.63100004
-0.10276286 -0.058292385 0.63100004
-0.10172191 -0.058384765 0.63200003
-0.10067715 -0.058477148 0.63300002
-0.099628575 -0.058569528 0.634
-0.098731436 -0.058754291 0.63600004
-0.097520009 -0.058754291 0.63600004
-0.096611433 -0.058939051 0.63800001
-0.095545724 -0.059031431 0.63900006
-0.094771437 -0.059308574 0.64200002
-0.093840003 -0.059493337 0.64400005
-0.092757151 -0.059585717 0.64500004
-0.091812387 -0.05977048 0.64700001
-0.090720005 -0.05986286 0.648
-0.08948572 -0.05986286 0.648
-0.088251434 -0.05986286 0.648
-0.087017149 -0.05986286 0.648
-0.086047627 -0.060047623 0.65000004
-0.17181429 -0.057271432 0.63300002
-0.16953048 -0.056909528 0.62900001
-0.16806477 -0.056819052 0.62800002
-0.16633715 -0.056638099 0.62600005
-0.16488096 -0.056547623 0.625
-0.16342857 -0.056457147 0.62400001
-0.16198002 -0.056366671 0.62300003
-0.16001906 -0.056095243 0.62
-0.15806954 -0.055823814 0.61700004
-0.1568943 -0.055823814 0.61700004
-0.15521429 -0.055642862 0.61500001
-0.15354191 -0.05546191 0.61300004
-0.1523743 -0.05546191 0.61300004
-0.15096001 -0.055371433 0.61200005
-0.1497943 -0.055371433 0.61200005
-0.14838572 -0.055280957 0.611
-0.1462581 -0.054919053 0.60700005
-0.14486286 -0.054828577 0.60600001
-0.14347143 -0.054738101 0.60500002
-0.14208382 -0.054647624 0.60400003
-0.14046668 -0.054466669 0.60200006
-0.13908859 -0.054376192 0.60100001
-0.1377143 -0.054285716 0.60000002
-0.13634382 -0.05419524 0.59900004
-0.13520287 -0.05419524 0.59900004
-0.13406192 -0.05419524 0.59900004
-0.13314286 -0.054285716 0.60000002
-0.13222001 -0.054376192 0.60100001
-0.13129334 -0.054466669 0.60200006
-0.13036287 -0.054557145 0.60300004
-0.12921429 -0.054557145 0.60300004
-0.12806572 -0.054557145 0.60300004
-0.12712763 -0.054647624 0.60400003
-0.12618572 -0.054738101 0.60500002
-0.12524001 -0.054828577 0.60600001
-0.12408572 -0.054828577 0.60600001
-0.12313429 -0.054919053 0.60700005
-0.12217905 -0.055009529 0.60800004
-0.1216181 -0.055280957 0.611
-0.1204543 -0.055280957 0.611
-0.11948572 -0.055371433 0.61200005
-0.11832001 -0.055371433 0.61200005
-0.11753715 -0.055552386 0.61400002
-0.11655715 -0.055642862 0.61500001
-0.11576096 -0.055823814 0.61700004
-0.11477143 -0.05591429 0.61800003
-0.1137781 -0.056004766 0.61900002
-0.11259905 -0.056004766 0.61900002
-0.1116 -0.056095243 0.62
-0.11077525 -0.056276195 0.62200004
-0.10994286 -0.056457147 0.62400001
-0.10892858 -0.056547623 0.625
-0.10791048 -0.056638099 0.62600005
-0.10705905 -0.056819052 0.62800002
-0.10586286 -0.056819052 0.62800002
-0.10483334 -0.056909528 0.62900001
-0.10396477 -0.05709048 0.63100004
-0.10292572 -0.057180956 0.63200003
-0.10188287 -0.057271432 0.63300002
-0.1008362 -0.057361908 0.634
-0.099785723 -0.057452384 0.63500005
-0.098731436 -0.057542861 0.63600004
-0.097826675 -0.057723813 0.63800001
-0.096611433 -0.057723813 0.63800001
-0.095844768 -0.057995241 0.64100003
-0.095066674 -0.05826667 0.64400005
-0.093985721 -0.058357146 0.64500004
-0.092900962 -0.058447622 0.64600003
-0.091812387 -0.058538098 0.64700001
-0.090580009 -0.058538098 0.64700001
-0.08948572 -0.058628574 0.648
-0.088251434 -0.058628574 0.648
-0.08728572 -0.058809526 0.65000004
-0.086180009 -0.058900002 0.65100002
-0.084940009 -0.058900002 0.65100002
-0.17208573 -0.056154288 0.634
-0.16953048 -0.055711433 0.62900001
-0.1683324 -0.055711433 0.62900001
-0.16633715 -0.05544572 0.62600005
-0.16488096 -0.055357147 0.625
-0.16342857 -0.055268575 0.62400001
-0.16198002 -0.055180002 0.62300003
-0.16053525 -0.055091433 0.62200004
-0.15858191 -0.054825719 0.61900002
-0.15714858 -0.054737147 0.61800003
-0.15546668 -0.054560002 0.61600006
-0.15354191 -0.054294288 0.61300004
-0.1523743 -0.054294288 0.61300004
-0.15120667 -0.054294288 0.61300004
-0.1497943 -0.054205719 0.61200005
-0.14838572 -0.054117147 0.611
-0.1462581 -0.053762861 0.60700005
-0.14486286 -0.053674288 0.60600001
-0.14347143 -0.053585719 0.60500002
-0.14184858 -0.053408574 0.60300004
-0.14046668 -0.053320002 0.60200006
-0.13908859 -0.053231433 0.60100001
-0.13794382 -0.053231433 0.60100001
-0.13634382 -0.053054288 0.59900004
-0.13520287 -0.053054288 0.59900004
-0.13428572 -0.053142861 0.60000002
-0.13336477 -0.053231433 0.60100001
-0.13244002 -0.053320002 0.60200006
-0.13129334 -0.053320002 0.60200006
-0.13036287 -0.053408574 0.60300004
-0.12921429 -0.053408574 0.60300004
-0.12827811 -0.053497147 0.60400003
-0.12712763 -0.053497147 0.60400003
-0.12618572 -0.053585719 0.60500002
-0.12524001 -0.053674288 0.60600001
-0.12429048 -0.053762861 0.60700005
-0.12313429 -0.053762861 0.60700005
-0.12238001 -0.053940002 0.60900003
-0.12122001 -0.053940002 0.60900003
-0.1204543 -0.054117147 0.611
-0.11948572 -0.054205719 0.61200005
-0.11851334 -0.054294288 0.61300004
-0.11753715 -0.054382861 0.61400002
-0.11655715 -0.054471433 0.61500001
-0.11557334 -0.054560002 0.61600006
-0.11495715 -0.054825719 0.61900002
-0.1137781 -0.054825719 0.61900002
-0.11278096 -0.054914288 0.62
-0.11196001 -0.055091433 0.62200004
-0.11095334 -0.055180002 0.62300003
-0.10994286 -0.055268575 0.62400001
-0.10892858 -0.055357147 0.625
-0.10791048 -0.05544572 0.62600005
-0.10688858 -0.055534288 0.62700003
-0.10586286 -0.055622861 0.62800002
-0.10483334 -0.055711433 0.62900001
-0.10412953 -0.055977147 0.63200003
-0.10292572 -0.055977147 0.63200003
-0.10188287 -0.05606572 0.63300002
-0.1008362 -0.056154288 0.634
-0.099785723 -0.056242861 0.63500005
-0.098731436 -0.056331433 0.63600004
-0.097826675 -0.056508575 0.63800001
-0.096762866 -0.056597147 0.63900006
-0.095994294 -0.056862861 0.64200002
-0.095066674 -0.057040002 0.64400005
-0.094131432 -0.057217147 0.64600003
-0.092900962 -0.057217147 0.64600003
-0.091954291 -0.057394288 0.648
-0.090720005 -0.057394288 0.648
-0.089761913 -0.057571433 0.65000004
-0.088523813 -0.057571433 0.65000004
-0.08728572 -0.057571433 0.65000004
-0.086180009 -0.057660002 0.65100002
-0.084940009 -0.057660002 0.65100002
-0.17235716 -0.055033337 0.63500005
-0.17033906 -0.054773338 0.63200003
-0.16913524 -0.054773338 0.63200003
-0.16633715 -0.054253336 0.62600005
-0.16488096 -0.054166671 0.625
-0.16369049 -0.054166671 0.625
-0.16224001 -0.054080002 0.62400001
-0.16105144 -0.054080002 0.62400001
-0.15960668 -0.053993337 0.62300003
-0.15740287 -0.053646669 0.61900002
-0.15546668 -0.05338667 0.61600006
-0.15404287 -0.053300004 0.61500001
-0.15262286 -0.053213336 0.61400002
-0.15120667 -0.05312667 0.61300004
-0.1497943 -0.053040005 0.61200005
-0.14862858 -0.053040005 0.61200005
-0.14746286 -0.053040005 0.61200005
-0.14534096 -0.052693337 0.60800004
-0.14370859 -0.052520003 0.60600001
-0.14231905 -0.052433338 0.60500002
-0.14070001 -0.052260004 0.60300004
-0.13932002 -0.052173335 0.60200006
-0.13817334 -0.052173335 0.60200006
-0.13679905 -0.05208667 0.60100001
-0.13542858 -0.052000005 0.60000002
-0.13450953 -0.05208667 0.60100001
-0.13358667 -0.052173335 0.60200006
-0.13244002 -0.052173335 0.60200006
-0.13151143 -0.052260004 0.60300004
-0.13057905 -0.052346669 0.60400003
-0.12942858 -0.052346669 0.60400003
-0.12849048 -0.052433338 0.60500002
-0.1273381 -0.052433338 0.60500002
-0.12639429 -0.052520003 0.60600001
-0.12524001 -0.052520003 0.60600001
-0.12429048 -0.052606668 0.60700005
-0.12333715 -0.052693337 0.60800004
-0.12238001 -0.052780002 0.60900003
-0.1216181 -0.052953336 0.611
-0.12065144 -0.053040005 0.61200005
-0.11968096 -0.05312667 0.61300004
-0.11870667 -0.053213336 0.61400002
-0.11772858 -0.053300004 0.61500001
-0.11674667 -0.05338667 0.61600006
-0.11594858 -0.053560004 0.61800003
-0.11495715 -0.053646669 0.61900002
-0.11396191 -0.053733338 0.62
-0.11314477 -0.053906672 0.62200004
-0.11214001 -0.053993337 0.62300003
-0.11113144 -0.054080002 0.62400001
-0.11011905 -0.054166671 0.625
-0.10892858 -0.054166671 0.625
-0.10791048 -0.054253336 0.62600005
-0.10705905 -0.05442667 0.62800002
-0.10586286 -0.05442667 0.62800002
-0.10483334 -0.054513335 0.62900001
-0.10412953 -0.054773338 0.63200003
-0.10292572 -0.054773338 0.63200003
-0.10204381 -0.054946668 0.634
-0.1008362 -0.054946668 0.634
-0.099942863 -0.055120002 0.63600004
-0.098731436 -0.055120002 0.63600004
-0.097980008 -0.055380005 0.63900006
-0.09721715 -0.055640005 0.64200002
-0.096293338 -0.055813339 0.64400005
-0.095214292 -0.055900004 0.64500004
-0.094131432 -0.055986669 0.64600003
-0.092900962 -0.055986669 0.64600003
-0.091954291 -0.056160003 0.648
-0.090720005 -0.056160003 0.648
-0.089761913 -0.056333337 0.65000004
-0.088523813 -0.056333337 0.65000004
-0.087420009 -0.056420002 0.65100002
-0.086312383 -0.056506671 0.65200001
-0.085070483 -0.056506671 0.65200001
-0.17060858 -0.053654291 0.63300002
-0.16913524 -0.053569525 0.63200003
-0.16660286 -0.053145718 0.62700003
-0.16514477 -0.053060956 0.62600005
-0.16369049 -0.052976195 0.625
-0.16224001 -0.052891433 0.62400001
-0.16105144 -0.052891433 0.62400001
-0.15986286 -0.052891433 0.62400001
-0.15765715 -0.052552383 0.62
-0.15546668 -0.052213337 0.61600006
-0.15404287 -0.052128576 0.61500001
-0.15262286 -0.052043814 0.61400002
-0.15120667 -0.051959053 0.61300004
-0.1497943 -0.051874287 0.61200005
-0.14862858 -0.051874287 0.61200005
-0.14722191 -0.051789526 0.611
-0.14558001 -0.051620003 0.60900003
-0.14394572 -0.05145048 0.60700005
-0.14231905 -0.051280957 0.60500002
-0.14070001 -0.051111434 0.60300004
-0.13932002 -0.051026668 0.60200006
-0.13817334 -0.051026668 0.60200006
-0.13702668 -0.051026668 0.60200006
-0.1356543 -0.050941907 0.60100001
-0.13473335 -0.051026668 0.60200006
-0.13380858 -0.051111434 0.60300004
-0.13266 -0.051111434 0.60300004
-0.13151143 -0.051111434 0.60300004
-0.13057905 -0.051196195 0.60400003
-0.12964286 -0.051280957 0.60500002
-0.12849048 -0.051280957 0.60500002
-0.1273381 -0.051280957 0.60500002
-0.12639429 -0.051365718 0.60600001
-0.12544668 -0.05145048 0.60700005
-0.12429048 -0.05145048 0.60700005
-0.12333715 -0.051535241 0.60800004
-0.12278191 -0.051789526 0.611
-0.12181715 -0.051874287 0.61200005
-0.12084858 -0.051959053 0.61300004
-0.11968096 -0.051959053 0.61300004
-0.11890001 -0.052128576 0.61500001
-0.11792001 -0.052213337 0.61600006
-0.1169362 -0.052298099 0.61700004
-0.1161362 -0.052467622 0.61900002
-0.11514287 -0.052552383 0.62
-0.11396191 -0.052552383 0.62
-0.11332668 -0.052806672 0.62300003
-0.11232001 -0.052891433 0.62400001
-0.11113144 -0.052891433 0.62400001
-0.11011905 -0.052976195 0.625
-0.10892858 -0.052976195 0.625
-0.10808286 -0.053145718 0.62700003
-0.10705905 -0.053230479 0.62800002
-0.10603143 -0.053315241 0.62900001
-0.10483334 -0.053315241 0.62900001
-0.10412953 -0.053569525 0.63200003
-0.10292572 -0.053569525 0.63200003
-0.10188287 -0.053654291 0.63300002
-0.10099524 -0.053823814 0.63500005
-0.099942863 -0.053908575 0.63600004
-0.099041909 -0.054078098 0.63800001
-0.09813334 -0.054247621 0.64000005
-0.09721715 -0.054417148 0.64200002
-0.095994294 -0.054417148 0.64200002
-0.095214292 -0.054671433 0.64500004
-0.094131432 -0.054756194 0.64600003
-0.093044765 -0.054840956 0.64700001
-0.091954291 -0.054925717 0.648
-0.090720005 -0.054925717 0.648
-0.089761913 -0.05509524 0.65000004
-0.088523813 -0.05509524 0.65000004
-0.087420009 -0.055180002 0.65100002
-0.086312383 -0.055264767 0.65200001
-0.085200958 -0.055349529 0.65300006
-0.17060858 -0.052448574 0.63300002
-0.16940287 -0.052448574 0.63300002
-0.16766572 -0.052282862 0.63100004
-0.16540858 -0.051951431 0.62700003
-0.1639524 -0.051868577 0.62600005
-0.16250001 -0.051785719 0.625
-0.16130954 -0.051785719 0.625
-0.15986286 -0.051702861 0.62400001
-0.15765715 -0.051371433 0.62
-0.15546668 -0.051040005 0.61600006
-0.15404287 -0.050957147 0.61500001
-0.15262286 -0.050874289 0.61400002
-0.15120667 -0.050791431 0.61300004
-0.15003906 -0.050791431 0.61300004
-0.14862858 -0.050708573 0.61200005
-0.14746286 -0.050708573 0.61200005
-0.14558001 -0.050460003 0.60900003
-0.14394572 -0.050294288 0.60700005
-0.14231905 -0.050128575 0.60500002
-0.14070001 -0.04996286 0.60300004
-0.13955143 -0.04996286 0.60300004
-0.13817334 -0.049880002 0.60200006
-0.13702668 -0.049880002 0.60200006
-0.13588001 -0.049880002 0.60200006
-0.13473335 -0.049880002 0.60200006
-0.13380858 -0.04996286 0.60300004
-0.13266 -0.04996286 0.60300004
-0.13151143 -0.04996286 0.60300004
-0.13057905 -0.050045718 0.60400003
-0.12964286 -0.050128575 0.60500002
-0.12849048 -0.050128575 0.60500002
-0.12754858 -0.050211433 0.60600001
-0.12639429 -0.050211433 0.60600001
-0.12544668 -0.050294288 0.60700005
-0.12449525 -0.050377145 0.60800004
-0.12354001 -0.050460003 0.60900003
-0.12278191 -0.050625719 0.611
-0.12181715 -0.050708573 0.61200005
-0.12084858 -0.050791431 0.61300004
-0.1198762 -0.050874289 0.61400002
-0.11890001 -0.050957147 0.61500001
-0.11792001 -0.051040005 0.61600006
-0.11712572 -0.051205717 0.61800003
-0.1161362 -0.051288575 0.61900002
-0.11514287 -0.051371433 0.62
-0.11432953 -0.051537145 0.62200004
-0.11350858 -0.051702861 0.62400001
-0.11232001 -0.051702861 0.62400001
-0.11130953 -0.051785719 0.625
-0.11011905 -0.051785719 0.625
-0.10910287 -0.051868577 0.62600005
-0.10808286 -0.051951431 0.62700003
-0.10705905 -0.052034289 0.62800002
-0.10603143 -0.052117147 0.62900001
-0.10483334 -0.052117147 0.62900001
-0.10412953 -0.052365717 0.63200003
-0.10292572 -0.052365717 0.63200003
-0.10188287 -0.052448574 0.63300002
-0.10099524 -0.05261429 0.63500005
-0.099942863 -0.052697148 0.63600004
-0.099197149 -0.052945718 0.63900006
-0.09813334 -0.053028576 0.64000005
-0.09721715 -0.053194288 0.64200002
-0.096293338 -0.053360004 0.64400005
-0.095214292 -0.053442862 0.64500004
-0.094277151 -0.053608574 0.64700001
-0.093044765 -0.053608574 0.64700001
-0.091954291 -0.053691432 0.648
-0.090720005 -0.053691432 0.648
-0.089761913 -0.053857148 0.65000004
-0.088660009 -0.053940002 0.65100002
-0.087554291 -0.05402286 0.65200001
-0.086444765 -0.054105718 0.65300006
-0.17060858 -0.051242862 0.63300002
-0.16940287 -0.051242862 0.63300002
-0.16793144 -0.051161908 0.63200003
-0.16567239 -0.050838098 0.62800002
-0.1639524 -0.050676193 0.62600005
-0.16250001 -0.050595243 0.625
-0.16130954 -0.050595243 0.625
-0.15986286 -0.050514288 0.62400001
-0.15765715 -0.050190479 0.62
-0.15571906 -0.049947623 0.61700004
-0.15429334 -0.049866669 0.61600006
-0.15287144 -0.049785718 0.61500001
-0.15145335 -0.049704764 0.61400002
-0.15003906 -0.049623813 0.61300004
-0.14862858 -0.049542859 0.61200005
-0.14722191 -0.049461909 0.611
-0.14534096 -0.04921905 0.60800004
-0.14394572 -0.049138099 0.60700005
-0.14231905 -0.048976194 0.60500002
-0.14093335 -0.04889524 0.60400003
-0.13955143 -0.048814289 0.60300004
-0.13840286 -0.048814289 0.60300004
-0.1372543 -0.048814289 0.60300004
-0.13588001 -0.048733335 0.60200006
-0.13473335 -0.048733335 0.60200006
-0.13380858 -0.048814289 0.60300004
-0.13266 -0.048814289 0.60300004
-0.13151143 -0.048814289 0.60300004
-0.13057905 -0.04889524 0.60400003
-0.12964286 -0.048976194 0.60500002
-0.12870286 -0.049057145 0.60600001
-0.12754858 -0.049057145 0.60600001
-0.12660286 -0.049138099 0.60700005
-0.12544668 -0.049138099 0.60700005
-0.12449525 -0.04921905 0.60800004
-0.12394572 -0.049461909 0.611
-0.12298287 -0.049542859 0.61200005
-0.12181715 -0.049542859 0.61200005
-0.12104572 -0.049704764 0.61400002
-0.1198762 -0.049704764 0.61400002
-0.11909334 -0.049866669 0.61600006
-0.11811144 -0.049947623 0.61700004
-0.11731525 -0.050109528 0.61900002
-0.11632381 -0.050190479 0.62
-0.11551429 -0.050352383 0.62200004
-0.11451334 -0.050433338 0.62300003
-0.11350858 -0.050514288 0.62400001
-0.11232001 -0.050514288 0.62400001
-0.11130953 -0.050595243 0.625
-0.11029524 -0.050676193 0.62600005
-0.10910287 -0.050676193 0.62600005
-0.10808286 -0.050757147 0.62700003
-0.10705905 -0.050838098 0.62800002
-0.10603143 -0.050919052 0.62900001
-0.10516667 -0.051080957 0.63100004
-0.10412953 -0.051161908 0.63200003
-0.10308858 -0.051242862 0.63300002
-0.10204381 -0.051323812 0.634
-0.10115429 -0.051485717 0.63600004
-0.10025715 -0.051647622 0.63800001
-0.099197149 -0.051728576 0.63900006
-0.09813334 -0.051809527 0.64000005
-0.09721715 -0.051971432 0.64200002
-0.096293338 -0.052133337 0.64400005
-0.095214292 -0.052214291 0.64500004
-0.094277151 -0.052376192 0.64700001
-0.093044765 -0.052376192 0.64700001
-0.091954291 -0.052457146 0.648
-0.090720005 -0.052457146 0.648
-0.090038098 -0.052780956 0.65200001
-0.088796198 -0.052780956 0.65200001
-0.08768858 -0.052861907 0.65300006
-0.086709529 -0.053023811 0.65500003
-0.17060858 -0.050037146 0.63300002
-0.16940287 -0.050037146 0.63300002
-0.16793144 -0.049958099 0.63200003
-0.1659362 -0.049720954 0.62900001
-0.1642143 -0.04956286 0.62700003
-0.16276 -0.049483813 0.62600005
-0.16130954 -0.049404766 0.625
-0.16011906 -0.049404766 0.625
-0.15765715 -0.049009528 0.62
-0.15571906 -0.048772383 0.61700004
-0.15429334 -0.048693337 0.61600006
-0.15287144 -0.04861429 0.61500001
-0.15145335 -0.048535243 0.61400002
-0.15003906 -0.048456192 0.61300004
-0.14862858 -0.048377145 0.61200005
-0.14746286 -0.048377145 0.61200005
-0.1460581 -0.048298098 0.611
-0.14418286 -0.048060957 0.60800004
-0.1425543 -0.04790286 0.60600001
-0.14093335 -0.047744766 0.60400003
-0.13978286 -0.047744766 0.60400003
-0.13840286 -0.047665719 0.60300004
-0.1372543 -0.047665719 0.60300004
-0.13610572 -0.047665719 0.60300004
-0.13495715 -0.047665719 0.60300004
-0.13380858 -0.047665719 0.60300004
-0.13266 -0.047665719 0.60300004
