# .PCD v0.7 - Point Cloud Data file format
VERSION 0.7
FIELDS x y z
SIZE 4 4 4
TYPE F F F
COUNT 1 1 1
WIDTH 1393
HEIGHT 1
VIEWPOINT 0 0 0 1 0 0 0
POINTS 1393
DATA ascii
0.047813337 0.081344768 0.65200001
0.049055241 0.081344768 0.65200001
0.050297145 0.081344768 0.65200001
0.051460002 0.081220008 0.65100002
0.052780956 0.081344768 0.65200001
0.05402286 0.081344768 0.65200001
0.055180002 0.081220008 0.65100002
0.056420002 0.081220008 0.65100002
0.057660002 0.081220008 0.65100002
0.058538098 0.080720961 0.64700001
-0.010491429 0.082080007 0.648
-0.0092571434 0.082080007 0.648
-0.0080228578 0.082080007 0.648
-0.0067780958 0.081953339 0.64700001
-0.0055457149 0.081953339 0.64700001
-0.0043133334 0.081953339 0.64700001
-0.0030809527 0.081953339 0.64700001
-0.0018485716 0.081953339 0.64700001
-0.00061619049 0.081953339 0.64700001
0.00061619049 0.081953339 0.64700001
0.0018485716 0.081953339 0.64700001
0.0030809527 0.081953339 0.64700001
0.0043133334 0.081953339 0.64700001
0.0055457149 0.081953339 0.64700001
0.0067780958 0.081953339 0.64700001
0.0080228578 0.082080007 0.648
0.0092571434 0.082080007 0.648
0.010491429 0.082080007 0.648
0.011725715 0.082080007 0.648
0.012960001 0.082080007 0.648
0.014194286 0.082080007 0.648
0.015428573 0.082080007 0.648
0.016662858 0.082080007 0.648
0.017897144 0.082080007 0.648
0.019131429 0.082080007 0.648
0.020365715 0.082080007 0.648
0.021600001 0.082080007 0.648
0.022799049 0.081953339 0.64700001
0.02403143 0.081953339 0.64700001
0.025263811 0.081953339 0.64700001
0.026496192 0.081953339 0.64700001
0.027685717 0.081826672 0.64600003
0.02887143 0.081700005 0.64500004
0.030100003 0.081700005 0.64500004
0.031425714 0.081953339 0.64700001
0.032658096 0.081953339 0.64700001
0.033890478 0.081953339 0.64700001
0.035068575 0.081826672 0.64600003
0.03629905 0.081826672 0.64600003
0.037645716 0.082080007 0.648
0.038880002 0.082080007 0.648
0.040114287 0.082080007 0.648
0.041348573 0.082080007 0.648
0.04271429 0.082333341 0.65000004
0.044020005 0.082460009 0.65100002
0.04519048 0.082333341 0.65000004
0.046500005 0.082460009 0.65100002
0.047740005 0.082460009 0.65100002
0.048980001 0.082460009 0.65100002
0.050220001 0.082460009 0.65100002
0.051380955 0.082333341 0.65000004
0.052457146 0.082080007 0.648
0.053857148 0.082333341 0.65000004
0.054925717 0.082080007 0.648
0.056160003 0.082080007 0.648
0.05730572 0.081953339 0.64700001
0.058538098 0.081953339 0.64700001
0.059585717 0.081700005 0.64500004
-0.010442858 0.082928576 0.64500004
-0.0092142867 0.082928576 0.64500004
-0.0079857148 0.082928576 0.64500004
-0.0067571434 0.082928576 0.64500004
-0.0055200006 0.082800008 0.64400005
-0.0042933337 0.082800008 0.64400005
-0.0030666669 0.082800008 0.64400005
-0.0018400002 0.082800008 0.64400005
-0.00061333337 0.082800008 0.64400005
0.00061333337 0.082800008 0.64400005
0.0018400002 0.082800008 0.64400005
0.0030666669 0.082800008 0.64400005
0.0043000001 0.082928576 0.64500004
0.005528572 0.082928576 0.64500004
0.0067571434 0.082928576 0.64500004
0.0079857148 0.082928576 0.64500004
0.0092142867 0.082928576 0.64500004
0.010442858 0.082928576 0.64500004
0.011689524 0.08305715 0.64600003
0.012920001 0.08305715 0.64600003
0.014150477 0.08305715 0.64600003
0.015380953 0.08305715 0.64600003
0.016611429 0.08305715 0.64600003
0.017841905 0.08305715 0.64600003
0.019072382 0.08305715 0.64600003
0.02027143 0.082928576 0.64500004
0.021500001 0.082928576 0.64500004
0.022693334 0.082800008 0.64400005
0.023957144 0.082928576 0.64500004
0.025146669 0.082800008 0.64400005
0.026373334 0.082800008 0.64400005
0.027600002 0.082800008 0.64400005
0.028826669 0.082800008 0.64400005
0.029960003 0.082542859 0.64200002
0.031280003 0.082800008 0.64400005
0.032506667 0.082800008 0.64400005
0.033733334 0.082800008 0.64400005
0.034960002 0.082800008 0.64400005
0.036186669 0.082800008 0.64400005
0.037413336 0.082800008 0.64400005
0.038640004 0.082800008 0.64400005
0.039866671 0.082800008 0.64400005
0.041093335 0.082800008 0.64400005
0.042320002 0.082800008 0.64400005
0.043546669 0.082800008 0.64400005
0.044773336 0.082800008 0.64400005
0.046000004 0.082800008 0.64400005
0.047300003 0.082928576 0.64500004
0.048603814 0.08305715 0.64600003
0.049757145 0.082928576 0.64500004
0.051064767 0.08305715 0.64600003
0.052214291 0.082928576 0.64500004
0.053442862 0.082928576 0.64500004
0.054671433 0.082928576 0.64500004
0.055900004 0.082928576 0.64500004
0.057128575 0.082928576 0.64500004
0.058357146 0.082928576 0.64500004
0.059493337 0.082800008 0.64400005
0.060437147 0.082414292 0.64100003
-0.010442858 0.084157147 0.64500004
-0.0092000002 0.084026672 0.64400005
-0.0079733338 0.084026672 0.64400005
-0.0067257145 0.083765723 0.64200002
-0.0055028577 0.083765723 0.64200002
-0.0042733336 0.083635241 0.64100003
-0.0030523811 0.083635241 0.64100003
-0.0018314287 0.083635241 0.64100003
-0.00061142864 0.083765723 0.64200002
0.00061333337 0.084026672 0.64400005
0.0018400002 0.084026672 0.64400005
0.0030666669 0.084026672 0.64400005
0.0042933337 0.084026672 0.64400005
0.0055200006 0.084026672 0.64400005
0.006746667 0.084026672 0.64400005
0.0079733338 0.084026672 0.64400005
0.0092000002 0.084026672 0.64400005
0.010426668 0.084026672 0.64400005
0.011617144 0.083765723 0.64200002
0.0129 0.084157147 0.64500004
0.014062858 0.083765723 0.64200002
0.015333334 0.084026672 0.64400005
0.016560001 0.084026672 0.64400005
0.017786669 0.084026672 0.64400005
0.019013334 0.084026672 0.64400005
0.020177145 0.083765723 0.64200002
0.021400001 0.083765723 0.64200002
0.022622859 0.083765723 0.64200002
0.023920001 0.084026672 0.64400005
0.025068574 0.083765723 0.64200002
0.02629143 0.083765723 0.64200002
0.027514288 0.083765723 0.64200002
0.028737145 0.083765723 0.64200002
0.029960003 0.083765723 0.64200002
0.031182859 0.083765723 0.64200002
0.032355241 0.083635241 0.64100003
0.033628572 0.083765723 0.64200002
0.034851432 0.083765723 0.64200002
0.036186669 0.084026672 0.64400005
0.037297145 0.083765723 0.64200002
0.038640004 0.084026672 0.64400005
0.039866671 0.084026672 0.64400005
0.041093335 0.084026672 0.64400005
0.042320002 0.084026672 0.64400005
0.043546669 0.084026672 0.64400005
0.04463429 0.083765723 0.64200002
0.045857146 0.083765723 0.64200002
0.047226671 0.084026672 0.64400005
0.048302859 0.083765723 0.64200002
0.049680002 0.084026672 0.64400005
0.050906669 0.084026672 0.64400005
0.052133337 0.084026672 0.64400005
0.053442862 0.084157147 0.64500004
0.054671433 0.084157147 0.64500004
0.055813339 0.084026672 0.64400005
0.057040002 0.084026672 0.64400005
0.05826667 0.084026672 0.64400005
0.059493337 0.084026672 0.64400005
-0.0129 0.085385717 0.64500004
-0.011617144 0.084988579 0.64200002
-0.010394286 0.084988579 0.64200002
-0.0091571435 0.084856197 0.64100003
-0.0079361908 0.084856197 0.64100003
-0.0067047626 0.084723815 0.64000005
-0.0054857144 0.084723815 0.64000005
-0.0042666672 0.084723815 0.64000005
-0.0030476192 0.084723815 0.64000005
-0.0018285715 0.084723815 0.64000005
-0.00061142864 0.084988579 0.64200002
0.00061142864 0.084988579 0.64200002
0.0018342858 0.084988579 0.64200002
0.003057143 0.084988579 0.64200002
0.0042800005 0.084988579 0.64200002
0.0055028577 0.084988579 0.64200002
0.0067257145 0.084988579 0.64200002
0.0079361908 0.084856197 0.64100003
0.0091571435 0.084856197 0.64100003
0.010394286 0.084988579 0.64200002
0.011580953 0.084723815 0.64000005
0.01278 0.084591433 0.63900006
0.014019049 0.084723815 0.64000005
0.015238096 0.084723815 0.64000005
0.016457144 0.084723815 0.64000005
0.017703811 0.084856197 0.64100003
0.018924763 0.084856197 0.64100003
0.020145716 0.084856197 0.64100003
0.021366669 0.084856197 0.64100003
0.02258762 0.084856197 0.64100003
0.023808572 0.084856197 0.64100003
0.025068574 0.084988579 0.64200002
0.026250478 0.084856197 0.64100003
0.027471431 0.084856197 0.64100003
0.028692383 0.084856197 0.64100003
0.029913336 0.084856197 0.64100003
0.031134287 0.084856197 0.64100003
0.032304764 0.084723815 0.64000005
0.033576194 0.084856197 0.64100003
0.034797147 0.084856197 0.64100003
0.036074288 0.084988579 0.64200002
0.037297145 0.084988579 0.64200002
0.038520001 0.084988579 0.64200002
0.039742861 0.084988579 0.64200002
0.040965717 0.084988579 0.64200002
0.042188574 0.084988579 0.64200002
0.043343812 0.084856197 0.64100003
0.04449524 0.084723815 0.64000005
0.045714289 0.084723815 0.64000005
0.046860002 0.084591433 0.63900006
0.048152383 0.084723815 0.64000005
0.049680002 0.085253336 0.64400005
0.050669529 0.084856197 0.64100003
0.052133337 0.085253336 0.64400005
0.053194288 0.084988579 0.64200002
0.054586671 0.085253336 0.64400005
0.055813339 0.085253336 0.64400005
0.056862861 0.084988579 0.64200002
0.058085717 0.084988579 0.64200002
0.059308574 0.084988579 0.64200002
-0.015404763 0.086882859 0.64700001
-0.014150477 0.086748578 0.64600003
-0.0129 0.086614288 0.64500004
-0.011599048 0.086077146 0.64100003
-0.010378096 0.086077146 0.64100003
-0.009142858 0.085942864 0.64000005
-0.0079114288 0.085808575 0.63900006
-0.0066942861 0.085808575 0.63900006
-0.005477143 0.085808575 0.63900006
-0.0042600003 0.085808575 0.63900006
-0.0030428574 0.085808575 0.63900006
-0.0018257144 0.085808575 0.63900006
-0.00060952385 0.085942864 0.64000005
0.00061047624 0.086077146 0.64100003
0.0018314287 0.086077146 0.64100003
0.003057143 0.086211435 0.64200002
0.0042800005 0.086211435 0.64200002
0.0054942863 0.086077146 0.64100003
0.0067152386 0.086077146 0.64100003
0.0079238098 0.085942864 0.64000005
0.009142858 0.085942864 0.64000005
0.010345715 0.085808575 0.63900006
0.011544763 0.085674293 0.63800001
0.012720001 0.085405722 0.63600004
0.013975239 0.085674293 0.63800001
0.015190477 0.085674293 0.63800001
0.016405715 0.085674293 0.63800001
0.017648572 0.085808575 0.63900006
0.018865716 0.085808575 0.63900006
0.020114288 0.085942864 0.64000005
0.021333335 0.085942864 0.64000005
0.022552382 0.085942864 0.64000005
0.023771429 0.085942864 0.64000005
0.024990479 0.085942864 0.64000005
0.026168574 0.085808575 0.63900006
0.027428573 0.085942864 0.64000005
0.02864762 0.085942864 0.64000005
0.029866669 0.085942864 0.64000005
0.031085717 0.085942864 0.64000005
0.032254286 0.085808575 0.63900006
0.033523813 0.085942864 0.64000005
0.034742858 0.085942864 0.64000005
0.036018096 0.086077146 0.64100003
0.037239049 0.086077146 0.64100003
0.038460001 0.086077146 0.64100003
0.039680954 0.086077146 0.64100003
0.040901907 0.086077146 0.64100003
0.04212286 0.086077146 0.64100003
0.043343812 0.086077146 0.64100003
0.04449524 0.085942864 0.64000005
0.04564286 0.085808575 0.63900006
0.046860002 0.085808575 0.63900006
0.048077147 0.085808575 0.63900006
0.049371433 0.085942864 0.64000005
0.050590478 0.085942864 0.64000005
0.051809527 0.085942864 0.64000005
0.053360004 0.086480007 0.64400005
0.054332383 0.086077146 0.64100003
0.055553336 0.086077146 0.64100003
0.056774288 0.086077146 0.64100003
0.057904765 0.085942864 0.64000005
0.059123814 0.085942864 0.64000005
-0.012880001 0.08770667 0.64400005
-0.011562858 0.087025717 0.63900006
-0.010345715 0.087025717 0.63900006
-0.0091285724 0.087025717 0.63900006
-0.0078990478 0.086889528 0.63800001
-0.0066838101 0.086889528 0.63800001
-0.0054685716 0.086889528 0.63800001
-0.0042533334 0.086889528 0.63800001
-0.0030380955 0.086889528 0.63800001
-0.0018257144 0.087025717 0.63900006
-0.00060952385 0.087161914 0.64000005
0.00060952385 0.087161914 0.64000005
0.0018285715 0.087161914 0.64000005
0.0030523811 0.087298103 0.64100003
0.0042733336 0.087298103 0.64100003
0.0054942863 0.087298103 0.64100003
0.0067047626 0.087161914 0.64000005
0.0079114288 0.087025717 0.63900006
0.0091142859 0.086889528 0.63800001
0.010297144 0.086617149 0.63600004
0.011490477 0.08648096 0.63500005
0.012700001 0.08648096 0.63500005
0.013909524 0.08648096 0.63500005
0.015119049 0.08648096 0.63500005
0.016354287 0.086617149 0.63600004
0.017565716 0.086617149 0.63600004
0.018777143 0.086617149 0.63600004
0.020051429 0.086889528 0.63800001
0.021266667 0.086889528 0.63800001
0.022481907 0.086889528 0.63800001
0.023734286 0.087025717 0.63900006
0.02495143 0.087025717 0.63900006
0.026127622 0.086889528 0.63800001
0.02734286 0.086889528 0.63800001
0.028558098 0.086889528 0.63800001
0.029820003 0.087025717 0.63900006
0.031037144 0.087025717 0.63900006
0.032203812 0.086889528 0.63800001
0.03341905 0.086889528 0.63800001
0.034688573 0.087025717 0.63900006
0.035961907 0.087161914 0.64000005
0.037239049 0.087298103 0.64100003
0.038460001 0.087298103 0.64100003
0.039680954 0.087298103 0.64100003
0.040901907 0.087298103 0.64100003
0.04212286 0.087298103 0.64100003
0.043276194 0.087161914 0.64000005
0.044425718 0.087025717 0.63900006
0.045571432 0.086889528 0.63800001
0.04678667 0.086889528 0.63800001
0.048001908 0.086889528 0.63800001
0.049217146 0.086889528 0.63800001
0.050432384 0.086889528 0.63800001
0.051728576 0.087025717 0.63900006
0.052945718 0.087025717 0.63900006
0.054247621 0.087161914 0.64000005
0.055466671 0.087161914 0.64000005
0.056597147 0.087025717 0.63900006
0.057814289 0.087025717 0.63900006
0.059031431 0.087025717 0.63900006
0.060248576 0.087025717 0.63900006
-0.012760001 0.08810477 0.63800001
-0.011544763 0.08810477 0.63800001
-0.010329524 0.08810477 0.63800001
-0.0090857148 0.087828577 0.63600004
-0.0078742858 0.087828577 0.63600004
-0.0066628577 0.087828577 0.63600004
-0.0054514287 0.087828577 0.63600004
-0.0042400002 0.087828577 0.63600004
-0.0030380955 0.08810477 0.63800001
-0.0018228573 0.08810477 0.63800001
-0.00060857146 0.088242866 0.63900006
0.00060952385 0.088380955 0.64000005
0.0018257144 0.088242866 0.63900006
0.0030476192 0.088380955 0.64000005
0.0042666672 0.088380955 0.64000005
0.005477143 0.088242866 0.63900006
0.0066942861 0.088242866 0.63900006
0.0078742858 0.087828577 0.63600004
0.0090714293 0.08769048 0.63500005
0.010280953 0.08769048 0.63500005
0.011472382 0.087552384 0.634
0.012680001 0.087552384 0.634
0.01388762 0.087552384 0.634
0.015119049 0.08769048 0.63500005
0.016328573 0.08769048 0.63500005
0.017538097 0.08769048 0.63500005
0.01874762 0.08769048 0.63500005
0.019988572 0.087828577 0.63600004
0.021200001 0.087828577 0.63600004
0.02241143 0.087828577 0.63600004
0.023697145 0.08810477 0.63800001
0.024912383 0.08810477 0.63800001
0.026045715 0.087828577 0.63600004
0.027257144 0.087828577 0.63600004
0.028468573 0.087828577 0.63600004
0.029680002 0.087828577 0.63600004
0.030988574 0.08810477 0.63800001
0.032102861 0.087828577 0.63600004
0.03341905 0.08810477 0.63800001
0.034634288 0.08810477 0.63800001
0.035849527 0.08810477 0.63800001
0.037122861 0.088242866 0.63900006
0.038400002 0.088380955 0.64000005
0.039619051 0.088380955 0.64000005
0.040838096 0.088380955 0.64000005
0.041991431 0.088242866 0.63900006
0.043208573 0.088242866 0.63900006
0.044356193 0.08810477 0.63800001
0.045428574 0.087828577 0.63600004
0.046640001 0.087828577 0.63600004
0.047851432 0.087828577 0.63600004
0.049062859 0.087828577 0.63600004
0.05027429 0.087828577 0.63600004
0.051485717 0.087828577 0.63600004
0.05286286 0.08810477 0.63800001
0.054078098 0.08810477 0.63800001
0.055293337 0.08810477 0.63800001
0.056331433 0.087828577 0.63600004
0.057723813 0.08810477 0.63800001
0.058939051 0.08810477 0.63800001
0.060154289 0.08810477 0.63800001
-0.012760001 0.089320004 0.63800001
-0.011490477 0.088900007 0.63500005
-0.010297144 0.089040004 0.63600004
-0.0090857148 0.089040004 0.63600004
-0.0078619057 0.088900007 0.63500005
-0.0066523813 0.088900007 0.63500005
-0.0054428573 0.088900007 0.63500005
-0.0042333337 0.088900007 0.63500005
-0.0030285716 0.089040004 0.63600004
-0.0018228573 0.089320004 0.63800001
-0.00060761906 0.089320004 0.63800001
0.00060857146 0.089460008 0.63900006
0.0018228573 0.089320004 0.63800001
0.0030380955 0.089320004 0.63800001
0.0042600003 0.089460008 0.63900006
0.0054514287 0.089040004 0.63600004
0.0066419053 0.088760003 0.634
0.0078371437 0.088620007 0.63300002
0.0090428581 0.088620007 0.63300002
0.010248573 0.088620007 0.63300002
0.011454286 0.088620007 0.63300002
0.01266 0.088620007 0.63300002
0.013865715 0.088620007 0.63300002
0.015071429 0.088620007 0.63300002
0.016302858 0.088760003 0.634
0.017510477 0.088760003 0.634
0.018718097 0.088760003 0.634
0.019957144 0.088900007 0.63500005
0.021166667 0.088900007 0.63500005
0.022376193 0.088900007 0.63500005
0.023585716 0.088900007 0.63500005
0.02479524 0.088900007 0.63500005
0.026004763 0.088900007 0.63500005
0.027214287 0.088900007 0.63500005
0.028379049 0.088760003 0.634
0.029586669 0.088760003 0.634
0.030842859 0.088900007 0.63500005
0.032001905 0.088760003 0.634
0.033261906 0.088900007 0.63500005
0.03447143 0.088900007 0.63500005
0.035737146 0.089040004 0.63600004
0.037064765 0.089320004 0.63800001
0.038340002 0.089460008 0.63900006
0.039495241 0.089320004 0.63800001
0.040710479 0.089320004 0.63800001
0.041794289 0.089040004 0.63600004
0.043140955 0.089320004 0.63800001
0.044217147 0.089040004 0.63600004
0.045428574 0.089040004 0.63600004
0.046566669 0.088900007 0.63500005
0.047776192 0.088900007 0.63500005
0.048985716 0.088900007 0.63500005
0.050195243 0.088900007 0.63500005
0.051323812 0.088760003 0.634
0.05261429 0.088900007 0.63500005
0.053908575 0.089040004 0.63600004
0.055033337 0.088900007 0.63500005
0.056242861 0.088900007 0.63500005
0.057452384 0.088900007 0.63500005
0.058661908 0.088900007 0.63500005
0.059871431 0.088900007 0.63500005
-0.012720001 0.090251431 0.63600004
-0.011490477 0.090109527 0.63500005
-0.010280953 0.090109527 0.63500005
-0.0090571437 0.089967623 0.634
-0.0078495247 0.089967623 0.634
-0.0066419053 0.089967623 0.634
-0.0054342858 0.089967623 0.634
-0.0042266669 0.089967623 0.634
-0.0030142858 0.08982572 0.63300002
-0.0018085715 0.08982572 0.63300002
-0.00060285721 0.08982572 0.63300002
0.00060095242 0.089541912 0.63100004
0.0018028573 0.089541912 0.63100004
0.0030047621 0.089541912 0.63100004
0.0042066667 0.089541912 0.63100004
0.0054342858 0.089967623 0.634
0.0066209529 0.089683816 0.63200003
0.0078247627 0.089683816 0.63200003
0.0090285717 0.089683816 0.63200003
0.010232382 0.089683816 0.63200003
0.011454286 0.08982572 0.63300002
0.01266 0.08982572 0.63300002
0.013865715 0.08982572 0.63300002
0.015071429 0.08982572 0.63300002
0.016277144 0.08982572 0.63300002
0.017510477 0.089967623 0.634
0.018688573 0.08982572 0.63300002
0.019894287 0.08982572 0.63300002
0.021100001 0.08982572 0.63300002
0.022305716 0.08982572 0.63300002
0.023548573 0.089967623 0.634
0.024756191 0.089967623 0.634
0.025922859 0.08982572 0.63300002
0.027171431 0.089967623 0.634
0.028334288 0.08982572 0.63300002
0.029540002 0.08982572 0.63300002
0.030745717 0.08982572 0.63300002
0.031951431 0.08982572 0.63300002
0.033209525 0.089967623 0.634
0.03436286 0.08982572 0.63300002
0.035624765 0.089967623 0.634
0.036832385 0.089967623 0.634
0.038100004 0.090109527 0.63500005
0.039309528 0.090109527 0.63500005
0.040519051 0.090109527 0.63500005
0.041662861 0.089967623 0.634
0.042938098 0.090109527 0.63500005
0.044147622 0.090109527 0.63500005
0.045285717 0.089967623 0.634
0.046493337 0.089967623 0.634
0.047700956 0.089967623 0.634
0.048908576 0.089967623 0.634
0.050116193 0.089967623 0.634
0.051242862 0.08982572 0.63300002
0.052531432 0.089967623 0.634
0.053739052 0.089967623 0.634
0.054946668 0.089967623 0.634
0.056154288 0.089967623 0.634
0.057361908 0.089967623 0.634
0.058569528 0.089967623 0.634
0.059777148 0.089967623 0.634
0.061080955 0.090109527 0.63500005
-0.011472382 0.091175243 0.634
-0.010264763 0.091175243 0.634
-0.0090571437 0.091175243 0.634
-0.0078371437 0.091031432 0.63300002
-0.0066314288 0.091031432 0.63300002
-0.0054257144 0.091031432 0.63300002
-0.0042066667 0.090743817 0.63100004
-0.0030047621 0.090743817 0.63100004
-0.0018028573 0.090743817 0.63100004
-0.00059619051 0.090024769 0.62600005
0.00060095242 0.090743817 0.63100004
0.0018028573 0.090743817 0.63100004
0.0029904763 0.090312384 0.62800002
0.004186667 0.090312384 0.62800002
0.0053828573 0.090312384 0.62800002
0.0065895244 0.090456195 0.62900001
0.0077876197 0.090456195 0.62900001
0.008985715 0.090456195 0.62900001
0.010216191 0.090743817 0.63100004
0.011436191 0.090887628 0.63200003
0.01266 0.091031432 0.63300002
0.01384381 0.090887628 0.63200003
0.01504762 0.090887628 0.63200003
0.016277144 0.091031432 0.63300002
0.017482858 0.091031432 0.63300002
0.01865905 0.090887628 0.63200003
0.019862859 0.090887628 0.63200003
0.021033335 0.090743817 0.63100004
0.022270478 0.090887628 0.63200003
0.023474287 0.090887628 0.63200003
0.024717145 0.091031432 0.63300002
0.025881907 0.090887628 0.63200003
0.027128574 0.091031432 0.63300002
0.028289525 0.090887628 0.63200003
0.029493336 0.090887628 0.63200003
0.030745717 0.091031432 0.63300002
0.031900954 0.090887628 0.63200003
0.033052385 0.090743817 0.63100004
0.034308575 0.090887628 0.63200003
0.035456192 0.090743817 0.63100004
0.036658097 0.090743817 0.63100004
0.037860002 0.090743817 0.63100004
0.038938098 0.090456195 0.62900001
0.040263813 0.090743817 0.63100004
0.041465718 0.090743817 0.63100004
0.042735241 0.090887628 0.63200003
0.044008575 0.091031432 0.63300002
0.045214288 0.091031432 0.63300002
0.046420004 0.091031432 0.63300002
0.047625717 0.091031432 0.63300002
0.048831433 0.091031432 0.63300002
0.050037146 0.091031432 0.63300002
0.051242862 0.091031432 0.63300002
0.052448574 0.091031432 0.63300002
0.053654291 0.091031432 0.63300002
0.054860003 0.091031432 0.63300002
0.05606572 0.091031432 0.63300002
0.057271432 0.091031432 0.63300002
0.058477148 0.091031432 0.63300002
0.059682861 0.091031432 0.63300002
0.060888577 0.091031432 0.63300002
-0.011436191 0.092091434 0.63200003
-0.010232382 0.092091434 0.63200003
-0.0090285717 0.092091434 0.63200003
-0.0078247627 0.092091434 0.63200003
-0.0066104764 0.091945723 0.63100004
-0.005417143 0.092091434 0.63200003
-0.0041933334 0.091654293 0.62900001
-0.0029857145 0.091362864 0.62700003
-0.0017885716 0.091217145 0.62600005
-0.00059619051 0.091217145 0.62600005
0.00059523812 0.091071434 0.625
0.0017885716 0.091217145 0.62600005
0.0029809526 0.091217145 0.62600005
0.0041733338 0.091217145 0.62600005
0.005357143 0.091071434 0.625
0.0065580956 0.091217145 0.62600005
0.0077752387 0.091508575 0.62800002
0.0089714294 0.091508575 0.62800002
0.01018381 0.091654293 0.62900001
0.011381906 0.091654293 0.62900001
0.012620001 0.091945723 0.63100004
0.01384381 0.092091434 0.63200003
0.01504762 0.092091434 0.63200003
0.01625143 0.092091434 0.63200003
0.017455239 0.092091434 0.63200003
0.018629525 0.091945723 0.63100004
0.019768573 0.091654293 0.62900001
0.020966668 0.091654293 0.62900001
0.022235239 0.091945723 0.63100004
0.023437144 0.091945723 0.63100004
0.024678096 0.092091434 0.63200003
0.025881907 0.092091434 0.63200003
0.027085716 0.092091434 0.63200003
0.028289525 0.092091434 0.63200003
0.029446669 0.091945723 0.63100004
0.030648574 0.091945723 0.63100004
0.03185048 0.091945723 0.63100004
0.032947622 0.091654293 0.62900001
0.034254286 0.091945723 0.63100004
0.035343811 0.091654293 0.62900001
0.036541909 0.091654293 0.62900001
0.037740003 0.091654293 0.62900001
0.038938098 0.091654293 0.62900001
0.040136192 0.091654293 0.62900001
0.041465718 0.091945723 0.63100004
0.042667624 0.091945723 0.63100004
0.043869525 0.091945723 0.63100004
0.045071431 0.091945723 0.63100004
0.046273336 0.091945723 0.63100004
0.047475241 0.091945723 0.63100004
0.048677146 0.091945723 0.63100004
0.049958099 0.092091434 0.63200003
0.051161908 0.092091434 0.63200003
0.052282862 0.091945723 0.63100004
0.053569525 0.092091434 0.63200003
0.054773338 0.092091434 0.63200003
0.05606572 0.092237152 0.63300002
0.057271432 0.092237152 0.63300002
0.058384765 0.092091434 0.63200003
0.059682861 0.092237152 0.63300002
0.060888577 0.092237152 0.63300002
0.06209429 0.092237152 0.63300002
-0.013778096 0.092852384 0.62900001
-0.012580001 0.092852384 0.62900001
-0.01136381 0.092704765 0.62800002
-0.01016762 0.092704765 0.62800002
-0.0089714294 0.092704765 0.62800002
-0.0077752387 0.092704765 0.62800002
-0.006568572 0.092557147 0.62700003
-0.005357143 0.09226191 0.625
-0.0041666669 0.09226191 0.625
-0.0029761908 0.09226191 0.625
-0.0017857144 0.09226191 0.625
-0.00059523812 0.09226191 0.625
0.00059428578 0.092114292 0.62400001
0.0017857144 0.09226191 0.625
0.0029761908 0.09226191 0.625
0.0041666669 0.09226191 0.625
0.005357143 0.09226191 0.625
0.0065476196 0.09226191 0.625
0.0077380957 0.09226191 0.625
0.0089285718 0.09226191 0.625
0.010135239 0.092409529 0.62600005
0.01132762 0.092409529 0.62600005
0.012520001 0.092409529 0.62600005
0.013734287 0.092557147 0.62700003
0.014952382 0.092704765 0.62800002
0.016122859 0.092557147 0.62700003
0.017344764 0.092704765 0.62800002
0.018481907 0.092409529 0.62600005
0.019705715 0.092557147 0.62700003
0.020900002 0.092557147 0.62700003
0.022059049 0.092409529 0.62600005
0.023251429 0.092409529 0.62600005
0.024443811 0.092409529 0.62600005
0.025636192 0.092409529 0.62600005
0.02687143 0.092557147 0.62700003
0.028110478 0.092704765 0.62800002
0.029260002 0.092557147 0.62700003
0.030454287 0.092557147 0.62700003
0.031598099 0.092409529 0.62600005
0.032790478 0.092409529 0.62600005
0.033928573 0.09226191 0.625
0.035119049 0.09226191 0.625
0.036425717 0.092557147 0.62700003
0.037620004 0.092557147 0.62700003
0.038814288 0.092557147 0.62700003
0.040008575 0.092557147 0.62700003
0.041202858 0.092557147 0.62700003
0.042397145 0.092557147 0.62700003
0.043591432 0.092557147 0.62700003
0.044785716 0.092557147 0.62700003
0.045980003 0.092557147 0.62700003
0.04717429 0.092557147 0.62700003
0.048368573 0.092557147 0.62700003
0.04956286 0.092557147 0.62700003
0.050838098 0.092704765 0.62800002
0.052034289 0.092704765 0.62800002
0.053230479 0.092704765 0.62800002
0.054513335 0.092852384 0.62900001
0.055711433 0.092852384 0.62900001
0.05709048 0.093147628 0.63100004
0.058107622 0.092852384 0.62900001
0.05930572 0.092852384 0.62900001
0.060696196 0.093147628 0.63100004
-0.014952382 0.093900956 0.62800002
-0.013778096 0.094050482 0.62900001
-0.012580001 0.094050482 0.62900001
-0.01136381 0.093900956 0.62800002
-0.01016762 0.093900956 0.62800002
-0.0089428574 0.093601912 0.62600005
-0.0077628577 0.093751438 0.62700003
-0.0065580956 0.093601912 0.62600005
-0.005357143 0.093452387 0.625
-0.0041666669 0.093452387 0.625
-0.0029761908 0.093452387 0.625
-0.0017857144 0.093452387 0.625
-0.00059523812 0.093452387 0.625
0.00059428578 0.093302861 0.62400001
0.0017828572 0.093302861 0.62400001
0.0029714287 0.093302861 0.62400001
0.0041600005 0.093302861 0.62400001
0.0053485716 0.093302861 0.62400001
0.0065371431 0.093302861 0.62400001
0.0077257147 0.093302861 0.62400001
0.0089142863 0.093302861 0.62400001
0.010119048 0.093452387 0.625
0.011309525 0.093452387 0.625
0.012500001 0.093452387 0.625
0.013690477 0.093452387 0.625
0.014928573 0.093751438 0.62700003
0.016097143 0.093601912 0.62600005
0.017289525 0.093601912 0.62600005
0.018452382 0.093452387 0.625
0.019642858 0.093452387 0.625
0.020833334 0.093452387 0.625
0.02202381 0.093452387 0.625
0.023214288 0.093452387 0.625
0.024404764 0.093452387 0.625
0.02559524 0.093452387 0.625
0.026785716 0.093452387 0.625
0.028020954 0.093601912 0.62600005
0.029120002 0.093302861 0.62400001
0.030308573 0.093302861 0.62400001
0.031497143 0.093302861 0.62400001
0.032633334 0.093153343 0.62300003
0.033765718 0.093003817 0.62200004
0.03495048 0.093003817 0.62200004
0.036135241 0.093003817 0.62200004
0.037500001 0.093452387 0.625
0.038690478 0.093452387 0.625
0.039880954 0.093452387 0.625
0.04107143 0.093452387 0.625
0.042329527 0.093601912 0.62600005
0.043521907 0.093601912 0.62600005
0.044714287 0.093601912 0.62600005
0.045833338 0.093452387 0.625
0.04709905 0.093601912 0.62600005
0.048291434 0.093601912 0.62600005
0.049483813 0.093601912 0.62600005
0.050757147 0.093751438 0.62700003
0.051951431 0.093751438 0.62700003
0.053145718 0.093751438 0.62700003
0.05442667 0.093900956 0.62800002
0.055622861 0.093900956 0.62800002
0.056909528 0.094050482 0.62900001
0.058015242 0.093900956 0.62800002
0.059211433 0.093900956 0.62800002
0.060503814 0.094050482 0.62900001
-0.014952382 0.095097147 0.62800002
-0.013778096 0.09524858 0.62900001
-0.012560001 0.095097147 0.62800002
-0.01136381 0.095097147 0.62800002
-0.010135239 0.094794288 0.62600005
-0.0089285718 0.094642863 0.625
-0.0077504767 0.094794288 0.62600005
-0.0065476196 0.094642863 0.625
-0.0053485716 0.094491437 0.62400001
-0.0041600005 0.094491437 0.62400001
-0.0029714287 0.094491437 0.62400001
-0.0017828572 0.094491437 0.62400001
-0.00059428578 0.094491437 0.62400001
0.00059428578 0.094491437 0.62400001
0.0017828572 0.094491437 0.62400001
0.0029714287 0.094491437 0.62400001
0.0041600005 0.094491437 0.62400001
0.0053400001 0.094340004 0.62300003
0.0065266672 0.094340004 0.62300003
0.0077257147 0.094491437 0.62400001
0.0089000007 0.094340004 0.62300003
0.010102858 0.094491437 0.62400001
0.011291429 0.094491437 0.62400001
0.012480001 0.094491437 0.62400001
0.013668573 0.094491437 0.62400001
0.014880953 0.094642863 0.625
0.016071429 0.094642863 0.625
0.017261906 0.094642863 0.625
0.018452382 0.094642863 0.625
0.019611429 0.094491437 0.62400001
0.020800002 0.094491437 0.62400001
0.021988573 0.094491437 0.62400001
0.023177145 0.094491437 0.62400001
0.024365716 0.094491437 0.62400001
0.025554288 0.094491437 0.62400001
0.026742859 0.094491437 0.62400001
0.027931431 0.094491437 0.62400001
0.029073335 0.094340004 0.62300003
0.030260002 0.094340004 0.62300003
0.031547621 0.094642863 0.625
0.032580953 0.094188578 0.62200004
0.033657145 0.09388572 0.62
0.034838099 0.09388572 0.62
0.03601905 0.09388572 0.62
0.037320003 0.094188578 0.62200004
0.038566668 0.094340004 0.62300003
0.039753336 0.094340004 0.62300003
0.041005716 0.094491437 0.62400001
0.042194288 0.094491437 0.62400001
0.043452382 0.094642863 0.625
0.044571433 0.094491437 0.62400001
0.045760002 0.094491437 0.62400001
0.047023814 0.094642863 0.625
0.04821429 0.094642863 0.625
0.049325716 0.094491437 0.62400001
0.050676193 0.094794288 0.62600005
0.051951431 0.094945721 0.62700003
0.053060956 0.094794288 0.62600005
0.054340005 0.094945721 0.62700003
0.055534288 0.094945721 0.62700003
0.056819052 0.095097147 0.62800002
0.058015242 0.095097147 0.62800002
0.059117146 0.094945721 0.62700003
0.060407624 0.095097147 0.62800002
-0.011345715 0.096140005 0.62700003
-0.010119048 0.095833339 0.625
-0.0089142863 0.095680006 0.62400001
-0.0077380957 0.095833339 0.625
-0.0065371431 0.095680006 0.62400001
-0.0053400001 0.095526673 0.62300003
-0.0041600005 0.095680006 0.62400001
-0.0029666668 0.095526673 0.62300003
-0.0017828572 0.095680006 0.62400001
-0.00059428578 0.095680006 0.62400001
0.00059428578 0.095680006 0.62400001
0.0017828572 0.095680006 0.62400001
0.0029666668 0.095526673 0.62300003
0.0041533336 0.095526673 0.62300003
0.0053400001 0.095526673 0.62300003
0.0065161907 0.09537334 0.62200004
0.0077133337 0.095526673 0.62300003
0.0088857152 0.09537334 0.62200004
0.010070477 0.09537334 0.62200004
0.011291429 0.095680006 0.62400001
0.012460001 0.095526673 0.62300003
0.013624763 0.09537334 0.62200004
0.014809525 0.09537334 0.62200004
0.016045716 0.095680006 0.62400001
0.017206667 0.095526673 0.62300003
0.018422859 0.095680006 0.62400001
0.019580001 0.095526673 0.62300003
0.020766668 0.095526673 0.62300003
0.021953335 0.095526673 0.62300003
0.023140002 0.095526673 0.62300003
0.024326669 0.095526673 0.62300003
0.025513334 0.095526673 0.62300003
0.026700001 0.095526673 0.62300003
0.027886668 0.095526673 0.62300003
0.029026669 0.09537334 0.62200004
0.03021143 0.09537334 0.62200004
0.03129524 0.095066674 0.62
0.032476194 0.095066674 0.62
0.033657145 0.095066674 0.62
0.034838099 0.095066674 0.62
0.03601905 0.095066674 0.62
0.037200004 0.095066674 0.62
0.038504764 0.09537334 0.62200004
0.039689526 0.09537334 0.62200004
0.040874287 0.09537334 0.62200004
0.04212667 0.095526673 0.62300003
0.043313336 0.095526673 0.62300003
0.044500005 0.095526673 0.62300003
0.045613337 0.09537334 0.62200004
0.046873335 0.095526673 0.62300003
0.048137147 0.095680006 0.62400001
0.049167622 0.09537334 0.62200004
0.050514288 0.095680006 0.62400001
0.051785719 0.095833339 0.625
0.052976195 0.095833339 0.625
0.054166671 0.095833339 0.625
0.055357147 0.095833339 0.625
0.056638099 0.095986672 0.62600005
0.057830479 0.095986672 0.62600005
0.059022862 0.095986672 0.62600005
0.060215242 0.095986672 0.62600005
-0.010102858 0.096868575 0.62400001
-0.0089000007 0.096713342 0.62300003
-0.0077009527 0.096558101 0.62200004
-0.0065266672 0.096713342 0.62300003
-0.0053314287 0.096558101 0.62200004
-0.0041533336 0.096713342 0.62300003
-0.0029666668 0.096713342 0.62300003
-0.0017800002 0.096713342 0.62300003
-0.00059333339 0.096713342 0.62300003
0.00059333339 0.096713342 0.62300003
0.0017800002 0.096713342 0.62300003
0.002961905 0.096558101 0.62200004
0.0041466667 0.096558101 0.62200004
0.0053314287 0.096558101 0.62200004
0.0065161907 0.096558101 0.62200004
0.0077009527 0.096558101 0.62200004
0.0088571431 0.096247628 0.62
0.010038096 0.096247628 0.62
0.011255239 0.096558101 0.62200004
0.012440001 0.096558101 0.62200004
0.013580954 0.096247628 0.62
0.014833334 0.096713342 0.62300003
0.016045716 0.096868575 0.62400001
0.017206667 0.096713342 0.62300003
0.018393334 0.096713342 0.62300003
0.019580001 0.096713342 0.62300003
0.020666668 0.096247628 0.62
0.021953335 0.096713342 0.62300003
0.023102859 0.096558101 0.62200004
0.024287621 0.096558101 0.62200004
0.025472382 0.096558101 0.62200004
0.026657145 0.096558101 0.62200004
0.027752383 0.096247628 0.62
0.028933335 0.096247628 0.62
0.030114288 0.096247628 0.62
0.03129524 0.096247628 0.62
0.032423813 0.096092388 0.61900002
0.03360286 0.096092388 0.61900002
0.034781907 0.096092388 0.61900002
0.035960954 0.096092388 0.61900002
0.037200004 0.096247628 0.62
0.038380954 0.096247628 0.62
0.039561909 0.096247628 0.62
0.040874287 0.096558101 0.62200004
0.042059049 0.096558101 0.62200004
0.043104764 0.096247628 0.62
0.044428576 0.096558101 0.62200004
0.045466669 0.096247628 0.62
0.046798099 0.096558101 0.62200004
0.04798286 0.096558101 0.62200004
0.049009528 0.096247628 0.62
0.050190479 0.096247628 0.62
0.051537145 0.096558101 0.62200004
0.052891433 0.096868575 0.62400001
0.053993337 0.096713342 0.62300003
0.055091433 0.096558101 0.62200004
0.056276195 0.096558101 0.62200004
0.057738099 0.097023815 0.625
0.058834288 0.096868575 0.62400001
0.060022861 0.096868575 0.62400001
0.061211433 0.096868575 0.62400001
-0.010070477 0.097742863 0.62200004
-0.0088571431 0.097428575 0.62
-0.0076761912 0.097428575 0.62
-0.0064952387 0.097428575 0.62
-0.0053057144 0.097271435 0.61900002
-0.0041333335 0.097428575 0.62
-0.002952381 0.097428575 0.62
-0.0017714287 0.097428575 0.62
-0.00059047621 0.097428575 0.62
0.00059238099 0.097742863 0.62200004
0.001777143 0.097742863 0.62200004
0.002952381 0.097428575 0.62
0.0041333335 0.097428575 0.62
0.0053142859 0.097428575 0.62
0.0064847623 0.097271435 0.61900002
0.0076638102 0.097271435 0.61900002
0.008828572 0.097114295 0.61800003
0.010021905 0.097271435 0.61900002
0.011219048 0.097428575 0.62
0.0124 0.097428575 0.62
0.013559048 0.097271435 0.61900002
0.014666667 0.096800007 0.61600006
0.015917145 0.097271435 0.61900002
0.017123811 0.097428575 0.62
0.018275239 0.097271435 0.61900002
0.019454287 0.097271435 0.61900002
0.020600002 0.097114295 0.61800003
0.021847621 0.097428575 0.62
0.023028573 0.097428575 0.62
0.024209525 0.097428575 0.62
0.025390478 0.097428575 0.62
0.02657143 0.097428575 0.62
0.027707621 0.097271435 0.61900002
0.028886668 0.097271435 0.61900002
0.030065717 0.097271435 0.61900002
0.031244764 0.097271435 0.61900002
0.032423813 0.097271435 0.61900002
0.033548575 0.097114295 0.61800003
0.034781907 0.097271435 0.61900002
0.035902858 0.097114295 0.61800003
0.037140001 0.097271435 0.61900002
0.038319051 0.097271435 0.61900002
0.039498098 0.097271435 0.61900002
0.040742859 0.097428575 0.62
0.041923814 0.097428575 0.62
0.043035243 0.097271435 0.61900002
0.044285718 0.097428575 0.62
0.045466669 0.097428575 0.62
0.046647623 0.097428575 0.62
0.047828574 0.097428575 0.62
0.048930481 0.097271435 0.61900002
0.050109528 0.097271435 0.61900002
0.051288575 0.097271435 0.61900002
0.052552383 0.097428575 0.62
0.053906672 0.097742863 0.62200004
0.054914288 0.097428575 0.62
0.056004766 0.097271435 0.61900002
0.057645719 0.098057151 0.62400001
0.058740005 0.097900003 0.62300003
0.05992667 0.097900003 0.62300003
-0.010021905 0.098450482 0.61900002
-0.008828572 0.098291434 0.61800003
-0.0076514292 0.098291434 0.61800003
-0.0064742863 0.098291434 0.61800003
-0.0052885716 0.098132387 0.61700004
-0.0041200002 0.098291434 0.61800003
-0.0029476192 0.098450482 0.61900002
-0.0017685716 0.098450482 0.61900002
-0.00058857148 0.098291434 0.61800003
0.00058952387 0.098450482 0.61900002
0.0017685716 0.098450482 0.61900002
0.0029476192 0.098450482 0.61900002
0.0041200002 0.098291434 0.61800003
0.005297143 0.098291434 0.61800003
0.0064742863 0.098291434 0.61800003
0.0076390482 0.098132387 0.61700004
0.0088142864 0.098132387 0.61700004
0.010005715 0.098291434 0.61800003
0.011200953 0.098450482 0.61900002
0.012360001 0.098291434 0.61800003
0.013493334 0.097973339 0.61600006
0.014690477 0.098132387 0.61700004
0.015917145 0.098450482 0.61900002
0.017040953 0.098132387 0.61700004
0.018216191 0.098132387 0.61700004
0.019391431 0.098132387 0.61700004
0.020566668 0.098132387 0.61700004
0.021812383 0.098450482 0.61900002
0.02299143 0.098450482 0.61900002
0.024170477 0.098450482 0.61900002
0.025390478 0.098609529 0.62
0.02657143 0.098609529 0.62
0.027662858 0.098291434 0.61800003
0.028886668 0.098450482 0.61900002
0.030065717 0.098450482 0.61900002
0.031194288 0.098291434 0.61800003
0.032371432 0.098291434 0.61800003
0.033494286 0.098132387 0.61700004
0.034725718 0.098291434 0.61800003
0.035844766 0.098132387 0.61700004
0.037080001 0.098291434 0.61800003
0.038257144 0.098291434 0.61800003
0.039498098 0.098450482 0.61900002
0.040677145 0.098450482 0.61900002
0.041856192 0.098450482 0.61900002
0.043035243 0.098450482 0.61900002
0.04421429 0.098450482 0.61900002
0.045393337 0.098450482 0.61900002
0.046572383 0.098450482 0.61900002
0.04775143 0.098450482 0.61900002
0.04885143 0.098291434 0.61800003
0.050028574 0.098291434 0.61800003
0.051205717 0.098291434 0.61800003
0.05238286 0.098291434 0.61800003
0.053646669 0.098450482 0.61900002
0.054737147 0.098291434 0.61800003
0.05591429 0.098291434 0.61800003
0.057091434 0.098291434 0.61800003
0.058268577 0.098291434 0.61800003
0.059445716 0.098291434 0.61800003
0.060819052 0.098609529 0.62
-0.010005715 0.099468581 0.61800003
-0.0088142864 0.099307626 0.61700004
-0.0076390482 0.099307626 0.61700004
-0.0064638099 0.099307626 0.61700004
-0.0052885716 0.099307626 0.61700004
-0.0041133338 0.099307626 0.61700004
-0.0029380955 0.099307626 0.61700004
-0.0017628573 0.099307626 0.61700004
-0.00058761908 0.099307626 0.61700004
0.00058857148 0.099468581 0.61800003
0.0017628573 0.099307626 0.61700004
0.0029380955 0.099307626 0.61700004
0.0041133338 0.099307626 0.61700004
0.0052800002 0.099146672 0.61600006
0.0064533339 0.099146672 0.61600006
0.0076390482 0.099307626 0.61700004
0.0088142864 0.099307626 0.61700004
0.010005715 0.099468581 0.61800003
0.011182858 0.099468581 0.61800003
0.012340001 0.099307626 0.61700004
0.013493334 0.099146672 0.61600006
0.014666667 0.099146672 0.61600006
0.015840001 0.099146672 0.61600006
0.017013334 0.099146672 0.61600006
0.018186668 0.099146672 0.61600006
0.019360002 0.099146672 0.61600006
0.020533334 0.099146672 0.61600006
0.021706669 0.099146672 0.61600006
0.022917144 0.099307626 0.61700004
0.02413143 0.099468581 0.61800003
0.025349526 0.099629529 0.61900002
0.026528573 0.099629529 0.61900002
0.027662858 0.099468581 0.61800003
0.028840002 0.099468581 0.61800003
0.030017145 0.099468581 0.61800003
0.031143812 0.099307626 0.61700004
0.03231905 0.099307626 0.61700004
0.033494286 0.099307626 0.61700004
0.034669526 0.099307626 0.61700004
0.035844766 0.099307626 0.61700004
0.037080001 0.099468581 0.61800003
0.038257144 0.099468581 0.61800003
0.039434288 0.099468581 0.61800003
0.040677145 0.099629529 0.61900002
0.041856192 0.099629529 0.61900002
0.043035243 0.099629529 0.61900002
0.04421429 0.099629529 0.61900002
0.045320004 0.099468581 0.61800003
0.046497148 0.099468581 0.61800003
0.047674287 0.099468581 0.61800003
0.048772383 0.099307626 0.61700004
0.049947623 0.099307626 0.61700004
0.051040005 0.099146672 0.61600006
0.052298099 0.099307626 0.61700004
0.053473338 0.099307626 0.61700004
0.054560002 0.099146672 0.61600006
0.055733338 0.099146672 0.61600006
0.05690667 0.099146672 0.61600006
0.058080003 0.099146672 0.61600006
0.059157148 0.098985724 0.61500001
0.060230479 0.098824769 0.61400002
-0.011146667 0.10032 0.61600006
-0.0099733341 0.10032 0.61600006
-0.0088000009 0.10032 0.61600006
-0.0076266672 0.10032 0.61600006
-0.0064533339 0.10032 0.61600006
-0.0052800002 0.10032 0.61600006
-0.0041066669 0.10032 0.61600006
-0.0029333336 0.10032 0.61600006
-0.0017600001 0.10032 0.61600006
-0.00058666669 0.10032 0.61600006
0.00058666669 0.10032 0.61600006
0.0017600001 0.10032 0.61600006
0.0029333336 0.10032 0.61600006
0.0041066669 0.10032 0.61600006
0.0052800002 0.10032 0.61600006
0.0064533339 0.10032 0.61600006
0.0076266672 0.10032 0.61600006
0.0088000009 0.10032 0.61600006
0.0099895243 0.10048287 0.61700004
0.011164763 0.10048287 0.61700004
0.012300001 0.10015715 0.61500001
0.013471429 0.10015715 0.61500001
0.014642858 0.10015715 0.61500001
0.015814288 0.10015715 0.61500001
0.016985716 0.10015715 0.61500001
0.018157143 0.10015715 0.61500001
0.019328572 0.10015715 0.61500001
0.020500001 0.10015715 0.61500001
0.021671429 0.10015715 0.61500001
0.022880001 0.10032 0.61600006
0.024053335 0.10032 0.61600006
0.025267622 0.10048287 0.61700004
0.026485717 0.10064572 0.61800003
0.027573336 0.10032 0.61600006
0.028793335 0.10048287 0.61700004
0.029968573 0.10048287 0.61700004
0.031143812 0.10048287 0.61700004
0.03231905 0.10048287 0.61700004
0.033440001 0.10032 0.61600006
0.034669526 0.10048287 0.61700004
0.03578667 0.10032 0.61600006
0.037080001 0.10064572 0.61800003
0.038195241 0.10048287 0.61700004
0.039434288 0.10064572 0.61800003
0.040611431 0.10064572 0.61800003
0.041788574 0.10064572 0.61800003
0.042965718 0.10064572 0.61800003
0.044142861 0.10064572 0.61800003
0.045246668 0.10048287 0.61700004
0.046421908 0.10048287 0.61700004
0.047520004 0.10032 0.61600006
0.048693337 0.10032 0.61600006
0.049785718 0.10015715 0.61500001
0.050957147 0.10015715 0.61500001
0.052128576 0.10015715 0.61500001
0.053300004 0.10015715 0.61500001
0.054471433 0.10015715 0.61500001
0.055642862 0.10015715 0.61500001
0.056814291 0.10015715 0.61500001
0.057891432 0.099994294 0.61400002
0.059060957 0.099994294 0.61400002
0.060230479 0.099994294 0.61400002
0.061500005 0.10015715 0.61500001
-0.011128572 0.10132858 0.61500001
-0.0099571431 0.10132858 0.61500001
-0.0088000009 0.10149334 0.61600006
-0.0076266672 0.10149334 0.61600006
-0.0064428574 0.10132858 0.61500001
-0.0052714287 0.10132858 0.61500001
-0.0041000005 0.10132858 0.61500001
-0.0029333336 0.10149334 0.61600006
-0.0017571429 0.10132858 0.61500001
-0.0005857143 0.10132858 0.61500001
0.0005857143 0.10132858 0.61500001
0.0017571429 0.10132858 0.61500001
0.0029285715 0.10132858 0.61500001
0.0041000005 0.10132858 0.61500001
0.0052714287 0.10132858 0.61500001
0.0064323815 0.10116382 0.61400002
0.0076142862 0.10132858 0.61500001
0.0087857153 0.10132858 0.61500001
0.009940953 0.10116382 0.61400002
0.011128572 0.10132858 0.61500001
0.012300001 0.10132858 0.61500001
0.013471429 0.10132858 0.61500001
0.014642858 0.10132858 0.61500001
0.015814288 0.10132858 0.61500001
0.016985716 0.10132858 0.61500001
0.018157143 0.10132858 0.61500001
0.019328572 0.10132858 0.61500001
0.020466669 0.10116382 0.61400002
0.021600954 0.10099906 0.61300004
0.022805715 0.10116382 0.61400002
0.023936192 0.10099906 0.61300004
0.025103811 0.10099906 0.61300004
0.026400002 0.10149334 0.61600006
0.027483812 0.10116382 0.61400002
0.028653335 0.10116382 0.61400002
0.02987143 0.10132858 0.61500001
0.031093335 0.10149334 0.61600006
0.032266669 0.10149334 0.61600006
0.033385716 0.10132858 0.61500001
0.034557145 0.10132858 0.61500001
0.035728574 0.10132858 0.61500001
0.036900003 0.10132858 0.61500001
0.038133334 0.10149334 0.61600006
0.03930667 0.10149334 0.61600006
0.040480003 0.10149334 0.61600006
0.041653335 0.10149334 0.61600006
0.042826671 0.10149334 0.61600006
0.044000003 0.10149334 0.61600006
0.045173336 0.10149334 0.61600006
0.046346668 0.10149334 0.61600006
0.047442861 0.10132858 0.61500001
0.048535243 0.10116382 0.61400002
0.049704764 0.10116382 0.61400002
0.050874289 0.10116382 0.61400002
0.052043814 0.10116382 0.61400002
0.053213336 0.10116382 0.61400002
0.054382861 0.10116382 0.61400002
0.055552386 0.10116382 0.61400002
0.056629527 0.10099906 0.61300004
0.057797145 0.10099906 0.61300004
0.058964767 0.10099906 0.61300004
0.060132384 0.10099906 0.61300004
0.061400004 0.10116382 0.61400002
-0.011110477 0.10233334 0.61400002
-0.009940953 0.10233334 0.61400002
-0.0087714288 0.10233334 0.61400002
-0.0076019051 0.10233334 0.61400002
-0.0064323815 0.10233334 0.61400002
-0.0052542859 0.10216668 0.61300004
-0.0040866667 0.10216668 0.61300004
-0.0029190478 0.10216668 0.61300004
-0.0017485715 0.10200001 0.61200005
-0.00058380957 0.10216668 0.61300004
0.00058285717 0.10200001 0.61200005
0.0017485715 0.10200001 0.61200005
0.0029095239 0.10183334 0.611
0.0040600002 0.1015 0.60900003
0.0052200002 0.1015 0.60900003
0.0064009526 0.10183334 0.611
0.0075400006 0.1015 0.60900003
0.0087285722 0.10183334 0.611
0.0098600006 0.1015 0.60900003
0.011074287 0.10200001 0.61200005
0.012240001 0.10200001 0.61200005
0.01342762 0.10216668 0.61300004
0.014619049 0.10233334 0.61400002
0.015762858 0.10216668 0.61300004
0.016930478 0.10216668 0.61300004
0.018098097 0.10216668 0.61300004
0.019234287 0.10200001 0.61200005
0.020366669 0.10183334 0.611
0.021530477 0.10183334 0.611
0.022694288 0.10183334 0.611
0.023858096 0.10183334 0.611
0.025021907 0.10183334 0.611
0.026185716 0.10183334 0.611
0.027349526 0.10183334 0.611
0.028513335 0.10183334 0.611
0.029677145 0.10183334 0.611
0.030840954 0.10183334 0.611
0.032004762 0.10183334 0.611
0.033168573 0.10183334 0.611
0.034332383 0.10183334 0.611
0.035496194 0.10183334 0.611
0.036720004 0.10200001 0.61200005
0.037947621 0.10216668 0.61300004
0.039179049 0.10233334 0.61400002
0.04028286 0.10216668 0.61300004
0.041450478 0.10216668 0.61300004
0.0426181 0.10216668 0.61300004
0.04364286 0.10183334 0.611
0.044880003 0.10200001 0.61200005
0.046045717 0.10200001 0.61200005
0.047211431 0.10200001 0.61200005
0.048377145 0.10200001 0.61200005
0.049461909 0.10183334 0.611
0.050625719 0.10183334 0.611
0.051874287 0.10200001 0.61200005
0.053040005 0.10200001 0.61200005
0.054205719 0.10200001 0.61200005
0.055371433 0.10200001 0.61200005
0.056537148 0.10200001 0.61200005
0.057702862 0.10200001 0.61200005
0.058868576 0.10200001 0.61200005
0.06003429 0.10200001 0.61200005
0.061300006 0.10216668 0.61300004
-0.012260001 0.10333429 0.61300004
-0.011110477 0.10350286 0.61400002
-0.0099085718 0.10316572 0.61200005
-0.0087428577 0.10316572 0.61200005
-0.0075895241 0.10333429 0.61300004
-0.006411429 0.10316572 0.61200005
-0.0052457144 0.10316572 0.61200005
-0.0040800003 0.10316572 0.61200005
-0.0029095239 0.10299715 0.611
-0.0017400001 0.10266001 0.60900003
-0.00058190478 0.10299715 0.611
0.00058000005 0.10266001 0.60900003
0.0017400001 0.10266001 0.60900003
0.0028952383 0.10249144 0.60800004
0.0040533338 0.10249144 0.60800004
0.0052114287 0.10249144 0.60800004
0.0063695242 0.10249144 0.60800004
0.0075276196 0.10249144 0.60800004
0.0086857146 0.10249144 0.60800004
0.0098114293 0.10215429 0.60600001
0.010965715 0.10215429 0.60600001
0.012220001 0.10299715 0.611
0.01338381 0.10299715 0.611
0.01454762 0.10299715 0.611
0.01571143 0.10299715 0.611
0.016902858 0.10316572 0.61200005
0.018068573 0.10316572 0.61200005
0.019202858 0.10299715 0.611
0.020366669 0.10299715 0.611
0.021424763 0.10249144 0.60800004
0.022582859 0.10249144 0.60800004
0.023740955 0.10249144 0.60800004
0.024858097 0.10232286 0.60700005
0.026057145 0.10249144 0.60800004
