# .PCD v0.7 - Point Cloud Data file format
VERSION 0.7
FIELDS x y z
SIZE 4 4 4
TYPE F F F
COUNT 1 1 1
WIDTH 1373
HEIGHT 1
VIEWPOINT 0 0 0 1 0 0 0
POINTS 1373
DATA ascii
0.093940958 0.087636195 0.66200006
0.09520191 0.087636195 0.66200006
0.096462861 0.087636195 0.66200006
0.097723819 0.087636195 0.66200006
0.09898477 0.087636195 0.66200006
0.10009429 0.087503813 0.66100001
0.10120001 0.087371431 0.66000003
0.10245715 0.087371431 0.66000003
0.10340001 0.087106675 0.65800005
0.10465334 0.087106675 0.65800005
0.10590667 0.087106675 0.65800005
0.10699715 0.086974293 0.65700001
0.10824858 0.086974293 0.65700001
0.10950001 0.086974293 0.65700001
0.11075144 0.086974293 0.65700001
0.11200286 0.086974293 0.65700001
0.11308191 0.086841911 0.65600002
0.11450572 0.086974293 0.65700001
0.11575715 0.086974293 0.65700001
0.11683048 0.086841911 0.65600002
0.11808001 0.086841911 0.65600002
0.11932953 0.086841911 0.65600002
0.12057906 0.086841911 0.65600002
0.12201429 0.086974293 0.65700001
0.12326572 0.086974293 0.65700001
0.12470668 0.087106675 0.65800005
0.1265343 0.087503813 0.66100001
0.12798667 0.087636195 0.66200006
-0.078766674 0.09332858 0.69500005
-0.077442862 0.09332858 0.69500005
-0.07611905 0.09332858 0.69500005
-0.074795246 0.09332858 0.69500005
-0.073365718 0.093194291 0.69400001
-0.072043814 0.093194291 0.69400001
-0.070620008 0.093060009 0.69300002
-0.069400005 0.093194291 0.69400001
-0.067980006 0.093060009 0.69300002
-0.066660002 0.093060009 0.69300002
-0.065340005 0.093060009 0.69300002
-0.063835241 0.092791438 0.69100004
-0.062519051 0.092791438 0.69100004
-0.061202861 0.092791438 0.69100004
-0.059800003 0.092657149 0.69000006
-0.058485717 0.092657149 0.69000006
-0.057088576 0.09252286 0.68900001
-0.055776194 0.09252286 0.68900001
-0.054305717 0.092254288 0.68700004
-0.052997146 0.092254288 0.68700004
-0.051688574 0.092254288 0.68700004
-0.05030667 0.092120007 0.68600005
-0.049000002 0.092120007 0.68600005
-0.047554288 0.091851436 0.68400002
-0.046251431 0.091851436 0.68400002
-0.044948574 0.091851436 0.68400002
-0.043645717 0.091851436 0.68400002
-0.042280953 0.091717146 0.68300003
-0.040980004 0.091717146 0.68300003
-0.03967905 0.091717146 0.68300003
-0.038321909 0.091582865 0.68200004
-0.037022859 0.091582865 0.68200004
-0.035723813 0.091582865 0.68200004
-0.034424763 0.091582865 0.68200004
-0.033125717 0.091582865 0.68200004
-0.031826667 0.091582865 0.68200004
-0.030527622 0.091582865 0.68200004
-0.029228574 0.091582865 0.68200004
-0.027929526 0.091582865 0.68200004
-0.026630478 0.091582865 0.68200004
-0.02533143 0.091582865 0.68200004
-0.023961907 0.091314293 0.68000001
-0.022633335 0.091180004 0.67900002
-0.021308573 0.091045722 0.67800003
-0.020017143 0.091045722 0.67800003
-0.018725716 0.091045722 0.67800003
-0.017434286 0.091045722 0.67800003
-0.016142858 0.091045722 0.67800003
-0.01480762 0.090777151 0.67600006
-0.013520001 0.090777151 0.67600006
-0.012232382 0.090777151 0.67600006
-0.010944762 0.090777151 0.67600006
-0.0096428581 0.090642862 0.67500001
-0.008357143 0.090642862 0.67500001
-0.007060953 0.09050858 0.67400002
-0.0057771434 0.09050858 0.67400002
-0.0044933334 0.09050858 0.67400002
-0.0032095241 0.09050858 0.67400002
-0.0019257144 0.09050858 0.67400002
-0.00064190483 0.09050858 0.67400002
0.00064000004 0.090240009 0.67200005
0.0019200002 0.090240009 0.67200005
0.0032000002 0.090240009 0.67200005
0.0044800001 0.090240009 0.67200005
0.0057600006 0.090240009 0.67200005
0.0070400005 0.090240009 0.67200005
0.008320001 0.090240009 0.67200005
0.0096000005 0.090240009 0.67200005
0.010880001 0.090240009 0.67200005
0.01216 0.090240009 0.67200005
0.013420001 0.09010572 0.671
0.014698097 0.09010572 0.671
0.015976192 0.09010572 0.671
0.017228572 0.089971438 0.67000002
0.018504763 0.089971438 0.67000002
0.01975143 0.089837149 0.66900003
0.021025715 0.089837149 0.66900003
0.022300001 0.089837149 0.66900003
0.023574287 0.089837149 0.66900003
0.024848573 0.089837149 0.66900003
0.026122859 0.089837149 0.66900003
0.027397145 0.089837149 0.66900003
0.02867143 0.089837149 0.66900003
0.029856192 0.089568578 0.66700006
0.031126669 0.089568578 0.66700006
0.032397144 0.089568578 0.66700006
0.03366762 0.089568578 0.66700006
0.034938097 0.089568578 0.66700006
0.036317144 0.089837149 0.66900003
0.037591431 0.089837149 0.66900003
0.038865715 0.089837149 0.66900003
0.040020004 0.089568578 0.66700006
0.041290481 0.089568578 0.66700006
0.042560954 0.089568578 0.66700006
0.04383143 0.089568578 0.66700006
0.045101907 0.089568578 0.66700006
0.046372384 0.089568578 0.66700006
0.047642861 0.089568578 0.66700006
0.048913337 0.089568578 0.66700006
0.050183814 0.089568578 0.66700006
0.051454291 0.089568578 0.66700006
0.052645717 0.089434288 0.66600001
0.05391429 0.089434288 0.66600001
0.055100005 0.089300007 0.66500002
0.056451432 0.089434288 0.66600001
0.057633337 0.089300007 0.66500002
0.058900002 0.089300007 0.66500002
0.060257148 0.089434288 0.66600001
0.061525717 0.089434288 0.66600001
0.062700003 0.089300007 0.66500002
0.063966669 0.089300007 0.66500002
0.065037146 0.089031436 0.66300005
0.066300005 0.089031436 0.66300005
0.067562863 0.089031436 0.66300005
0.068825722 0.089031436 0.66300005
0.069982864 0.088897146 0.66200006
0.071243815 0.088897146 0.66200006
0.07261429 0.089031436 0.66300005
0.073765717 0.088897146 0.66200006
0.075140007 0.089031436 0.66300005
0.076402865 0.089031436 0.66300005
0.077665716 0.089031436 0.66300005
0.07880953 0.088897146 0.66200006
0.080191433 0.089031436 0.66300005
0.081454292 0.089031436 0.66300005
0.08271715 0.089031436 0.66300005
0.083980009 0.089031436 0.66300005
0.08524286 0.089031436 0.66300005
0.086505719 0.089031436 0.66300005
0.087503813 0.088762864 0.66100001
0.088897146 0.088897146 0.66200006
0.090158097 0.088897146 0.66200006
0.091419056 0.088897146 0.66200006
0.092680007 0.088897146 0.66200006
0.093940958 0.088897146 0.66200006
0.09520191 0.088897146 0.66200006
0.096462861 0.088897146 0.66200006
0.097723819 0.088897146 0.66200006
0.09898477 0.088897146 0.66200006
0.10024572 0.088897146 0.66200006
0.10135334 0.088762864 0.66100001
0.10245715 0.088628575 0.66000003
0.10371429 0.088628575 0.66000003
0.10465334 0.088360004 0.65800005
0.10590667 0.088360004 0.65800005
0.10716001 0.088360004 0.65800005
0.10824858 0.088225722 0.65700001
0.10950001 0.088225722 0.65700001
0.11075144 0.088225722 0.65700001
0.11200286 0.088225722 0.65700001
0.11325429 0.088225722 0.65700001
0.11450572 0.088225722 0.65700001
0.11575715 0.088225722 0.65700001
0.11700858 0.088225722 0.65700001
0.11826001 0.088225722 0.65700001
0.11951143 0.088225722 0.65700001
0.12094668 0.088360004 0.65800005
0.1222 0.088360004 0.65800005
0.12382858 0.088628575 0.66000003
0.12527524 0.088762864 0.66100001
0.12672572 0.088897146 0.66200006
0.12818001 0.089031436 0.66300005
-0.080320954 0.09492477 0.69700003
-0.078993335 0.09492477 0.69700003
-0.077665716 0.09492477 0.69700003
-0.07611905 0.094652385 0.69500005
-0.074795246 0.094652385 0.69500005
-0.073471434 0.094652385 0.69500005
-0.072043814 0.094516195 0.69400001
-0.070721909 0.094516195 0.69400001
-0.069400005 0.094516195 0.69400001
-0.068078101 0.094516195 0.69400001
-0.066756196 0.094516195 0.69400001
-0.065340005 0.094380006 0.69300002
-0.064020008 0.094380006 0.69300002
-0.062700003 0.094380006 0.69300002
-0.061202861 0.094107628 0.69100004
-0.059886672 0.094107628 0.69100004
-0.058485717 0.093971431 0.69000006
-0.057088576 0.093835242 0.68900001
-0.055776194 0.093835242 0.68900001
-0.054463815 0.093835242 0.68900001
-0.053151432 0.093835242 0.68900001
-0.051688574 0.093562864 0.68700004
-0.050380003 0.093562864 0.68700004
-0.049000002 0.093426675 0.68600005
-0.047693338 0.093426675 0.68600005
-0.04638667 0.093426675 0.68600005
-0.044948574 0.093154289 0.68400002
-0.043645717 0.093154289 0.68400002
-0.04234286 0.093154289 0.68400002
-0.041040003 0.093154289 0.68400002
-0.03967905 0.0930181 0.68300003
-0.038378097 0.0930181 0.68300003
-0.037077144 0.0930181 0.68300003
-0.035776194 0.0930181 0.68300003
-0.034475241 0.0930181 0.68300003
-0.033174288 0.0930181 0.68300003
-0.031826667 0.092881911 0.68200004
-0.030572383 0.0930181 0.68300003
-0.029228574 0.092881911 0.68200004
-0.027929526 0.092881911 0.68200004
-0.026630478 0.092881911 0.68200004
-0.02533143 0.092881911 0.68200004
-0.024032382 0.092881911 0.68200004
-0.022633335 0.092473343 0.67900002
-0.021340001 0.092473343 0.67900002
-0.020046668 0.092473343 0.67900002
-0.018753335 0.092473343 0.67900002
-0.017434286 0.092337146 0.67800003
-0.016142858 0.092337146 0.67800003
-0.01480762 0.092064768 0.67600006
-0.013560001 0.092337146 0.67800003
-0.012268572 0.092337146 0.67800003
-0.010977143 0.092337146 0.67800003
-0.0096571436 0.092064768 0.67600006
-0.008369524 0.092064768 0.67600006
-0.0070714289 0.091928579 0.67500001
-0.0057857148 0.091928579 0.67500001
-0.0044933334 0.09179239 0.67400002
-0.0032095241 0.09179239 0.67400002
-0.0019257144 0.09179239 0.67400002
-0.00064190483 0.09179239 0.67400002
0.00064190483 0.09179239 0.67400002
0.0019257144 0.09179239 0.67400002
0.0032095241 0.09179239 0.67400002
0.0044800001 0.091520004 0.67200005
0.0057600006 0.091520004 0.67200005
0.0070400005 0.091520004 0.67200005
0.008320001 0.091520004 0.67200005
0.0096000005 0.091520004 0.67200005
0.010880001 0.091520004 0.67200005
0.01216 0.091520004 0.67200005
0.013440001 0.091520004 0.67200005
0.014720001 0.091520004 0.67200005
0.016000001 0.091520004 0.67200005
0.017254287 0.091383815 0.671
0.018532382 0.091383815 0.671
0.019780954 0.091247626 0.67000002
0.021057144 0.091247626 0.67000002
0.022333335 0.091247626 0.67000002
0.023609525 0.091247626 0.67000002
0.024885716 0.091247626 0.67000002
0.026122859 0.091111436 0.66900003
0.027397145 0.091111436 0.66900003
0.02867143 0.091111436 0.66900003
0.029945716 0.091111436 0.66900003
0.031126669 0.090839051 0.66700006
0.032397144 0.090839051 0.66700006
0.033768572 0.091111436 0.66900003
0.03504286 0.091111436 0.66900003
0.036317144 0.091111436 0.66900003
0.037591431 0.091111436 0.66900003
0.038865715 0.091111436 0.66900003
0.040140003 0.091111436 0.66900003
0.041290481 0.090839051 0.66700006
0.042560954 0.090839051 0.66700006
0.04383143 0.090839051 0.66700006
0.045101907 0.090839051 0.66700006
0.046372384 0.090839051 0.66700006
0.047642861 0.090839051 0.66700006
0.048840005 0.090702862 0.66600001
0.050108574 0.090702862 0.66600001
0.051454291 0.090839051 0.66700006
0.052645717 0.090702862 0.66600001
0.05391429 0.090702862 0.66600001
0.055182859 0.090702862 0.66600001
0.056451432 0.090702862 0.66600001
0.057720006 0.090702862 0.66600001
0.058988575 0.090702862 0.66600001
0.060257148 0.090702862 0.66600001
0.061525717 0.090702862 0.66600001
0.06279429 0.090702862 0.66600001
0.063966669 0.090566672 0.66500002
0.065233335 0.090566672 0.66500002
0.066300005 0.090294294 0.66300005
0.067562863 0.090294294 0.66300005
0.068825722 0.090294294 0.66300005
0.070088573 0.090294294 0.66300005
0.071351431 0.090294294 0.66300005
0.07261429 0.090294294 0.66300005
0.073877148 0.090294294 0.66300005
0.075140007 0.090294294 0.66300005
0.076402865 0.090294294 0.66300005
0.077665716 0.090294294 0.66300005
0.078928575 0.090294294 0.66300005
0.080191433 0.090294294 0.66300005
0.081454292 0.090294294 0.66300005
0.08271715 0.090294294 0.66300005
0.084233336 0.090566672 0.66500002
0.085500002 0.090566672 0.66500002
0.086766675 0.090566672 0.66500002
0.087636195 0.090158097 0.66200006
0.088897146 0.090158097 0.66200006
0.090158097 0.090158097 0.66200006
0.091419056 0.090158097 0.66200006
0.092680007 0.090158097 0.66200006
0.093940958 0.090158097 0.66200006
0.09520191 0.090158097 0.66200006
0.096462861 0.090158097 0.66200006
0.097723819 0.090158097 0.66200006
0.09898477 0.090158097 0.66200006
0.10024572 0.090158097 0.66200006
0.10150667 0.090158097 0.66200006
0.10261239 0.090021908 0.66100001
0.10387143 0.090021908 0.66100001
0.10497144 0.089885719 0.66000003
0.10590667 0.089613341 0.65800005
0.10716001 0.089613341 0.65800005
0.10841334 0.089613341 0.65800005
0.10966668 0.089613341 0.65800005
0.11075144 0.089477152 0.65700001
0.11200286 0.089477152 0.65700001
0.11342667 0.089613341 0.65800005
0.11468001 0.089613341 0.65800005
0.11593334 0.089613341 0.65800005
0.11718667 0.089613341 0.65800005
0.11844001 0.089613341 0.65800005
0.12005715 0.089885719 0.66000003
0.1214981 0.090021908 0.66100001
0.12257144 0.089885719 0.66000003
0.1240162 0.090021908 0.66100001
0.12546477 0.090158097 0.66200006
0.12672572 0.090158097 0.66200006
0.12818001 0.090294294 0.66300005
-0.078993335 0.096252389 0.69700003
-0.077665716 0.096252389 0.69700003
-0.07611905 0.095976196 0.69500005
-0.074795246 0.095976196 0.69500005
-0.073471434 0.095976196 0.69500005
-0.072147623 0.095976196 0.69500005
-0.070721909 0.0958381 0.69400001
-0.069500007 0.095976196 0.69500005
-0.068078101 0.0958381 0.69400001
-0.066756196 0.0958381 0.69400001
-0.065434292 0.0958381 0.69400001
-0.064112388 0.0958381 0.69400001
-0.062700003 0.095700003 0.69300002
-0.061380003 0.095700003 0.69300002
-0.060060006 0.095700003 0.69300002
-0.058570482 0.095423818 0.69100004
-0.057171434 0.095285721 0.69000006
-0.055776194 0.095147625 0.68900001
-0.054463815 0.095147625 0.68900001
-0.053151432 0.095147625 0.68900001
-0.05183905 0.095147625 0.68900001
-0.050380003 0.094871432 0.68700004
-0.049000002 0.094733343 0.68600005
-0.047693338 0.094733343 0.68600005
-0.04638667 0.094733343 0.68600005
-0.044948574 0.09445715 0.68400002
-0.043645717 0.09445715 0.68400002
-0.04234286 0.09445715 0.68400002
-0.041040003 0.09445715 0.68400002
-0.039737146 0.09445715 0.68400002
-0.038434289 0.09445715 0.68400002
-0.037131432 0.09445715 0.68400002
-0.035828575 0.09445715 0.68400002
-0.034525715 0.09445715 0.68400002
-0.033174288 0.094319053 0.68300003
-0.031873334 0.094319053 0.68300003
-0.030572383 0.094319053 0.68300003
-0.029271431 0.094319053 0.68300003
-0.027970478 0.094319053 0.68300003
-0.026669526 0.094319053 0.68300003
-0.025368573 0.094319053 0.68300003
-0.02406762 0.094319053 0.68300003
-0.022666669 0.093904771 0.68000001
-0.021340001 0.093766674 0.67900002
-0.020046668 0.093766674 0.67900002
-0.018753335 0.093766674 0.67900002
-0.017460002 0.093766674 0.67900002
-0.016166668 0.093766674 0.67900002
-0.014851429 0.093628578 0.67800003
-0.013560001 0.093628578 0.67800003
-0.012268572 0.093628578 0.67800003
-0.010977143 0.093628578 0.67800003
-0.0096571436 0.093352385 0.67600006
-0.008369524 0.093352385 0.67600006
-0.0070819054 0.093352385 0.67600006
-0.0057942863 0.093352385 0.67600006
-0.0045000003 0.093214288 0.67500001
-0.0032142859 0.093214288 0.67500001
-0.0019285716 0.093214288 0.67500001
-0.00064190483 0.093076199 0.67400002
0.00064190483 0.093076199 0.67400002
0.0019257144 0.093076199 0.67400002
0.0032095241 0.093076199 0.67400002
0.0044933334 0.093076199 0.67400002
0.0057600006 0.092800006 0.67200005
0.007060953 0.093076199 0.67400002
0.008320001 0.092800006 0.67200005
0.0096000005 0.092800006 0.67200005
0.010912382 0.093076199 0.67400002
0.01216 0.092800006 0.67200005
0.013440001 0.092800006 0.67200005
0.014720001 0.092800006 0.67200005
0.016000001 0.092800006 0.67200005
0.017280001 0.092800006 0.67200005
0.018532382 0.09266191 0.671
0.019810477 0.09266191 0.671
0.021088572 0.09266191 0.671
0.022366669 0.09266191 0.671
0.023644764 0.09266191 0.671
0.024922859 0.09266191 0.671
0.026161907 0.092523813 0.67000002
0.027438097 0.092523813 0.67000002
0.028714288 0.092523813 0.67000002
0.029945716 0.092385717 0.66900003
0.031220002 0.092385717 0.66900003
0.032494288 0.092385717 0.66900003
0.033768572 0.092385717 0.66900003
0.03504286 0.092385717 0.66900003
0.036317144 0.092385717 0.66900003
0.037591431 0.092385717 0.66900003
0.038865715 0.092385717 0.66900003
0.040140003 0.092385717 0.66900003
0.041414287 0.092385717 0.66900003
0.042688575 0.092385717 0.66900003
0.04383143 0.092109531 0.66700006
0.045101907 0.092109531 0.66700006
0.046372384 0.092109531 0.66700006
0.047642861 0.092109531 0.66700006
0.048913337 0.092109531 0.66700006
0.050183814 0.092109531 0.66700006
0.051454291 0.092109531 0.66700006
0.052724764 0.092109531 0.66700006
0.05399524 0.092109531 0.66700006
0.055182859 0.091971435 0.66600001
0.056451432 0.091971435 0.66600001
0.057720006 0.091971435 0.66600001
0.058988575 0.091971435 0.66600001
0.060347624 0.092109531 0.66700006
0.061525717 0.091971435 0.66600001
0.06279429 0.091971435 0.66600001
0.064062864 0.091971435 0.66600001
0.065331429 0.091971435 0.66600001
0.066500001 0.091833338 0.66500002
0.067766674 0.091833338 0.66500002
0.06903334 0.091833338 0.66500002
0.070300005 0.091833338 0.66500002
0.071566671 0.091833338 0.66500002
0.072833337 0.091833338 0.66500002
0.074100003 0.091833338 0.66500002
0.075140007 0.091557153 0.66300005
0.076633342 0.091833338 0.66500002
0.077900007 0.091833338 0.66500002
0.079166673 0.091833338 0.66500002
0.080554292 0.091971435 0.66600001
0.081822865 0.091971435 0.66600001
0.08296667 0.091833338 0.66500002
0.084360003 0.091971435 0.66600001
0.085628577 0.091971435 0.66600001
0.08689715 0.091971435 0.66600001
0.088033341 0.091833338 0.66500002
0.089031436 0.091557153 0.66300005
0.090294294 0.091557153 0.66300005
0.091419056 0.091419056 0.66200006
0.092680007 0.091419056 0.66200006
0.093940958 0.091419056 0.66200006
0.09520191 0.091419056 0.66200006
0.096462861 0.091419056 0.66200006
0.097723819 0.091419056 0.66200006
0.09898477 0.091419056 0.66200006
0.10024572 0.091419056 0.66200006
0.10150667 0.091419056 0.66200006
0.10276762 0.091419056 0.66200006
0.10402858 0.091419056 0.66200006
0.10513049 0.09128096 0.66100001
0.10622858 0.091142863 0.66000003
0.10748572 0.091142863 0.66000003
0.10841334 0.09086667 0.65800005
0.10966668 0.09086667 0.65800005
0.11092 0.09086667 0.65800005
0.11217334 0.09086667 0.65800005
0.11377144 0.091142863 0.66000003
0.11502858 0.091142863 0.66000003
0.11628572 0.091142863 0.66000003
0.11754286 0.091142863 0.66000003
0.11880001 0.091142863 0.66000003
0.12023906 0.09128096 0.66100001
0.1214981 0.09128096 0.66100001
0.12275715 0.09128096 0.66100001
0.1240162 0.09128096 0.66100001
0.12546477 0.091419056 0.66200006
0.12672572 0.091419056 0.66200006
0.12818001 0.091557153 0.66300005
-0.078993335 0.097580008 0.69700003
-0.077665716 0.097580008 0.69700003
-0.076338097 0.097580008 0.69700003
-0.075010478 0.097580008 0.69700003
-0.07368286 0.097580008 0.69700003
-0.072147623 0.097300008 0.69500005
-0.070823811 0.097300008 0.69500005
-0.069500007 0.097300008 0.69500005
-0.068176195 0.097300008 0.69500005
-0.066756196 0.097160004 0.69400001
-0.065434292 0.097160004 0.69400001
-0.064112388 0.097160004 0.69400001
-0.062700003 0.097020008 0.69300002
-0.061380003 0.097020008 0.69300002
-0.060060006 0.097020008 0.69300002
-0.058570482 0.096740007 0.69100004
-0.057171434 0.096600004 0.69000006
-0.055857148 0.096600004 0.69000006
-0.054542862 0.096600004 0.69000006
-0.053151432 0.096460007 0.68900001
-0.05183905 0.096460007 0.68900001
-0.050380003 0.096180007 0.68700004
-0.049071431 0.096180007 0.68700004
-0.04776286 0.096180007 0.68700004
-0.04638667 0.096040003 0.68600005
-0.045080002 0.096040003 0.68600005
-0.043773334 0.096040003 0.68600005
-0.04246667 0.096040003 0.68600005
-0.041160002 0.096040003 0.68600005
-0.039737146 0.095760003 0.68400002
-0.038434289 0.095760003 0.68400002
-0.037240002 0.096040003 0.68600005
-0.035828575 0.095760003 0.68400002
-0.034525715 0.095760003 0.68400002
-0.033222858 0.095760003 0.68400002
-0.031920001 0.095760003 0.68400002
-0.030617144 0.095760003 0.68400002
-0.029314287 0.095760003 0.68400002
-0.02801143 0.095760003 0.68400002
-0.026708573 0.095760003 0.68400002
-0.025405716 0.095760003 0.68400002
-0.02406762 0.095620006 0.68300003
-0.022733334 0.09548001 0.68200004
-0.02137143 0.09520001 0.68000001
-0.020076191 0.09520001 0.68000001
-0.018780954 0.09520001 0.68000001
-0.017460002 0.095060006 0.67900002
-0.016166668 0.095060006 0.67900002
-0.014851429 0.094920009 0.67800003
-0.013560001 0.094920009 0.67800003
-0.012268572 0.094920009 0.67800003
-0.010977143 0.094920009 0.67800003
-0.0096571436 0.094640009 0.67600006
-0.008369524 0.094640009 0.67600006
-0.0070819054 0.094640009 0.67600006
-0.0057942863 0.094640009 0.67600006
-0.0045066671 0.094640009 0.67600006
-0.0032190478 0.094640009 0.67600006
-0.0019285716 0.094500005 0.67500001
-0.00064285717 0.094500005 0.67500001
0.00064285717 0.094500005 0.67500001
0.0019285716 0.094500005 0.67500001
0.0032095241 0.094360009 0.67400002
0.0044933334 0.094360009 0.67400002
0.0057771434 0.094360009 0.67400002
0.007060953 0.094360009 0.67400002
0.008344762 0.094360009 0.67400002
0.0096285725 0.094360009 0.67400002
0.010912382 0.094360009 0.67400002
0.012196192 0.094360009 0.67400002
0.013440001 0.094080009 0.67200005
0.014720001 0.094080009 0.67200005
0.016000001 0.094080009 0.67200005
0.017280001 0.094080009 0.67200005
0.018560002 0.094080009 0.67200005
0.019840002 0.094080009 0.67200005
0.021120001 0.094080009 0.67200005
0.022400001 0.094080009 0.67200005
0.023680001 0.094080009 0.67200005
0.024922859 0.093940005 0.671
0.026200954 0.093940005 0.671
0.027438097 0.093800008 0.67000002
0.028714288 0.093800008 0.67000002
0.029990477 0.093800008 0.67000002
0.031220002 0.093660004 0.66900003
0.032494288 0.093660004 0.66900003
0.03381905 0.093800008 0.67000002
0.03504286 0.093660004 0.66900003
0.036371432 0.093800008 0.67000002
0.03764762 0.093800008 0.67000002
0.038923811 0.093800008 0.67000002
0.040200002 0.093800008 0.67000002
0.041414287 0.093660004 0.66900003
0.042688575 0.093660004 0.66900003
0.043962859 0.093660004 0.66900003
0.045101907 0.093380004 0.66700006
0.046372384 0.093380004 0.66700006
0.047642861 0.093380004 0.66700006
0.048913337 0.093380004 0.66700006
0.050183814 0.093380004 0.66700006
0.051454291 0.093380004 0.66700006
0.052724764 0.093380004 0.66700006
0.05399524 0.093380004 0.66700006
0.055265717 0.093380004 0.66700006
0.056536194 0.093380004 0.66700006
0.057720006 0.093240008 0.66600001
0.059077147 0.093380004 0.66700006
0.060347624 0.093380004 0.66700006
0.061618101 0.093380004 0.66700006
0.06279429 0.093240008 0.66600001
0.064062864 0.093240008 0.66600001
0.065331429 0.093240008 0.66600001
0.066600002 0.093240008 0.66600001
0.067868575 0.093240008 0.66600001
0.06903334 0.093100004 0.66500002
0.070300005 0.093100004 0.66500002
0.071566671 0.093100004 0.66500002
0.07294286 0.093240008 0.66600001
0.074211434 0.093240008 0.66600001
0.075366668 0.093100004 0.66500002
0.076633342 0.093100004 0.66500002
0.078017145 0.093240008 0.66600001
0.079285719 0.093240008 0.66600001
0.080554292 0.093240008 0.66600001
0.081822865 0.093240008 0.66600001
0.08309143 0.093240008 0.66600001
0.084360003 0.093240008 0.66600001
0.085628577 0.093240008 0.66600001
0.08689715 0.093240008 0.66600001
0.088165723 0.093240008 0.66600001
0.089031436 0.092820004 0.66300005
0.090294294 0.092820004 0.66300005
0.091557153 0.092820004 0.66300005
0.092820004 0.092820004 0.66300005
0.094082862 0.092820004 0.66300005
0.09520191 0.092680007 0.66200006
0.096462861 0.092680007 0.66200006
0.097871438 0.092820004 0.66300005
0.099134289 0.092820004 0.66300005
0.10039715 0.092820004 0.66300005
0.10166001 0.092820004 0.66300005
0.10276762 0.092680007 0.66200006
0.10402858 0.092680007 0.66200006
0.10528953 0.092680007 0.66200006
0.10638953 0.092540003 0.66100001
0.10764858 0.092540003 0.66100001
0.10874286 0.092400007 0.66000003
0.11000001 0.092400007 0.66000003
0.11125715 0.092400007 0.66000003
0.11251429 0.092400007 0.66000003
0.11394382 0.092540003 0.66100001
0.11520287 0.092540003 0.66100001
0.11646191 0.092540003 0.66100001
0.11772096 0.092540003 0.66100001
0.11898001 0.092540003 0.66100001
0.12023906 0.092540003 0.66100001
0.12168191 0.092680007 0.66200006
0.12275715 0.092540003 0.66100001
0.12420382 0.092680007 0.66200006
0.1256543 0.092820004 0.66300005
0.12691715 0.092820004 0.66300005
0.12856668 0.093100004 0.66500002
-0.079106674 0.099049531 0.69800001
-0.077777147 0.099049531 0.69800001
-0.076338097 0.098907627 0.69700003
-0.075010478 0.098907627 0.69700003
-0.07368286 0.098907627 0.69700003
-0.072355241 0.098907627 0.69700003
-0.070823811 0.09862382 0.69500005
-0.069500007 0.09862382 0.69500005
-0.068176195 0.09862382 0.69500005
-0.066852383 0.09862382 0.69500005
-0.065528579 0.09862382 0.69500005
-0.064112388 0.098481908 0.69400001
-0.062790483 0.098481908 0.69400001
-0.061380003 0.098340005 0.69300002
-0.060060006 0.098340005 0.69300002
-0.058570482 0.098056197 0.69100004
-0.057254288 0.098056197 0.69100004
-0.055857148 0.097914293 0.69000006
-0.054542862 0.097914293 0.69000006
-0.053228576 0.097914293 0.69000006
-0.05191429 0.097914293 0.69000006
-0.050526671 0.09777239 0.68900001
-0.049071431 0.097488575 0.68700004
-0.04776286 0.097488575 0.68700004
-0.046454288 0.097488575 0.68700004
-0.045145717 0.097488575 0.68700004
-0.043773334 0.097346671 0.68600005
-0.04246667 0.097346671 0.68600005
-0.041160002 0.097346671 0.68600005
-0.039853334 0.097346671 0.68600005
-0.03854667 0.097346671 0.68600005
-0.037240002 0.097346671 0.68600005
-0.035933334 0.097346671 0.68600005
-0.03462667 0.097346671 0.68600005
-0.033222858 0.097062863 0.68400002
-0.031920001 0.097062863 0.68400002
-0.030617144 0.097062863 0.68400002
-0.029314287 0.097062863 0.68400002
-0.02801143 0.097062863 0.68400002
-0.026708573 0.097062863 0.68400002
-0.025405716 0.097062863 0.68400002
-0.024102859 0.097062863 0.68400002
-0.022733334 0.096779056 0.68200004
-0.021434287 0.096779056 0.68200004
-0.020076191 0.096495241 0.68000001
-0.018780954 0.096495241 0.68000001
-0.017460002 0.096353337 0.67900002
-0.016166668 0.096353337 0.67900002
-0.014873334 0.096353337 0.67900002
-0.013580001 0.096353337 0.67900002
-0.012268572 0.096211433 0.67800003
-0.010977143 0.096211433 0.67800003
-0.0096857147 0.096211433 0.67800003
-0.008394286 0.096211433 0.67800003
-0.0071028578 0.096211433 0.67800003
-0.0058114291 0.096211433 0.67800003
-0.0045200004 0.096211433 0.67800003
-0.0032285717 0.096211433 0.67800003
-0.0019314287 0.095927626 0.67600006
-0.00064380956 0.095927626 0.67600006
0.00064380956 0.095927626 0.67600006
0.0019285716 0.095785722 0.67500001
0.0032142859 0.095785722 0.67500001
0.0044933334 0.095643818 0.67400002
0.0057771434 0.095643818 0.67400002
0.007060953 0.095643818 0.67400002
0.008344762 0.095643818 0.67400002
0.0096285725 0.095643818 0.67400002
0.010912382 0.095643818 0.67400002
0.012196192 0.095643818 0.67400002
0.013480001 0.095643818 0.67400002
0.014763811 0.095643818 0.67400002
0.016000001 0.095360003 0.67200005
0.017280001 0.095360003 0.67200005
0.018560002 0.095360003 0.67200005
0.019840002 0.095360003 0.67200005
0.021120001 0.095360003 0.67200005
0.022400001 0.095360003 0.67200005
0.023680001 0.095360003 0.67200005
0.024922859 0.0952181 0.671
0.026240002 0.095360003 0.67200005
0.027479049 0.0952181 0.671
0.028757146 0.0952181 0.671
0.029990477 0.095076196 0.67000002
0.031266667 0.095076196 0.67000002
0.032542858 0.095076196 0.67000002
0.03381905 0.095076196 0.67000002
0.035095241 0.095076196 0.67000002
0.036371432 0.095076196 0.67000002
0.037703812 0.0952181 0.671
0.038981907 0.0952181 0.671
0.040200002 0.095076196 0.67000002
0.041414287 0.094934292 0.66900003
0.042688575 0.094934292 0.66900003
0.043962859 0.094934292 0.66900003
0.045101907 0.094650485 0.66700006
0.046372384 0.094650485 0.66700006
0.047642861 0.094650485 0.66700006
0.049060002 0.094934292 0.66900003
0.050183814 0.094650485 0.66700006
0.051608574 0.094934292 0.66900003
0.052882861 0.094934292 0.66900003
0.054157145 0.094934292 0.66900003
0.055265717 0.094650485 0.66700006
0.056536194 0.094650485 0.66700006
0.057806671 0.094650485 0.66700006
0.059077147 0.094650485 0.66700006
0.060347624 0.094650485 0.66700006
0.061618101 0.094650485 0.66700006
0.062888578 0.094650485 0.66700006
0.064062864 0.094508581 0.66600001
0.065429531 0.094650485 0.66700006
0.066600002 0.094508581 0.66600001
0.067868575 0.094508581 0.66600001
0.069137149 0.094508581 0.66600001
0.070405722 0.094508581 0.66600001
0.071674287 0.094508581 0.66600001
0.07294286 0.094508581 0.66600001
0.074211434 0.094508581 0.66600001
0.075480007 0.094508581 0.66600001
0.07674858 0.094508581 0.66600001
0.078017145 0.094508581 0.66600001
0.079285719 0.094508581 0.66600001
0.080554292 0.094508581 0.66600001
0.081700005 0.09436667 0.66500002
0.08309143 0.094508581 0.66600001
0.084233336 0.09436667 0.66500002
0.085500002 0.09436667 0.66500002
0.086766675 0.09436667 0.66500002
0.088165723 0.094508581 0.66600001
0.089300007 0.09436667 0.66500002
0.090294294 0.094082862 0.66300005
0.091557153 0.094082862 0.66300005
0.092820004 0.094082862 0.66300005
0.094082862 0.094082862 0.66300005
0.095345721 0.094082862 0.66300005
0.096608579 0.094082862 0.66300005
0.097871438 0.094082862 0.66300005
0.099134289 0.094082862 0.66300005
0.10039715 0.094082862 0.66300005
0.10166001 0.094082862 0.66300005
0.10292286 0.094082862 0.66300005
0.10418572 0.094082862 0.66300005
0.10528953 0.093940958 0.66200006
0.10655048 0.093940958 0.66200006
0.10781144 0.093940958 0.66200006
0.10890763 0.093799055 0.66100001
0.11016668 0.093799055 0.66100001
0.11142572 0.093799055 0.66100001
0.11268477 0.093799055 0.66100001
0.1141162 0.093940958 0.66200006
0.11520287 0.093799055 0.66100001
0.11646191 0.093799055 0.66100001
0.11772096 0.093799055 0.66100001
0.11898001 0.093799055 0.66100001
0.12023906 0.093799055 0.66100001
0.12168191 0.093940958 0.66200006
0.12294286 0.093940958 0.66200006
0.12420382 0.093940958 0.66200006
0.1256543 0.094082862 0.66300005
0.12691715 0.094082862 0.66300005
0.12856668 0.09436667 0.66500002
-0.079106674 0.10037906 0.69800001
-0.077777147 0.10037906 0.69800001
-0.076447621 0.10037906 0.69800001
-0.075118102 0.10037906 0.69800001
-0.07368286 0.10023525 0.69700003
-0.072355241 0.10023525 0.69700003
-0.070823811 0.099947624 0.69500005
-0.069500007 0.099947624 0.69500005
-0.068176195 0.099947624 0.69500005
-0.066852383 0.099947624 0.69500005
-0.065528579 0.099947624 0.69500005
-0.064204767 0.099947624 0.69500005
-0.062790483 0.099803813 0.69400001
-0.061468575 0.099803813 0.69400001
-0.060060006 0.099660009 0.69300002
-0.058740005 0.099660009 0.69300002
-0.057254288 0.099372387 0.69100004
-0.055938099 0.099372387 0.69100004
-0.054542862 0.099228576 0.69000006
-0.053228576 0.099228576 0.69000006
-0.05191429 0.099228576 0.69000006
-0.050600003 0.099228576 0.69000006
-0.049214289 0.099084765 0.68900001
-0.047901906 0.099084765 0.68900001
-0.046589527 0.099084765 0.68900001
-0.045145717 0.09879715 0.68700004
-0.043837145 0.09879715 0.68700004
-0.042528573 0.09879715 0.68700004
-0.041220002 0.09879715 0.68700004
-0.039853334 0.098653339 0.68600005
-0.03854667 0.098653339 0.68600005
-0.037294287 0.09879715 0.68700004
-0.035985716 0.09879715 0.68700004
-0.034677144 0.09879715 0.68700004
-0.033320002 0.098653339 0.68600005
-0.032013334 0.098653339 0.68600005
-0.030706668 0.098653339 0.68600005
-0.029400002 0.098653339 0.68600005
-0.02801143 0.098365724 0.68400002
-0.026708573 0.098365724 0.68400002
-0.025405716 0.098365724 0.68400002
-0.024102859 0.098365724 0.68400002
-0.022766668 0.098221913 0.68300003
-0.021434287 0.098078102 0.68200004
-0.020135239 0.098078102 0.68200004
-0.018836191 0.098078102 0.68200004
-0.017485715 0.09779048 0.68000001
-0.016190477 0.09779048 0.68000001
-0.014873334 0.097646676 0.67900002
-0.013580001 0.097646676 0.67900002
-0.012286668 0.097646676 0.67900002
-0.010993334 0.097646676 0.67900002
-0.0097000003 0.097646676 0.67900002
-0.008406667 0.097646676 0.67900002
-0.0071133338 0.097646676 0.67900002
-0.0058200005 0.097646676 0.67900002
-0.0045200004 0.097502865 0.67800003
-0.0032285717 0.097502865 0.67800003
-0.001937143 0.097502865 0.67800003
-0.00064571435 0.097502865 0.67800003
0.00064571435 0.097502865 0.67800003
0.0019314287 0.097215243 0.67600006
0.0032142859 0.097071432 0.67500001
0.0045000003 0.097071432 0.67500001
0.0057857148 0.097071432 0.67500001
0.007060953 0.096927628 0.67400002
0.008344762 0.096927628 0.67400002
0.0096285725 0.096927628 0.67400002
0.010912382 0.096927628 0.67400002
0.012196192 0.096927628 0.67400002
0.013480001 0.096927628 0.67400002
0.014763811 0.096927628 0.67400002
0.016047619 0.096927628 0.67400002
0.017331429 0.096927628 0.67400002
0.01861524 0.096927628 0.67400002
0.01989905 0.096927628 0.67400002
0.021182859 0.096927628 0.67400002
0.022466669 0.096927628 0.67400002
0.023750478 0.096927628 0.67400002
0.024960002 0.096640006 0.67200005
0.026240002 0.096640006 0.67200005
0.027479049 0.096496195 0.671
0.028757146 0.096496195 0.671
0.030035241 0.096496195 0.671
0.031313334 0.096496195 0.671
0.032591432 0.096496195 0.671
0.033869527 0.096496195 0.671
0.035147622 0.096496195 0.671
0.036425717 0.096496195 0.671
0.037703812 0.096496195 0.671
0.038981907 0.096496195 0.671
0.040260002 0.096496195 0.671
0.041476194 0.096352391 0.67000002
0.042752385 0.096352391 0.67000002
0.044028573 0.096352391 0.67000002
0.045237146 0.09620858 0.66900003
0.04651143 0.09620858 0.66900003
0.047785718 0.09620858 0.66900003
0.049060002 0.09620858 0.66900003
0.05033429 0.09620858 0.66900003
0.051608574 0.09620858 0.66900003
0.052882861 0.09620858 0.66900003
0.054157145 0.09620858 0.66900003
0.055431433 0.09620858 0.66900003
0.056536194 0.095920958 0.66700006
0.057806671 0.095920958 0.66700006
0.059077147 0.095920958 0.66700006
0.060347624 0.095920958 0.66700006
0.061618101 0.095920958 0.66700006
0.062888578 0.095920958 0.66700006
0.064159051 0.095920958 0.66700006
0.065429531 0.095920958 0.66700006
0.066700004 0.095920958 0.66700006
0.067970477 0.095920958 0.66700006
0.069240957 0.095920958 0.66700006
0.070511431 0.095920958 0.66700006
0.071781911 0.095920958 0.66700006
0.073052384 0.095920958 0.66700006
0.074322864 0.095920958 0.66700006
0.075593337 0.095920958 0.66700006
0.076863818 0.095920958 0.66700006
0.078017145 0.095777147 0.66600001
0.079285719 0.095777147 0.66600001
0.080433339 0.095633343 0.66500002
0.081700005 0.095633343 0.66500002
0.08296667 0.095633343 0.66500002
0.084233336 0.095633343 0.66500002
0.085500002 0.095633343 0.66500002
0.086766675 0.095633343 0.66500002
0.088033341 0.095633343 0.66500002
0.089300007 0.095633343 0.66500002
0.090566672 0.095633343 0.66500002
0.091557153 0.095345721 0.66300005
0.093100004 0.095633343 0.66500002
0.094082862 0.095345721 0.66300005
0.095345721 0.095345721 0.66300005
0.096608579 0.095345721 0.66300005
0.097871438 0.095345721 0.66300005
0.099134289 0.095345721 0.66300005
0.10070001 0.095633343 0.66500002
0.10166001 0.095345721 0.66300005
0.10292286 0.095345721 0.66300005
0.10418572 0.095345721 0.66300005
0.10544858 0.095345721 0.66300005
0.10671143 0.095345721 0.66300005
0.10797429 0.095345721 0.66300005
0.10907239 0.09520191 0.66200006
0.11033334 0.09520191 0.66200006
0.11159429 0.09520191 0.66200006
0.11285525 0.09520191 0.66200006
0.1141162 0.09520191 0.66200006
0.11537715 0.09520191 0.66200006
0.1166381 0.09520191 0.66200006
0.11789905 0.09520191 0.66200006
0.11916001 0.09520191 0.66200006
0.12042096 0.09520191 0.66200006
0.12168191 0.09520191 0.66200006
0.12294286 0.09520191 0.66200006
0.12439144 0.095345721 0.66300005
0.1256543 0.095345721 0.66300005
0.12730001 0.095633343 0.66500002
0.12856668 0.095633343 0.66500002
0.13002858 0.095777147 0.66600001
-0.078000002 0.10200001 0.70000005
-0.076666668 0.10200001 0.70000005
-0.075118102 0.10170858 0.69800001
-0.073788576 0.10170858 0.69800001
-0.072355241 0.10156287 0.69700003
-0.071027622 0.10156287 0.69700003
-0.069700003 0.10156287 0.69700003
-0.068176195 0.10127144 0.69500005
-0.066852383 0.10127144 0.69500005
-0.065528579 0.10127144 0.69500005
-0.064204767 0.10127144 0.69500005
-0.062880956 0.10127144 0.69500005
-0.061468575 0.10112572 0.69400001
-0.060146671 0.10112572 0.69400001
-0.058824766 0.10112572 0.69400001
-0.057420004 0.10098001 0.69300002
-0.055938099 0.10068858 0.69100004
-0.054621909 0.10068858 0.69100004
-0.053305719 0.10068858 0.69100004
-0.051989526 0.10068858 0.69100004
-0.050673336 0.10068858 0.69100004
-0.049285717 0.10054287 0.69000006
-0.047971431 0.10054287 0.69000006
-0.046657145 0.10054287 0.69000006
-0.045342859 0.10054287 0.69000006
-0.043964766 0.10039715 0.68900001
-0.042652383 0.10039715 0.68900001
-0.041340001 0.10039715 0.68900001
-0.03991143 0.10010572 0.68700004
-0.038602859 0.10010572 0.68700004
-0.037294287 0.10010572 0.68700004
-0.035985716 0.10010572 0.68700004
-0.034778096 0.10039715 0.68900001
-0.033368573 0.10010572 0.68700004
-0.032013334 0.099960007 0.68600005
-0.030706668 0.099960007 0.68600005
-0.029400002 0.099960007 0.68600005
-0.028093334 0.099960007 0.68600005
-0.026786668 0.099960007 0.68600005
-0.025480002 0.099960007 0.68600005
-0.024102859 0.099668577 0.68400002
-0.022766668 0.099522866 0.68300003
-0.021465715 0.099522866 0.68300003
-0.020135239 0.099377148 0.68200004
-0.018836191 0.099377148 0.68200004
-0.017537143 0.099377148 0.68200004
-0.016190477 0.099085718 0.68000001
-0.014895239 0.099085718 0.68000001
-0.013600001 0.099085718 0.68000001
-0.012304762 0.099085718 0.68000001
-0.011009525 0.099085718 0.68000001
-0.0097000003 0.098940007 0.67900002
-0.008406667 0.098940007 0.67900002
-0.0071133338 0.098940007 0.67900002
-0.0058200005 0.098940007 0.67900002
-0.0045266668 0.098940007 0.67900002
-0.0032333336 0.098940007 0.67900002
-0.0019400001 0.098940007 0.67900002
-0.00064666668 0.098940007 0.67900002
0.00064571435 0.098794289 0.67800003
0.001937143 0.098794289 0.67800003
0.0032190478 0.098502867 0.67600006
0.0045066671 0.098502867 0.67600006
0.0057942863 0.098502867 0.67600006
0.0070714289 0.098357148 0.67500001
0.008357143 0.098357148 0.67500001
0.0096285725 0.098211437 0.67400002
0.010912382 0.098211437 0.67400002
0.012196192 0.098211437 0.67400002
0.013480001 0.098211437 0.67400002
0.014785715 0.098357148 0.67500001
0.016071429 0.098357148 0.67500001
0.017331429 0.098211437 0.67400002
0.018642858 0.098357148 0.67500001
0.019928573 0.098357148 0.67500001
0.021214288 0.098357148 0.67500001
0.022466669 0.098211437 0.67400002
0.023750478 0.098211437 0.67400002
0.025034288 0.098211437 0.67400002
0.026318097 0.098211437 0.67400002
0.027520001 0.097920008 0.67200005
0.028800001 0.097920008 0.67200005
0.030080002 0.097920008 0.67200005
0.03136 0.097920008 0.67200005
0.032640003 0.097920008 0.67200005
0.033920001 0.097920008 0.67200005
0.035200004 0.097920008 0.67200005
0.036480002 0.097920008 0.67200005
0.037760001 0.097920008 0.67200005
0.039040003 0.097920008 0.67200005
0.040260002 0.09777429 0.671
0.041538097 0.09777429 0.671
0.042816192 0.09777429 0.671
0.044094287 0.09777429 0.671
0.045304764 0.097628579 0.67000002
0.046580955 0.097628579 0.67000002
0.047857147 0.097628579 0.67000002
0.049133338 0.097628579 0.67000002
0.050409526 0.097628579 0.67000002
0.051685717 0.097628579 0.67000002
0.052961908 0.097628579 0.67000002
0.0542381 0.097628579 0.67000002
0.055431433 0.09748286 0.66900003
0.056705717 0.09748286 0.66900003
0.057980005 0.09748286 0.66900003
0.059254289 0.09748286 0.66900003
0.060528576 0.09748286 0.66900003
0.06180286 0.09748286 0.66900003
0.062888578 0.097191438 0.66700006
0.064159051 0.097191438 0.66700006
0.065429531 0.097191438 0.66700006
0.066700004 0.097191438 0.66700006
0.067970477 0.097191438 0.66700006
0.069240957 0.097191438 0.66700006
0.070511431 0.097191438 0.66700006
0.071781911 0.097191438 0.66700006
0.073052384 0.097191438 0.66700006
0.074322864 0.097191438 0.66700006
0.075593337 0.097191438 0.66700006
0.076863818 0.097191438 0.66700006
0.078017145 0.09704572 0.66600001
0.079285719 0.09704572 0.66600001
0.080433339 0.096900009 0.66500002
0.081700005 0.096900009 0.66500002
0.08296667 0.096900009 0.66500002
0.084233336 0.096900009 0.66500002
0.085500002 0.096900009 0.66500002
0.08689715 0.09704572 0.66600001
0.088165723 0.09704572 0.66600001
0.089300007 0.096900009 0.66500002
0.090566672 0.096900009 0.66500002
0.091833338 0.096900009 0.66500002
0.093100004 0.096900009 0.66500002
0.09436667 0.096900009 0.66500002
0.095633343 0.096900009 0.66500002
0.096900009 0.096900009 0.66500002
0.098166674 0.096900009 0.66500002
0.09943334 0.096900009 0.66500002
0.10085143 0.09704572 0.66600001
0.10212 0.09704572 0.66600001
0.10323334 0.096900009 0.66500002
0.1045 0.096900009 0.66500002
0.10544858 0.096608579 0.66300005
0.10671143 0.096608579 0.66300005
0.10797429 0.096608579 0.66300005
0.10907239 0.096462861 0.66200006
0.11050001 0.096608579 0.66300005
0.11176287 0.096608579 0.66300005
0.11302572 0.096608579 0.66300005
0.11428858 0.096608579 0.66300005
0.11555143 0.096608579 0.66300005
0.11681429 0.096608579 0.66300005
0.11807715 0.096608579 0.66300005
0.11916001 0.096462861 0.66200006
0.12042096 0.096462861 0.66200006
0.12168191 0.096462861 0.66200006
0.12294286 0.096462861 0.66200006
0.12439144 0.096608579 0.66300005
0.1256543 0.096608579 0.66300005
0.12730001 0.096900009 0.66500002
0.12856668 0.096900009 0.66500002
0.13002858 0.09704572 0.66600001
-0.078334294 0.10377619 0.70300001
-0.076995246 0.10377619 0.70300001
-0.075440958 0.10348096 0.70100003
-0.073788576 0.1030381 0.69800001
-0.07245905 0.1030381 0.69800001
-0.071027622 0.10289048 0.69700003
-0.069700003 0.10289048 0.69700003
-0.068176195 0.10259525 0.69500005
-0.066852383 0.10259525 0.69500005
-0.065528579 0.10259525 0.69500005
-0.064204767 0.10259525 0.69500005
-0.062880956 0.10259525 0.69500005
-0.061557148 0.10259525 0.69500005
-0.060146671 0.10244763 0.69400001
-0.058824766 0.10244763 0.69400001
-0.057502862 0.10244763 0.69400001
-0.056100003 0.1023 0.69300002
-0.054780003 0.1023 0.69300002
-0.053460002 0.1023 0.69300002
-0.051989526 0.10200477 0.69100004
-0.050820004 0.1023 0.69300002
-0.049357146 0.10200477 0.69100004
-0.048040956 0.10200477 0.69100004
-0.046724766 0.10200477 0.69100004
-0.045408573 0.10200477 0.69100004
-0.044028573 0.10185715 0.69000006
-0.04271429 0.10185715 0.69000006
-0.041400004 0.10185715 0.69000006
-0.040085718 0.10185715 0.69000006
-0.038771432 0.10185715 0.69000006
-0.037457146 0.10185715 0.69000006
-0.03614286 0.10185715 0.69000006
-0.034828573 0.10185715 0.69000006
-0.033465717 0.10170953 0.68900001
-0.032060001 0.10141429 0.68700004
-0.030751431 0.10141429 0.68700004
-0.02944286 0.10141429 0.68700004
-0.028093334 0.10126667 0.68600005
-0.026786668 0.10126667 0.68600005
-0.025480002 0.10126667 0.68600005
-0.024173334 0.10126667 0.68600005
-0.022766668 0.10082382 0.68300003
-0.021465715 0.10082382 0.68300003
-0.020164764 0.10082382 0.68300003
-0.01886381 0.10082382 0.68300003
-0.017537143 0.10067619 0.68200004
-0.016238097 0.10067619 0.68200004
-0.014939048 0.10067619 0.68200004
-0.01364 0.10067619 0.68200004
-0.012340954 0.10067619 0.68200004
-0.011041906 0.10067619 0.68200004
-0.0097428579 0.10067619 0.68200004
-0.008419048 0.10038096 0.68000001
-0.0071238098 0.10038096 0.68000001
-0.005828572 0.10038096 0.68000001
-0.0045333337 0.10038096 0.68000001
-0.0032380954 0.10038096 0.68000001
-0.0019400001 0.10023334 0.67900002
-0.00064666668 0.10023334 0.67900002
0.00064666668 0.10023334 0.67900002
0.001937143 0.10008572 0.67800003
0.0032285717 0.10008572 0.67800003
0.0045066671 0.099790484 0.67600006
0.0057942863 0.099790484 0.67600006
0.0070819054 0.099790484 0.67600006
0.008369524 0.099790484 0.67600006
0.0096428581 0.099642865 0.67500001
0.010928572 0.099642865 0.67500001
0.012214286 0.099642865 0.67500001
0.013500001 0.099642865 0.67500001
0.014785715 0.099642865 0.67500001
0.016071429 0.099642865 0.67500001
0.017357145 0.099642865 0.67500001
0.018670477 0.099790484 0.67600006
0.019958096 0.099790484 0.67600006
0.021214288 0.099642865 0.67500001
0.022500001 0.099642865 0.67500001
0.023785716 0.099642865 0.67500001
0.025034288 0.099495247 0.67400002
0.026318097 0.099495247 0.67400002
0.027601907 0.099495247 0.67400002
0.028800001 0.099200003 0.67200005
0.030080002 0.099200003 0.67200005
0.03136 0.099200003 0.67200005
0.032640003 0.099200003 0.67200005
0.033920001 0.099200003 0.67200005
0.035200004 0.099200003 0.67200005
0.036480002 0.099200003 0.67200005
0.037760001 0.099200003 0.67200005
0.039040003 0.099200003 0.67200005
0.040320002 0.099200003 0.67200005
0.041600004 0.099200003 0.67200005
0.042880002 0.099200003 0.67200005
0.044160005 0.099200003 0.67200005
0.045372386 0.099052384 0.671
0.04665048 0.099052384 0.671
0.047928575 0.099052384 0.671
0.049280003 0.099200003 0.67200005
0.050484765 0.099052384 0.671
0.05176286 0.099052384 0.671
0.053040955 0.099052384 0.671
0.05431905 0.099052384 0.671
0.055597145 0.099052384 0.671
0.056790479 0.098904766 0.67000002
0.05806667 0.098904766 0.67000002
0.059342861 0.098904766 0.67000002
0.060619052 0.098904766 0.67000002
0.06180286 0.098757148 0.66900003
0.063077144 0.098757148 0.66900003
0.064351432 0.098757148 0.66900003
0.06562572 0.098757148 0.66900003
0.066900007 0.098757148 0.66900003
0.068174288 0.098757148 0.66900003
0.069448575 0.098757148 0.66900003
0.070722863 0.098757148 0.66900003
0.071997151 0.098757148 0.66900003
0.073271431 0.098757148 0.66900003
0.074545719 0.098757148 0.66900003
0.075593337 0.098461911 0.66700006
0.076863818 0.098461911 0.66700006
0.078134291 0.098461911 0.66700006
0.079285719 0.098314293 0.66600001
0.080433339 0.098166674 0.66500002
0.081700005 0.098166674 0.66500002
0.08296667 0.098166674 0.66500002
0.084233336 0.098166674 0.66500002
0.085500002 0.098166674 0.66500002
0.086766675 0.098166674 0.66500002
0.088165723 0.098314293 0.66600001
0.089434288 0.098314293 0.66600001
0.090702862 0.098314293 0.66600001
0.091971435 0.098314293 0.66600001
0.093240008 0.098314293 0.66600001
0.09436667 0.098166674 0.66500002
0.095633343 0.098166674 0.66500002
0.096900009 0.098166674 0.66500002
0.098314293 0.098314293 0.66600001
0.099582866 0.098314293 0.66600001
0.10085143 0.098314293 0.66600001
0.10212 0.098314293 0.66600001
0.10338858 0.098314293 0.66600001
0.1045 0.098166674 0.66500002
0.10576668 0.098166674 0.66500002
0.10671143 0.097871438 0.66300005
0.10797429 0.097871438 0.66300005
0.10923715 0.097871438 0.66300005
0.11050001 0.097871438 0.66300005
0.11176287 0.097871438 0.66300005
0.11302572 0.097871438 0.66300005
0.11428858 0.097871438 0.66300005
0.11555143 0.097871438 0.66300005
0.11681429 0.097871438 0.66300005
0.11807715 0.097871438 0.66300005
0.11916001 0.097723819 0.66200006
0.12042096 0.097723819 0.66200006
0.12168191 0.097723819 0.66200006
0.12294286 0.097723819 0.66200006
0.12439144 0.097871438 0.66300005
0.12603334 0.098166674 0.66500002
0.12730001 0.098166674 0.66500002
0.12876001 0.098314293 0.66600001
-0.07710477 0.10526477 0.70400006
-0.075656198 0.10511524 0.70300001
-0.074105717 0.1048162 0.70100003
-0.072666675 0.10466667 0.70000005
-0.071129531 0.10436763 0.69800001
-0.069800004 0.10436763 0.69800001
-0.068372384 0.1042181 0.69700003
-0.067044765 0.1042181 0.69700003
-0.065717146 0.1042181 0.69700003
-0.064389527 0.1042181 0.69700003
-0.063061908 0.1042181 0.69700003
-0.061557148 0.10391905 0.69500005
-0.060233336 0.10391905 0.69500005
-0.058909528 0.10391905 0.69500005
-0.057585716 0.10391905 0.69500005
-0.056261908 0.10391905 0.69500005
-0.0549381 0.10391905 0.69500005
-0.053614289 0.10391905 0.69500005
-0.052215241 0.10376953 0.69400001
-0.050893337 0.10376953 0.69400001
-0.049500003 0.10362001 0.69300002
-0.048180003 0.10362001 0.69300002
-0.046860002 0.10362001 0.69300002
-0.045540001 0.10362001 0.69300002
-0.044220004 0.10362001 0.69300002
-0.042900003 0.10362001 0.69300002
-0.041460004 0.10332096 0.69100004
-0.040143814 0.10332096 0.69100004
-0.03882762 0.10332096 0.69100004
-0.037511431 0.10332096 0.69100004
-0.03614286 0.10317144 0.69000006
-0.034828573 0.10317144 0.69000006
-0.033514287 0.10317144 0.69000006
-0.032153334 0.10302191 0.68900001
-0.030840954 0.10302191 0.68900001
-0.029528573 0.10302191 0.68900001
-0.028134288 0.10272286 0.68700004
-0.026825717 0.10272286 0.68700004
-0.025480002 0.10257334 0.68600005
-0.024173334 0.10257334 0.68600005
-0.022800002 0.10227429 0.68400002
-0.021465715 0.10212477 0.68300003
-0.020164764 0.10212477 0.68300003
-0.01886381 0.10212477 0.68300003
-0.017562859 0.10212477 0.68300003
-0.016261905 0.10212477 0.68300003
-0.014960953 0.10212477 0.68300003
-0.013660001 0.10212477 0.68300003
