# .PCD v0.7 - Point Cloud Data file format
VERSION 0.7
FIELDS x y z
SIZE 4 4 4
TYPE F F F
COUNT 1 1 1
WIDTH 1320
HEIGHT 1
VIEWPOINT 0 0 0 1 0 0 0
POINTS 1320
DATA ascii
0.016599048 -0.020033335 0.60100001
0.017773334 -0.020066667 0.60200006
0.018920001 -0.020066667 0.60200006
0.020100001 -0.020100001 0.60300004
0.021283811 -0.020133335 0.60400003
0.02247143 -0.020166667 0.60500002
0.023623811 -0.020166667 0.60500002
0.024817144 -0.020200001 0.60600001
0.025971429 -0.020200001 0.60600001
0.027170477 -0.020233335 0.60700005
0.028373335 -0.020266669 0.60800004
0.029580003 -0.020300001 0.60900003
0.030891431 -0.020400001 0.61200005
0.032109525 -0.020433335 0.61300004
0.033277147 -0.020433335 0.61300004
0.034500953 -0.020466669 0.61400002
0.035670478 -0.020466669 0.61400002
0.036900003 -0.020500001 0.61500001
0.038133334 -0.020533334 0.61600006
0.039370477 -0.020566668 0.61700004
0.040677145 -0.020633334 0.61900002
0.041923814 -0.020666668 0.62
0.043104764 -0.020666668 0.62
0.044428576 -0.020733334 0.62200004
0.04568667 -0.020766668 0.62300003
0.047023814 -0.020833334 0.625
0.04821429 -0.020833334 0.625
0.049483813 -0.020866668 0.62600005
0.050757147 -0.020900002 0.62700003
-0.032895241 -0.019737145 0.62800002
-0.031547621 -0.019642858 0.625
-0.030357145 -0.019642858 0.625
-0.029120002 -0.019611429 0.62400001
-0.027886668 -0.019580001 0.62300003
-0.026528573 -0.019454287 0.61900002
-0.025308574 -0.019422859 0.61800003
-0.024053335 -0.019360002 0.61600006
-0.022805715 -0.019297143 0.61400002
-0.021565715 -0.019234287 0.61200005
-0.020300001 -0.019140001 0.60900003
-0.019077145 -0.019077145 0.60700005
-0.017891429 -0.019045716 0.60600001
-0.016654287 -0.018951429 0.60300004
-0.015480001 -0.018920001 0.60200006
-0.014285715 -0.018857144 0.60000002
-0.013120953 -0.018825715 0.59900004
-0.011960001 -0.018794287 0.59800005
-0.010766667 -0.018700002 0.59500003
-0.0095847622 -0.018605715 0.59200001
-0.0084571438 -0.018605715 0.59200001
-0.0073171435 -0.018574286 0.59100002
-0.0061809528 -0.018542858 0.59000003
-0.005057143 -0.018542858 0.59000003
-0.0039333338 -0.018542858 0.59000003
-0.002804762 -0.018511429 0.58900005
-0.0016828573 -0.018511429 0.58900005
-0.00056095241 -0.018511429 0.58900005
0.00056095241 -0.018511429 0.58900005
0.0016857143 -0.018542858 0.59000003
0.0028142859 -0.018574286 0.59100002
0.0039466671 -0.018605715 0.59200001
0.0050914288 -0.018668573 0.59400004
0.0062333336 -0.018700002 0.59500003
0.007366667 -0.018700002 0.59500003
0.008514286 -0.01873143 0.59600002
0.0096657146 -0.018762859 0.597
0.010820953 -0.018794287 0.59800005
0.011980001 -0.018825715 0.59900004
0.013120953 -0.018825715 0.59900004
0.014261906 -0.018825715 0.59900004
0.015428573 -0.018857144 0.60000002
0.016599048 -0.018888572 0.60100001
0.017773334 -0.018920001 0.60200006
0.018920001 -0.018920001 0.60200006
0.020100001 -0.018951429 0.60300004
0.021283811 -0.018982857 0.60400003
0.02247143 -0.019014288 0.60500002
0.023623811 -0.019014288 0.60500002
0.024817144 -0.019045716 0.60600001
0.026014287 -0.019077145 0.60700005
0.027170477 -0.019077145 0.60700005
0.028373335 -0.019108573 0.60800004
0.029677145 -0.019202858 0.611
0.030891431 -0.019234287 0.61200005
0.032109525 -0.019265715 0.61300004
0.033331431 -0.019297143 0.61400002
0.034500953 -0.019297143 0.61400002
0.035728574 -0.019328572 0.61500001
0.036900003 -0.019328572 0.61500001
0.038195241 -0.019391431 0.61700004
0.039434288 -0.019422859 0.61800003
0.040677145 -0.019454287 0.61900002
0.041923814 -0.019485716 0.62
0.043104764 -0.019485716 0.62
0.044428576 -0.019548573 0.62200004
0.04568667 -0.019580001 0.62300003
0.046948574 -0.019611429 0.62400001
0.04821429 -0.019642858 0.625
0.049483813 -0.019674286 0.62600005
0.050838098 -0.019737145 0.62800002
0.052034289 -0.019737145 0.62800002
0.053315241 -0.019768573 0.62900001
-0.036890477 -0.01874762 0.63500005
-0.035624765 -0.018718097 0.634
-0.034254286 -0.018629525 0.63100004
-0.03284286 -0.018511429 0.62700003
-0.031648573 -0.018511429 0.62700003
-0.030357145 -0.018452382 0.625
-0.029166669 -0.018452382 0.625
-0.027931431 -0.018422859 0.62400001
-0.026742859 -0.018422859 0.62400001
-0.025472382 -0.018363811 0.62200004
-0.024092382 -0.018216191 0.61700004
-0.022842858 -0.018157143 0.61500001
-0.021460002 -0.017980002 0.60900003
-0.020300001 -0.017980002 0.60900003
-0.019108573 -0.017950477 0.60800004
-0.017891429 -0.017891429 0.60600001
-0.016654287 -0.017802859 0.60300004
-0.015480001 -0.017773334 0.60200006
-0.014309525 -0.017743811 0.60100001
-0.013142858 -0.017714286 0.60000002
-0.011980001 -0.017684763 0.59900004
-0.010784763 -0.017596191 0.59600002
-0.0096009532 -0.01750762 0.59300005
-0.0084571438 -0.017478097 0.59200001
-0.0073171435 -0.017448572 0.59100002
-0.0061914288 -0.017448572 0.59100002
-0.0050657145 -0.017448572 0.59100002
-0.0039400002 -0.017448572 0.59100002
-0.0028095241 -0.01741905 0.59000003
-0.0016857143 -0.01741905 0.59000003
-0.0005619048 -0.01741905 0.59000003
0.0005619048 -0.01741905 0.59000003
0.0016885715 -0.017448572 0.59100002
0.0028190478 -0.017478097 0.59200001
0.0039533335 -0.01750762 0.59300005
0.0051000002 -0.017566668 0.59500003
0.0062438101 -0.017596191 0.59600002
0.007379048 -0.017596191 0.59600002
0.008514286 -0.017596191 0.59600002
0.0096819056 -0.017655239 0.59800005
0.010820953 -0.017655239 0.59800005
0.011980001 -0.017684763 0.59900004
0.013120953 -0.017684763 0.59900004
0.014285715 -0.017714286 0.60000002
0.015428573 -0.017714286 0.60000002
0.016626667 -0.017773334 0.60200006
0.017773334 -0.017773334 0.60200006
0.018951429 -0.017802859 0.60300004
0.020133335 -0.017832382 0.60400003
0.021319048 -0.017861906 0.60500002
0.022508573 -0.017891429 0.60600001
0.02366286 -0.017891429 0.60600001
0.024858097 -0.017920954 0.60700005
0.026014287 -0.017920954 0.60700005
0.027215241 -0.017950477 0.60800004
0.028513335 -0.01803905 0.611
0.029725716 -0.018068573 0.61200005
0.030941907 -0.018098097 0.61300004
0.032109525 -0.018098097 0.61300004
0.033331431 -0.01812762 0.61400002
0.034557145 -0.018157143 0.61500001
0.035728574 -0.018157143 0.61500001
0.036900003 -0.018157143 0.61500001
0.038133334 -0.018186668 0.61600006
0.039434288 -0.018245716 0.61800003
0.040742859 -0.018304763 0.62
0.041923814 -0.018304763 0.62
0.043243811 -0.018363811 0.62200004
0.044428576 -0.018363811 0.62200004
0.04568667 -0.018393334 0.62300003
0.046948574 -0.018422859 0.62400001
0.048291434 -0.018481907 0.62600005
0.04956286 -0.018511429 0.62700003
0.050919052 -0.018570477 0.62900001
0.052117147 -0.018570477 0.62900001
0.053569525 -0.01865905 0.63200003
0.054860003 -0.018688573 0.63300002
-0.034145717 -0.017372383 0.62900001
-0.03284286 -0.017317144 0.62700003
-0.031648573 -0.017317144 0.62700003
-0.030405717 -0.017289525 0.62600005
-0.029213335 -0.017289525 0.62600005
-0.027976193 -0.017261906 0.625
-0.026785716 -0.017261906 0.625
-0.02559524 -0.017261906 0.625
-0.024404764 -0.017261906 0.625
-0.022620002 -0.01682 0.60900003
-0.021460002 -0.01682 0.60900003
-0.020266669 -0.016792381 0.60800004
-0.019108573 -0.016792381 0.60800004
-0.017891429 -0.016737144 0.60600001
-0.016709525 -0.016709525 0.60500002
-0.015505715 -0.016654287 0.60300004
-0.014309525 -0.016599048 0.60100001
-0.013142858 -0.01657143 0.60000002
-0.011980001 -0.016543811 0.59900004
-0.010820953 -0.016516192 0.59800005
-0.0096495245 -0.016460953 0.59600002
-0.0084571438 -0.016350478 0.59200001
-0.0073295245 -0.016350478 0.59200001
-0.0061914288 -0.016322859 0.59100002
-0.0050657145 -0.016322859 0.59100002
-0.0039400002 -0.016322859 0.59100002
-0.0028142859 -0.016322859 0.59100002
-0.0016885715 -0.016322859 0.59100002
-0.0005628572 -0.016322859 0.59100002
0.00056380953 -0.016350478 0.59200001
0.0016914287 -0.016350478 0.59200001
0.0028238096 -0.016378097 0.59300005
0.0039666668 -0.016433334 0.59500003
0.0051085716 -0.016460953 0.59600002
0.006254286 -0.016488573 0.597
0.007391429 -0.016488573 0.597
0.0085428581 -0.016516192 0.59800005
0.0096980957 -0.016543811 0.59900004
0.010839049 -0.016543811 0.59900004
0.012000001 -0.01657143 0.60000002
0.013142858 -0.01657143 0.60000002
0.014309525 -0.016599048 0.60100001
0.015480001 -0.016626667 0.60200006
0.016626667 -0.016626667 0.60200006
0.017802859 -0.016654287 0.60300004
0.018951429 -0.016654287 0.60300004
0.020133335 -0.016681906 0.60400003
0.021354288 -0.016737144 0.60600001
0.022545716 -0.016764764 0.60700005
0.023701906 -0.016764764 0.60700005
0.024899049 -0.016792381 0.60800004
0.026100002 -0.01682 0.60900003
0.027349526 -0.016875239 0.611
0.028560001 -0.016902858 0.61200005
0.029774288 -0.016930478 0.61300004
0.030941907 -0.016930478 0.61300004
0.032214288 -0.016985716 0.61500001
0.033385716 -0.016985716 0.61500001
0.034613337 -0.017013334 0.61600006
0.03578667 -0.017013334 0.61600006
0.036960002 -0.017013334 0.61600006
0.038195241 -0.017040953 0.61700004
0.039434288 -0.017068572 0.61800003
0.040874287 -0.01717905 0.62200004
0.04212667 -0.017206667 0.62300003
0.043313336 -0.017206667 0.62300003
0.044571433 -0.017234286 0.62400001
0.045833338 -0.017261906 0.625
0.04709905 -0.017289525 0.62600005
0.048445717 -0.017344764 0.62800002
0.049720954 -0.017372383 0.62900001
0.051080957 -0.01742762 0.63100004
0.052365717 -0.017455239 0.63200003
0.053654291 -0.017482858 0.63300002
0.054946668 -0.017510477 0.634
-0.03284286 -0.016122859 0.62700003
-0.031648573 -0.016122859 0.62700003
-0.030405717 -0.016097143 0.62600005
-0.029213335 -0.016097143 0.62600005
-0.028020954 -0.016097143 0.62600005
-0.026785716 -0.016071429 0.625
-0.02559524 -0.016071429 0.625
-0.024404764 -0.016071429 0.625
-0.021460002 -0.015660001 0.60900003
-0.020300001 -0.015660001 0.60900003
-0.019108573 -0.015634287 0.60800004
-0.017891429 -0.015582859 0.60600001
-0.016709525 -0.015557144 0.60500002
-0.015480001 -0.015480001 0.60200006
-0.014309525 -0.015454287 0.60100001
-0.013142858 -0.015428573 0.60000002
-0.011980001 -0.015402858 0.59900004
-0.010820953 -0.015377144 0.59800005
-0.0096495245 -0.015325715 0.59600002
-0.0084714293 -0.015248572 0.59300005
-0.0073295245 -0.015222858 0.59200001
-0.0062019052 -0.015222858 0.59200001
-0.0050657145 -0.015197144 0.59100002
-0.0039400002 -0.015197144 0.59100002
-0.0028142859 -0.015197144 0.59100002
-0.0016885715 -0.015197144 0.59100002
-0.00056380953 -0.015222858 0.59200001
0.00056380953 -0.015222858 0.59200001
0.0016942858 -0.015248572 0.59300005
0.0028285717 -0.015274286 0.59400004
0.0039666668 -0.015300001 0.59500003
0.005117143 -0.01535143 0.597
0.006254286 -0.01535143 0.597
0.00740381 -0.015377144 0.59800005
0.0085428581 -0.015377144 0.59800005
0.0096980957 -0.015402858 0.59900004
0.010857143 -0.015428573 0.60000002
0.012020001 -0.015454287 0.60100001
0.013164762 -0.015454287 0.60100001
0.014333334 -0.015480001 0.60200006
0.015480001 -0.015480001 0.60200006
0.016654287 -0.015505715 0.60300004
0.017802859 -0.015505715 0.60300004
0.018982857 -0.01553143 0.60400003
0.020166667 -0.015557144 0.60500002
0.021354288 -0.015582859 0.60600001
0.022545716 -0.015608572 0.60700005
0.023740955 -0.015634287 0.60800004
0.024940001 -0.015660001 0.60900003
0.026185716 -0.01571143 0.611
0.027349526 -0.01571143 0.611
0.028606668 -0.015762858 0.61300004
0.029774288 -0.015762858 0.61300004
0.030992383 -0.015788572 0.61400002
0.032214288 -0.015814288 0.61500001
0.033385716 -0.015814288 0.61500001
0.034613337 -0.015840001 0.61600006
0.035844766 -0.015865715 0.61700004
0.037020002 -0.015865715 0.61700004
0.038257144 -0.015891429 0.61800003
0.039434288 -0.015891429 0.61800003
0.040874287 -0.015994286 0.62200004
0.04212667 -0.016020002 0.62300003
0.043382861 -0.016045716 0.62400001
0.044642862 -0.016071429 0.625
0.045833338 -0.016071429 0.625
0.04717429 -0.016122859 0.62700003
0.048445717 -0.016148573 0.62800002
0.049879052 -0.016225716 0.63100004
0.051161908 -0.01625143 0.63200003
0.052448574 -0.016277144 0.63300002
0.053739052 -0.016302858 0.634
-0.032790478 -0.014904763 0.62600005
-0.031648573 -0.014928573 0.62700003
-0.030405717 -0.014904763 0.62600005
-0.029213335 -0.014904763 0.62600005
-0.028020954 -0.014904763 0.62600005
-0.026785716 -0.014880953 0.625
-0.02559524 -0.014880953 0.625
-0.024404764 -0.014880953 0.625
-0.023214288 -0.014880953 0.625
-0.021460002 -0.014500001 0.60900003
-0.020300001 -0.014500001 0.60900003
-0.019108573 -0.014476191 0.60800004
-0.017920954 -0.014452382 0.60700005
-0.016737144 -0.014428573 0.60600001
-0.015505715 -0.014357144 0.60300004
-0.014309525 -0.014309525 0.60100001
-0.013142858 -0.014285715 0.60000002
-0.011980001 -0.014261906 0.59900004
-0.010820953 -0.014238096 0.59800005
-0.0096657146 -0.014214287 0.597
-0.0084857149 -0.014142858 0.59400004
-0.007341905 -0.014119049 0.59300005
-0.0062019052 -0.014095239 0.59200001
-0.0050742859 -0.014095239 0.59200001
-0.0039466671 -0.014095239 0.59200001
-0.0028190478 -0.014095239 0.59200001
-0.0016914287 -0.014095239 0.59200001
-0.00056380953 -0.014095239 0.59200001
0.00056476193 -0.014119049 0.59300005
0.001697143 -0.014142858 0.59400004
0.0028333336 -0.014166668 0.59500003
0.0039733336 -0.014190477 0.59600002
0.005117143 -0.014214287 0.597
0.0062647625 -0.014238096 0.59800005
0.00740381 -0.014238096 0.59800005
0.0085571436 -0.014261906 0.59900004
0.0096980957 -0.014261906 0.59900004
0.010857143 -0.014285715 0.60000002
0.012020001 -0.014309525 0.60100001
0.013186667 -0.014333334 0.60200006
0.014333334 -0.014333334 0.60200006
0.015505715 -0.014357144 0.60300004
0.016654287 -0.014357144 0.60300004
0.017832382 -0.014380953 0.60400003
0.018982857 -0.014380953 0.60400003
0.020166667 -0.014404763 0.60500002
0.021354288 -0.014428573 0.60600001
0.022582859 -0.014476191 0.60800004
0.023740955 -0.014476191 0.60800004
0.024940001 -0.014500001 0.60900003
0.026185716 -0.01454762 0.611
0.027394287 -0.014571429 0.61200005
0.028606668 -0.014595239 0.61300004
0.02982286 -0.014619049 0.61400002
0.031042859 -0.014642858 0.61500001
0.032266669 -0.014666667 0.61600006
0.033494286 -0.014690477 0.61700004
0.034725718 -0.014714287 0.61800003
0.035844766 -0.014690477 0.61700004
0.037200004 -0.014761906 0.62
0.038504764 -0.014809525 0.62200004
0.039689526 -0.014809525 0.62200004
0.040874287 -0.014809525 0.62200004
0.042194288 -0.014857144 0.62400001
0.043452382 -0.014880953 0.625
0.044642862 -0.014880953 0.625
0.04590667 -0.014904763 0.62600005
0.047249526 -0.014952382 0.62800002
0.04852286 -0.014976191 0.62900001
0.049879052 -0.015023811 0.63100004
0.051161908 -0.01504762 0.63200003
0.052448574 -0.015071429 0.63300002
0.053654291 -0.015071429 0.63300002
-0.031648573 -0.013734287 0.62700003
-0.030405717 -0.013712382 0.62600005
-0.029213335 -0.013712382 0.62600005
-0.028020954 -0.013712382 0.62600005
-0.026828574 -0.013712382 0.62600005
-0.02559524 -0.013690477 0.625
-0.024404764 -0.013690477 0.625
-0.022880001 -0.013493334 0.61600006
-0.021600954 -0.01342762 0.61300004
-0.020433335 -0.01342762 0.61300004
-0.019234287 -0.013405715 0.61200005
-0.017980002 -0.013340001 0.60900003
-0.016792381 -0.013318096 0.60800004
-0.015505715 -0.013208573 0.60300004
-0.014357144 -0.013208573 0.60300004
-0.013142858 -0.013142858 0.60000002
-0.011980001 -0.013120953 0.59900004
-0.010820953 -0.013099048 0.59800005
-0.0096657146 -0.013077144 0.597
-0.0084857149 -0.013011429 0.59400004
-0.007354286 -0.013011429 0.59400004
-0.0062123812 -0.012989525 0.59300005
-0.0050742859 -0.01296762 0.59200001
-0.0039466671 -0.01296762 0.59200001
-0.0028190478 -0.01296762 0.59200001
-0.0016914287 -0.01296762 0.59200001
-0.00056476193 -0.012989525 0.59300005
0.00056571432 -0.013011429 0.59400004
0.0017000001 -0.013033334 0.59500003
0.0028380954 -0.013055239 0.59600002
0.0039733336 -0.013055239 0.59600002
0.0051257145 -0.013099048 0.59800005
0.0062647625 -0.013099048 0.59800005
0.00740381 -0.013099048 0.59800005
0.0085571436 -0.013120953 0.59900004
0.0097142868 -0.013142858 0.60000002
0.010857143 -0.013142858 0.60000002
0.012020001 -0.013164762 0.60100001
0.013186667 -0.013186667 0.60200006
0.014333334 -0.013186667 0.60200006
0.015505715 -0.013208573 0.60300004
0.016681906 -0.013230477 0.60400003
0.017832382 -0.013230477 0.60400003
0.019014288 -0.013252382 0.60500002
0.020200001 -0.013274287 0.60600001
0.021389525 -0.013296192 0.60700005
0.022582859 -0.013318096 0.60800004
0.023780001 -0.013340001 0.60900003
0.025021907 -0.01338381 0.611
0.026228573 -0.013405715 0.61200005
0.027439049 -0.01342762 0.61300004
0.028700002 -0.013471429 0.61500001
0.02987143 -0.013471429 0.61500001
0.031093335 -0.013493334 0.61600006
0.03231905 -0.013515239 0.61700004
0.033548575 -0.013537143 0.61800003
0.034781907 -0.013559048 0.61900002
0.03601905 -0.013580954 0.62
0.037200004 -0.013580954 0.62
0.038504764 -0.013624763 0.62200004
0.039753336 -0.013646668 0.62300003
0.040940002 -0.013646668 0.62300003
0.042194288 -0.013668573 0.62400001
0.043452382 -0.013690477 0.625
0.044714287 -0.013712382 0.62600005
0.04590667 -0.013712382 0.62600005
0.047324765 -0.013778096 0.62900001
0.04875429 -0.01384381 0.63200003
0.049879052 -0.013821905 0.63100004
0.051242862 -0.013865715 0.63300002
0.052448574 -0.013865715 0.63300002
0.053739052 -0.01388762 0.634
-0.031648573 -0.01254 0.62700003
-0.030405717 -0.012520001 0.62600005
-0.029213335 -0.012520001 0.62600005
-0.028020954 -0.012520001 0.62600005
-0.026828574 -0.012520001 0.62600005
-0.025636192 -0.012520001 0.62600005
-0.024404764 -0.012500001 0.625
-0.023214288 -0.012500001 0.625
-0.021706669 -0.012320001 0.61600006
-0.020500001 -0.012300001 0.61500001
-0.019265715 -0.012260001 0.61300004
-0.017980002 -0.012180001 0.60900003
-0.01682 -0.012180001 0.60900003
-0.015634287 -0.01216 0.60800004
-0.014380953 -0.012080001 0.60400003
-0.013142858 -0.012000001 0.60000002
-0.012000001 -0.012000001 0.60000002
-0.010839049 -0.011980001 0.59900004
-0.0096657146 -0.011940001 0.597
-0.0085000005 -0.011900001 0.59500003
-0.007366667 -0.011900001 0.59500003
-0.0062228576 -0.011880001 0.59400004
-0.0050828573 -0.011860001 0.59300005
-0.0039533335 -0.011860001 0.59300005
-0.0028238096 -0.011860001 0.59300005
-0.0016942858 -0.011860001 0.59300005
-0.00056571432 -0.011880001 0.59400004
0.00056666671 -0.011900001 0.59500003
0.0017028572 -0.01192 0.59600002
0.0028428573 -0.011940001 0.597
0.00398 -0.011940001 0.597
0.0051342859 -0.011980001 0.59900004
0.0062752385 -0.011980001 0.59900004
0.007416191 -0.011980001 0.59900004
0.0085571436 -0.011980001 0.59900004
0.0097142868 -0.012000001 0.60000002
0.010875239 -0.012020001 0.60100001
0.01204 -0.01204 0.60200006
0.013186667 -0.01204 0.60200006
0.014333334 -0.01204 0.60200006
0.015505715 -0.012060001 0.60300004
0.016681906 -0.012080001 0.60400003
0.017832382 -0.012080001 0.60400003
0.019014288 -0.012100001 0.60500002
0.020200001 -0.012120001 0.60600001
0.021389525 -0.012140001 0.60700005
0.022620002 -0.012180001 0.60900003
0.023858096 -0.012220001 0.611
0.025062859 -0.012240001 0.61200005
0.026271431 -0.012260001 0.61300004
0.027483812 -0.01228 0.61400002
0.028700002 -0.012300001 0.61500001
0.02987143 -0.012300001 0.61500001
0.031093335 -0.012320001 0.61600006
0.03231905 -0.012340001 0.61700004
0.033548575 -0.012360001 0.61800003
0.034781907 -0.012380001 0.61900002
0.03601905 -0.0124 0.62
0.037320003 -0.012440001 0.62200004
0.038504764 -0.012440001 0.62200004
0.039753336 -0.012460001 0.62300003
0.041005716 -0.012480001 0.62400001
0.042261906 -0.012500001 0.625
0.043521907 -0.012520001 0.62600005
0.044785716 -0.01254 0.62700003
0.046053335 -0.012560001 0.62800002
0.047550481 -0.012640001 0.63200003
0.048831433 -0.01266 0.63300002
0.049958099 -0.012640001 0.63200003
0.051323812 -0.012680001 0.634
0.052531432 -0.012680001 0.634
0.053739052 -0.012680001 0.634
0.054946668 -0.012680001 0.634
-0.030405717 -0.01132762 0.62600005
-0.029213335 -0.01132762 0.62600005
-0.028020954 -0.01132762 0.62600005
-0.026828574 -0.01132762 0.62600005
-0.025636192 -0.01132762 0.62600005
-0.024404764 -0.011309525 0.625
-0.022880001 -0.011146667 0.61600006
-0.021706669 -0.011146667 0.61600006
-0.020500001 -0.011128572 0.61500001
-0.019297143 -0.011110477 0.61400002
-0.018068573 -0.011074287 0.61200005
-0.016875239 -0.011056191 0.611
-0.01553143 -0.010929525 0.60400003
-0.014333334 -0.010893334 0.60200006
-0.013164762 -0.010875239 0.60100001
-0.012000001 -0.010857143 0.60000002
-0.010839049 -0.010839049 0.59900004
-0.0096819056 -0.010820953 0.59800005
-0.0085285716 -0.010802858 0.597
-0.007366667 -0.010766667 0.59500003
-0.0062228576 -0.010748572 0.59400004
-0.0050914288 -0.010748572 0.59400004
-0.0039600004 -0.010748572 0.59400004
-0.0028285717 -0.010748572 0.59400004
-0.001697143 -0.010748572 0.59400004
-0.00056666671 -0.010766667 0.59500003
0.00056761911 -0.010784763 0.59600002
0.0017028572 -0.010784763 0.59600002
0.0028428573 -0.010802858 0.597
0.00398 -0.010802858 0.597
0.0051257145 -0.010820953 0.59800005
0.0062752385 -0.010839049 0.59900004
0.007416191 -0.010839049 0.59900004
0.0085714292 -0.010857143 0.60000002
0.0097142868 -0.010857143 0.60000002
0.010893334 -0.010893334 0.60200006
0.01204 -0.010893334 0.60200006
0.013208573 -0.010911429 0.60300004
0.014357144 -0.010911429 0.60300004
0.015505715 -0.010911429 0.60300004
0.016681906 -0.010929525 0.60400003
0.017832382 -0.010929525 0.60400003
0.019014288 -0.01094762 0.60500002
0.020233335 -0.01098381 0.60700005
0.021424763 -0.011001905 0.60800004
0.022620002 -0.011020001 0.60900003
0.023897145 -0.011074287 0.61200005
0.025103811 -0.011092382 0.61300004
0.026314287 -0.011110477 0.61400002
0.027528573 -0.011128572 0.61500001
0.028700002 -0.011128572 0.61500001
0.029920002 -0.011146667 0.61600006
0.031143812 -0.011164763 0.61700004
0.032371432 -0.011182858 0.61800003
0.03360286 -0.011200953 0.61900002
0.034838099 -0.011219048 0.62
0.03601905 -0.011219048 0.62
0.037320003 -0.011255239 0.62200004
0.038566668 -0.011273334 0.62300003
0.039753336 -0.011273334 0.62300003
0.04107143 -0.011309525 0.625
0.042329527 -0.01132762 0.62600005
0.043591432 -0.011345715 0.62700003
0.044928573 -0.011381906 0.62900001
0.046420004 -0.011454286 0.63300002
0.047625717 -0.011454286 0.63300002
0.048908576 -0.011472382 0.634
0.050116193 -0.011472382 0.634
0.051323812 -0.011472382 0.634
0.052531432 -0.011472382 0.634
0.053739052 -0.011472382 0.634
0.054946668 -0.011472382 0.634
-0.030454287 -0.010151429 0.62700003
-0.029213335 -0.010135239 0.62600005
-0.028020954 -0.010135239 0.62600005
-0.026828574 -0.010135239 0.62600005
-0.025636192 -0.010135239 0.62600005
-0.024404764 -0.010119048 0.625
-0.022805715 -0.009940953 0.61400002
-0.021636192 -0.009940953 0.61400002
-0.020466669 -0.009940953 0.61400002
-0.019265715 -0.0099247629 0.61300004
-0.018068573 -0.0099085718 0.61200005
-0.016875239 -0.0098923817 0.611
-0.015634287 -0.0098438105 0.60800004
-0.014357144 -0.009762858 0.60300004
-0.013164762 -0.0097304769 0.60100001
-0.012000001 -0.0097142868 0.60000002
-0.010839049 -0.0096980957 0.59900004
-0.0096819056 -0.0096819056 0.59800005
-0.0085285716 -0.0096657146 0.597
-0.007379048 -0.0096495245 0.59600002
-0.0062333336 -0.0096333344 0.59500003
-0.0050914288 -0.0096171433 0.59400004
-0.0039666668 -0.0096333344 0.59500003
-0.0028333336 -0.0096333344 0.59500003
-0.0017000001 -0.0096333344 0.59500003
-0.00056666671 -0.0096333344 0.59500003
0.00056761911 -0.0096495245 0.59600002
0.0017028572 -0.0096495245 0.59600002
0.0028428573 -0.0096657146 0.597
0.0039866669 -0.0096819056 0.59800005
0.0051257145 -0.0096819056 0.59800005
0.0062752385 -0.0096980957 0.59900004
0.007416191 -0.0096980957 0.59900004
0.0085714292 -0.0097142868 0.60000002
0.0097304769 -0.0097304769 0.60100001
0.010911429 -0.009762858 0.60300004
0.012060001 -0.009762858 0.60300004
0.013208573 -0.009762858 0.60300004
0.014357144 -0.009762858 0.60300004
0.01553143 -0.0097790482 0.60400003
0.016681906 -0.0097790482 0.60400003
0.017832382 -0.0097790482 0.60400003
0.019014288 -0.0097952392 0.60500002
0.020233335 -0.0098276194 0.60700005
0.021424763 -0.0098438105 0.60800004
0.022731431 -0.0099085718 0.61200005
0.023897145 -0.0099085718 0.61200005
0.025144763 -0.009940953 0.61400002
0.026314287 -0.009940953 0.61400002
0.027528573 -0.0099571431 0.61500001
0.028746668 -0.0099733341 0.61600006
0.029920002 -0.0099733341 0.61600006
0.031143812 -0.0099895243 0.61700004
0.032371432 -0.010005715 0.61800003
0.03360286 -0.010021905 0.61900002
0.034838099 -0.010038096 0.62
0.036135241 -0.010070477 0.62200004
0.037320003 -0.010070477 0.62200004
0.038566668 -0.010086668 0.62300003
0.039753336 -0.010086668 0.62300003
0.04107143 -0.010119048 0.625
0.042397145 -0.010151429 0.62700003
0.043591432 -0.010151429 0.62700003
0.044928573 -0.01018381 0.62900001
0.046273336 -0.010216191 0.63100004
0.047625717 -0.010248573 0.63300002
0.048908576 -0.010264763 0.634
0.050116193 -0.010264763 0.634
0.051323812 -0.010264763 0.634
0.052531432 -0.010264763 0.634
0.053739052 -0.010264763 0.634
0.054946668 -0.010264763 0.634
-0.029213335 -0.0089428574 0.62600005
-0.028065717 -0.0089571439 0.62700003
-0.026828574 -0.0089428574 0.62600005
-0.025636192 -0.0089428574 0.62600005
-0.024404764 -0.0089285718 0.625
-0.022805715 -0.0087714288 0.61400002
-0.021636192 -0.0087714288 0.61400002
-0.020433335 -0.0087571433 0.61300004
-0.019265715 -0.0087571433 0.61300004
-0.018068573 -0.0087428577 0.61200005
-0.016875239 -0.0087285722 0.611
-0.015660001 -0.0087000001 0.60900003
-0.014404763 -0.0086428579 0.60500002
-0.013208573 -0.0086142858 0.60300004
-0.012000001 -0.0085714292 0.60000002
-0.010857143 -0.0085714292 0.60000002
-0.0096980957 -0.0085571436 0.59900004
-0.0085428581 -0.0085428581 0.59800005
-0.007379048 -0.008514286 0.59600002
-0.0062438101 -0.008514286 0.59600002
-0.0051000002 -0.0085000005 0.59500003
-0.0039666668 -0.0085000005 0.59500003
-0.0028333336 -0.0085000005 0.59500003
-0.0017000001 -0.0085000005 0.59500003
-0.00056761911 -0.008514286 0.59600002
0.00056761911 -0.008514286 0.59600002
0.0017028572 -0.008514286 0.59600002
0.0028428573 -0.0085285716 0.597
0.0039866669 -0.0085428581 0.59800005
0.0051257145 -0.0085428581 0.59800005
0.0062752385 -0.0085571436 0.59900004
0.007428572 -0.0085714292 0.60000002
0.0085857147 -0.0085857147 0.60100001
0.009746667 -0.0086000003 0.60200006
0.010929525 -0.0086285723 0.60400003
0.012080001 -0.0086285723 0.60400003
0.013230477 -0.0086285723 0.60400003
0.014380953 -0.0086285723 0.60400003
0.015557144 -0.0086428579 0.60500002
0.016709525 -0.0086428579 0.60500002
0.017861906 -0.0086428579 0.60500002
0.019045716 -0.0086571435 0.60600001
0.020233335 -0.008671429 0.60700005
0.021530477 -0.0087285722 0.611
0.022768574 -0.0087571433 0.61300004
0.023936192 -0.0087571433 0.61300004
0.025144763 -0.0087714288 0.61400002
0.026357144 -0.0087857153 0.61500001
0.027528573 -0.0087857153 0.61500001
0.028746668 -0.0088000009 0.61600006
0.029968573 -0.0088142864 0.61700004
0.031194288 -0.008828572 0.61800003
0.032423813 -0.0088428576 0.61900002
0.033657145 -0.0088571431 0.62
0.034838099 -0.0088571431 0.62
0.036135241 -0.0088857152 0.62200004
0.037320003 -0.0088857152 0.62200004
0.038566668 -0.0089000007 0.62300003
0.039817147 -0.0089142863 0.62400001
0.041137144 -0.0089428574 0.62600005
0.042464763 -0.0089714294 0.62800002
0.043660954 -0.0089714294 0.62800002
0.045071431 -0.0090142861 0.63100004
0.046273336 -0.0090142861 0.63100004
0.047700956 -0.0090571437 0.634
0.048908576 -0.0090571437 0.634
0.050116193 -0.0090571437 0.634
0.051404767 -0.0090714293 0.63500005
0.05261429 -0.0090714293 0.63500005
0.053739052 -0.0090571437 0.634
0.054946668 -0.0090571437 0.634
-0.029260002 -0.0077628577 0.62700003
-0.028065717 -0.0077628577 0.62700003
-0.026828574 -0.0077504767 0.62600005
-0.025636192 -0.0077504767 0.62600005
-0.024404764 -0.0077380957 0.625
-0.023177145 -0.0077257147 0.62400001
-0.021636192 -0.0076019051 0.61400002
-0.020433335 -0.0075895241 0.61300004
-0.019265715 -0.0075895241 0.61300004
-0.018068573 -0.0075771431 0.61200005
-0.016902858 -0.0075771431 0.61200005
-0.01571143 -0.0075647626 0.611
-0.014452382 -0.0075152386 0.60700005
-0.013252382 -0.0074904766 0.60500002
-0.012020001 -0.007440953 0.60100001
-0.010875239 -0.007440953 0.60100001
-0.0096980957 -0.007416191 0.59900004
-0.0085428581 -0.00740381 0.59800005
-0.007391429 -0.007391429 0.597
-0.0062438101 -0.007379048 0.59600002
-0.0051085716 -0.007379048 0.59600002
-0.0039733336 -0.007379048 0.59600002
-0.0028380954 -0.007379048 0.59600002
-0.0017028572 -0.007379048 0.59600002
-0.00056761911 -0.007379048 0.59600002
0.00056761911 -0.007379048 0.59600002
0.0017057144 -0.007391429 0.597
0.0028428573 -0.007391429 0.597
0.00398 -0.007391429 0.597
0.0051257145 -0.00740381 0.59800005
0.0062857149 -0.007428572 0.60000002
0.007428572 -0.007428572 0.60000002
0.0085857147 -0.007440953 0.60100001
0.009746667 -0.0074533341 0.60200006
0.010929525 -0.0074780956 0.60400003
0.012080001 -0.0074780956 0.60400003
0.013252382 -0.0074904766 0.60500002
0.014404763 -0.0074904766 0.60500002
0.015582859 -0.0075028576 0.60600001
0.016737144 -0.0075028576 0.60600001
0.017891429 -0.0075028576 0.60600001
0.019077145 -0.0075152386 0.60700005
0.020300001 -0.0075400006 0.60900003
0.021530477 -0.0075647626 0.611
0.022768574 -0.0075895241 0.61300004
0.023936192 -0.0075895241 0.61300004
0.025144763 -0.0076019051 0.61400002
0.026357144 -0.0076142862 0.61500001
0.027573336 -0.0076266672 0.61600006
0.028746668 -0.0076266672 0.61600006
0.029968573 -0.0076390482 0.61700004
0.031244764 -0.0076638102 0.61900002
0.032476194 -0.0076761912 0.62
0.033657145 -0.0076761912 0.62
0.03495048 -0.0077009527 0.62200004
0.036135241 -0.0077009527 0.62200004
0.037320003 -0.0077009527 0.62200004
0.038566668 -0.0077133337 0.62300003
0.039817147 -0.0077257147 0.62400001
0.041137144 -0.0077504767 0.62600005
0.042464763 -0.0077752387 0.62800002
0.043730479 -0.0077876197 0.62900001
0.045071431 -0.0078123813 0.63100004
0.046346668 -0.0078247627 0.63200003
0.047700956 -0.0078495247 0.634
0.048908576 -0.0078495247 0.634
0.050195243 -0.0078619057 0.63500005
0.051404767 -0.0078619057 0.63500005
0.05261429 -0.0078619057 0.63500005
0.053823814 -0.0078619057 0.63500005
0.054860003 -0.0078371437 0.63300002
0.056154288 -0.0078495247 0.634
-0.033209525 -0.0066419053 0.634
-0.031900954 -0.0066209529 0.63200003
-0.030697145 -0.0066209529 0.63200003
-0.029306669 -0.006579048 0.62800002
-0.028110478 -0.006579048 0.62800002
-0.02687143 -0.006568572 0.62700003
-0.025636192 -0.0065580956 0.62600005
-0.024404764 -0.0065476196 0.625
-0.022768574 -0.006421905 0.61300004
-0.021600954 -0.006421905 0.61300004
-0.020433335 -0.006421905 0.61300004
-0.019265715 -0.006421905 0.61300004
-0.018068573 -0.006411429 0.61200005
-0.016902858 -0.006411429 0.61200005
-0.01571143 -0.0064009526 0.611
-0.014476191 -0.0063695242 0.60800004
-0.013274287 -0.0063485717 0.60600001
-0.01204 -0.0063066669 0.60200006
-0.010875239 -0.0062961909 0.60100001
-0.0096980957 -0.0062752385 0.59900004
-0.0085571436 -0.0062752385 0.59900004
-0.007391429 -0.006254286 0.597
-0.0062438101 -0.0062438101 0.59600002
-0.0051085716 -0.0062438101 0.59600002
-0.0039733336 -0.0062438101 0.59600002
-0.0028380954 -0.0062438101 0.59600002
-0.0017028572 -0.0062438101 0.59600002
-0.00056761911 -0.0062438101 0.59600002
0.00056761911 -0.0062438101 0.59600002
0.0017057144 -0.006254286 0.597
0.0028476191 -0.0062647625 0.59800005
0.0039866669 -0.0062647625 0.59800005
0.0051342859 -0.0062752385 0.59900004
0.0062857149 -0.0062857149 0.60000002
0.007440953 -0.0062961909 0.60100001
0.0086000003 -0.0063066669 0.60200006
0.009762858 -0.0063171433 0.60300004
0.01094762 -0.0063380958 0.60500002
0.012100001 -0.0063380958 0.60500002
0.013252382 -0.0063380958 0.60500002
0.014428573 -0.0063485717 0.60600001
0.015582859 -0.0063485717 0.60600001
0.016737144 -0.0063485717 0.60600001
0.017891429 -0.0063485717 0.60600001
0.019077145 -0.0063590482 0.60700005
0.020266669 -0.0063695242 0.60800004
0.021530477 -0.0064009526 0.611
0.022768574 -0.006421905 0.61300004
0.02397524 -0.0064323815 0.61400002
0.025185715 -0.0064428574 0.61500001
0.026400002 -0.0064533339 0.61600006
0.027573336 -0.0064533339 0.61600006
0.028793335 -0.0064638099 0.61700004
0.030017145 -0.0064742863 0.61800003
0.03129524 -0.0064952387 0.62
0.032476194 -0.0064952387 0.62
0.033657145 -0.0064952387 0.62
0.03495048 -0.0065161907 0.62200004
0.036135241 -0.0065161907 0.62200004
0.037320003 -0.0065161907 0.62200004
0.038566668 -0.0065266672 0.62300003
0.039817147 -0.0065371431 0.62400001
0.041137144 -0.0065580956 0.62600005
0.042464763 -0.006579048 0.62800002
0.043869525 -0.0066104764 0.63100004
0.045142859 -0.0066209529 0.63200003
0.046420004 -0.0066314288 0.63300002
0.047700956 -0.0066419053 0.634
0.048908576 -0.0066419053 0.634
0.050195243 -0.0066523813 0.63500005
0.051404767 -0.0066523813 0.63500005
0.05261429 -0.0066523813 0.63500005
0.053823814 -0.0066523813 0.63500005
0.054946668 -0.0066419053 0.634
0.056154288 -0.0066419053 0.634
-0.033209525 -0.0054342858 0.634
-0.031900954 -0.005417143 0.63200003
-0.030648574 -0.0054085716 0.63100004
-0.029353335 -0.0053914287 0.62900001
-0.028155239 -0.0053914287 0.62900001
-0.026914287 -0.0053828573 0.62800002
-0.025677145 -0.0053742859 0.62700003
-0.024404764 -0.005357143 0.625
-0.022768574 -0.0052542859 0.61300004
-0.021600954 -0.0052542859 0.61300004
-0.020400001 -0.0052457144 0.61200005
-0.019265715 -0.0052542859 0.61300004
-0.018098097 -0.0052542859 0.61300004
-0.016902858 -0.0052457144 0.61200005
-0.01571143 -0.005237143 0.611
-0.014452382 -0.0052028573 0.60700005
-0.013252382 -0.0051857145 0.60500002
-0.012060001 -0.0051685716 0.60300004
-0.010893334 -0.0051600002 0.60200006
-0.0097304769 -0.0051514287 0.60100001
-0.0085714292 -0.0051428573 0.60000002
-0.007428572 -0.0051428573 0.60000002
-0.0062647625 -0.0051257145 0.59800005
-0.005117143 -0.005117143 0.597
-0.0039733336 -0.0051085716 0.59600002
-0.0028380954 -0.0051085716 0.59600002
-0.0017028572 -0.0051085716 0.59600002
-0.00056857144 -0.005117143 0.597
0.00056857144 -0.005117143 0.597
0.0017057144 -0.005117143 0.597
0.0028476191 -0.0051257145 0.59800005
0.0039933338 -0.0051342859 0.59900004
0.0051342859 -0.0051342859 0.59900004
0.0062857149 -0.0051428573 0.60000002
0.0074533341 -0.0051600002 0.60200006
0.0086142858 -0.0051685716 0.60300004
0.0097790482 -0.005177143 0.60400003
0.01094762 -0.0051857145 0.60500002
0.012100001 -0.0051857145 0.60500002
0.013274287 -0.0051942859 0.60600001
0.014452382 -0.0052028573 0.60700005
0.015608572 -0.0052028573 0.60700005
0.016792381 -0.0052114287 0.60800004
0.017950477 -0.0052114287 0.60800004
0.019140001 -0.0052200002 0.60900003
0.020300001 -0.0052200002 0.60900003
0.021600954 -0.0052542859 0.61300004
0.022805715 -0.0052628573 0.61400002
0.024014287 -0.0052714287 0.61500001
0.025185715 -0.0052714287 0.61500001
0.026400002 -0.0052800002 0.61600006
0.027618097 -0.0052885716 0.61700004
0.028793335 -0.0052885716 0.61700004
0.030065717 -0.0053057144 0.61900002
0.03129524 -0.0053142859 0.62
0.032476194 -0.0053142859 0.62
0.033765718 -0.0053314287 0.62200004
0.03495048 -0.0053314287 0.62200004
0.036193337 -0.0053400001 0.62300003
0.037440002 -0.0053485716 0.62400001
0.038690478 -0.005357143 0.625
0.039944764 -0.0053657144 0.62600005
0.041268576 -0.0053828573 0.62800002
0.042464763 -0.0053828573 0.62800002
0.043869525 -0.0054085716 0.63100004
0.045142859 -0.005417143 0.63200003
0.046493337 -0.0054342858 0.634
0.047700956 -0.0054342858 0.634
0.048985716 -0.0054428573 0.63500005
0.05027429 -0.0054514287 0.63600004
0.051485717 -0.0054514287 0.63600004
0.052697148 -0.0054514287 0.63600004
0.053908575 -0.0054514287 0.63600004
0.055033337 -0.0054428573 0.63500005
0.056242861 -0.0054428573 0.63500005
-0.029446669 -0.0042066667 0.63100004
-0.028244764 -0.0042066667 0.63100004
-0.026914287 -0.004186667 0.62800002
-0.025677145 -0.0041800002 0.62700003
-0.024443811 -0.0041733338 0.62600005
-0.023214288 -0.0041666669 0.625
-0.021988573 -0.0041600005 0.62400001
-0.020400001 -0.0040800003 0.61200005
-0.019265715 -0.0040866667 0.61300004
-0.018098097 -0.0040866667 0.61300004
-0.016902858 -0.0040800003 0.61200005
-0.01571143 -0.0040733335 0.611
-0.014476191 -0.0040533338 0.60800004
-0.013274287 -0.0040400005 0.60600001
-0.012080001 -0.0040266667 0.60400003
-0.010911429 -0.0040200003 0.60300004
-0.0097304769 -0.0040066671 0.60100001
-0.0085857147 -0.0040066671 0.60100001
-0.007428572 -0.0040000002 0.60000002
-0.0062752385 -0.0039933338 0.59900004
-0.0051257145 -0.0039866669 0.59800005
-0.00398 -0.00398 0.597
-0.0028428573 -0.00398 0.597
-0.0017057144 -0.00398 0.597
-0.00056857144 -0.00398 0.597
0.00056857144 -0.00398 0.597
0.0017085716 -0.0039866669 0.59800005
0.0028523812 -0.0039933338 0.59900004
0.0039933338 -0.0039933338 0.59900004
0.0051428573 -0.0040000002 0.60000002
0.0062961909 -0.0040066671 0.60100001
0.0074533341 -0.0040133335 0.60200006
0.0086285723 -0.0040266667 0.60400003
0.0097790482 -0.0040266667 0.60400003
0.01094762 -0.0040333336 0.60500002
0.012120001 -0.0040400005 0.60600001
0.013296192 -0.0040466669 0.60700005
0.014452382 -0.0040466669 0.60700005
0.015634287 -0.0040533338 0.60800004
0.016792381 -0.0040533338 0.60800004
0.017980002 -0.0040600002 0.60900003
0.019140001 -0.0040600002 0.60900003
0.020366669 -0.0040733335 0.611
0.021565715 -0.0040800003 0.61200005
0.022768574 -0.0040866667 0.61300004
0.024014287 -0.0041000005 0.61500001
0.025185715 -0.0041000005 0.61500001
0.026400002 -0.0041066669 0.61600006
0.027618097 -0.0041133338 0.61700004
0.028840002 -0.0041200002 0.61800003
0.030065717 -0.004126667 0.61900002
0.03129524 -0.0041333335 0.62
0.032580953 -0.0041466667 0.62200004
0.033765718 -0.0041466667 0.62200004
0.035006668 -0.0041533336 0.62300003
0.036193337 -0.0041533336 0.62300003
0.037500001 -0.0041666669 0.625
0.038752384 -0.0041733338 0.62600005
0.040136192 -0.0041933334 0.62900001
0.04133429 -0.0041933334 0.62900001
0.042667624 -0.0042066667 0.63100004
0.044008575 -0.0042200005 0.63300002
0.045214288 -0.0042200005 0.63300002
0.046493337 -0.0042266669 0.634
0.047776192 -0.0042333337 0.63500005
0.049062859 -0.0042400002 0.63600004
0.050432384 -0.0042533334 0.63800001
0.051647622 -0.0042533334 0.63800001
0.05286286 -0.0042533334 0.63800001
0.054078098 -0.0042533334 0.63800001
0.055120002 -0.0042400002 0.63600004
0.056154288 -0.0042266669 0.634
-0.029446669 -0.0030047621 0.63100004
-0.028244764 -0.0030047621 0.63100004
-0.026914287 -0.0029904763 0.62800002
-0.025677145 -0.0029857145 0.62700003
-0.024443811 -0.0029809526 0.62600005
-0.023214288 -0.0029761908 0.625
-0.021988573 -0.0029714287 0.62400001
-0.020466669 -0.0029238097 0.61400002
-0.019297143 -0.0029238097 0.61400002
-0.018098097 -0.0029190478 0.61300004
-0.016902858 -0.002914286 0.61200005
-0.01571143 -0.0029095239 0.611
-0.014476191 -0.0028952383 0.60800004
-0.013296192 -0.0028904765 0.60700005
-0.012080001 -0.0028761907 0.60400003
-0.010911429 -0.0028714288 0.60300004
-0.0097304769 -0.0028619049 0.60100001
-0.0085857147 -0.0028619049 0.60100001
-0.007440953 -0.0028619049 0.60100001
-0.0062752385 -0.0028523812 0.59900004
-0.0051342859 -0.0028523812 0.59900004
-0.0039866669 -0.0028476191 0.59800005
-0.0028476191 -0.0028476191 0.59800005
-0.0017085716 -0.0028476191 0.59800005
-0.00056952384 -0.0028476191 0.59800005
0.00056857144 -0.0028428573 0.597
0.0017085716 -0.0028476191 0.59800005
0.0028523812 -0.0028523812 0.59900004
0.0040000002 -0.0028571431 0.60000002
0.0051514287 -0.0028619049 0.60100001
0.0063066669 -0.0028666668 0.60200006
0.0074657146 -0.0028714288 0.60300004
0.0086285723 -0.0028761907 0.60400003
0.0097790482 -0.0028761907 0.60400003
0.01094762 -0.0028809526 0.60500002
0.012120001 -0.0028857144 0.60600001
0.013296192 -0.0028904765 0.60700005
0.014452382 -0.0028904765 0.60700005
0.015634287 -0.0028952383 0.60800004
0.016792381 -0.0028952383 0.60800004
0.017980002 -0.0029000002 0.60900003
0.019202858 -0.0029095239 0.611
0.020366669 -0.0029095239 0.611
0.021565715 -0.002914286 0.61200005
0.022768574 -0.0029190478 0.61300004
0.02397524 -0.0029238097 0.61400002
0.025185715 -0.0029285715 0.61500001
0.026400002 -0.0029333336 0.61600006
0.027707621 -0.0029476192 0.61900002
0.028933335 -0.002952381 0.62
0.030114288 -0.002952381 0.62
0.031396192 -0.002961905 0.62200004
0.032580953 -0.002961905 0.62200004
0.033765718 -0.002961905 0.62200004
0.035006668 -0.0029666668 0.62300003
0.036251429 -0.0029714287 0.62400001
0.037560001 -0.0029809526 0.62600005
0.038814288 -0.0029857145 0.62700003
0.040136192 -0.0029952384 0.62900001
0.041465718 -0.0030047621 0.63100004
0.042667624 -0.0030047621 0.63100004
0.044008575 -0.0030142858 0.63300002
0.045285717 -0.0030190479 0.634
0.046493337 -0.0030190479 0.634
0.047776192 -0.0030238098 0.63500005
0.049062859 -0.0030285716 0.63600004
0.050511431 -0.0030428574 0.63900006
0.051728576 -0.0030428574 0.63900006
0.053028576 -0.0030476192 0.64000005
0.05416286 -0.0030428574 0.63900006
0.055293337 -0.0030380955 0.63800001
0.056597147 -0.0030428574 0.63900006
-0.029446669 -0.0018028573 0.63100004
-0.028244764 -0.0018028573 0.63100004
-0.026957145 -0.001797143 0.62900001
-0.025718097 -0.0017942858 0.62800002
-0.024482859 -0.0017914287 0.62700003
-0.023214288 -0.0017857144 0.625
-0.021988573 -0.0017828572 0.62400001
-0.020633334 -0.0017685716 0.61900002
-0.019297143 -0.0017542859 0.61400002
-0.018098097 -0.0017514287 0.61300004
-0.016930478 -0.0017514287 0.61300004
-0.015737144 -0.0017485715 0.61200005
-0.01454762 -0.0017457145 0.611
-0.013318096 -0.0017371429 0.60800004
-0.012100001 -0.0017285715 0.60500002
-0.010929525 -0.0017257144 0.60400003
-0.009746667 -0.0017200001 0.60200006
-0.0085857147 -0.001717143 0.60100001
-0.007440953 -0.001717143 0.60100001
-0.0062752385 -0.0017114286 0.59900004
-0.0051342859 -0.0017114286 0.59900004
-0.0039866669 -0.0017085716 0.59800005
-0.0028476191 -0.0017085716 0.59800005
-0.0017085716 -0.0017085716 0.59800005
-0.00056952384 -0.0017085716 0.59800005
0.00056952384 -0.0017085716 0.59800005
0.0017114286 -0.0017114286 0.59900004
0.0028571431 -0.0017142858 0.60000002
0.0040000002 -0.0017142858 0.60000002
0.0051514287 -0.001717143 0.60100001
0.0063066669 -0.0017200001 0.60200006
0.0074657146 -0.0017228572 0.60300004
0.0086285723 -0.0017257144 0.60400003
0.0097952392 -0.0017285715 0.60500002
0.01094762 -0.0017285715 0.60500002
0.012120001 -0.0017314287 0.60600001
0.013296192 -0.0017342858 0.60700005
0.014452382 -0.0017342858 0.60700005
0.015634287 -0.0017371429 0.60800004
0.01682 -0.0017400001 0.60900003
0.01803905 -0.0017457145 0.611
0.019202858 -0.0017457145 0.611
0.020400001 -0.0017485715 0.61200005
0.021565715 -0.0017485715 0.61200005
0.022768574 -0.0017514287 0.61300004
0.02397524 -0.0017542859 0.61400002
0.025185715 -0.0017571429 0.61500001
0.026442859 -0.0017628573 0.61700004
0.027707621 -0.0017685716 0.61900002
0.028933335 -0.0017714287 0.62
0.030114288 -0.0017714287 0.62
0.031396192 -0.001777143 0.62200004
0.032580953 -0.001777143 0.62200004
0.033765718 -0.001777143 0.62200004
0.035006668 -0.0017800002 0.62300003
0.036309525 -0.0017857144 0.625
0.037620004 -0.0017914287 0.62700003
0.038876195 -0.0017942858 0.62800002
0.040136192 -0.001797143 0.62900001
0.041465718 -0.0018028573 0.63100004
0.042667624 -0.0018028573 0.63100004
0.044008575 -0.0018085715 0.63300002
0.045285717 -0.0018114287 0.634
0.046566669 -0.0018142859 0.63500005
0.047851432 -0.0018171429 0.63600004
0.049217146 -0.0018228573 0.63800001
0.050511431 -0.0018257144 0.63900006
0.051809527 -0.0018285715 0.64000005
0.053028576 -0.0018285715 0.64000005
0.05416286 -0.0018257144 0.63900006
0.055380005 -0.0018257144 0.63900006
0.056862861 -0.0018342858 0.64200002
-0.028244764 -0.00060095242 0.63100004
-0.026957145 -0.00059904763 0.62900001
-0.025718097 -0.0005980953 0.62800002
-0.024482859 -0.00059714291 0.62700003
-0.023251429 -0.00059619051 0.62600005
-0.02202381 -0.00059523812 0.625
-0.020666668 -0.00059047621 0.62
-0.019454287 -0.00058952387 0.61900002
-0.01812762 -0.00058476196 0.61400002
-0.016930478 -0.00058380957 0.61300004
-0.015737144 -0.00058285717 0.61200005
-0.01454762 -0.00058190478 0.611
-0.013318096 -0.00057904766 0.60800004
-0.012120001 -0.00057714287 0.60600001
-0.01094762 -0.00057619053 0.60500002
-0.009746667 -0.00057333335 0.60200006
-0.0085857147 -0.00057238102 0.60100001
-0.007440953 -0.00057238102 0.60100001
-0.0062752385 -0.00057047623 0.59900004
-0.0051342859 -0.00057047623 0.59900004
-0.0039866669 -0.00056952384 0.59800005
-0.0028476191 -0.00056952384 0.59800005
-0.0017114286 -0.00057047623 0.59900004
-0.00057047623 -0.00057047623 0.59900004
0.00057047623 -0.00057047623 0.59900004
0.0017114286 -0.00057047623 0.59900004
0.0028571431 -0.00057142862 0.60000002
0.0040066671 -0.00057238102 0.60100001
0.0051600002 -0.00057333335 0.60200006
0.0063171433 -0.00057428575 0.60300004
0.0074657146 -0.00057428575 0.60300004
0.0086428579 -0.00057619053 0.60500002
0.0097952392 -0.00057619053 0.60500002
0.01094762 -0.00057619053 0.60500002
0.012120001 -0.00057714287 0.60600001
0.013296192 -0.00057809526 0.60700005
0.014476191 -0.00057904766 0.60800004
0.015634287 -0.00057904766 0.60800004
0.01682 -0.00058000005 0.60900003
0.01803905 -0.00058190478 0.611
0.019234287 -0.00058285717 0.61200005
0.020400001 -0.00058285717 0.61200005
0.021565715 -0.00058285717 0.61200005
0.022768574 -0.00058380957 0.61300004
0.02397524 -0.00058476196 0.61400002
0.025226668 -0.00058666669 0.61600006
0.026485717 -0.00058857148 0.61800003
0.027752383 -0.00059047621 0.62
0.029026669 -0.00059238099 0.62200004
0.03021143 -0.00059238099 0.62200004
0.031396192 -0.00059238099 0.62200004
0.032633334 -0.00059333339 0.62300003
0.033820003 -0.00059333339 0.62300003
0.035062861 -0.00059428578 0.62400001
0.036367621 -0.00059619051 0.62600005
0.037680004 -0.0005980953 0.62800002
0.038938098 -0.00059904763 0.62900001
0.040263813 -0.00060095242 0.63100004
0.041465718 -0.00060095242 0.63100004
0.042802859 -0.00060285721 0.63300002
0.044078097 -0.00060380955 0.634
0.045285717 -0.00060380955 0.634
0.046640001 -0.00060571433 0.63600004
0.048001908 -0.00060761906 0.63800001
0.049217146 -0.00060761906 0.63800001
0.050511431 -0.00060857146 0.63900006
0.051809527 -0.00060952385 0.64000005
0.053028576 -0.00060952385 0.64000005
0.05416286 -0.00060857146 0.63900006
0.055380005 -0.00060857146 0.63900006
0.057040002 -0.00061333337 0.64400005
-0.028289525 0.00060190482 0.63200003
-0.027042858 0.00060095242 0.63100004
-0.025759049 0.00059904763 0.62900001
-0.024521906 0.0005980953 0.62800002
-0.023251429 0.00059619051 0.62600005
-0.02202381 0.00059523812 0.625
-0.020800002 0.00059428578 0.62400001
-0.019485716 0.00059047621 0.62
-0.01812762 0.00058476196 0.61400002
-0.016958097 0.00058476196 0.61400002
-0.015737144 0.00058285717 0.61200005
-0.01454762 0.00058190478 0.611
-0.013318096 0.00057904766 0.60800004
-0.012120001 0.00057714287 0.60600001
-0.01094762 0.00057619053 0.60500002
-0.009762858 0.00057428575 0.60300004
-0.0086000003 0.00057333335 0.60200006
-0.007440953 0.00057238102 0.60100001
-0.0062752385 0.00057047623 0.59900004
-0.0051342859 0.00057047623 0.59900004
-0.0039933338 0.00057047623 0.59900004
-0.0028523812 0.00057047623 0.59900004
-0.0017114286 0.00057047623 0.59900004
-0.00057047623 0.00057047623 0.59900004
0.00057047623 0.00057047623 0.59900004
0.0017142858 0.00057142862 0.60000002
0.0028619049 0.00057238102 0.60100001
0.0040066671 0.00057238102 0.60100001
0.0051600002 0.00057333335 0.60200006
0.0063171433 0.00057428575 0.60300004
0.0074780956 0.00057523814 0.60400003
0.0086428579 0.00057619053 0.60500002
0.0098114293 0.00057714287 0.60600001
0.010965715 0.00057714287 0.60600001
0.012140001 0.00057809526 0.60700005
0.013296192 0.00057809526 0.60700005
0.014476191 0.00057904766 0.60800004
0.015660001 0.00058000005 0.60900003
0.016875239 0.00058190478 0.611
0.018068573 0.00058285717 0.61200005
0.019234287 0.00058285717 0.61200005
0.020400001 0.00058285717 0.61200005
0.021600954 0.00058380957 0.61300004
0.022805715 0.00058476196 0.61400002
0.024014287 0.0005857143 0.61500001
0.025226668 0.00058666669 0.61600006
0.026485717 0.00058857148 0.61800003
0.027752383 0.00059047621 0.62
0.029026669 0.00059238099 0.62200004
0.03021143 0.00059238099 0.62200004
0.031446669 0.00059333339 0.62300003
0.032633334 0.00059333339 0.62300003
