# .PCD v0.7 - Point Cloud Data file format
VERSION 0.7
FIELDS x y z
SIZE 4 4 4
TYPE F F F
COUNT 1 1 1
WIDTH 1345
HEIGHT 1
VIEWPOINT 0 0 0 1 0 0 0
POINTS 1345
DATA ascii
-0.0021514287 0.030837145 0.75300002
-0.00071904768 0.030919049 0.75500005
0.00071904768 0.030919049 0.75500005
0.0021571431 0.030919049 0.75500005
0.0036000002 0.030960003 0.75600004
0.0050733336 0.031164763 0.76100004
0.0065400004 0.03124667 0.76300001
0.007993334 0.03124667 0.76300001
-0.10246667 0.031800002 0.74200004
-0.10105334 0.031800002 0.74200004
-0.099774294 0.031842858 0.74300003
-0.098359056 0.031842858 0.74300003
-0.096943818 0.031842858 0.74300003
-0.09552858 0.031842858 0.74300003
-0.094113342 0.031842858 0.74300003
-0.092698105 0.031842858 0.74300003
-0.091282859 0.031842858 0.74300003
-0.090109527 0.031928573 0.74500006
-0.088690482 0.031928573 0.74500006
-0.087271437 0.031928573 0.74500006
-0.085852385 0.031928573 0.74500006
-0.08443334 0.031928573 0.74500006
-0.083014295 0.031928573 0.74500006
-0.081595242 0.031928573 0.74500006
-0.080176197 0.031928573 0.74500006
-0.078757145 0.031928573 0.74500006
-0.077338099 0.031928573 0.74500006
-0.075919054 0.031928573 0.74500006
-0.074500002 0.031928573 0.74500006
-0.072884768 0.031842858 0.74300003
-0.071661912 0.031928573 0.74500006
-0.070242859 0.031928573 0.74500006
-0.068639055 0.031842858 0.74300003
-0.067223817 0.031842858 0.74300003
-0.065808579 0.031842858 0.74300003
-0.064393334 0.031842858 0.74300003
-0.062978096 0.031842858 0.74300003
-0.061480004 0.031800002 0.74200004
-0.06006667 0.031800002 0.74200004
-0.058653336 0.031800002 0.74200004
-0.057240006 0.031800002 0.74200004
-0.055826671 0.031800002 0.74200004
-0.054413337 0.031800002 0.74200004
-0.052857146 0.031714287 0.74000001
-0.051447622 0.031714287 0.74000001
-0.050038099 0.031714287 0.74000001
-0.048562862 0.031671431 0.73900002
-0.047155242 0.031671431 0.73900002
-0.045623813 0.031585716 0.73700005
-0.044160005 0.03154286 0.73600006
-0.042816192 0.031585716 0.73700005
-0.041356195 0.03154286 0.73600006
-0.040008575 0.031585716 0.73700005
-0.038709525 0.031671431 0.73900002
-0.037301905 0.031671431 0.73900002
-0.03589429 0.031671431 0.73900002
-0.03448667 0.031671431 0.73900002
-0.032989524 0.031585716 0.73700005
-0.031585716 0.031585716 0.73700005
-0.030181907 0.031585716 0.73700005
-0.02873905 0.03154286 0.73600006
-0.027337145 0.03154286 0.73600006
-0.02593524 0.03154286 0.73600006
-0.024533335 0.03154286 0.73600006
-0.023162859 0.031585716 0.73700005
-0.02175905 0.031585716 0.73700005
-0.020493334 0.031800002 0.74200004
-0.019080002 0.031800002 0.74200004
-0.017619049 0.031714287 0.74000001
-0.016253334 0.031800002 0.74200004
-0.014840001 0.031800002 0.74200004
-0.013426668 0.031800002 0.74200004
-0.012013334 0.031800002 0.74200004
-0.010600001 0.031800002 0.74200004
-0.0091990484 0.031842858 0.74300003
-0.0077838101 0.031842858 0.74300003
-0.0063857147 0.031928573 0.74500006
-0.0049866671 0.032057144 0.74800003
-0.0035714288 0.032142859 0.75000006
-0.0021485717 0.032228574 0.75200003
-0.00071904768 0.032357145 0.75500005
0.00071904768 0.032357145 0.75500005
0.0021514287 0.03227143 0.75300002
0.0035952383 0.032357145 0.75500005
0.0050733336 0.032614287 0.76100004
0.0065400004 0.032700002 0.76300001
0.0080457143 0.032914288 0.76800001
0.0095333336 0.033000004 0.77000004
-0.10246667 0.033213336 0.74200004
-0.10105334 0.033213336 0.74200004
-0.099640004 0.033213336 0.74200004
-0.098226674 0.033213336 0.74200004
-0.096813336 0.033213336 0.74200004
-0.095400006 0.033213336 0.74200004
-0.093986675 0.033213336 0.74200004
-0.092573337 0.033213336 0.74200004
-0.091160007 0.033213336 0.74200004
-0.089746669 0.033213336 0.74200004
-0.088452384 0.033258099 0.74300003
-0.086920008 0.033213336 0.74200004
-0.08550667 0.033213336 0.74200004
-0.08409334 0.033213336 0.74200004
-0.082791433 0.033258099 0.74300003
-0.081376195 0.033258099 0.74300003
-0.079853341 0.033213336 0.74200004
-0.078545719 0.033258099 0.74300003
-0.077130482 0.033258099 0.74300003
-0.075613335 0.033213336 0.74200004
-0.074200004 0.033213336 0.74200004
-0.072786674 0.033213336 0.74200004
-0.071180955 0.03312381 0.74000001
-0.069771431 0.03312381 0.74000001
-0.068269528 0.03307905 0.73900002
-0.066861913 0.03307905 0.73900002
-0.065454289 0.03307905 0.73900002
-0.064046673 0.03307905 0.73900002
-0.062723815 0.03312381 0.74000001
-0.061314289 0.03312381 0.74000001
-0.059904765 0.03312381 0.74000001
-0.058495242 0.03312381 0.74000001
-0.057085719 0.03312381 0.74000001
-0.055676196 0.03312381 0.74000001
-0.054266669 0.03312381 0.74000001
-0.052857146 0.03312381 0.74000001
-0.051378097 0.03307905 0.73900002
-0.049970478 0.03307905 0.73900002
-0.04843143 0.032989524 0.73700005
-0.047027621 0.032989524 0.73700005
-0.0454381 0.032855239 0.73400003
-0.044040002 0.032855239 0.73400003
-0.0427581 0.032944765 0.73600006
-0.041131433 0.032765716 0.73200005
-0.039845716 0.032855239 0.73400003
-0.038447622 0.032855239 0.73400003
-0.037200954 0.032989524 0.73700005
-0.035797145 0.032989524 0.73700005
-0.034393337 0.032989524 0.73700005
-0.032989524 0.032989524 0.73700005
-0.03154286 0.032944765 0.73600006
-0.030140955 0.032944765 0.73600006
-0.02873905 0.032944765 0.73600006
-0.027262859 0.032855239 0.73400003
-0.025864763 0.032855239 0.73400003
-0.024533335 0.032944765 0.73600006
-0.02313143 0.032944765 0.73600006
-0.021670477 0.032855239 0.73400003
-0.02035524 0.032989524 0.73700005
-0.018951429 0.032989524 0.73700005
-0.017619049 0.03312381 0.74000001
-0.016209524 0.03312381 0.74000001
-0.014800001 0.03312381 0.74000001
-0.013390477 0.03312381 0.74000001
-0.012013334 0.033213336 0.74200004
-0.010600001 0.033213336 0.74200004
-0.0091990484 0.033258099 0.74300003
-0.0078047626 0.033347622 0.74500006
-0.0063857147 0.033347622 0.74500006
-0.0050000004 0.03357143 0.75000006
-0.0035809525 0.033660956 0.75200003
-0.0021514287 0.033705715 0.75300002
-0.00072000007 0.033840001 0.75600004
0.00071904768 0.033795241 0.75500005
0.0021600001 0.033840001 0.75600004
0.0036000002 0.033840001 0.75600004
0.0050400002 0.033840001 0.75600004
0.0064800004 0.033840001 0.75600004
-0.10346001 0.03448667 0.73900002
-0.10205239 0.03448667 0.73900002
-0.10078096 0.034533337 0.74000001
-0.099640004 0.03462667 0.74200004
-0.098226674 0.03462667 0.74200004
-0.096552387 0.034533337 0.74000001
-0.095142864 0.034533337 0.74000001
-0.093733341 0.034533337 0.74000001
-0.092323817 0.034533337 0.74000001
-0.090914294 0.034533337 0.74000001
-0.089504771 0.034533337 0.74000001
-0.08809524 0.034533337 0.74000001
-0.086685717 0.034533337 0.74000001
-0.085276194 0.034533337 0.74000001
-0.083866671 0.034533337 0.74000001
-0.082457148 0.034533337 0.74000001
-0.081047624 0.034533337 0.74000001
-0.079638101 0.034533337 0.74000001
-0.078228578 0.034533337 0.74000001
-0.076819055 0.034533337 0.74000001
-0.075409532 0.034533337 0.74000001
-0.074000008 0.034533337 0.74000001
-0.072001912 0.034253336 0.73400003
-0.070796192 0.03434667 0.73600006
-0.06939429 0.03434667 0.73600006
-0.068084769 0.034393337 0.73700005
-0.066590481 0.03434667 0.73600006
-0.065188579 0.03434667 0.73600006
-0.063786671 0.03434667 0.73600006
-0.062469527 0.034393337 0.73700005
-0.061065719 0.034393337 0.73700005
-0.05966191 0.034393337 0.73700005
-0.058416195 0.03448667 0.73900002
-0.057008576 0.03448667 0.73900002
-0.055600956 0.03448667 0.73900002
-0.054193337 0.03448667 0.73900002
-0.05264286 0.034393337 0.73700005
-0.051239051 0.034393337 0.73700005
-0.049835242 0.034393337 0.73700005
-0.048365716 0.03434667 0.73600006
-0.046836194 0.034253336 0.73400003
-0.04531429 0.034160003 0.73200005
-0.043860003 0.034113336 0.73100001
-0.04246762 0.034113336 0.73100001
-0.041075241 0.034113336 0.73100001
-0.039682861 0.034113336 0.73100001
-0.038290478 0.034113336 0.73100001
-0.036898099 0.034113336 0.73100001
-0.035748575 0.03434667 0.73600006
-0.03434667 0.03434667 0.73600006
-0.032855239 0.034253336 0.73400003
-0.031457145 0.034253336 0.73400003
-0.030059049 0.034253336 0.73400003
-0.028660955 0.034253336 0.73400003
-0.027188573 0.034160003 0.73200005
-0.025794288 0.034160003 0.73200005
-0.024400001 0.034160003 0.73200005
-0.023068573 0.034253336 0.73400003
-0.021581907 0.034113336 0.73100001
-0.020051429 0.033880003 0.72600001
-0.018925715 0.03434667 0.73600006
-0.017619049 0.034533337 0.74000001
-0.016209524 0.034533337 0.74000001
-0.014800001 0.034533337 0.74000001
-0.013390477 0.034533337 0.74000001
-0.012013334 0.03462667 0.74200004
-0.010614286 0.034673337 0.74300003
-0.0091990484 0.034673337 0.74300003
-0.0078257145 0.034860004 0.74700004
-0.006411429 0.03490667 0.74800003
-0.0050000004 0.035000004 0.75000006
-0.0035809525 0.035093337 0.75200003
-0.0021571431 0.035233337 0.75500005
-0.00072000007 0.035280004 0.75600004
0.00072000007 0.035280004 0.75600004
0.0021657145 0.035373334 0.75800002
0.0036190478 0.035466667 0.76000005
0.0050666672 0.035466667 0.76000005
-0.10695429 0.03565143 0.73400003
-0.1055562 0.03565143 0.73400003
-0.1041581 0.03565143 0.73400003
-0.10304001 0.035748575 0.73600006
-0.1016381 0.035748575 0.73600006
-0.10037239 0.035797145 0.73700005
-0.09896858 0.035797145 0.73700005
-0.097564772 0.035797145 0.73700005
-0.096160956 0.035797145 0.73700005
-0.094757147 0.035797145 0.73700005
-0.093226671 0.035748575 0.73600006
-0.09194953 0.035797145 0.73700005
-0.090545721 0.035797145 0.73700005
-0.088779055 0.03565143 0.73400003
-0.087380961 0.03565143 0.73400003
-0.085982859 0.03565143 0.73400003
-0.084584765 0.03565143 0.73400003
-0.083186671 0.03565143 0.73400003
-0.081788577 0.03565143 0.73400003
-0.080171436 0.03555429 0.73200005
-0.078777149 0.03555429 0.73200005
-0.077382863 0.03555429 0.73200005
-0.075988576 0.03555429 0.73200005
-0.074594289 0.03555429 0.73200005
-0.073100008 0.035505716 0.73100001
-0.071707621 0.035505716 0.73100001
-0.070315242 0.035505716 0.73100001
-0.068922862 0.035505716 0.73100001
-0.067622863 0.03555429 0.73200005
-0.066228576 0.03555429 0.73200005
-0.064834289 0.03555429 0.73200005
-0.063440003 0.03555429 0.73200005
-0.062045719 0.03555429 0.73200005
-0.060651433 0.03555429 0.73200005
-0.059419051 0.03565143 0.73400003
-0.057862859 0.03555429 0.73200005
-0.056622859 0.03565143 0.73400003
-0.055224765 0.03565143 0.73400003
-0.053826671 0.03565143 0.73400003
-0.052428573 0.03565143 0.73400003
-0.051030479 0.03565143 0.73400003
-0.049497146 0.03555429 0.73200005
-0.048102859 0.03555429 0.73200005
-0.046644766 0.035505716 0.73100001
-0.045128573 0.035408575 0.72900003
-0.043740004 0.035408575 0.72900003
-0.042293336 0.035360001 0.72800004
-0.04096286 0.035408575 0.72900003
-0.039520003 0.035360001 0.72800004
-0.038133334 0.035360001 0.72800004
-0.03674667 0.035360001 0.72800004
-0.03526286 0.03526286 0.72600001
-0.033973336 0.035360001 0.72800004
-0.032631431 0.035408575 0.72900003
-0.031328574 0.035505716 0.73100001
-0.029936193 0.035505716 0.73100001
-0.028543811 0.035505716 0.73100001
-0.027077144 0.035408575 0.72900003
-0.025688574 0.035408575 0.72900003
-0.024300002 0.035408575 0.72900003
-0.022911429 0.035408575 0.72900003
-0.021522859 0.035408575 0.72900003
-0.020051429 0.03526286 0.72600001
-0.018797144 0.035505716 0.73100001
-0.017476192 0.03565143 0.73400003
-0.01614381 0.035797145 0.73700005
-0.014740001 0.035797145 0.73700005
-0.013390477 0.03594286 0.74000001
-0.012013334 0.036040001 0.74200004
-0.010614286 0.036088575 0.74300003
-0.0092238104 0.036185715 0.74500006
-0.0078257145 0.03628286 0.74700004
-0.006411429 0.03633143 0.74800003
-0.0050000004 0.036428574 0.75000006
-0.0035809525 0.036525715 0.75200003
-0.0021571431 0.03667143 0.75500005
-0.00072000007 0.036720004 0.75600004
0.00072000007 0.036720004 0.75600004
0.0021600001 0.036720004 0.75600004
0.0036095241 0.036817145 0.75800002
-0.10666286 0.036948573 0.73200005
-0.10526858 0.036948573 0.73200005
-0.1041581 0.037049524 0.73400003
-0.10276001 0.037049524 0.73400003
-0.10136191 0.037049524 0.73400003
-0.1002362 0.03715048 0.73600006
-0.098834291 0.03715048 0.73600006
-0.09743239 0.03715048 0.73600006
-0.096030481 0.03715048 0.73600006
-0.094371438 0.037049524 0.73400003
-0.092973337 0.037049524 0.73400003
-0.091575243 0.037049524 0.73400003
-0.090177149 0.037049524 0.73400003
-0.088537149 0.036948573 0.73200005
-0.087023817 0.036898099 0.73100001
-0.085631438 0.036898099 0.73100001
-0.084239051 0.036898099 0.73100001
-0.082960002 0.036948573 0.73200005
-0.081454292 0.036898099 0.73100001
-0.080061913 0.036898099 0.73100001
-0.078669526 0.036898099 0.73100001
-0.077277146 0.036898099 0.73100001
-0.075884767 0.036898099 0.73100001
-0.074492387 0.036898099 0.73100001
-0.073100008 0.036898099 0.73100001
-0.071707621 0.036898099 0.73100001
-0.070315242 0.036898099 0.73100001
-0.068922862 0.036898099 0.73100001
-0.067530483 0.036898099 0.73100001
-0.066138096 0.036898099 0.73100001
-0.064745717 0.036898099 0.73100001
-0.063353337 0.036898099 0.73100001
-0.061960958 0.036898099 0.73100001
-0.060402863 0.036797144 0.72900003
-0.059014291 0.036797144 0.72900003
-0.057625718 0.036797144 0.72900003
-0.056005716 0.036645718 0.72600001
-0.054773338 0.03674667 0.72800004
-0.05338667 0.03674667 0.72800004
-0.052071434 0.036797144 0.72900003
-0.050613336 0.03674667 0.72800004
-0.049226671 0.03674667 0.72800004
-0.047905717 0.036797144 0.72900003
-0.046517145 0.036797144 0.72900003
-0.04506667 0.03674667 0.72800004
-0.043680001 0.03674667 0.72800004
-0.042293336 0.03674667 0.72800004
-0.040906668 0.03674667 0.72800004
-0.039411429 0.036645718 0.72600001
-0.038028575 0.036645718 0.72600001
-0.036645718 0.036645718 0.72600001
-0.035214286 0.03659524 0.72500002
-0.033833336 0.03659524 0.72500002
-0.032497145 0.036645718 0.72600001
-0.031114288 0.036645718 0.72600001
-0.029854288 0.036797144 0.72900003
-0.028465716 0.036797144 0.72900003
-0.027040001 0.03674667 0.72800004
-0.025688574 0.036797144 0.72900003
-0.024300002 0.036797144 0.72900003
-0.022911429 0.036797144 0.72900003
-0.021522859 0.036797144 0.72900003
-0.020189526 0.036898099 0.73100001
-0.018822858 0.036948573 0.73200005
-0.01754762 0.037200954 0.73700005
-0.01614381 0.037200954 0.73700005
-0.014780001 0.037301905 0.73900002
-0.013426668 0.037453335 0.74200004
-0.012029525 0.037503812 0.74300003
-0.010642858 0.037604764 0.74500006
-0.0092485724 0.037705716 0.74700004
-0.007836191 0.037756193 0.74800003
-0.0064285719 0.037857145 0.75000006
-0.0050133336 0.037958097 0.75200003
-0.0035952383 0.038109526 0.75500005
-0.0021600001 0.038160004 0.75600004
-0.00072000007 0.038160004 0.75600004
0.00072000007 0.038160004 0.75600004
0.0021742859 0.038412385 0.76100004
-0.10930191 0.038290478 0.73100001
-0.10790953 0.038290478 0.73100001
-0.10651715 0.038290478 0.73100001
-0.10526858 0.03834286 0.73200005
-0.1038743 0.03834286 0.73200005
-0.10248001 0.03834286 0.73200005
-0.10108572 0.03834286 0.73200005
-0.099963814 0.038447622 0.73400003
-0.09856572 0.038447622 0.73400003
-0.097167626 0.038447622 0.73400003
-0.095769532 0.038447622 0.73400003
-0.094114289 0.03834286 0.73200005
-0.092720009 0.03834286 0.73200005
-0.091325723 0.03834286 0.73200005
-0.089931436 0.03834286 0.73200005
-0.088416196 0.038290478 0.73100001
-0.087023817 0.038290478 0.73100001
-0.085631438 0.038290478 0.73100001
-0.084239051 0.038290478 0.73100001
-0.082846671 0.038290478 0.73100001
-0.081454292 0.038290478 0.73100001
-0.079842865 0.038185716 0.72900003
-0.078454293 0.038185716 0.72900003
-0.077065721 0.038185716 0.72900003
-0.07557334 0.038133334 0.72800004
-0.074288577 0.038185716 0.72900003
-0.072900005 0.038185716 0.72900003
-0.071511433 0.038185716 0.72900003
-0.07012286 0.038185716 0.72900003
-0.068734288 0.038185716 0.72900003
-0.067345716 0.038185716 0.72900003
-0.065957144 0.038185716 0.72900003
-0.064568579 0.038185716 0.72900003
-0.063180007 0.038185716 0.72900003
-0.06170667 0.038133334 0.72800004
-0.060320005 0.038133334 0.72800004
-0.058771431 0.038028575 0.72600001
-0.057388574 0.038028575 0.72600001
-0.055928577 0.037976194 0.72500002
-0.054547623 0.037976194 0.72500002
-0.053166669 0.037976194 0.72500002
-0.051857147 0.038028575 0.72600001
-0.050404765 0.037976194 0.72500002
-0.049091432 0.038028575 0.72600001
-0.047708575 0.038028575 0.72600001
-0.046453338 0.038133334 0.72800004
-0.04494286 0.038028575 0.72600001
-0.043560002 0.038028575 0.72600001
-0.042177144 0.038028575 0.72600001
-0.040794287 0.038028575 0.72600001
-0.039357144 0.037976194 0.72500002
-0.037976194 0.037976194 0.72500002
-0.03659524 0.037976194 0.72500002
-0.035214286 0.037976194 0.72500002
-0.033833336 0.037976194 0.72500002
-0.032452382 0.037976194 0.72500002
-0.03107143 0.037976194 0.72500002
-0.02973143 0.038028575 0.72600001
-0.028348573 0.038028575 0.72600001
-0.026965717 0.038028575 0.72600001
-0.025653334 0.038133334 0.72800004
-0.024300002 0.038185716 0.72900003
-0.022911429 0.038185716 0.72900003
-0.021581907 0.038290478 0.73100001
-0.020189526 0.038290478 0.73100001
-0.018874288 0.038447622 0.73400003
-0.01752381 0.038552385 0.73600006
-0.01614381 0.038604766 0.73700005
-0.014780001 0.038709525 0.73900002
-0.013426668 0.038866669 0.74200004
-0.012029525 0.03891905 0.74300003
-0.010671429 0.039128575 0.74700004
-0.0092609534 0.039180957 0.74800003
-0.0078571429 0.039285716 0.75000006
-0.0064457147 0.039390478 0.75200003
-0.0050133336 0.039390478 0.75200003
-0.0035952383 0.039547622 0.75500005
-0.0021571431 0.039547622 0.75500005
-0.00072000007 0.039600004 0.75600004
0.0007219048 0.039704766 0.75800002
0.0021800001 0.039966669 0.76300001
-0.11116667 0.039357144 0.72500002
-0.11024 0.039520003 0.72800004
-0.10885334 0.039520003 0.72800004
-0.10761429 0.039574288 0.72900003
-0.10622572 0.039574288 0.72900003
-0.10512477 0.039682861 0.73100001
-0.10373238 0.039682861 0.73100001
-0.10234001 0.039682861 0.73100001
-0.10094763 0.039682861 0.73100001
-0.099691436 0.039737146 0.73200005
-0.098297149 0.039737146 0.73200005
-0.096902862 0.039737146 0.73200005
-0.095378101 0.039682861 0.73100001
-0.093985721 0.039682861 0.73100001
-0.092340007 0.039574288 0.72900003
-0.091200955 0.039682861 0.73100001
-0.089808576 0.039682861 0.73100001
-0.088174291 0.039574288 0.72900003
-0.086785719 0.039574288 0.72900003
-0.085397147 0.039574288 0.72900003
-0.084008574 0.039574288 0.72900003
-0.082620002 0.039574288 0.72900003
-0.081231438 0.039574288 0.72900003
-0.079733342 0.039520003 0.72800004
-0.07834667 0.039520003 0.72800004
-0.076960005 0.039520003 0.72800004
-0.075365722 0.039411429 0.72600001
-0.074186675 0.039520003 0.72800004
-0.072800003 0.039520003 0.72800004
-0.071217149 0.039411429 0.72600001
-0.069834292 0.039411429 0.72600001
-0.068640001 0.039520003 0.72800004
-0.067253336 0.039520003 0.72800004
-0.065866672 0.039520003 0.72800004
-0.064480007 0.039520003 0.72800004
-0.062920004 0.039411429 0.72600001
-0.061537147 0.039411429 0.72600001
-0.060154289 0.039411429 0.72600001
-0.058690481 0.039357144 0.72500002
-0.057309527 0.039357144 0.72500002
-0.05577429 0.039248575 0.72300005
-0.054397147 0.039248575 0.72300005
-0.053020004 0.039248575 0.72300005
-0.051642861 0.039248575 0.72300005
-0.050265718 0.039248575 0.72300005
-0.048888575 0.039248575 0.72300005
-0.047511432 0.039248575 0.72300005
-0.046261907 0.039357144 0.72500002
-0.044880956 0.039357144 0.72500002
-0.043500002 0.039357144 0.72500002
-0.04200286 0.039248575 0.72300005
-0.040738098 0.039357144 0.72500002
-0.039357144 0.039357144 0.72500002
-0.037976194 0.039357144 0.72500002
-0.036494289 0.039248575 0.72300005
-0.035117146 0.039248575 0.72300005
-0.033740003 0.039248575 0.72300005
-0.032452382 0.039357144 0.72500002
-0.030985717 0.039248575 0.72300005
-0.029690478 0.039357144 0.72500002
-0.028309526 0.039357144 0.72500002
-0.026928574 0.039357144 0.72500002
-0.025582859 0.039411429 0.72600001
-0.024200002 0.039411429 0.72600001
-0.022817144 0.039411429 0.72600001
-0.021581907 0.039682861 0.73100001
-0.020272382 0.039845716 0.73400003
-0.018951429 0.040008575 0.73700005
-0.01754762 0.040008575 0.73700005
-0.01614381 0.040008575 0.73700005
-0.014780001 0.040117145 0.73900002
-0.013426668 0.040280003 0.74200004
-0.012061905 0.040442862 0.74500006
-0.010671429 0.040551431 0.74700004
-0.0092609534 0.040605716 0.74800003
-0.0078571429 0.04071429 0.75000006
-0.0064457147 0.04082286 0.75200003
-0.0050133336 0.04082286 0.75200003
-0.0035952383 0.040985718 0.75500005
-0.0021600001 0.041040003 0.75600004
-0.11636858 0.040625717 0.72300005
-0.11254763 0.040738098 0.72500002
-0.11116667 0.040738098 0.72500002
-0.10993715 0.040794287 0.72600001
-0.1085543 0.040794287 0.72600001
-0.10717144 0.040794287 0.72600001
-0.10608001 0.040906668 0.72800004
-0.10483715 0.04096286 0.72900003
-0.10344858 0.04096286 0.72900003
-0.10234001 0.041075241 0.73100001
-0.10094763 0.041075241 0.73100001
-0.099555247 0.041075241 0.73100001
-0.098162867 0.041075241 0.73100001
-0.096505724 0.04096286 0.72900003
-0.095117152 0.04096286 0.72900003
-0.093600005 0.040906668 0.72800004
-0.091960005 0.040794287 0.72600001
-0.090577148 0.040794287 0.72600001
-0.089440003 0.040906668 0.72800004
-0.088053338 0.040906668 0.72800004
-0.086666673 0.040906668 0.72800004
-0.085280009 0.040906668 0.72800004
-0.083893336 0.040906668 0.72800004
-0.082506672 0.040906668 0.72800004
-0.081120007 0.040906668 0.72800004
-0.079733342 0.040906668 0.72800004
-0.078131437 0.040794287 0.72600001
-0.07674858 0.040794287 0.72600001
-0.075261913 0.040738098 0.72500002
-0.073880956 0.040738098 0.72500002
-0.072300002 0.040625717 0.72300005
-0.070922859 0.040625717 0.72300005
-0.069449529 0.040569525 0.72200006
-0.068357147 0.040738098 0.72500002
-0.06679143 0.040625717 0.72300005
-0.065414287 0.040625717 0.72300005
-0.064214289 0.040738098 0.72500002
-0.062660001 0.040625717 0.72300005
-0.061282862 0.040625717 0.72300005
-0.059905719 0.040625717 0.72300005
-0.058528576 0.040625717 0.72300005
-0.057151433 0.040625717 0.72300005
-0.05577429 0.040625717 0.72300005
-0.054321907 0.040569525 0.72200006
-0.052946672 0.040569525 0.72200006
-0.051571433 0.040569525 0.72200006
-0.050057147 0.040457144 0.72000003
-0.048820954 0.040569525 0.72200006
-0.047445718 0.040569525 0.72200006
-0.046070479 0.040569525 0.72200006
-0.04469524 0.040569525 0.72200006
-0.043380003 0.040625717 0.72300005
-0.041944765 0.040569525 0.72200006
-0.040625717 0.040625717 0.72300005
-0.03919429 0.040569525 0.72200006
-0.03781905 0.040569525 0.72200006
-0.036443811 0.040569525 0.72200006
-0.035068575 0.040569525 0.72200006
-0.033693336 0.040569525 0.72200006
-0.03236286 0.040625717 0.72300005
-0.030985717 0.040625717 0.72300005
-0.029690478 0.040738098 0.72500002
-0.028231431 0.040625717 0.72300005
-0.026854288 0.040625717 0.72300005
-0.02554762 0.040738098 0.72500002
-0.024166668 0.040738098 0.72500002
-0.022785716 0.040738098 0.72500002
-0.021404764 0.040738098 0.72500002
-0.020272382 0.041243814 0.73400003
-0.018951429 0.041412383 0.73700005
-0.01754762 0.041412383 0.73700005
-0.01614381 0.041412383 0.73700005
-0.014780001 0.041524764 0.73900002
-0.013426668 0.041693337 0.74200004
-0.012061905 0.041861907 0.74500006
-0.010671429 0.041974287 0.74700004
-0.0092857145 0.042142861 0.75000006
-0.0078571429 0.042142861 0.75000006
-0.0064457147 0.042255241 0.75200003
-0.0050200005 0.04231143 0.75300002
-0.0035952383 0.042423811 0.75500005
-0.0021600001 0.042480003 0.75600004
-0.12 0.041828573 0.72000003
-0.11499143 0.04200286 0.72300005
-0.11361429 0.04200286 0.72300005
-0.11223715 0.04200286 0.72300005
-0.11116667 0.042119049 0.72500002
-0.10978572 0.042119049 0.72500002
-0.10840477 0.042119049 0.72500002
-0.10702381 0.042119049 0.72500002
-0.10578858 0.042177144 0.72600001
-0.10440572 0.042177144 0.72600001
-0.10330667 0.042293336 0.72800004
-0.10192001 0.042293336 0.72800004
-0.10053334 0.042293336 0.72800004
-0.099282861 0.042351432 0.72900003
-0.097894289 0.042351432 0.72900003
-0.096373342 0.042293336 0.72800004
-0.094725721 0.042177144 0.72600001
-0.093342863 0.042177144 0.72600001
-0.091833338 0.042119049 0.72500002
-0.090452388 0.042119049 0.72500002
-0.089071438 0.042119049 0.72500002
-0.08769048 0.042119049 0.72500002
-0.08630953 0.042119049 0.72500002
-0.08492858 0.042119049 0.72500002
-0.083547622 0.042119049 0.72500002
-0.082166672 0.042119049 0.72500002
-0.080785722 0.042119049 0.72500002
-0.079404764 0.042119049 0.72500002
-0.078023814 0.042119049 0.72500002
-0.076431431 0.04200286 0.72300005
-0.074950479 0.041944765 0.72200006
-0.073575243 0.041944765 0.72200006
-0.072000004 0.041828573 0.72000003
-0.070628576 0.041828573 0.72000003
-0.069257148 0.041828573 0.72000003
-0.067885719 0.041828573 0.72000003
-0.066514291 0.041828573 0.72000003
-0.065142862 0.041828573 0.72000003
-0.063948579 0.041944765 0.72200006
-0.062573336 0.041944765 0.72200006
-0.0611981 0.041944765 0.72200006
-0.059822861 0.041944765 0.72200006
-0.058447622 0.041944765 0.72200006
-0.057072386 0.041944765 0.72200006
-0.055697147 0.041944765 0.72200006
-0.054171432 0.041828573 0.72000003
-0.052800003 0.041828573 0.72000003
-0.051357146 0.041770481 0.71900004
-0.049987622 0.041770481 0.71900004
-0.048618097 0.041770481 0.71900004
-0.047248576 0.041770481 0.71900004
-0.045879051 0.041770481 0.71900004
-0.044571433 0.041828573 0.72000003
-0.043200001 0.041828573 0.72000003
-0.041828573 0.041828573 0.72000003
-0.040569525 0.041944765 0.72200006
-0.039085716 0.041828573 0.72000003
-0.03781905 0.041944765 0.72200006
-0.036342859 0.041828573 0.72000003
-0.034971431 0.041828573 0.72000003
-0.033693336 0.041944765 0.72200006
-0.032318097 0.041944765 0.72200006
-0.030942859 0.041944765 0.72200006
-0.029608574 0.04200286 0.72300005
-0.028231431 0.04200286 0.72300005
-0.026854288 0.04200286 0.72300005
-0.025477145 0.04200286 0.72300005
-0.024166668 0.042119049 0.72500002
-0.022785716 0.042119049 0.72500002
-0.021404764 0.042119049 0.72500002
-0.02032762 0.0427581 0.73600006
-0.018951429 0.042816192 0.73700005
-0.01754762 0.042816192 0.73700005
-0.01614381 0.042816192 0.73700005
-0.014780001 0.042932384 0.73900002
-0.013426668 0.043106668 0.74200004
-0.012029525 0.043164764 0.74300003
-0.010671429 0.043397147 0.74700004
-0.0092857145 0.043571431 0.75000006
-0.0078780958 0.043687623 0.75200003
-0.0064457147 0.043687623 0.75200003
-0.0050133336 0.043687623 0.75200003
-0.1189581 0.043320004 0.72200006
-0.11758287 0.043320004 0.72200006
-0.11620763 0.043320004 0.72200006
-0.11483239 0.043320004 0.72200006
-0.11361429 0.043380003 0.72300005
-0.11223715 0.043380003 0.72300005
-0.11086001 0.043380003 0.72300005
-0.10948286 0.043380003 0.72300005
-0.10810572 0.043380003 0.72300005
-0.10702381 0.043500002 0.72500002
-0.10564286 0.043500002 0.72500002
-0.10426191 0.043500002 0.72500002
-0.10288096 0.043500002 0.72500002
-0.1015 0.043500002 0.72500002
-0.10011905 0.043500002 0.72500002
-0.098874293 0.043560002 0.72600001
-0.097491436 0.043560002 0.72600001
-0.095976196 0.043500002 0.72500002
-0.094334289 0.043380003 0.72300005
-0.092957146 0.043380003 0.72300005
-0.091453336 0.043320004 0.72200006
-0.090078101 0.043320004 0.72200006
-0.088702865 0.043320004 0.72200006
-0.087085716 0.043200001 0.72000003
-0.086071432 0.043380003 0.72300005
-0.084694289 0.043380003 0.72300005
-0.083317146 0.043380003 0.72300005
-0.081940003 0.043380003 0.72300005
-0.08056286 0.043380003 0.72300005
-0.079185717 0.043380003 0.72300005
-0.077700958 0.043320004 0.72200006
-0.076325722 0.043320004 0.72200006
-0.074742861 0.043200001 0.72000003
-0.073269531 0.043140002 0.71900004
-0.071900003 0.043140002 0.71900004
-0.070530482 0.043140002 0.71900004
-0.069160961 0.043140002 0.71900004
-0.067791432 0.043140002 0.71900004
-0.066421911 0.043140002 0.71900004
-0.065052383 0.043140002 0.71900004
-0.063682862 0.043140002 0.71900004
-0.062400006 0.043200001 0.72000003
-0.061028574 0.043200001 0.72000003
-0.059657145 0.043200001 0.72000003
-0.058285717 0.043200001 0.72000003
-0.056914289 0.043200001 0.72000003
-0.055465717 0.043140002 0.71900004
-0.054096196 0.043140002 0.71900004
-0.052580003 0.043020003 0.71700001
-0.05114286 0.042960003 0.71600002
-0.049848575 0.043020003 0.71700001
-0.04841524 0.042960003 0.71600002
-0.047117148 0.043020003 0.71700001
-0.04575143 0.043020003 0.71700001
-0.044385716 0.043020003 0.71700001
-0.043140002 0.043140002 0.71900004
-0.041770481 0.043140002 0.71900004
-0.040400956 0.043140002 0.71900004
-0.039031431 0.043140002 0.71900004
-0.037714288 0.043200001 0.72000003
-0.036292382 0.043140002 0.71900004
-0.034922861 0.043140002 0.71900004
-0.033600003 0.043200001 0.72000003
-0.032228574 0.043200001 0.72000003
-0.030857146 0.043200001 0.72000003
-0.029567622 0.043320004 0.72200006
-0.028192382 0.043320004 0.72200006
-0.026817145 0.043320004 0.72200006
-0.025441907 0.043320004 0.72200006
-0.024166668 0.043500002 0.72500002
-0.022785716 0.043500002 0.72500002
-0.02035524 0.044220004 0.73700005
-0.018951429 0.044220004 0.73700005
-0.01754762 0.044220004 0.73700005
-0.01614381 0.044220004 0.73700005
-0.014780001 0.044340003 0.73900002
-0.013390477 0.044400003 0.74000001
-0.010714286 0.045000002 0.75000006
-0.0092857145 0.045000002 0.75000006
-0.0078780958 0.045120005 0.75200003
-0.0064457147 0.045120005 0.75200003
-0.12359715 0.044385716 0.71700001
-0.12137143 0.044571433 0.72000003
-0.12 0.044571433 0.72000003
-0.1189581 0.04469524 0.72200006
-0.11725715 0.044571433 0.72000003
-0.11572477 0.044509526 0.71900004
-0.11483239 0.04469524 0.72200006
-0.11345715 0.04469524 0.72200006
-0.11208192 0.04469524 0.72200006
-0.11086001 0.044757146 0.72300005
-0.10948286 0.044757146 0.72300005
-0.10810572 0.044757146 0.72300005
-0.10672858 0.044757146 0.72300005
-0.10535143 0.044757146 0.72300005
-0.10397429 0.044757146 0.72300005
-0.10259715 0.044757146 0.72300005
-0.10122 0.044757146 0.72300005
-0.099842861 0.044757146 0.72300005
-0.098329529 0.04469524 0.72200006
-0.097088575 0.044757146 0.72300005
-0.09557905 0.04469524 0.72200006
-0.093942866 0.044571433 0.72000003
-0.092571437 0.044571433 0.72000003
-0.091200009 0.044571433 0.72000003
-0.089828581 0.044571433 0.72000003
-0.088334292 0.044509526 0.71900004
-0.086964771 0.044509526 0.71900004
-0.085714288 0.044571433 0.72000003
-0.08434286 0.044571433 0.72000003
-0.082971431 0.044571433 0.72000003
-0.081600003 0.044571433 0.72000003
-0.080228575 0.044571433 0.72000003
-0.078857146 0.044571433 0.72000003
-0.077378102 0.044509526 0.71900004
-0.076008573 0.044509526 0.71900004
-0.074639052 0.044509526 0.71900004
-0.073269531 0.044509526 0.71900004
-0.071700007 0.044385716 0.71700001
-0.070530482 0.044509526 0.71900004
-0.068968579 0.044385716 0.71700001
-0.067602858 0.044385716 0.71700001
-0.066421911 0.044509526 0.71900004
-0.06487143 0.044385716 0.71700001
-0.063682862 0.044509526 0.71900004
-0.062313337 0.044509526 0.71900004
-0.060943812 0.044509526 0.71900004
-0.059574291 0.044509526 0.71900004
-0.058204766 0.044509526 0.71900004
-0.056677148 0.044385716 0.71700001
-0.055311434 0.044385716 0.71700001
-0.053945716 0.044385716 0.71700001
-0.052580003 0.044385716 0.71700001
-0.05114286 0.044323813 0.71600002
-0.049640004 0.044200003 0.71400005
-0.048280004 0.044200003 0.71400005
-0.047051433 0.044323813 0.71600002
-0.045687623 0.044323813 0.71600002
-0.044323813 0.044323813 0.71600002
-0.043020003 0.044385716 0.71700001
-0.041654289 0.044385716 0.71700001
-0.040400956 0.044509526 0.71900004
-0.039031431 0.044509526 0.71900004
-0.037661906 0.044509526 0.71900004
-0.036292382 0.044509526 0.71900004
-0.034922861 0.044509526 0.71900004
-0.033553336 0.044509526 0.71900004
-0.032183811 0.044509526 0.71900004
-0.030814288 0.044509526 0.71900004
-0.029485716 0.044571433 0.72000003
-0.028114287 0.044571433 0.72000003
-0.026742859 0.044571433 0.72000003
-0.02537143 0.044571433 0.72000003
-0.024000002 0.044571433 0.72000003
-0.023162859 0.045623813 0.73700005
-0.02175905 0.045623813 0.73700005
-0.02035524 0.045623813 0.73700005
-0.019002859 0.045747623 0.73900002
-0.01754762 0.045623813 0.73700005
-0.016187619 0.045747623 0.73900002
-0.014780001 0.045747623 0.73900002
-0.013426668 0.045933336 0.74200004
-0.010714286 0.046428576 0.75000006
-0.0093104765 0.046552382 0.75200003
-0.0079095243 0.046738099 0.75500005
-0.1275162 0.045687623 0.71600002
-0.12359715 0.04575143 0.71700001
-0.12223144 0.04575143 0.71700001
-0.12120286 0.045879051 0.71900004
-0.11983334 0.045879051 0.71900004
-0.11846381 0.045879051 0.71900004
-0.11725715 0.045942862 0.72000003
-0.11572477 0.045879051 0.71900004
-0.11451429 0.045942862 0.72000003
-0.11345715 0.046070479 0.72200006
-0.11208192 0.046070479 0.72200006
-0.11070667 0.046070479 0.72200006
-0.10933144 0.046070479 0.72200006
-0.1079562 0.046070479 0.72200006
-0.10658096 0.046070479 0.72200006
-0.10520572 0.046070479 0.72200006
-0.10383049 0.046070479 0.72200006
-0.10217144 0.045942862 0.72000003
-0.10080001 0.045942862 0.72000003
-0.099428579 0.045942862 0.72000003
-0.097920962 0.045879051 0.71900004
-0.096551433 0.045879051 0.71900004
-0.095181912 0.045879051 0.71900004
-0.093812384 0.045879051 0.71900004
-0.092442863 0.045879051 0.71900004
-0.090820007 0.04575143 0.71700001
-0.089454293 0.04575143 0.71700001
-0.088088579 0.04575143 0.71700001
-0.086722866 0.04575143 0.71700001
-0.085357152 0.04575143 0.71700001
-0.083991431 0.04575143 0.71700001
-0.082625717 0.04575143 0.71700001
-0.081260003 0.04575143 0.71700001
-0.079894289 0.04575143 0.71700001
-0.078528576 0.04575143 0.71700001
-0.077162862 0.04575143 0.71700001
-0.075797148 0.04575143 0.71700001
-0.074431434 0.04575143 0.71700001
-0.07306572 0.04575143 0.71700001
-0.071600005 0.045687623 0.71600002
-0.070334293 0.04575143 0.71700001
-0.068872385 0.045687623 0.71600002
-0.067508578 0.045687623 0.71600002
-0.066144764 0.045687623 0.71600002
-0.064780958 0.045687623 0.71600002
-0.063417144 0.045687623 0.71600002
-0.062140003 0.04575143 0.71700001
-0.060689528 0.045687623 0.71600002
-0.059325717 0.045687623 0.71600002
-0.057961907 0.045687623 0.71600002
-0.056598101 0.045687623 0.71600002
-0.055234291 0.045687623 0.71600002
-0.053870481 0.045687623 0.71600002
-0.052360002 0.045560002 0.71400005
-0.051000003 0.045560002 0.71400005
-0.049570478 0.045496192 0.71300006
-0.048212383 0.045496192 0.71300006
-0.046920002 0.045560002 0.71400005
-0.045560002 0.045560002 0.71400005
-0.044200003 0.045560002 0.71400005
-0.042960003 0.045687623 0.71600002
-0.041596193 0.045687623 0.71600002
-0.040288575 0.04575143 0.71700001
-0.038922861 0.04575143 0.71700001
-0.037661906 0.045879051 0.71900004
-0.03619143 0.04575143 0.71700001
-0.034922861 0.045879051 0.71900004
-0.033460002 0.04575143 0.71700001
-0.032183811 0.045879051 0.71900004
-0.030814288 0.045879051 0.71900004
-0.029485716 0.045942862 0.72000003
-0.028114287 0.045942862 0.72000003
-0.026742859 0.045942862 0.72000003
-0.02537143 0.045942862 0.72000003
-0.021818096 0.047155242 0.73900002
-0.020410478 0.047155242 0.73900002
-0.019028572 0.047219049 0.74000001
-0.017595239 0.047155242 0.73900002
-0.016209524 0.047219049 0.74000001
-0.014800001 0.047219049 0.74000001
-0.013426668 0.04734667 0.74200004
-0.010714286 0.047857147 0.75000006
-0.0092857145 0.047857147 0.75000006
-0.0078780958 0.047984764 0.75200003
-0.1261524 0.047051433 0.71600002
-0.12359715 0.047117148 0.71700001
-0.12223144 0.047117148 0.71700001
-0.12086572 0.047117148 0.71700001
-0.11983334 0.047248576 0.71900004
-0.11846381 0.047248576 0.71900004
-0.11709429 0.047248576 0.71900004
-0.11572477 0.047248576 0.71900004
-0.11435524 0.047248576 0.71900004
-0.11345715 0.047445718 0.72200006
-0.11177143 0.04731429 0.72000003
-0.11040001 0.04731429 0.72000003
-0.10902858 0.04731429 0.72000003
-0.10765715 0.04731429 0.72000003
-0.10628572 0.04731429 0.72000003
-0.10491429 0.04731429 0.72000003
-0.10339905 0.047248576 0.71900004
-0.10202953 0.047248576 0.71900004
-0.10066 0.047248576 0.71900004
-0.099290483 0.047248576 0.71900004
-0.097648576 0.047117148 0.71700001
-0.096282862 0.047117148 0.71700001
-0.094917148 0.047117148 0.71700001
-0.09342096 0.047051433 0.71600002
-0.092185721 0.047117148 0.71700001
-0.09069334 0.047051433 0.71600002
-0.089329533 0.047051433 0.71600002
-0.087965719 0.047051433 0.71600002
-0.086601913 0.047051433 0.71600002
-0.085000008 0.046920002 0.71400005
-0.083640009 0.046920002 0.71400005
-0.082280003 0.046920002 0.71400005
-0.080920003 0.046920002 0.71400005
-0.079560004 0.046920002 0.71400005
-0.078200005 0.046920002 0.71400005
-0.076840006 0.046920002 0.71400005
-0.075691432 0.047051433 0.71600002
-0.074327625 0.047051433 0.71600002
-0.072760008 0.046920002 0.71400005
-0.071400002 0.046920002 0.71400005
-0.070040002 0.046920002 0.71400005
-0.068680003 0.046920002 0.71400005
-0.067320004 0.046920002 0.71400005
-0.065960005 0.046920002 0.71400005
-0.064600006 0.046920002 0.71400005
-0.063240007 0.046920002 0.71400005
-0.061880004 0.046920002 0.71400005
-0.060520004 0.046920002 0.71400005
-0.059160005 0.046920002 0.71400005
-0.057719052 0.046854287 0.71300006
-0.056360956 0.046854287 0.71300006
-0.055002861 0.046854287 0.71300006
-0.053644765 0.046854287 0.71300006
-0.05228667 0.046854287 0.71300006
-0.050928574 0.046854287 0.71300006
-0.049431432 0.046722859 0.71100003
-0.048077147 0.046722859 0.71100003
-0.046722859 0.046722859 0.71100003
-0.045368575 0.046722859 0.71100003
-0.04401429 0.046722859 0.71100003
-0.042780004 0.046854287 0.71300006
-0.041421909 0.046854287 0.71300006
-0.040120002 0.046920002 0.71400005
-0.038868573 0.047051433 0.71600002
-0.037504766 0.047051433 0.71600002
-0.036140956 0.047051433 0.71600002
-0.034825716 0.047117148 0.71700001
-0.033413336 0.047051433 0.71600002
-0.032094289 0.047117148 0.71700001
-0.030814288 0.047248576 0.71900004
-0.029444763 0.047248576 0.71900004
-0.028075241 0.047248576 0.71900004
-0.02175905 0.04843143 0.73700005
-0.02035524 0.04843143 0.73700005
-0.019002859 0.048562862 0.73900002
-0.01754762 0.04843143 0.73700005
-0.016187619 0.048562862 0.73900002
-0.014780001 0.048562862 0.73900002
-0.013390477 0.048628576 0.74000001
-0.012013334 0.048760004 0.74200004
-0.0093104765 0.049417146 0.75200003
-0.0079095243 0.049614288 0.75500005
0.0036666668 0.050600003 0.77000004
-0.12716001 0.048280004 0.71400005
-0.12478858 0.04841524 0.71600002
-0.12342477 0.04841524 0.71600002
-0.12206096 0.04841524 0.71600002
-0.12069715 0.04841524 0.71600002
-0.11950001 0.048482861 0.71700001
-0.11813429 0.048482861 0.71700001
-0.11676858 0.048482861 0.71700001
-0.11540286 0.048482861 0.71700001
-0.11403715 0.048482861 0.71700001
-0.11298572 0.048618097 0.71900004
-0.11161619 0.048618097 0.71900004
-0.10994001 0.048482861 0.71700001
-0.10857429 0.048482861 0.71700001
-0.10750762 0.048618097 0.71900004
-0.10584287 0.048482861 0.71700001
-0.10447715 0.048482861 0.71700001
-0.10296763 0.04841524 0.71600002
-0.10160381 0.04841524 0.71600002
-0.10024001 0.04841524 0.71600002
-0.098876201 0.04841524 0.71600002
-0.097240008 0.048280004 0.71400005
-0.095880009 0.048280004 0.71400005
-0.094520003 0.048280004 0.71400005
-0.093160003 0.048280004 0.71400005
-0.092057146 0.04841524 0.71600002
-0.090313338 0.048212383 0.71300006
-0.088955246 0.048212383 0.71300006
-0.087597147 0.048212383 0.71300006
-0.086360008 0.048280004 0.71400005
-0.084880956 0.048212383 0.71300006
-0.083522864 0.048212383 0.71300006
-0.082164764 0.048212383 0.71300006
-0.080806673 0.048212383 0.71300006
-0.079448573 0.048212383 0.71300006
-0.078090481 0.048212383 0.71300006
-0.07673239 0.048212383 0.71300006
-0.07537429 0.048212383 0.71300006
-0.074016199 0.048212383 0.71300006
-0.072658099 0.048212383 0.71300006
-0.071300007 0.048212383 0.71300006
-0.069941908 0.048212383 0.71300006
-0.068583816 0.048212383 0.71300006
-0.067225717 0.048212383 0.71300006
-0.065867625 0.048212383 0.71300006
-0.064509526 0.048212383 0.71300006
-0.063151434 0.048212383 0.71300006
-0.061793339 0.048212383 0.71300006
-0.06026572 0.048077147 0.71100003
-0.058911432 0.048077147 0.71100003
-0.057557147 0.048077147 0.71100003
-0.056123812 0.048009526 0.71000004
-0.054771431 0.048009526 0.71000004
-0.05341905 0.048009526 0.71000004
-0.052066669 0.048009526 0.71000004
-0.050785717 0.048077147 0.71100003
-0.049361907 0.048009526 0.71000004
-0.048009526 0.048009526 0.71000004
-0.046722859 0.048077147 0.71100003
-0.045368575 0.048077147 0.71100003
-0.04401429 0.048077147 0.71100003
-0.042660002 0.048077147 0.71100003
-0.041305717 0.048077147 0.71100003
-0.040063813 0.048212383 0.71300006
-0.038760003 0.048280004 0.71400005
-0.037400004 0.048280004 0.71400005
-0.036040001 0.048280004 0.71400005
-0.034680001 0.048280004 0.71400005
-0.033320002 0.048280004 0.71400005
-0.032094289 0.048482861 0.71700001
-0.030814288 0.048618097 0.71900004
-0.029444763 0.048618097 0.71900004
-0.028348573 0.049091432 0.72600001
-0.027040001 0.049226671 0.72800004
-0.025653334 0.049226671 0.72800004
-0.024300002 0.049294289 0.72900003
-0.022974288 0.049429528 0.73100001
-0.02175905 0.049835242 0.73700005
-0.02035524 0.049835242 0.73700005
-0.018951429 0.049835242 0.73700005
-0.017595239 0.049970478 0.73900002
-0.016187619 0.049970478 0.73900002
-0.014780001 0.049970478 0.73900002
-0.013390477 0.050038099 0.74000001
-0.012029525 0.050240956 0.74300003
-0.0093228575 0.050917145 0.75300002
-0.0079095243 0.051052384 0.75500005
0.0036666668 0.052066669 0.77000004
0.0051533338 0.052269526 0.77300006
0.16781335 0.05490667 0.81200004
-0.13204287 0.049431432 0.71100003
-0.13068858 0.049431432 0.71100003
-0.12834001 0.049570478 0.71300006
-0.12698191 0.049570478 0.71300006
-0.12562382 0.049570478 0.71300006
-0.12426572 0.049570478 0.71300006
-0.12308001 0.049640004 0.71400005
-0.12154953 0.049570478 0.71300006
-0.12036001 0.049640004 0.71400005
-0.11933334 0.04977905 0.71600002
-0.11764001 0.049640004 0.71400005
-0.11628 0.049640004 0.71400005
-0.11492001 0.049640004 0.71400005
-0.11340096 0.049570478 0.71300006
-0.11204287 0.049570478 0.71300006
-0.11068477 0.049570478 0.71300006
-0.10932668 0.049570478 0.71300006
-0.10796858 0.049570478 0.71300006
-0.10661048 0.049570478 0.71300006
-0.10525239 0.049570478 0.71300006
-0.10389429 0.049570478 0.71300006
-0.10253619 0.049570478 0.71300006
-0.1011781 0.049570478 0.71300006
-0.099960007 0.049640004 0.71400005
-0.098600008 0.049640004 0.71400005
-0.097103819 0.049570478 0.71300006
-0.09574572 0.049570478 0.71300006
-0.094122864 0.049431432 0.71100003
-0.092638098 0.049361907 0.71000004
-0.09128572 0.049361907 0.71000004
-0.089680009 0.04922286 0.708
-0.088331431 0.04922286 0.708
-0.086982861 0.04922286 0.708
-0.085876197 0.049361907 0.71000004
-0.084523812 0.049361907 0.71000004
-0.083171435 0.049361907 0.71000004
-0.08181905 0.049361907 0.71000004
-0.080466673 0.049361907 0.71000004
-0.079114288 0.049361907 0.71000004
-0.077761911 0.049361907 0.71000004
-0.076194294 0.04922286 0.708
-0.074845716 0.04922286 0.708
-0.073393337 0.049153335 0.70700002
-0.072148576 0.04922286 0.708
-0.070800006 0.04922286 0.708
-0.069451436 0.04922286 0.708
-0.068006672 0.049153335 0.70700002
-0.066754289 0.04922286 0.708
-0.065405719 0.04922286 0.708
-0.064238101 0.049361907 0.71000004
-0.062885717 0.049361907 0.71000004
-0.061360005 0.04922286 0.708
-0.05992667 0.049153335 0.70700002
-0.058580004 0.049153335 0.70700002
-0.057071432 0.049014289 0.70500004
-0.055728573 0.049014289 0.70500004
-0.054385718 0.049014289 0.70500004
-0.053042859 0.049014289 0.70500004
-0.051700003 0.049014289 0.70500004
-0.050500002 0.049153335 0.70700002
-0.049153335 0.049153335 0.70700002
-0.047806669 0.049153335 0.70700002
-0.046525717 0.04922286 0.708
-0.045177147 0.04922286 0.708
-0.043828573 0.04922286 0.708
-0.042480003 0.04922286 0.708
-0.041247621 0.049361907 0.71000004
-0.039951432 0.049431432 0.71100003
-0.038705718 0.049570478 0.71300006
-0.037400004 0.049640004 0.71400005
-0.036040001 0.049640004 0.71400005
-0.034777146 0.04977905 0.71600002
-0.033413336 0.04977905 0.71600002
-0.032094289 0.049848575 0.71700001
-0.030857146 0.050057147 0.72000003
-0.029567622 0.050196193 0.72200006
-0.028348573 0.05047429 0.72600001
-0.027040001 0.050613336 0.72800004
-0.025653334 0.050613336 0.72800004
-0.024300002 0.050682861 0.72900003
-0.022974288 0.050821908 0.73100001
-0.021581907 0.050821908 0.73100001
-0.02035524 0.051239051 0.73700005
-0.018951429 0.051239051 0.73700005
-0.017595239 0.051378097 0.73900002
-0.016209524 0.051447622 0.74000001
-0.014780001 0.051378097 0.73900002
-0.013426668 0.051586669 0.74200004
-0.012029525 0.051656194 0.74300003
-0.010685715 0.052003812 0.74800003
-0.0093228575 0.052351434 0.75300002
-0.0079095243 0.05249048 0.75500005
-0.0064800004 0.052560002 0.75600004
-0.0050400002 0.052560002 0.75600004
-0.0036333336 0.05304667 0.76300001
-0.0021857144 0.053185716 0.76500005
0.0021942859 0.053394288 0.76800001
0.0036666668 0.053533338 0.77000004
0.0051333336 0.053533338 0.77000004
0.0066000004 0.053533338 0.77000004
-0.13320953 0.050714288 0.71000004
-0.13204287 0.050785717 0.71100003
-0.13068858 0.050785717 0.71100003
-0.1293343 0.050785717 0.71100003
-0.12798001 0.050785717 0.71100003
-0.12644763 0.050714288 0.71000004
-0.12527144 0.050785717 0.71100003
-0.12426572 0.050928574 0.71300006
-0.12256286 0.050785717 0.71100003
-0.12120858 0.050785717 0.71100003
-0.12019144 0.050928574 0.71300006
-0.11883334 0.050928574 0.71300006
-0.11747525 0.050928574 0.71300006
-0.11611715 0.050928574 0.71300006
-0.11443715 0.050785717 0.71100003
-0.11292382 0.050714288 0.71000004
-0.11157144 0.050714288 0.71000004
-0.11021905 0.050714288 0.71000004
-0.10856001 0.05057143 0.708
-0.10751429 0.050714288 0.71000004
-0.10631143 0.050785717 0.71100003
-0.10495715 0.050785717 0.71100003
-0.10360286 0.050785717 0.71100003
-0.10224858 0.050785717 0.71100003
-0.10089429 0.050785717 0.71100003
-0.09954001 0.050785717 0.71100003
-0.098461911 0.050928574 0.71300006
-0.096831433 0.050785717 0.71100003
-0.095477149 0.050785717 0.71100003
-0.093990482 0.050714288 0.71000004
-0.092377149 0.05057143 0.708
-0.091028579 0.05057143 0.708
-0.089680009 0.05057143 0.708
-0.088206671 0.050500002 0.70700002
-0.086860009 0.050500002 0.70700002
-0.085634291 0.05057143 0.708
-0.084285721 0.05057143 0.708
-0.082820006 0.050500002 0.70700002
-0.081473336 0.050500002 0.70700002
-0.080126673 0.050500002 0.70700002
-0.078780003 0.050500002 0.70700002
-0.07743334 0.050500002 0.70700002
-0.07608667 0.050500002 0.70700002
-0.074528575 0.050357144 0.70500004
-0.07318572 0.050357144 0.70500004
-0.071842864 0.050357144 0.70500004
-0.070500001 0.050357144 0.70500004
-0.069157146 0.050357144 0.70500004
-0.067718096 0.050285719 0.70400006
-0.066282861 0.050214291 0.70300001
-0.065128572 0.050357144 0.70500004
-0.063966669 0.050500002 0.70700002
-0.062442861 0.050357144 0.70500004
-0.061273336 0.050500002 0.70700002
-0.059757147 0.050357144 0.70500004
-0.058414288 0.050357144 0.70500004
-0.056990478 0.050285719 0.70400006
-0.055649526 0.050285719 0.70400006
-0.054308575 0.050285719 0.70400006
-0.052967623 0.050285719 0.70400006
-0.051626671 0.050285719 0.70400006
-0.050357144 0.050357144 0.70500004
-0.049014289 0.050357144 0.70500004
-0.047671434 0.050357144 0.70500004
-0.046460003 0.050500002 0.70700002
-0.045113336 0.050500002 0.70700002
-0.04376667 0.050500002 0.70700002
-0.042480003 0.05057143 0.708
-0.041131433 0.05057143 0.708
-0.03989524 0.050714288 0.71000004
-0.038705718 0.050928574 0.71300006
-0.037400004 0.051000003 0.71400005
-0.036140956 0.05114286 0.71600002
-0.034777146 0.05114286 0.71600002
-0.033460002 0.051214289 0.71700001
-0.032094289 0.051214289 0.71700001
-0.030857146 0.051428575 0.72000003
-0.029567622 0.051571433 0.72200006
-0.028426668 0.052000005 0.72800004
-0.027077144 0.052071434 0.72900003
-0.025688574 0.052071434 0.72900003
-0.024366667 0.052214291 0.73100001
-0.022974288 0.052214291 0.73100001
-0.02161143 0.052285716 0.73200005
-0.02032762 0.052571431 0.73600006
-0.018951429 0.05264286 0.73700005
-0.017595239 0.052785717 0.73900002
-0.016253334 0.053000003 0.74200004
-0.014840001 0.053000003 0.74200004
-0.013480953 0.053214289 0.74500006
-0.012110477 0.053428575 0.74800003
-0.010714286 0.053571433 0.75000006
-0.0093228575 0.053785719 0.75300002
-0.0079095243 0.053928576 0.75500005
-0.0064800004 0.054000005 0.75600004
