# .PCD v0.7 - Point Cloud Data file format
VERSION 0.7
FIELDS x y z
SIZE 4 4 4
TYPE F F F
COUNT 1 1 1
WIDTH 1319
HEIGHT 1
VIEWPOINT 0 0 0 1 0 0 0
POINTS 1319
DATA ascii
0.017851429 -0.016769525 0.56800002
0.018966667 -0.016799049 0.56900001
0.020050477 -0.016799049 0.56900001
0.02117143 -0.016828572 0.57000005
0.022257144 -0.016828572 0.57000005
-0.026273334 -0.015549525 0.56300002
-0.025200954 -0.015549525 0.56300002
-0.024000002 -0.015466668 0.56
-0.022933334 -0.015466668 0.56
-0.021866668 -0.015466668 0.56
-0.020800002 -0.015466668 0.56
-0.019733334 -0.015466668 0.56
-0.018666668 -0.015466668 0.56
-0.01763143 -0.015494287 0.56100005
-0.016562859 -0.015494287 0.56100005
-0.015494287 -0.015494287 0.56100005
-0.014425715 -0.015494287 0.56100005
-0.013357144 -0.015494287 0.56100005
-0.012288572 -0.015494287 0.56100005
-0.011200001 -0.015466668 0.56
-0.010133334 -0.015466668 0.56
-0.0090828575 -0.015494287 0.56100005
-0.0080142859 -0.015494287 0.56100005
-0.0069457148 -0.015494287 0.56100005
-0.0058771432 -0.015494287 0.56100005
-0.0048171431 -0.015521905 0.56200004
-0.0037466669 -0.015521905 0.56200004
-0.0026809527 -0.015549525 0.56300002
-0.0016085715 -0.015549525 0.56300002
-0.00053714291 -0.015577144 0.56400001
0.00053809525 -0.015604763 0.565
0.0016114287 -0.015577144 0.56400001
0.0026904764 -0.015604763 0.565
0.0037666669 -0.015604763 0.565
0.0048428574 -0.015604763 0.565
0.0059190481 -0.015604763 0.565
0.0069952384 -0.015604763 0.565
0.0080714291 -0.015604763 0.565
0.0091476198 -0.015604763 0.565
0.010241905 -0.015632382 0.56600004
0.011320001 -0.015632382 0.56600004
0.012398096 -0.015632382 0.56600004
0.013500001 -0.015660001 0.56700003
0.014605715 -0.01568762 0.56800002
0.01568762 -0.01568762 0.56800002
0.016799049 -0.01571524 0.56900001
0.017882857 -0.01571524 0.56900001
0.019000001 -0.015742859 0.57000005
0.020085715 -0.015742859 0.57000005
0.021208573 -0.015770476 0.57100004
-0.026273334 -0.014477144 0.56300002
-0.025156192 -0.014451429 0.56200004
-0.024042858 -0.014425715 0.56100005
-0.022933334 -0.014400001 0.56
-0.021866668 -0.014400001 0.56
-0.020800002 -0.014400001 0.56
-0.019733334 -0.014400001 0.56
-0.018666668 -0.014400001 0.56
-0.01763143 -0.014425715 0.56100005
-0.016562859 -0.014425715 0.56100005
-0.015494287 -0.014425715 0.56100005
-0.014425715 -0.014425715 0.56100005
-0.013357144 -0.014425715 0.56100005
-0.012288572 -0.014425715 0.56100005
-0.011200001 -0.014400001 0.56
-0.010133334 -0.014400001 0.56
-0.0090828575 -0.014425715 0.56100005
-0.0080142859 -0.014425715 0.56100005
-0.0069457148 -0.014425715 0.56100005
-0.0058876192 -0.014451429 0.56200004
-0.0048171431 -0.014451429 0.56200004
-0.0037533336 -0.014477144 0.56300002
-0.0026857145 -0.014502858 0.56400001
-0.0016114287 -0.014502858 0.56400001
-0.00053714291 -0.014502858 0.56400001
0.00053809525 -0.014528573 0.565
0.0016142859 -0.014528573 0.565
0.0026904764 -0.014528573 0.565
0.0037666669 -0.014528573 0.565
0.0048428574 -0.014528573 0.565
0.0059190481 -0.014528573 0.565
0.0069952384 -0.014528573 0.565
0.0080857147 -0.014554286 0.56600004
0.0091638099 -0.014554286 0.56600004
0.010241905 -0.014554286 0.56600004
0.011340001 -0.014580001 0.56700003
0.012420001 -0.014580001 0.56700003
0.013523811 -0.014605715 0.56800002
0.01463143 -0.01463143 0.56900001
0.01571524 -0.01463143 0.56900001
0.016828572 -0.014657144 0.57000005
0.017914288 -0.014657144 0.57000005
0.019000001 -0.014657144 0.57000005
0.020120954 -0.014682858 0.57100004
0.021208573 -0.014682858 0.57100004
-0.026320001 -0.013428573 0.56400001
-0.025200954 -0.013404762 0.56300002
-0.024085715 -0.013380953 0.56200004
-0.022974288 -0.013357144 0.56100005
-0.021905717 -0.013357144 0.56100005
-0.020837145 -0.013357144 0.56100005
-0.019768573 -0.013357144 0.56100005
-0.018700002 -0.013357144 0.56100005
-0.017662859 -0.013380953 0.56200004
-0.016592382 -0.013380953 0.56200004
-0.015494287 -0.013357144 0.56100005
-0.014451429 -0.013380953 0.56200004
-0.013380953 -0.013380953 0.56200004
-0.012288572 -0.013357144 0.56100005
-0.011220001 -0.013357144 0.56100005
-0.010151429 -0.013357144 0.56100005
-0.0090990486 -0.013380953 0.56200004
-0.0080285715 -0.013380953 0.56200004
-0.0069580958 -0.013380953 0.56200004
-0.0058876192 -0.013380953 0.56200004
-0.0048257145 -0.013404762 0.56300002
-0.0037600002 -0.013428573 0.56400001
-0.0026857145 -0.013428573 0.56400001
-0.0016114287 -0.013428573 0.56400001
-0.00053809525 -0.013452382 0.565
0.00053809525 -0.013452382 0.565
0.0016142859 -0.013452382 0.565
0.0026904764 -0.013452382 0.565
0.0037666669 -0.013452382 0.565
0.0048514288 -0.013476191 0.56600004
0.0059295241 -0.013476191 0.56600004
0.0070076194 -0.013476191 0.56600004
0.0080857147 -0.013476191 0.56600004
0.0091638099 -0.013476191 0.56600004
0.010241905 -0.013476191 0.56600004
0.011340001 -0.013500001 0.56700003
0.012420001 -0.013500001 0.56700003
0.013523811 -0.013523811 0.56800002
0.01463143 -0.01354762 0.56900001
0.015742859 -0.013571429 0.57000005
0.016828572 -0.013571429 0.57000005
0.017945716 -0.013595239 0.57100004
0.019033335 -0.013595239 0.57100004
0.020120954 -0.013595239 0.57100004
0.021245716 -0.013619049 0.57200003
-0.028620003 -0.012420001 0.56700003
-0.027442859 -0.012376191 0.565
-0.026366668 -0.012376191 0.565
-0.025290478 -0.012376191 0.565
-0.024128573 -0.012332382 0.56300002
-0.02301524 -0.012310477 0.56200004
-0.021944763 -0.012310477 0.56200004
-0.020874288 -0.012310477 0.56200004
-0.019768573 -0.012288572 0.56100005
-0.018733334 -0.012310477 0.56200004
-0.017662859 -0.012310477 0.56200004
-0.016592382 -0.012310477 0.56200004
-0.015521905 -0.012310477 0.56200004
-0.014451429 -0.012310477 0.56200004
-0.013380953 -0.012310477 0.56200004
-0.012310477 -0.012310477 0.56200004
-0.011220001 -0.012288572 0.56100005
-0.010169525 -0.012310477 0.56200004
-0.0090990486 -0.012310477 0.56200004
-0.008042858 -0.012332382 0.56300002
-0.0069704768 -0.012332382 0.56300002
-0.0058980957 -0.012332382 0.56300002
-0.0048342859 -0.012354286 0.56400001
-0.0037600002 -0.012354286 0.56400001
-0.0026904764 -0.012376191 0.565
-0.0016142859 -0.012376191 0.565
-0.00053809525 -0.012376191 0.565
0.00053809525 -0.012376191 0.565
0.0016142859 -0.012376191 0.565
0.0026904764 -0.012376191 0.565
0.0037733335 -0.012398096 0.56600004
0.0048514288 -0.012398096 0.56600004
0.0059295241 -0.012398096 0.56600004
0.0070076194 -0.012398096 0.56600004
0.0080857147 -0.012398096 0.56600004
0.0091638099 -0.012398096 0.56600004
0.010260001 -0.012420001 0.56700003
0.011340001 -0.012420001 0.56700003
0.012441905 -0.012441905 0.56800002
0.013523811 -0.012441905 0.56800002
0.01463143 -0.01246381 0.56900001
0.015742859 -0.012485716 0.57000005
0.016858097 -0.01250762 0.57100004
0.017945716 -0.01250762 0.57100004
0.019033335 -0.01250762 0.57100004
0.020120954 -0.01250762 0.57100004
0.021245716 -0.012529525 0.57200003
-0.029700002 -0.011340001 0.56700003
-0.028569525 -0.011320001 0.56600004
-0.027442859 -0.0113 0.565
-0.026366668 -0.0113 0.565
-0.025290478 -0.0113 0.565
-0.024171431 -0.011280001 0.56400001
-0.02301524 -0.011240001 0.56200004
-0.021944763 -0.011240001 0.56200004
-0.020874288 -0.011240001 0.56200004
-0.019803811 -0.011240001 0.56200004
-0.018766668 -0.011260001 0.56300002
-0.017694287 -0.011260001 0.56300002
-0.016592382 -0.011240001 0.56200004
-0.015521905 -0.011240001 0.56200004
-0.014477144 -0.011260001 0.56300002
-0.013404762 -0.011260001 0.56300002
-0.012310477 -0.011240001 0.56200004
-0.011240001 -0.011240001 0.56200004
-0.010169525 -0.011240001 0.56200004
-0.0091152387 -0.011260001 0.56300002
-0.008042858 -0.011260001 0.56300002
-0.0069704768 -0.011260001 0.56300002
-0.0059085716 -0.011280001 0.56400001
-0.0048342859 -0.011280001 0.56400001
-0.0037666669 -0.0113 0.565
-0.0026904764 -0.0113 0.565
-0.0016142859 -0.0113 0.565
-0.00053809525 -0.0113 0.565
0.00053809525 -0.0113 0.565
0.0016142859 -0.0113 0.565
0.0026952382 -0.011320001 0.56600004
0.0037733335 -0.011320001 0.56600004
0.0048514288 -0.011320001 0.56600004
0.0059295241 -0.011320001 0.56600004
0.0070200004 -0.011340001 0.56700003
0.0081000002 -0.011340001 0.56700003
0.009180001 -0.011340001 0.56700003
0.010260001 -0.011340001 0.56700003
0.011340001 -0.011340001 0.56700003
0.012420001 -0.011340001 0.56700003
0.013523811 -0.011360001 0.56800002
0.01463143 -0.011380001 0.56900001
0.015742859 -0.011400001 0.57000005
0.016858097 -0.01142 0.57100004
0.017945716 -0.01142 0.57100004
0.019033335 -0.01142 0.57100004
0.020120954 -0.01142 0.57100004
0.021245716 -0.01144 0.57200003
-0.02749143 -0.010241905 0.56600004
-0.026413335 -0.010241905 0.56600004
-0.025290478 -0.010223811 0.565
-0.024214288 -0.010223811 0.565
-0.023056192 -0.010187619 0.56300002
-0.021983812 -0.010187619 0.56300002
-0.020911429 -0.010187619 0.56300002
-0.019839048 -0.010187619 0.56300002
-0.018766668 -0.010187619 0.56300002
-0.017694287 -0.010187619 0.56300002
-0.016621906 -0.010187619 0.56300002
-0.015549525 -0.010187619 0.56300002
-0.014477144 -0.010187619 0.56300002
-0.013404762 -0.010187619 0.56300002
-0.012354286 -0.010205715 0.56400001
-0.011260001 -0.010187619 0.56300002
-0.010187619 -0.010187619 0.56300002
-0.0091152387 -0.010187619 0.56300002
-0.0080571435 -0.010205715 0.56400001
-0.0069828578 -0.010205715 0.56400001
-0.0059085716 -0.010205715 0.56400001
-0.0048428574 -0.010223811 0.565
-0.0037666669 -0.010223811 0.565
-0.0026904764 -0.010223811 0.565
-0.0016142859 -0.010223811 0.565
-0.00053809525 -0.010223811 0.565
0.00053809525 -0.010223811 0.565
0.0016171429 -0.010241905 0.56600004
0.0026952382 -0.010241905 0.56600004
0.0037800001 -0.010260001 0.56700003
0.0048600002 -0.010260001 0.56700003
0.0059400005 -0.010260001 0.56700003
0.0070200004 -0.010260001 0.56700003
0.0081000002 -0.010260001 0.56700003
0.009180001 -0.010260001 0.56700003
0.010278095 -0.010278095 0.56800002
0.011360001 -0.010278095 0.56800002
0.01246381 -0.010296191 0.56900001
0.01354762 -0.010296191 0.56900001
0.014657144 -0.010314287 0.57000005
0.015742859 -0.010314287 0.57000005
0.01688762 -0.010350477 0.57200003
0.017977145 -0.010350477 0.57200003
0.019066667 -0.010350477 0.57200003
0.020120954 -0.010332381 0.57100004
0.021245716 -0.010350477 0.57200003
-0.027540002 -0.009180001 0.56700003
-0.026413335 -0.0091638099 0.56600004
-0.025290478 -0.0091476198 0.565
-0.024214288 -0.0091476198 0.565
-0.023097144 -0.0091314288 0.56400001
-0.021983812 -0.0091152387 0.56300002
-0.020911429 -0.0091152387 0.56300002
-0.019839048 -0.0091152387 0.56300002
-0.018766668 -0.0091152387 0.56300002
-0.017694287 -0.0091152387 0.56300002
-0.016621906 -0.0091152387 0.56300002
-0.015549525 -0.0091152387 0.56300002
-0.014477144 -0.0091152387 0.56300002
-0.013428573 -0.0091314288 0.56400001
-0.012332382 -0.0091152387 0.56300002
-0.011280001 -0.0091314288 0.56400001
-0.010205715 -0.0091314288 0.56400001
-0.0091476198 -0.0091476198 0.565
-0.0080714291 -0.0091476198 0.565
-0.0069952384 -0.0091476198 0.565
-0.0059190481 -0.0091476198 0.565
-0.0048428574 -0.0091476198 0.565
-0.0037666669 -0.0091476198 0.565
-0.0026904764 -0.0091476198 0.565
-0.0016171429 -0.0091638099 0.56600004
-0.00053904764 -0.0091638099 0.56600004
0.00053904764 -0.0091638099 0.56600004
0.0016200001 -0.009180001 0.56700003
0.0027000001 -0.009180001 0.56700003
0.0037800001 -0.009180001 0.56700003
0.0048600002 -0.009180001 0.56700003
0.0059504765 -0.0091961911 0.56800002
0.0070323814 -0.0091961911 0.56800002
0.0081142867 -0.0091961911 0.56800002
0.0091961911 -0.0091961911 0.56800002
0.010296191 -0.0092123812 0.56900001
0.011400001 -0.0092285722 0.57000005
0.01250762 -0.0092447624 0.57100004
0.013595239 -0.0092447624 0.57100004
0.014682858 -0.0092447624 0.57100004
0.015798096 -0.0092609534 0.57200003
0.01688762 -0.0092609534 0.57200003
0.017977145 -0.0092609534 0.57200003
0.019066667 -0.0092609534 0.57200003
0.020120954 -0.0092447624 0.57100004
0.021245716 -0.0092609534 0.57200003
-0.027540002 -0.0081000002 0.56700003
-0.026460001 -0.0081000002 0.56700003
-0.025335239 -0.0080857147 0.56600004
-0.024214288 -0.0080714291 0.565
-0.023138097 -0.0080714291 0.565
-0.022022858 -0.0080571435 0.56400001
-0.020948572 -0.0080571435 0.56400001
-0.019874288 -0.0080571435 0.56400001
-0.018800002 -0.0080571435 0.56400001
-0.017725715 -0.0080571435 0.56400001
-0.016621906 -0.008042858 0.56300002
-0.015549525 -0.008042858 0.56300002
-0.014502858 -0.0080571435 0.56400001
-0.013452382 -0.0080714291 0.565
-0.012376191 -0.0080714291 0.565
-0.011280001 -0.0080571435 0.56400001
-0.010223811 -0.0080714291 0.565
-0.0091476198 -0.0080714291 0.565
-0.0080714291 -0.0080714291 0.565
-0.0069952384 -0.0080714291 0.565
-0.0059190481 -0.0080714291 0.565
-0.0048428574 -0.0080714291 0.565
-0.0037733335 -0.0080857147 0.56600004
-0.0026952382 -0.0080857147 0.56600004
-0.0016171429 -0.0080857147 0.56600004
-0.00053904764 -0.0080857147 0.56600004
0.00053904764 -0.0080857147 0.56600004
0.0016200001 -0.0081000002 0.56700003
0.0027000001 -0.0081000002 0.56700003
0.0037800001 -0.0081000002 0.56700003
0.0048600002 -0.0081000002 0.56700003
0.0059504765 -0.0081142867 0.56800002
0.0070323814 -0.0081142867 0.56800002
0.0081142867 -0.0081142867 0.56800002
0.0091961911 -0.0081142867 0.56800002
0.010296191 -0.0081285723 0.56900001
0.011380001 -0.0081285723 0.56900001
0.01250762 -0.0081571434 0.57100004
0.013595239 -0.0081571434 0.57100004
0.014682858 -0.0081571434 0.57100004
0.015798096 -0.0081714289 0.57200003
0.016917145 -0.0081857145 0.57300001
0.018008573 -0.0081857145 0.57300001
0.019100001 -0.0081857145 0.57300001
0.020156192 -0.0081714289 0.57200003
0.021245716 -0.0081714289 0.57200003
-0.027637145 -0.0070447624 0.56900001
-0.026506668 -0.0070323814 0.56800002
-0.025380002 -0.0070200004 0.56700003
-0.024257144 -0.0070076194 0.56600004
-0.023179049 -0.0070076194 0.56600004
-0.022061907 -0.0069952384 0.565
-0.020985715 -0.0069952384 0.565
-0.019909525 -0.0069952384 0.565
-0.018833335 -0.0069952384 0.565
-0.017725715 -0.0069828578 0.56400001
-0.016651429 -0.0069828578 0.56400001
-0.015604763 -0.0069952384 0.565
-0.014528573 -0.0069952384 0.565
-0.013452382 -0.0069952384 0.565
-0.012376191 -0.0069952384 0.565
-0.0113 -0.0069952384 0.565
-0.010223811 -0.0069952384 0.565
-0.0091476198 -0.0069952384 0.565
-0.0080714291 -0.0069952384 0.565
-0.0069952384 -0.0069952384 0.565
-0.0059295241 -0.0070076194 0.56600004
-0.0048514288 -0.0070076194 0.56600004
-0.0037733335 -0.0070076194 0.56600004
-0.0026952382 -0.0070076194 0.56600004
-0.0016200001 -0.0070200004 0.56700003
-0.00054000004 -0.0070200004 0.56700003
0.00054000004 -0.0070200004 0.56700003
0.0016228573 -0.0070323814 0.56800002
0.0027047622 -0.0070323814 0.56800002
0.003786667 -0.0070323814 0.56800002
0.0048685716 -0.0070323814 0.56800002
0.0059504765 -0.0070323814 0.56800002
0.0070323814 -0.0070323814 0.56800002
0.0081285723 -0.0070447624 0.56900001
0.0091961911 -0.0070323814 0.56800002
0.010296191 -0.0070447624 0.56900001
0.011400001 -0.0070571434 0.57000005
0.01250762 -0.0070695244 0.57100004
0.013619049 -0.0070819054 0.57200003
0.014708572 -0.0070819054 0.57200003
0.015825715 -0.0070942864 0.57300001
0.016917145 -0.0070942864 0.57300001
0.018008573 -0.0070942864 0.57300001
0.019100001 -0.0070942864 0.57300001
0.020156192 -0.0070819054 0.57200003
-0.026506668 -0.0059504765 0.56800002
-0.025380002 -0.0059400005 0.56700003
-0.024300002 -0.0059400005 0.56700003
-0.023179049 -0.0059295241 0.56600004
-0.022061907 -0.0059190481 0.565
-0.020985715 -0.0059190481 0.565
-0.019909525 -0.0059190481 0.565
-0.018833335 -0.0059190481 0.565
-0.017757144 -0.0059190481 0.565
-0.016651429 -0.0059085716 0.56400001
-0.015604763 -0.0059190481 0.565
-0.014528573 -0.0059190481 0.565
-0.013452382 -0.0059190481 0.565
-0.012376191 -0.0059190481 0.565
-0.0113 -0.0059190481 0.565
-0.010241905 -0.0059295241 0.56600004
-0.0091638099 -0.0059295241 0.56600004
-0.0080857147 -0.0059295241 0.56600004
-0.0070076194 -0.0059295241 0.56600004
-0.0059295241 -0.0059295241 0.56600004
-0.0048600002 -0.0059400005 0.56700003
-0.0037800001 -0.0059400005 0.56700003
-0.0027000001 -0.0059400005 0.56700003
-0.0016200001 -0.0059400005 0.56700003
-0.00054000004 -0.0059400005 0.56700003
0.00054095243 -0.0059504765 0.56800002
0.0016228573 -0.0059504765 0.56800002
0.0027047622 -0.0059504765 0.56800002
0.003786667 -0.0059504765 0.56800002
0.0048685716 -0.0059504765 0.56800002
0.005960953 -0.005960953 0.56900001
0.0070447624 -0.005960953 0.56900001
0.0081428578 -0.0059714289 0.57000005
0.0092123812 -0.005960953 0.56900001
0.010314287 -0.0059714289 0.57000005
0.011400001 -0.0059714289 0.57000005
0.012529525 -0.0059923814 0.57200003
0.013619049 -0.0059923814 0.57200003
0.014734287 -0.0060028573 0.57300001
0.015825715 -0.0060028573 0.57300001
0.016946668 -0.0060133338 0.574
0.018008573 -0.0060028573 0.57300001
0.019100001 -0.0060028573 0.57300001
0.020191429 -0.0060028573 0.57300001
-0.026553335 -0.0048771431 0.56900001
-0.025424764 -0.0048685716 0.56800002
-0.024300002 -0.0048600002 0.56700003
-0.023220001 -0.0048600002 0.56700003
-0.022100953 -0.0048514288 0.56600004
-0.021022858 -0.0048514288 0.56600004
-0.019944763 -0.0048514288 0.56600004
-0.018866668 -0.0048514288 0.56600004
-0.017788572 -0.0048514288 0.56600004
-0.016710477 -0.0048514288 0.56600004
-0.015632382 -0.0048514288 0.56600004
-0.014554286 -0.0048514288 0.56600004
-0.013476191 -0.0048514288 0.56600004
-0.012398096 -0.0048514288 0.56600004
-0.011320001 -0.0048514288 0.56600004
-0.010241905 -0.0048514288 0.56600004
-0.009180001 -0.0048600002 0.56700003
-0.0081000002 -0.0048600002 0.56700003
-0.0070200004 -0.0048600002 0.56700003
-0.0059400005 -0.0048600002 0.56700003
-0.0048685716 -0.0048685716 0.56800002
-0.003786667 -0.0048685716 0.56800002
-0.002709524 -0.0048771431 0.56900001
-0.0016257144 -0.0048771431 0.56900001
-0.00054190482 -0.0048771431 0.56900001
0.00054190482 -0.0048771431 0.56900001
0.0016285715 -0.0048857145 0.57000005
0.0027142859 -0.0048857145 0.57000005
0.0038000003 -0.0048857145 0.57000005
0.0048771431 -0.0048771431 0.56900001
0.0059714289 -0.0048857145 0.57000005
0.0070571434 -0.0048857145 0.57000005
0.0081571434 -0.0048942859 0.57100004
0.0092447624 -0.0048942859 0.57100004
0.010332381 -0.0048942859 0.57100004
0.01142 -0.0048942859 0.57100004
0.012529525 -0.0049028574 0.57200003
0.013642858 -0.0049114288 0.57300001
0.014734287 -0.0049114288 0.57300001
0.015825715 -0.0049114288 0.57300001
0.016976191 -0.0049285716 0.57500005
0.01807143 -0.0049285716 0.57500005
0.019133335 -0.0049200002 0.574
0.020226669 -0.0049200002 0.574
-0.026646668 -0.0038066669 0.57100004
-0.025424764 -0.003786667 0.56800002
-0.024342859 -0.003786667 0.56800002
-0.023220001 -0.0037800001 0.56700003
-0.022140002 -0.0037800001 0.56700003
-0.021060001 -0.0037800001 0.56700003
-0.019980002 -0.0037800001 0.56700003
-0.018900001 -0.0037800001 0.56700003
-0.017820001 -0.0037800001 0.56700003
-0.016710477 -0.0037733335 0.56600004
-0.015632382 -0.0037733335 0.56600004
-0.014554286 -0.0037733335 0.56600004
-0.013476191 -0.0037733335 0.56600004
-0.012398096 -0.0037733335 0.56600004
-0.011320001 -0.0037733335 0.56600004
-0.010260001 -0.0037800001 0.56700003
-0.009180001 -0.0037800001 0.56700003
-0.0081000002 -0.0037800001 0.56700003
-0.0070200004 -0.0037800001 0.56700003
-0.0059504765 -0.003786667 0.56800002
-0.0048685716 -0.003786667 0.56800002
-0.0037933337 -0.0037933337 0.56900001
-0.002709524 -0.0037933337 0.56900001
-0.0016257144 -0.0037933337 0.56900001
-0.00054190482 -0.0037933337 0.56900001
0.00054285716 -0.0038000003 0.57000005
0.0016285715 -0.0038000003 0.57000005
0.0027142859 -0.0038000003 0.57000005
0.0038000003 -0.0038000003 0.57000005
0.0048857145 -0.0038000003 0.57000005
0.0059714289 -0.0038000003 0.57000005
0.0070695244 -0.0038066669 0.57100004
0.0081714289 -0.0038133336 0.57200003
0.0092609534 -0.0038133336 0.57200003
0.010350477 -0.0038133336 0.57200003
0.01144 -0.0038133336 0.57200003
0.01255143 -0.0038200002 0.57300001
0.013642858 -0.0038200002 0.57300001
0.014760001 -0.0038266669 0.574
0.015853334 -0.0038266669 0.574
0.016976191 -0.0038333335 0.57500005
0.018102858 -0.0038400004 0.57600003
0.019166667 -0.0038333335 0.57500005
0.020297144 -0.0038400004 0.57600003
0.021394286 -0.0038400004 0.57600003
-0.026646668 -0.0027190477 0.57100004
-0.025424764 -0.0027047622 0.56800002
-0.024342859 -0.0027047622 0.56800002
-0.023220001 -0.0027000001 0.56700003
-0.022140002 -0.0027000001 0.56700003
-0.021060001 -0.0027000001 0.56700003
-0.019980002 -0.0027000001 0.56700003
-0.018900001 -0.0027000001 0.56700003
-0.017820001 -0.0027000001 0.56700003
-0.016740002 -0.0027000001 0.56700003
-0.015660001 -0.0027000001 0.56700003
-0.014580001 -0.0027000001 0.56700003
-0.013500001 -0.0027000001 0.56700003
-0.012420001 -0.0027000001 0.56700003
-0.011340001 -0.0027000001 0.56700003
-0.010260001 -0.0027000001 0.56700003
-0.0091961911 -0.0027047622 0.56800002
-0.0081142867 -0.0027047622 0.56800002
-0.0070323814 -0.0027047622 0.56800002
-0.005960953 -0.002709524 0.56900001
-0.0048771431 -0.002709524 0.56900001
-0.0038000003 -0.0027142859 0.57000005
-0.0027142859 -0.0027142859 0.57000005
-0.0016285715 -0.0027142859 0.57000005
-0.00054285716 -0.0027142859 0.57000005
0.00054285716 -0.0027142859 0.57000005
0.0016285715 -0.0027142859 0.57000005
0.0027142859 -0.0027142859 0.57000005
0.0038000003 -0.0027142859 0.57000005
0.0048942859 -0.0027190477 0.57100004
0.0059819054 -0.0027190477 0.57100004
0.0070695244 -0.0027190477 0.57100004
0.0081714289 -0.0027238098 0.57200003
0.0092609534 -0.0027238098 0.57200003
0.010368573 -0.0027285716 0.57300001
0.011460001 -0.0027285716 0.57300001
0.012573334 -0.0027333335 0.574
0.013666668 -0.0027333335 0.574
0.014760001 -0.0027333335 0.574
0.015880954 -0.0027380954 0.57500005
0.016976191 -0.0027380954 0.57500005
0.018102858 -0.0027428572 0.57600003
0.019200001 -0.0027428572 0.57600003
0.020297144 -0.0027428572 0.57600003
0.021394286 -0.0027428572 0.57600003
-0.027880002 -0.0016400001 0.574
-0.026693335 -0.0016342858 0.57200003
-0.025469525 -0.0016257144 0.56900001
-0.024342859 -0.0016228573 0.56800002
-0.023220001 -0.0016200001 0.56700003
-0.022140002 -0.0016200001 0.56700003
-0.021060001 -0.0016200001 0.56700003
-0.019980002 -0.0016200001 0.56700003
-0.018900001 -0.0016200001 0.56700003
-0.017820001 -0.0016200001 0.56700003
-0.016740002 -0.0016200001 0.56700003
-0.015660001 -0.0016200001 0.56700003
-0.014580001 -0.0016200001 0.56700003
-0.013500001 -0.0016200001 0.56700003
-0.012420001 -0.0016200001 0.56700003
-0.011340001 -0.0016200001 0.56700003
-0.010278095 -0.0016228573 0.56800002
-0.0091961911 -0.0016228573 0.56800002
-0.0081285723 -0.0016257144 0.56900001
-0.0070447624 -0.0016257144 0.56900001
-0.0059714289 -0.0016285715 0.57000005
-0.0048857145 -0.0016285715 0.57000005
-0.0038000003 -0.0016285715 0.57000005
-0.0027142859 -0.0016285715 0.57000005
-0.0016285715 -0.0016285715 0.57000005
-0.00054285716 -0.0016285715 0.57000005
0.00054285716 -0.0016285715 0.57000005
0.0016314287 -0.0016314287 0.57100004
0.0027142859 -0.0016285715 0.57000005
0.0038066669 -0.0016314287 0.57100004
0.0048942859 -0.0016314287 0.57100004
0.0059923814 -0.0016342858 0.57200003
0.0070819054 -0.0016342858 0.57200003
0.0081857145 -0.001637143 0.57300001
0.0092771435 -0.001637143 0.57300001
0.010386667 -0.0016400001 0.574
0.011480001 -0.0016400001 0.574
0.012573334 -0.0016400001 0.574
0.013666668 -0.0016400001 0.574
0.014785715 -0.0016428572 0.57500005
0.015908573 -0.0016457144 0.57600003
0.017005716 -0.0016457144 0.57600003
0.018134287 -0.0016485716 0.57700002
0.019233335 -0.0016485716 0.57700002
0.020332383 -0.0016485716 0.57700002
0.021431429 -0.0016485716 0.57700002
-0.029023811 -0.00054761907 0.57500005
-0.027880002 -0.00054666668 0.574
-0.026740002 -0.00054571434 0.57300001
-0.025514288 -0.00054285716 0.57000005
-0.024385717 -0.00054190482 0.56900001
-0.023260955 -0.00054095243 0.56800002
-0.022179049 -0.00054095243 0.56800002
-0.021060001 -0.00054000004 0.56700003
-0.019980002 -0.00054000004 0.56700003
-0.018900001 -0.00054000004 0.56700003
-0.017851429 -0.00054095243 0.56800002
-0.016769525 -0.00054095243 0.56800002
-0.01568762 -0.00054095243 0.56800002
-0.014605715 -0.00054095243 0.56800002
-0.013523811 -0.00054095243 0.56800002
-0.012441905 -0.00054095243 0.56800002
-0.011360001 -0.00054095243 0.56800002
-0.010278095 -0.00054095243 0.56800002
-0.0092123812 -0.00054190482 0.56900001
-0.0081285723 -0.00054190482 0.56900001
-0.0070571434 -0.00054285716 0.57000005
-0.0059714289 -0.00054285716 0.57000005
-0.0048857145 -0.00054285716 0.57000005
-0.0038000003 -0.00054285716 0.57000005
-0.0027190477 -0.00054380955 0.57100004
-0.0016314287 -0.00054380955 0.57100004
-0.00054380955 -0.00054380955 0.57100004
0.00054380955 -0.00054380955 0.57100004
0.0016314287 -0.00054380955 0.57100004
0.0027190477 -0.00054380955 0.57100004
0.0038066669 -0.00054380955 0.57100004
0.0049028574 -0.00054476195 0.57200003
0.0060028573 -0.00054571434 0.57300001
0.0070942864 -0.00054571434 0.57300001
0.0081857145 -0.00054571434 0.57300001
0.0092933336 -0.00054666668 0.574
0.010386667 -0.00054666668 0.574
0.011480001 -0.00054666668 0.574
0.012573334 -0.00054666668 0.574
0.013690477 -0.00054761907 0.57500005
0.014811429 -0.00054857146 0.57600003
0.015908573 -0.00054857146 0.57600003
0.017035238 -0.00054952386 0.57700002
0.018134287 -0.00054952386 0.57700002
0.019233335 -0.00054952386 0.57700002
0.020367621 -0.00055047625 0.57800001
0.021468572 -0.00055047625 0.57800001
0.022530477 -0.00054952386 0.57700002
-0.029023811 0.00054761907 0.57500005
-0.027880002 0.00054666668 0.574
-0.026740002 0.00054571434 0.57300001
-0.025514288 0.00054285716 0.57000005
-0.024428573 0.00054285716 0.57000005
-0.023260955 0.00054095243 0.56800002
-0.022179049 0.00054095243 0.56800002
-0.021097144 0.00054095243 0.56800002
-0.02001524 0.00054095243 0.56800002
-0.018933335 0.00054095243 0.56800002
-0.017851429 0.00054095243 0.56800002
-0.016769525 0.00054095243 0.56800002
-0.01571524 0.00054190482 0.56900001
-0.01463143 0.00054190482 0.56900001
-0.01354762 0.00054190482 0.56900001
-0.012441905 0.00054095243 0.56800002
-0.011380001 0.00054190482 0.56900001
-0.010296191 0.00054190482 0.56900001
-0.0092285722 0.00054285716 0.57000005
-0.0081428578 0.00054285716 0.57000005
-0.0070571434 0.00054285716 0.57000005
-0.0059819054 0.00054380955 0.57100004
-0.0048942859 0.00054380955 0.57100004
-0.0038066669 0.00054380955 0.57100004
-0.0027190477 0.00054380955 0.57100004
-0.0016314287 0.00054380955 0.57100004
-0.00054380955 0.00054380955 0.57100004
0.00054380955 0.00054380955 0.57100004
0.0016314287 0.00054380955 0.57100004
0.0027190477 0.00054380955 0.57100004
0.0038133336 0.00054476195 0.57200003
0.0049114288 0.00054571434 0.57300001
0.0060028573 0.00054571434 0.57300001
0.0071066669 0.00054666668 0.574
0.008200001 0.00054666668 0.574
0.0092933336 0.00054666668 0.574
0.010404763 0.00054761907 0.57500005
0.011500001 0.00054761907 0.57500005
0.012595239 0.00054761907 0.57500005
0.013690477 0.00054761907 0.57500005
0.014837144 0.00054952386 0.57700002
0.015936192 0.00054952386 0.57700002
0.017035238 0.00054952386 0.57700002
0.018165715 0.00055047625 0.57800001
0.019266669 0.00055047625 0.57800001
0.020367621 0.00055047625 0.57800001
0.021468572 0.00055047625 0.57800001
0.022569526 0.00055047625 0.57800001
-0.028973335 0.0016400001 0.574
-0.02783143 0.001637143 0.57300001
-0.026740002 0.001637143 0.57300001
-0.025559049 0.0016314287 0.57100004
-0.024428573 0.0016285715 0.57000005
-0.023301907 0.0016257144 0.56900001
-0.022218097 0.0016257144 0.56900001
-0.021097144 0.0016228573 0.56800002
-0.020050477 0.0016257144 0.56900001
-0.018966667 0.0016257144 0.56900001
-0.017882857 0.0016257144 0.56900001
-0.016799049 0.0016257144 0.56900001
-0.01571524 0.0016257144 0.56900001
-0.01463143 0.0016257144 0.56900001
-0.013571429 0.0016285715 0.57000005
-0.01246381 0.0016257144 0.56900001
-0.011380001 0.0016257144 0.56900001
-0.010314287 0.0016285715 0.57000005
-0.0092285722 0.0016285715 0.57000005
-0.0081428578 0.0016285715 0.57000005
-0.0070571434 0.0016285715 0.57000005
-0.0059819054 0.0016314287 0.57100004
-0.0048942859 0.0016314287 0.57100004
-0.0038066669 0.0016314287 0.57100004
-0.0027190477 0.0016314287 0.57100004
-0.0016314287 0.0016314287 0.57100004
-0.00054476195 0.0016342858 0.57200003
0.00054476195 0.0016342858 0.57200003
0.0016342858 0.0016342858 0.57200003
0.0027238098 0.0016342858 0.57200003
0.0038200002 0.001637143 0.57300001
0.0049200002 0.0016400001 0.574
0.0060133338 0.0016400001 0.574
0.0071066669 0.0016400001 0.574
0.008200001 0.0016400001 0.574
0.0093095247 0.0016428572 0.57500005
0.010404763 0.0016428572 0.57500005
0.011500001 0.0016428572 0.57500005
0.012595239 0.0016428572 0.57500005
0.013714286 0.0016457144 0.57600003
0.014837144 0.0016485716 0.57700002
0.015963811 0.0016514286 0.57800001
0.017064763 0.0016514286 0.57800001
0.018165715 0.0016514286 0.57800001
0.019300001 0.0016542858 0.57900006
0.020402858 0.0016542858 0.57900006
0.021505715 0.0016542858 0.57900006
-0.027782859 0.0027238098 0.57200003
-0.026693335 0.0027238098 0.57200003
-0.025559049 0.0027190477 0.57100004
-0.024428573 0.0027142859 0.57000005
-0.023301907 0.002709524 0.56900001
-0.022218097 0.002709524 0.56900001
-0.021134287 0.002709524 0.56900001
-0.020050477 0.002709524 0.56900001
-0.018966667 0.002709524 0.56900001
-0.017882857 0.002709524 0.56900001
-0.016799049 0.002709524 0.56900001
-0.015742859 0.0027142859 0.57000005
-0.014657144 0.0027142859 0.57000005
-0.013571429 0.0027142859 0.57000005
-0.012485716 0.0027142859 0.57000005
-0.011400001 0.0027142859 0.57000005
-0.010314287 0.0027142859 0.57000005
-0.0092285722 0.0027142859 0.57000005
-0.0081571434 0.0027190477 0.57100004
-0.0070695244 0.0027190477 0.57100004
-0.0059819054 0.0027190477 0.57100004
-0.0048942859 0.0027190477 0.57100004
-0.0038066669 0.0027190477 0.57100004
-0.0027238098 0.0027238098 0.57200003
-0.0016342858 0.0027238098 0.57200003
-0.00054476195 0.0027238098 0.57200003
0.00054571434 0.0027285716 0.57300001
0.001637143 0.0027285716 0.57300001
0.0027285716 0.0027285716 0.57300001
0.0038266669 0.0027333335 0.574
0.0049200002 0.0027333335 0.574
0.0060238098 0.0027380954 0.57500005
0.0071190479 0.0027380954 0.57500005
0.0082142865 0.0027380954 0.57500005
0.0093095247 0.0027380954 0.57500005
0.010404763 0.0027380954 0.57500005
0.011520001 0.0027428572 0.57600003
0.012617144 0.0027428572 0.57600003
0.013738096 0.0027476193 0.57700002
0.014862858 0.0027523811 0.57800001
0.015963811 0.0027523811 0.57800001
0.017094286 0.002757143 0.57900006
0.018197143 0.002757143 0.57900006
0.019300001 0.002757143 0.57900006
0.020402858 0.002757143 0.57900006
-0.027782859 0.0038133336 0.57200003
-0.026646668 0.0038066669 0.57100004
-0.025559049 0.0038066669 0.57100004
-0.02447143 0.0038066669 0.57100004
-0.023342859 0.0038000003 0.57000005
-0.022257144 0.0038000003 0.57000005
-0.02117143 0.0038000003 0.57000005
-0.020085715 0.0038000003 0.57000005
-0.019000001 0.0038000003 0.57000005
-0.017914288 0.0038000003 0.57000005
-0.016799049 0.0037933337 0.56900001
-0.015742859 0.0038000003 0.57000005
-0.014657144 0.0038000003 0.57000005
-0.013571429 0.0038000003 0.57000005
-0.012485716 0.0038000003 0.57000005
-0.01142 0.0038066669 0.57100004
-0.010332381 0.0038066669 0.57100004
-0.0092447624 0.0038066669 0.57100004
-0.0081571434 0.0038066669 0.57100004
-0.0070695244 0.0038066669 0.57100004
-0.0059819054 0.0038066669 0.57100004
-0.0049028574 0.0038133336 0.57200003
-0.0038133336 0.0038133336 0.57200003
-0.0027238098 0.0038133336 0.57200003
-0.0016342858 0.0038133336 0.57200003
-0.00054571434 0.0038200002 0.57300001
0.00054571434 0.0038200002 0.57300001
0.0016400001 0.0038266669 0.574
0.0027333335 0.0038266669 0.574
0.0038266669 0.0038266669 0.574
0.0049285716 0.0038333335 0.57500005
0.0060238098 0.0038333335 0.57500005
0.0071190479 0.0038333335 0.57500005
0.0082142865 0.0038333335 0.57500005
0.0093257148 0.0038400004 0.57600003
0.010422857 0.0038400004 0.57600003
0.011520001 0.0038400004 0.57600003
0.012639049 0.003846667 0.57700002
0.013738096 0.003846667 0.57700002
0.014862858 0.0038533336 0.57800001
0.015991429 0.0038600003 0.57900006
0.017094286 0.0038600003 0.57900006
0.018197143 0.0038600003 0.57900006
0.019333335 0.0038666669 0.58000004
0.020438097 0.0038666669 0.58000004
-0.028872384 0.0049028574 0.57200003
-0.027782859 0.0049028574 0.57200003
-0.026646668 0.0048942859 0.57100004
-0.025559049 0.0048942859 0.57100004
-0.02447143 0.0048942859 0.57100004
-0.023342859 0.0048857145 0.57000005
-0.022257144 0.0048857145 0.57000005
-0.02117143 0.0048857145 0.57000005
-0.020085715 0.0048857145 0.57000005
-0.019000001 0.0048857145 0.57000005
-0.017914288 0.0048857145 0.57000005
-0.016828572 0.0048857145 0.57000005
-0.015770476 0.0048942859 0.57100004
-0.014682858 0.0048942859 0.57100004
-0.013595239 0.0048942859 0.57100004
-0.01250762 0.0048942859 0.57100004
-0.01142 0.0048942859 0.57100004
-0.010332381 0.0048942859 0.57100004
-0.0092447624 0.0048942859 0.57100004
-0.0081571434 0.0048942859 0.57100004
-0.0070695244 0.0048942859 0.57100004
-0.0059923814 0.0049028574 0.57200003
-0.0049028574 0.0049028574 0.57200003
-0.0038133336 0.0049028574 0.57200003
-0.0027285716 0.0049114288 0.57300001
-0.001637143 0.0049114288 0.57300001
-0.00054571434 0.0049114288 0.57300001
0.00054666668 0.0049200002 0.574
0.0016400001 0.0049200002 0.574
0.0027333335 0.0049200002 0.574
0.0038333335 0.0049285716 0.57500005
0.0049285716 0.0049285716 0.57500005
0.0060238098 0.0049285716 0.57500005
0.0071314289 0.0049371431 0.57600003
0.0082285721 0.0049371431 0.57600003
0.0093257148 0.0049371431 0.57600003
0.010422857 0.0049371431 0.57600003
0.01154 0.0049457145 0.57700002
0.012639049 0.0049457145 0.57700002
0.013761906 0.0049542859 0.57800001
0.014888573 0.0049628573 0.57900006
0.015991429 0.0049628573 0.57900006
0.017094286 0.0049628573 0.57900006
0.018228572 0.0049714288 0.58000004
0.019333335 0.0049714288 0.58000004
-0.028872384 0.0059923814 0.57200003
-0.027734287 0.0059819054 0.57100004
-0.026646668 0.0059819054 0.57100004
-0.025559049 0.0059819054 0.57100004
-0.024514288 0.0059923814 0.57200003
-0.023383811 0.0059819054 0.57100004
-0.022296192 0.0059819054 0.57100004
-0.02117143 0.0059714289 0.57000005
-0.020120954 0.0059819054 0.57100004
-0.019000001 0.0059714289 0.57000005
-0.017914288 0.0059714289 0.57000005
-0.016828572 0.0059714289 0.57000005
-0.015770476 0.0059819054 0.57100004
-0.014682858 0.0059819054 0.57100004
-0.013595239 0.0059819054 0.57100004
-0.01250762 0.0059819054 0.57100004
-0.01142 0.0059819054 0.57100004
-0.010332381 0.0059819054 0.57100004
-0.0092447624 0.0059819054 0.57100004
-0.0081571434 0.0059819054 0.57100004
-0.0070695244 0.0059819054 0.57100004
-0.0059923814 0.0059923814 0.57200003
-0.0049028574 0.0059923814 0.57200003
-0.0038200002 0.0060028573 0.57300001
-0.0027285716 0.0060028573 0.57300001
-0.001637143 0.0060028573 0.57300001
-0.00054666668 0.0060133338 0.574
0.00054666668 0.0060133338 0.574
0.0016400001 0.0060133338 0.574
0.0027380954 0.0060238098 0.57500005
0.0038333335 0.0060238098 0.57500005
0.0049285716 0.0060238098 0.57500005
0.0060238098 0.0060238098 0.57500005
0.0071314289 0.0060342862 0.57600003
0.0082285721 0.0060342862 0.57600003
0.0093419058 0.0060447622 0.57700002
0.010440953 0.0060447622 0.57700002
0.01156 0.0060552387 0.57800001
0.012660953 0.0060552387 0.57800001
0.013761906 0.0060552387 0.57800001
0.014888573 0.0060657146 0.57900006
0.016019048 0.0060761911 0.58000004
0.017123811 0.0060761911 0.58000004
0.018228572 0.0060761911 0.58000004
0.019366669 0.0060866671 0.58100003
0.020508572 0.0060971431 0.58200002
0.02169143 0.0061180955 0.58400005
-0.02560381 0.0070819054 0.57200003
-0.024557145 0.0070942864 0.57300001
-0.023424763 0.0070819054 0.57200003
-0.022335239 0.0070819054 0.57200003
-0.021208573 0.0070695244 0.57100004
-0.020156192 0.0070819054 0.57200003
-0.019033335 0.0070695244 0.57100004
-0.017945716 0.0070695244 0.57100004
-0.016858097 0.0070695244 0.57100004
-0.015798096 0.0070819054 0.57200003
-0.014682858 0.0070695244 0.57100004
-0.013619049 0.0070819054 0.57200003
-0.01250762 0.0070695244 0.57100004
-0.01142 0.0070695244 0.57100004
-0.010350477 0.0070819054 0.57200003
-0.0092609534 0.0070819054 0.57200003
-0.0081714289 0.0070819054 0.57200003
-0.0070819054 0.0070819054 0.57200003
-0.0060028573 0.0070942864 0.57300001
-0.0049200002 0.0071066669 0.574
-0.0038266669 0.0071066669 0.574
-0.0027333335 0.0071066669 0.574
-0.0016400001 0.0071066669 0.574
-0.00054666668 0.0071066669 0.574
0.00054761907 0.0071190479 0.57500005
0.0016428572 0.0071190479 0.57500005
0.0027428572 0.0071314289 0.57600003
0.0038400004 0.0071314289 0.57600003
0.0049371431 0.0071314289 0.57600003
0.0060447622 0.0071438099 0.57700002
0.0071561909 0.0071561909 0.57800001
0.0082571432 0.0071561909 0.57800001
0.0093580959 0.0071561909 0.57800001
0.010459049 0.0071561909 0.57800001
0.011580001 0.0071685719 0.57900006
0.012682858 0.0071685719 0.57900006
0.013785715 0.0071685719 0.57900006
0.014914286 0.0071809529 0.58000004
0.016046667 0.0071933339 0.58100003
0.017182859 0.0072057149 0.58200002
0.018322859 0.0072180959 0.583
0.019433334 0.0072180959 0.583
0.020579049 0.0072304765 0.58400005
0.02169143 0.0072304765 0.58400005
-0.025648573 0.0081857145 0.57300001
-0.024600001 0.008200001 0.574
-0.023465715 0.0081857145 0.57300001
-0.022374287 0.0081857145 0.57300001
-0.021245716 0.0081714289 0.57200003
-0.020191429 0.0081857145 0.57300001
-0.019066667 0.0081714289 0.57200003
-0.017977145 0.0081714289 0.57200003
-0.01688762 0.0081714289 0.57200003
-0.015798096 0.0081714289 0.57200003
-0.014682858 0.0081571434 0.57100004
-0.013619049 0.0081714289 0.57200003
-0.01250762 0.0081571434 0.57100004
-0.01142 0.0081571434 0.57100004
-0.010350477 0.0081714289 0.57200003
-0.0092609534 0.0081714289 0.57200003
-0.0081714289 0.0081714289 0.57200003
-0.0070819054 0.0081714289 0.57200003
-0.0060133338 0.008200001 0.574
-0.0049285716 0.0082142865 0.57500005
-0.0038333335 0.0082142865 0.57500005
-0.0027380954 0.0082142865 0.57500005
-0.0016428572 0.0082142865 0.57500005
-0.00054761907 0.0082142865 0.57500005
0.00054761907 0.0082142865 0.57500005
0.0016428572 0.0082142865 0.57500005
0.0027380954 0.0082142865 0.57500005
0.003846667 0.0082428576 0.57700002
0.0049457145 0.0082428576 0.57700002
0.0060552387 0.0082571432 0.57800001
0.0071561909 0.0082571432 0.57800001
0.0082571432 0.0082571432 0.57800001
0.009374286 0.0082714288 0.57900006
0.010477143 0.0082714288 0.57900006
0.011600001 0.0082857152 0.58000004
0.012704763 0.0082857152 0.58000004
0.013833335 0.0083000008 0.58100003
0.014940001 0.0083000008 0.58100003
0.016074287 0.0083142864 0.58200002
0.017212382 0.0083285719 0.583
0.018322859 0.0083285719 0.583
0.019466668 0.0083428575 0.58400005
0.020614287 0.008357143 0.58500004
0.021728573 0.008357143 0.58500004
0.022842858 0.008357143 0.58500004
-0.025693335 0.0092933336 0.574
-0.024600001 0.0092933336 0.574
-0.023506667 0.0092933336 0.574
-0.022413334 0.0092933336 0.574
-0.021282859 0.0092771435 0.57300001
-0.020226669 0.0092933336 0.574
-0.019100001 0.0092771435 0.57300001
-0.018008573 0.0092771435 0.57300001
-0.016917145 0.0092771435 0.57300001
-0.015825715 0.0092771435 0.57300001
-0.014734287 0.0092771435 0.57300001
-0.013642858 0.0092771435 0.57300001
-0.012529525 0.0092609534 0.57200003
-0.01144 0.0092609534 0.57200003
-0.010350477 0.0092609534 0.57200003
-0.0092771435 0.0092771435 0.57300001
-0.0081857145 0.0092771435 0.57300001
-0.0070942864 0.0092771435 0.57300001
-0.0060133338 0.0092933336 0.574
-0.0049285716 0.0093095247 0.57500005
-0.0038333335 0.0093095247 0.57500005
-0.0027380954 0.0093095247 0.57500005
-0.0016428572 0.0093095247 0.57500005
-0.00054761907 0.0093095247 0.57500005
0.00054761907 0.0093095247 0.57500005
0.0016428572 0.0093095247 0.57500005
0.0027380954 0.0093095247 0.57500005
0.003846667 0.0093419058 0.57700002
0.0049457145 0.0093419058 0.57700002
0.0060552387 0.0093580959 0.57800001
0.0071561909 0.0093580959 0.57800001
0.0082571432 0.0093580959 0.57800001
0.009374286 0.009374286 0.57900006
0.010495239 0.0093904771 0.58000004
0.011600001 0.0093904771 0.58000004
0.012726667 0.0094066672 0.58100003
0.013833335 0.0094066672 0.58100003
0.014965715 0.0094228573 0.58200002
0.016101906 0.0094390484 0.583
0.017212382 0.0094390484 0.583
0.018354287 0.0094552385 0.58400005
0.019466668 0.0094552385 0.58400005
0.020614287 0.0094714295 0.58500004
0.021728573 0.0094714295 0.58500004
-0.025738098 0.010404763 0.57500005
-0.024642859 0.010404763 0.57500005
-0.023547621 0.010404763 0.57500005
-0.022413334 0.010386667 0.574
-0.021320002 0.010386667 0.574
-0.020226669 0.010386667 0.574
-0.019133335 0.010386667 0.574
-0.018040001 0.010386667 0.574
-0.016946668 0.010386667 0.574
-0.015853334 0.010386667 0.574
-0.014734287 0.010368573 0.57300001
-0.013642858 0.010368573 0.57300001
-0.01255143 0.010368573 0.57300001
-0.01144 0.010350477 0.57200003
-0.010350477 0.010350477 0.57200003
-0.0092771435 0.010368573 0.57300001
-0.0081857145 0.010368573 0.57300001
-0.0070942864 0.010368573 0.57300001
-0.0060238098 0.010404763 0.57500005
-0.0049285716 0.010404763 0.57500005
-0.0038400004 0.010422857 0.57600003
-0.0027428572 0.010422857 0.57600003
-0.0016457144 0.010422857 0.57600003
-0.00054857146 0.010422857 0.57600003
0.00054952386 0.010440953 0.57700002
0.0016485716 0.010440953 0.57700002
0.0027476193 0.010440953 0.57700002
0.0038533336 0.010459049 0.57800001
0.0049542859 0.010459049 0.57800001
0.0060552387 0.010459049 0.57800001
0.0071561909 0.010459049 0.57800001
0.0082714288 0.010477143 0.57900006
0.0093904771 0.010495239 0.58000004
0.010513334 0.010513334 0.58100003
0.011620001 0.010513334 0.58100003
0.012748572 0.010531429 0.58200002
0.013857144 0.010531429 0.58200002
0.01499143 0.010549525 0.583
0.016101906 0.010549525 0.583
0.017241906 0.010567619 0.58400005
0.018385716 0.010585715 0.58500004
0.0195 0.010585715 0.58500004
0.020649524 0.010603811 0.58600003
0.021765716 0.010603811 0.58600003
-0.026973335 0.01156 0.57800001
-0.025782859 0.011520001 0.57600003
-0.024685716 0.011520001 0.57600003
-0.023547621 0.011500001 0.57500005
-0.022452382 0.011500001 0.57500005
-0.021357145 0.011500001 0.57500005
-0.020261906 0.011500001 0.57500005
-0.019166667 0.011500001 0.57500005
-0.01807143 0.011500001 0.57500005
-0.016946668 0.011480001 0.574
-0.015853334 0.011480001 0.574
-0.014760001 0.011480001 0.574
-0.013666668 0.011480001 0.574
-0.012573334 0.011480001 0.574
-0.011460001 0.011460001 0.57300001
-0.010368573 0.011460001 0.57300001
-0.0092771435 0.011460001 0.57300001
-0.008200001 0.011480001 0.574
-0.0071190479 0.011500001 0.57500005
-0.0060342862 0.011520001 0.57600003
-0.0049371431 0.011520001 0.57600003
-0.003846667 0.01154 0.57700002
-0.0027476193 0.01154 0.57700002
-0.0016485716 0.01154 0.57700002
-0.00054952386 0.01154 0.57700002
0.00054952386 0.01154 0.57700002
0.0016485716 0.01154 0.57700002
0.0027523811 0.01156 0.57800001
0.0038600003 0.011580001 0.57900006
0.0049628573 0.011580001 0.57900006
0.0060657146 0.011580001 0.57900006
0.0071685719 0.011580001 0.57900006
0.0082857152 0.011600001 0.58000004
0.0093904771 0.011600001 0.58000004
0.010513334 0.011620001 0.58100003
0.011640001 0.011640001 0.58200002
0.012770477 0.01166 0.583
0.013880953 0.01166 0.583
0.015017143 0.01168 0.58400005
0.016129525 0.01168 0.58400005
0.017271429 0.011700001 0.58500004
0.018385716 0.011700001 0.58500004
0.0195 0.011700001 0.58500004
0.020649524 0.011720001 0.58600003
0.021765716 0.011720001 0.58600003
-0.026973335 0.012660953 0.57800001
-0.02582762 0.012639049 0.57700002
-0.024685716 0.012617144 0.57600003
-0.023547621 0.012595239 0.57500005
-0.022452382 0.012595239 0.57500005
-0.021357145 0.012595239 0.57500005
-0.020261906 0.012595239 0.57500005
-0.019166667 0.012595239 0.57500005
-0.01807143 0.012595239 0.57500005
-0.016976191 0.012595239 0.57500005
-0.015853334 0.012573334 0.574
-0.014760001 0.012573334 0.574
-0.013666668 0.012573334 0.574
-0.012573334 0.012573334 0.574
-0.011480001 0.012573334 0.574
-0.010386667 0.012573334 0.574
-0.0092933336 0.012573334 0.574
-0.0082142865 0.012595239 0.57500005
-0.0071314289 0.012617144 0.57600003
-0.0060447622 0.012639049 0.57700002
-0.0049457145 0.012639049 0.57700002
-0.003846667 0.012639049 0.57700002
-0.0027476193 0.012639049 0.57700002
-0.0016514286 0.012660953 0.57800001
-0.00055047625 0.012660953 0.57800001
0.00055047625 0.012660953 0.57800001
0.0016514286 0.012660953 0.57800001
0.002757143 0.012682858 0.57900006
0.0038600003 0.012682858 0.57900006
0.0049628573 0.012682858 0.57900006
0.0060657146 0.012682858 0.57900006
0.0071685719 0.012682858 0.57900006
0.0082857152 0.012704763 0.58000004
0.0094066672 0.012726667 0.58100003
0.010531429 0.012748572 0.58200002
0.011640001 0.012748572 0.58200002
0.012770477 0.012770477 0.583
0.013904762 0.012792381 0.58400005
0.015017143 0.012792381 0.58400005
0.016157145 0.012814286 0.58500004
0.017271429 0.012814286 0.58500004
0.018385716 0.012814286 0.58500004
0.0195 0.012814286 0.58500004
0.020649524 0.012836191 0.58600003
0.021765716 0.012836191 0.58600003
-0.027020002 0.013785715 0.57900006
-0.025872383 0.013761906 0.57800001
-0.024728574 0.013738096 0.57700002
-0.023588574 0.013714286 0.57600003
-0.022452382 0.013690477 0.57500005
-0.021357145 0.013690477 0.57500005
-0.020297144 0.013714286 0.57600003
-0.019200001 0.013714286 0.57600003
-0.01807143 0.013690477 0.57500005
-0.016976191 0.013690477 0.57500005
-0.015880954 0.013690477 0.57500005
-0.014785715 0.013690477 0.57500005
-0.013690477 0.013690477 0.57500005
-0.012595239 0.013690477 0.57500005
-0.011480001 0.013666668 0.574
-0.010386667 0.013666668 0.574
-0.0093095247 0.013690477 0.57500005
-0.0082285721 0.013714286 0.57600003
-0.0071438099 0.013738096 0.57700002
-0.0060552387 0.013761906 0.57800001
-0.0049457145 0.013738096 0.57700002
-0.0038533336 0.013761906 0.57800001
-0.0027523811 0.013761906 0.57800001
-0.0016514286 0.013761906 0.57800001
-0.00055142859 0.013785715 0.57900006
0.00055142859 0.013785715 0.57900006
0.0016542858 0.013785715 0.57900006
0.002757143 0.013785715 0.57900006
0.0038666669 0.013809524 0.58000004
0.0049714288 0.013809524 0.58000004
0.0060657146 0.013785715 0.57900006
0.0071809529 0.013809524 0.58000004
0.0083000008 0.013833335 0.58100003
0.0094066672 0.013833335 0.58100003
0.010531429 0.013857144 0.58200002
0.01166 0.013880953 0.583
0.012792381 0.013904762 0.58400005
0.013904762 0.013904762 0.58400005
0.015017143 0.013904762 0.58400005
0.016157145 0.013928573 0.58500004
0.017271429 0.013928573 0.58500004
0.018385716 0.013928573 0.58500004
0.0195 0.013928573 0.58500004
0.020614287 0.013928573 0.58500004
0.021765716 0.013952382 0.58600003
-0.028220002 0.014940001 0.58100003
-0.027020002 0.014888573 0.57900006
-0.025872383 0.014862858 0.57800001
-0.02477143 0.014862858 0.57800001
-0.023629526 0.014837144 0.57700002
-0.022491431 0.014811429 0.57600003
-0.021394286 0.014811429 0.57600003
-0.020297144 0.014811429 0.57600003
-0.019200001 0.014811429 0.57600003
-0.018102858 0.014811429 0.57600003
-0.017005716 0.014811429 0.57600003
-0.015880954 0.014785715 0.57500005
-0.014811429 0.014811429 0.57600003
-0.013714286 0.014811429 0.57600003
-0.012617144 0.014811429 0.57600003
-0.011520001 0.014811429 0.57600003
-0.010404763 0.014785715 0.57500005
-0.0093257148 0.014811429 0.57600003
-0.0082428576 0.014837144 0.57700002
-0.0071561909 0.014862858 0.57800001
-0.0060552387 0.014862858 0.57800001
-0.0049542859 0.014862858 0.57800001
-0.0038533336 0.014862858 0.57800001
-0.002757143 0.014888573 0.57900006
-0.0016542858 0.014888573 0.57900006
-0.00055142859 0.014888573 0.57900006
0.00055142859 0.014888573 0.57900006
0.001657143 0.014914286 0.58000004
0.0027619048 0.014914286 0.58000004
0.0038666669 0.014914286 0.58000004
0.0049714288 0.014914286 0.58000004
0.0060761911 0.014914286 0.58000004
0.0071933339 0.014940001 0.58100003
0.0083142864 0.014965715 0.58200002
0.0094228573 0.014965715 0.58200002
0.010549525 0.01499143 0.583
0.01168 0.015017143 0.58400005
0.012792381 0.015017143 0.58400005
0.013928573 0.015042858 0.58500004
0.015042858 0.015042858 0.58500004
