# .PCD v0.7 - Point Cloud Data file format
VERSION 0.7
FIELDS x y z
SIZE 4 4 4
TYPE F F F
COUNT 1 1 1
WIDTH 1380
HEIGHT 1
VIEWPOINT 0 0 0 1 0 0 0
POINTS 1380
DATA ascii
-0.042285718 0.087390482 0.59200001
-0.04122762 0.087538101 0.59300005
-0.040098097 0.087538101 0.59300005
-0.038968574 0.087538101 0.59300005
-0.037902858 0.087685719 0.59400004
-0.036771432 0.087685719 0.59400004
-0.035700001 0.087833337 0.59500003
-0.034566671 0.087833337 0.59500003
-0.033433337 0.087833337 0.59500003
-0.032354288 0.087980956 0.59600002
-0.03121905 0.087980956 0.59600002
-0.030134289 0.088128574 0.597
-0.029094288 0.088423818 0.59900004
-0.028000003 0.088571437 0.60000002
-0.026857145 0.088571437 0.60000002
-0.025714288 0.088571437 0.60000002
-0.024612382 0.088719055 0.60100001
-0.023506667 0.088866673 0.60200006
-0.022397144 0.089014292 0.60300004
-0.021283811 0.08916191 0.60400003
-0.020133335 0.08916191 0.60400003
-0.019014288 0.089309528 0.60500002
-0.017891429 0.089457147 0.60600001
-0.016764764 0.089604765 0.60700005
-0.015634287 0.089752384 0.60800004
-0.014500001 0.089900009 0.60900003
-0.01338381 0.090195246 0.611
-0.012240001 0.090342864 0.61200005
-0.011128572 0.090785719 0.61500001
-0.0099733341 0.090933338 0.61600006
-0.0088000009 0.090933338 0.61600006
-0.0076390482 0.091080956 0.61700004
-0.0064847623 0.091376193 0.61900002
-0.0053057144 0.091376193 0.61900002
-0.0041333335 0.091523819 0.62
-0.0029666668 0.091966674 0.62300003
-0.0017828572 0.092114292 0.62400001
-0.00059523812 0.09226191 0.625
0.00059523812 0.09226191 0.625
0.0017914287 0.092557147 0.62700003
0.0029952384 0.092852384 0.62900001
0.0042133336 0.093295246 0.63200003
0.005417143 0.093295246 0.63200003
0.0066314288 0.093442865 0.63300002
0.0078495247 0.093590483 0.634
0.0090714293 0.093738101 0.63500005
0.010297144 0.09388572 0.63600004
0.011544763 0.094180956 0.63800001
0.01278 0.094328575 0.63900006
0.014019049 0.094476193 0.64000005
0.015261906 0.094623819 0.64100003
0.016585715 0.095214292 0.64500004
0.017869525 0.095509529 0.64700001
0.019131429 0.095657147 0.648
0.020428572 0.095952384 0.65000004
0.021700002 0.09610001 0.65100002
0.02297524 0.096247628 0.65200001
0.024254287 0.096395247 0.65300006
0.025576193 0.096690483 0.65500003
0.026864763 0.096838102 0.65600002
0.028114287 0.096838102 0.65600002
0.029453335 0.097133338 0.65800005
0.030706668 0.097133338 0.65800005
0.032057144 0.097428575 0.66000003
0.033465717 0.097871438 0.66300005
0.034885716 0.098314293 0.66600001
0.036208574 0.098461911 0.66700006
0.037591431 0.098757148 0.66900003
0.038923811 0.098904766 0.67000002
0.040200002 0.098904766 0.67000002
0.041723814 0.099495247 0.67400002
0.04307143 0.099642865 0.67500001
0.044357147 0.099642865 0.67500001
0.04564286 0.099642865 0.67500001
0.046998098 0.099790484 0.67600006
0.048285719 0.099790484 0.67600006
0.05030667 0.10126667 0.68600005
0.051613338 0.10126667 0.68600005
0.052920002 0.10126667 0.68600005
0.054305717 0.10141429 0.68700004
0.055776194 0.10170953 0.68900001
0.057171434 0.10185715 0.69000006
0.058570482 0.10200477 0.69100004
0.060146671 0.10244763 0.69400001
0.061734289 0.10289048 0.69700003
0.063152388 0.1030381 0.69800001
0.064759053 0.10348096 0.70100003
0.066282861 0.10377619 0.70300001
-0.10131144 0.089863814 0.60100001
-0.099833339 0.08956477 0.59900004
-0.098527625 0.089415245 0.59800005
-0.09738858 0.089415245 0.59800005
-0.095927626 0.089116193 0.59600002
-0.094633341 0.088966675 0.59500003
-0.093185723 0.088667624 0.59300005
-0.0920562 0.088667624 0.59300005
-0.090773337 0.088518098 0.59200001
-0.089494288 0.08836858 0.59100002
-0.088518098 0.088518098 0.59200001
-0.087242864 0.08836858 0.59100002
-0.086117148 0.08836858 0.59100002
-0.084991433 0.08836858 0.59100002
-0.083865717 0.08836858 0.59100002
-0.082740009 0.08836858 0.59100002
-0.081476197 0.088219054 0.59000003
-0.080352388 0.088219054 0.59000003
-0.079362862 0.08836858 0.59100002
-0.078237146 0.08836858 0.59100002
-0.07711143 0.08836858 0.59100002
-0.075985722 0.08836858 0.59100002
-0.074860007 0.08836858 0.59100002
-0.073734291 0.08836858 0.59100002
-0.072608575 0.08836858 0.59100002
-0.071361907 0.088219054 0.59000003
-0.070119053 0.088069528 0.58900005
-0.068997145 0.088069528 0.58900005
-0.067990482 0.088219054 0.59000003
-0.066866674 0.088219054 0.59000003
-0.065631434 0.088069528 0.58900005
-0.064509526 0.088069528 0.58900005
-0.063387625 0.088069528 0.58900005
-0.06226572 0.088069528 0.58900005
-0.061247624 0.088219054 0.59000003
-0.060123812 0.088219054 0.59000003
-0.059000004 0.088219054 0.59000003
-0.057876196 0.088219054 0.59000003
-0.056752384 0.088219054 0.59000003
-0.055628575 0.088219054 0.59000003
-0.054597147 0.08836858 0.59100002
-0.053471431 0.08836858 0.59100002
-0.052257147 0.088219054 0.59000003
-0.051133338 0.088219054 0.59000003
-0.050009526 0.088219054 0.59000003
-0.048885718 0.088219054 0.59000003
-0.04776191 0.088219054 0.59000003
-0.046717145 0.08836858 0.59100002
-0.045591433 0.08836858 0.59100002
-0.044465717 0.08836858 0.59100002
-0.043340001 0.08836858 0.59100002
-0.042214289 0.08836858 0.59100002
-0.041088574 0.08836858 0.59100002
-0.040030479 0.088518098 0.59200001
-0.03890286 0.088518098 0.59200001
-0.037839051 0.088667624 0.59300005
-0.036771432 0.088817149 0.59400004
-0.035700001 0.088966675 0.59500003
-0.034624763 0.089116193 0.59600002
-0.033545718 0.089265719 0.597
-0.032408573 0.089265719 0.597
-0.031271432 0.089265719 0.597
-0.030184764 0.089415245 0.59800005
-0.029094288 0.08956477 0.59900004
-0.028000003 0.089714289 0.60000002
-0.026857145 0.089714289 0.60000002
-0.025757145 0.089863814 0.60100001
-0.024653334 0.09001334 0.60200006
-0.023545716 0.090162866 0.60300004
-0.022434287 0.090312384 0.60400003
-0.021283811 0.090312384 0.60400003
-0.020166667 0.09046191 0.60500002
-0.019045716 0.090611435 0.60600001
-0.017920954 0.090760961 0.60700005
-0.016792381 0.090910479 0.60800004
-0.015660001 0.091060005 0.60900003
-0.01454762 0.091359057 0.611
-0.013405715 0.091508575 0.61200005
-0.01228 0.091807626 0.61400002
-0.011128572 0.091957152 0.61500001
-0.0099733341 0.09210667 0.61600006
-0.0088142864 0.092256196 0.61700004
-0.0076514292 0.092405722 0.61800003
-0.0064952387 0.092704765 0.62
-0.0053314287 0.093003817 0.62200004
-0.0041533336 0.093153343 0.62300003
-0.0029714287 0.093302861 0.62400001
-0.0017857144 0.093452387 0.625
-0.00059619051 0.093601912 0.62600005
0.0005980953 0.093900956 0.62800002
0.0018028573 0.094349533 0.63100004
0.0030047621 0.094349533 0.63100004
0.0042200005 0.094648577 0.63300002
0.0054257144 0.094648577 0.63300002
0.0066419053 0.094798103 0.634
0.0078619057 0.094947629 0.63500005
0.0090714293 0.094947629 0.63500005
0.010329524 0.095396198 0.63800001
0.011562858 0.095545724 0.63900006
0.012800001 0.095695242 0.64000005
0.014106668 0.096293338 0.64400005
0.015404763 0.096741915 0.64700001
0.016662858 0.096891433 0.648
0.017952383 0.097190484 0.65000004
0.019220002 0.09734001 0.65100002
0.020460002 0.09734001 0.65100002
0.021733334 0.097489528 0.65200001
0.023010477 0.097639054 0.65300006
0.024328573 0.097938098 0.65500003
0.025693335 0.098386675 0.65800005
0.026946668 0.098386675 0.65800005
0.028200002 0.098386675 0.65800005
0.02954286 0.098685719 0.66000003
0.030800002 0.098685719 0.66000003
0.032105718 0.098835245 0.66100001
0.033566669 0.09943334 0.66500002
0.034938097 0.099732384 0.66700006
0.036317144 0.10003144 0.66900003
0.03764762 0.10018096 0.67000002
0.038981907 0.10033048 0.671
0.040560003 0.1010781 0.67600006
0.04197143 0.10137715 0.67800003
0.043262862 0.10137715 0.67800003
0.044554289 0.10137715 0.67800003
0.045913335 0.10152667 0.67900002
0.047415242 0.10197525 0.68200004
0.048857145 0.10227429 0.68400002
0.050526671 0.10302191 0.68900001
0.051688574 0.10272286 0.68700004
0.053151432 0.10302191 0.68900001
0.054463815 0.10302191 0.68900001
0.055857148 0.10317144 0.69000006
0.057420004 0.10362001 0.69300002
0.058740005 0.10362001 0.69300002
0.060060006 0.10362001 0.69300002
0.06226572 0.10511524 0.70300001
-0.10097429 0.090705723 0.59900004
-0.09966667 0.09055429 0.59800005
-0.098527625 0.09055429 0.59800005
-0.097225718 0.090402864 0.597
-0.095766671 0.090100005 0.59500003
-0.094474293 0.08994858 0.59400004
-0.093185723 0.089797147 0.59300005
-0.0920562 0.089797147 0.59300005
-0.090620004 0.089494288 0.59100002
-0.089494288 0.089494288 0.59100002
-0.08836858 0.089494288 0.59100002
-0.087242864 0.089494288 0.59100002
-0.086117148 0.089494288 0.59100002
-0.084847622 0.089342862 0.59000003
-0.083723813 0.089342862 0.59000003
-0.082600005 0.089342862 0.59000003
-0.081476197 0.089342862 0.59000003
-0.080216199 0.089191437 0.58900005
-0.079094291 0.089191437 0.58900005
-0.07797239 0.089191437 0.58900005
-0.076850481 0.089191437 0.58900005
-0.075857148 0.089342862 0.59000003
-0.074733339 0.089342862 0.59000003
-0.073360004 0.089040004 0.588
-0.072362863 0.089191437 0.58900005
-0.071120001 0.089040004 0.588
-0.070000008 0.089040004 0.588
-0.068880007 0.089040004 0.588
-0.067760006 0.089040004 0.588
-0.066640005 0.089040004 0.588
-0.065631434 0.089191437 0.58900005
-0.064509526 0.089191437 0.58900005
-0.063387625 0.089191437 0.58900005
-0.06226572 0.089191437 0.58900005
-0.061143812 0.089191437 0.58900005
-0.060021907 0.089191437 0.58900005
-0.058900002 0.089191437 0.58900005
-0.057778098 0.089191437 0.58900005
-0.056656193 0.089191437 0.58900005
-0.055628575 0.089342862 0.59000003
-0.054504767 0.089342862 0.59000003
-0.053290479 0.089191437 0.58900005
-0.052168574 0.089191437 0.58900005
-0.050960004 0.089040004 0.588
-0.049840003 0.089040004 0.588
-0.048720002 0.089040004 0.588
-0.047680955 0.089191437 0.58900005
-0.046559051 0.089191437 0.58900005
-0.045437146 0.089191437 0.58900005
-0.044465717 0.089494288 0.59100002
-0.043340001 0.089494288 0.59100002
-0.042142861 0.089342862 0.59000003
-0.041088574 0.089494288 0.59100002
-0.039962858 0.089494288 0.59100002
-0.038837146 0.089494288 0.59100002
-0.037775241 0.089645721 0.59200001
-0.036709525 0.089797147 0.59300005
-0.035640001 0.08994858 0.59400004
-0.034566671 0.090100005 0.59500003
-0.033489525 0.090251431 0.59600002
-0.032354288 0.090251431 0.59600002
-0.03121905 0.090251431 0.59600002
-0.030134289 0.090402864 0.597
-0.029094288 0.090705723 0.59900004
-0.028000003 0.090857148 0.60000002
-0.026857145 0.090857148 0.60000002
-0.025757145 0.091008574 0.60100001
-0.024653334 0.091160007 0.60200006
-0.023545716 0.091311432 0.60300004
-0.022434287 0.091462865 0.60400003
-0.021319048 0.091614291 0.60500002
-0.020200001 0.091765717 0.60600001
-0.019077145 0.09191715 0.60700005
-0.017920954 0.09191715 0.60700005
-0.016792381 0.092068575 0.60800004
-0.015660001 0.092220008 0.60900003
-0.01454762 0.09252286 0.611
-0.01342762 0.092825718 0.61300004
-0.012300001 0.093128577 0.61500001
-0.011146667 0.093280002 0.61600006
-0.0099733341 0.093280002 0.61600006
-0.008828572 0.093582861 0.61800003
-0.0076638102 0.093734294 0.61900002
-0.0064952387 0.09388572 0.62
-0.0053314287 0.094188578 0.62200004
-0.0041600005 0.094491437 0.62400001
-0.0029761908 0.094642863 0.625
-0.0017914287 0.094945721 0.62700003
-0.0005980953 0.095097147 0.62800002
0.00059904763 0.09524858 0.62900001
0.0018028573 0.095551431 0.63100004
0.003009524 0.095702864 0.63200003
0.0042200005 0.09585429 0.63300002
0.0054342858 0.096005723 0.634
0.0066419053 0.096005723 0.634
0.0078619057 0.096157148 0.63500005
0.0090857148 0.096308574 0.63600004
0.010345715 0.096762866 0.63900006
0.011580953 0.096914291 0.64000005
0.012800001 0.096914291 0.64000005
0.014062858 0.09721715 0.64200002
0.015357144 0.097671434 0.64500004
0.016662858 0.098125719 0.648
0.017952383 0.098428577 0.65000004
0.019220002 0.098580003 0.65100002
0.020460002 0.098580003 0.65100002
0.021733334 0.098731436 0.65200001
0.023080954 0.09918572 0.65500003
0.024365716 0.099337146 0.65600002
0.025693335 0.099640004 0.65800005
0.027028574 0.099942863 0.66000003
0.028285716 0.099942863 0.66000003
0.02954286 0.099942863 0.66000003
0.031033335 0.10070001 0.66500002
0.032300003 0.10070001 0.66500002
0.033566669 0.10070001 0.66500002
0.034938097 0.10100286 0.66700006
0.036317144 0.10130572 0.66900003
0.03764762 0.10145715 0.67000002
0.039040003 0.10176001 0.67200005
0.040740002 0.10282001 0.67900002
0.042033337 0.10282001 0.67900002
0.043326668 0.10282001 0.67900002
0.044620004 0.10282001 0.67900002
0.045980956 0.10297143 0.68000001
0.047484767 0.10342572 0.68300003
0.049000002 0.10388001 0.68600005
0.050526671 0.10433429 0.68900001
0.05183905 0.10433429 0.68900001
0.053228576 0.10448572 0.69000006
0.054542862 0.10448572 0.69000006
0.055857148 0.10448572 0.69000006
0.057502862 0.10509144 0.69400001
0.058824766 0.10509144 0.69400001
0.060926672 0.10645429 0.70300001
-0.10097429 0.091846675 0.59900004
-0.09966667 0.091693342 0.59800005
-0.098362863 0.091540009 0.597
-0.097062863 0.091386676 0.59600002
-0.095766671 0.091233343 0.59500003
-0.094633341 0.091233343 0.59500003
-0.093185723 0.09092667 0.59300005
-0.091745719 0.090620004 0.59100002
-0.090620004 0.090620004 0.59100002
-0.089342862 0.090466671 0.59000003
-0.088219054 0.090466671 0.59000003
-0.087095246 0.090466671 0.59000003
-0.085971437 0.090466671 0.59000003
-0.084703818 0.090313338 0.58900005
-0.083723813 0.090466671 0.59000003
-0.082460009 0.090313338 0.58900005
-0.081476197 0.090466671 0.59000003
-0.080080003 0.090160005 0.588
-0.078960001 0.090160005 0.588
-0.077840008 0.090160005 0.588
-0.076720007 0.090160005 0.588
-0.075600006 0.090160005 0.588
-0.074480005 0.090160005 0.588
-0.073235244 0.090006672 0.58700001
-0.07211715 0.090006672 0.58700001
-0.070999049 0.090006672 0.58700001
-0.069880955 0.090006672 0.58700001
-0.068762861 0.090006672 0.58700001
-0.067644767 0.090006672 0.58700001
-0.066526674 0.090006672 0.58700001
-0.065408573 0.090006672 0.58700001
-0.064400002 0.090160005 0.588
-0.063280001 0.090160005 0.588
-0.062160004 0.090160005 0.588
-0.061143812 0.090313338 0.58900005
-0.060021907 0.090313338 0.58900005
-0.058900002 0.090313338 0.58900005
-0.057680003 0.090160005 0.588
-0.056656193 0.090313338 0.58900005
-0.055534288 0.090313338 0.58900005
-0.054412384 0.090313338 0.58900005
-0.053200003 0.090160005 0.588
-0.052080002 0.090160005 0.588
-0.050960004 0.090160005 0.588
-0.049840003 0.090160005 0.588
-0.048720002 0.090160005 0.588
-0.047600005 0.090160005 0.588
-0.046480004 0.090160005 0.588
-0.045360003 0.090160005 0.588
-0.044390481 0.090466671 0.59000003
-0.043266669 0.090466671 0.59000003
-0.042142861 0.090466671 0.59000003
-0.041019049 0.090466671 0.59000003
-0.03989524 0.090466671 0.59000003
-0.038771432 0.090466671 0.59000003
-0.037775241 0.090773337 0.59200001
-0.036647622 0.090773337 0.59200001
-0.035580002 0.09092667 0.59300005
-0.034508575 0.091080002 0.59400004
-0.033433337 0.091233343 0.59500003
-0.032354288 0.091386676 0.59600002
-0.03121905 0.091386676 0.59600002
-0.030134289 0.091540009 0.597
-0.029094288 0.091846675 0.59900004
-0.028000003 0.092000008 0.60000002
-0.026901906 0.092153341 0.60100001
-0.025800001 0.092306674 0.60200006
-0.024694288 0.092460006 0.60300004
-0.023584763 0.092613339 0.60400003
-0.02247143 0.092766672 0.60500002
-0.021354288 0.092920005 0.60600001
-0.020200001 0.092920005 0.60600001
-0.019077145 0.093073338 0.60700005
-0.017950477 0.093226671 0.60800004
-0.01682 0.093380004 0.60900003
-0.01571143 0.09368667 0.611
-0.014571429 0.093840003 0.61200005
-0.013449525 0.094146676 0.61400002
-0.012300001 0.094300009 0.61500001
-0.011146667 0.094453342 0.61600006
-0.0099895243 0.094606675 0.61700004
-0.0088428576 0.094913341 0.61900002
-0.0076761912 0.095066674 0.62
-0.0065161907 0.09537334 0.62200004
-0.0053400001 0.095526673 0.62300003
-0.0041666669 0.095833339 0.625
-0.0029809526 0.095986672 0.62600005
-0.0017914287 0.096140005 0.62700003
-0.0005980953 0.096293338 0.62800002
0.00059904763 0.096446671 0.62900001
0.0018057144 0.096906669 0.63200003
0.003009524 0.096906669 0.63200003
0.0042200005 0.09706001 0.63300002
0.0054342858 0.097213343 0.634
0.0066523813 0.097366676 0.63500005
0.0078619057 0.097366676 0.63500005
0.0090857148 0.097520009 0.63600004
0.010361905 0.09813334 0.64000005
0.011599048 0.098286673 0.64100003
0.012840001 0.098440006 0.64200002
0.014128572 0.098900005 0.64500004
0.015404763 0.099206671 0.64700001
0.016662858 0.099360004 0.648
0.017952383 0.09966667 0.65000004
0.019220002 0.099820003 0.65100002
0.020491431 0.099973343 0.65200001
0.021766668 0.10012668 0.65300006
0.023116192 0.10058668 0.65600002
0.024402859 0.10074001 0.65700001
0.02577143 0.10120001 0.66000003
0.027028574 0.10120001 0.66000003
0.028328573 0.10135334 0.66100001
0.029677145 0.10166001 0.66300005
0.031033335 0.10196667 0.66500002
0.032300003 0.10196667 0.66500002
0.033617146 0.10212 0.66600001
0.03504286 0.10258 0.66900003
0.036371432 0.10273334 0.67000002
0.037703812 0.10288668 0.671
0.039388575 0.10396001 0.67800003
0.040740002 0.10411334 0.67900002
0.042033337 0.10411334 0.67900002
0.043326668 0.10411334 0.67900002
0.044685718 0.10426667 0.68000001
0.046183813 0.10472667 0.68300003
0.047693338 0.10518667 0.68600005
0.049285717 0.10580001 0.69000006
0.050600003 0.10580001 0.69000006
0.05191429 0.10580001 0.69000006
0.053228576 0.10580001 0.69000006
0.054621909 0.10595334 0.69100004
0.055938099 0.10595334 0.69100004
0.057751432 0.10687334 0.69700003
-0.098362863 0.092677146 0.597
-0.096900009 0.092366673 0.59500003
-0.095766671 0.092366673 0.59500003
-0.094474293 0.092211433 0.59400004
-0.093185723 0.0920562 0.59300005
-0.091745719 0.091745719 0.59100002
-0.090466671 0.091590479 0.59000003
-0.089342862 0.091590479 0.59000003
-0.088219054 0.091590479 0.59000003
-0.086947627 0.091435246 0.58900005
-0.085825719 0.091435246 0.58900005
-0.084560007 0.091280006 0.588
-0.08358191 0.091435246 0.58900005
-0.082460009 0.091435246 0.58900005
-0.081200004 0.091280006 0.588
-0.079943813 0.091124766 0.58700001
-0.07869143 0.090969533 0.58600003
-0.077575244 0.090969533 0.58600003
-0.07645905 0.090969533 0.58600003
-0.075471431 0.091124766 0.58700001
-0.074353337 0.091124766 0.58700001
-0.073110484 0.090969533 0.58600003
-0.07199429 0.090969533 0.58600003
-0.070999049 0.091124766 0.58700001
-0.069880955 0.091124766 0.58700001
-0.068762861 0.091124766 0.58700001
-0.067529529 0.090969533 0.58600003
-0.066413336 0.090969533 0.58600003
-0.065408573 0.091124766 0.58700001
-0.064290479 0.091124766 0.58700001
-0.063172385 0.091124766 0.58700001
-0.062054291 0.091124766 0.58700001
-0.060936194 0.091124766 0.58700001
-0.0598181 0.091124766 0.58700001
-0.058700003 0.091124766 0.58700001
-0.057581909 0.091124766 0.58700001
-0.056463812 0.091124766 0.58700001
-0.055345718 0.091124766 0.58700001
-0.054227624 0.091124766 0.58700001
-0.053109527 0.091124766 0.58700001
-0.051991433 0.091124766 0.58700001
-0.050873335 0.091124766 0.58700001
-0.049755242 0.091124766 0.58700001
-0.048637144 0.091124766 0.58700001
-0.047519051 0.091124766 0.58700001
-0.046400957 0.091124766 0.58700001
-0.045360003 0.091280006 0.588
-0.044315241 0.091435246 0.58900005
-0.043120004 0.091280006 0.588
-0.042142861 0.091590479 0.59000003
-0.041019049 0.091590479 0.59000003
-0.03989524 0.091590479 0.59000003
-0.038771432 0.091590479 0.59000003
-0.03771143 0.091745719 0.59100002
-0.036647622 0.09190096 0.59200001
-0.035580002 0.0920562 0.59300005
-0.034508575 0.092211433 0.59400004
-0.033433337 0.092366673 0.59500003
-0.032354288 0.092521913 0.59600002
-0.03121905 0.092521913 0.59600002
-0.030184764 0.092832386 0.59800005
-0.029142858 0.09314286 0.60000002
-0.028046669 0.0932981 0.60100001
-0.026946668 0.09345334 0.60200006
-0.025842858 0.093608581 0.60300004
-0.02473524 0.093763813 0.60400003
-0.023623811 0.093919054 0.60500002
-0.022508573 0.094074294 0.60600001
-0.021389525 0.094229527 0.60700005
-0.020233335 0.094229527 0.60700005
-0.019108573 0.094384767 0.60800004
-0.017950477 0.094384767 0.60800004
-0.01682 0.094540007 0.60900003
-0.01571143 0.094850481 0.611
-0.014595239 0.095160961 0.61300004
-0.013471429 0.095471434 0.61500001
-0.012320001 0.095626675 0.61600006
-0.011164763 0.095781907 0.61700004
-0.0099895243 0.095781907 0.61700004
-0.0088428576 0.096092388 0.61900002
-0.0076761912 0.096247628 0.62
-0.0065266672 0.096713342 0.62300003
-0.0053485716 0.096868575 0.62400001
-0.0041666669 0.097023815 0.625
-0.0029809526 0.097179055 0.62600005
-0.0017942858 0.097489528 0.62800002
-0.00059904763 0.097644769 0.62900001
0.00060095242 0.097955242 0.63100004
0.0018057144 0.098110482 0.63200003
0.0030142858 0.098265722 0.63300002
0.0042266669 0.098420955 0.634
0.0054342858 0.098420955 0.634
0.0066523813 0.098576196 0.63500005
0.0078619057 0.098576196 0.63500005
0.0091285724 0.099197149 0.63900006
0.010361905 0.09935239 0.64000005
0.011617144 0.099662863 0.64200002
0.012840001 0.099662863 0.64200002
0.014128572 0.10012858 0.64500004
0.015404763 0.10043906 0.64700001
0.016662858 0.10059429 0.648
0.017952383 0.10090477 0.65000004
0.019249525 0.10121524 0.65200001
0.020522859 0.10137048 0.65300006
0.021833334 0.10168096 0.65500003
0.023151429 0.10199144 0.65700001
0.024440002 0.10214667 0.65800005
0.025810478 0.10261239 0.66100001
0.027069526 0.10261239 0.66100001
0.028371431 0.10276762 0.66200006
0.029677145 0.10292286 0.66300005
0.031033335 0.10323334 0.66500002
0.032300003 0.10323334 0.66500002
0.033566669 0.10323334 0.66500002
0.035095241 0.10400953 0.67000002
0.036425717 0.10416477 0.671
0.037872385 0.10463049 0.67400002
0.039446671 0.10540667 0.67900002
0.040740002 0.10540667 0.67900002
0.042033337 0.10540667 0.67900002
0.043390479 0.10556191 0.68000001
0.044817146 0.10587239 0.68200004
0.046116192 0.10587239 0.68200004
0.049214289 0.10695905 0.68900001
0.050673336 0.10726953 0.69100004
0.05191429 0.10711429 0.69000006
0.053305719 0.10726953 0.69100004
0.054621909 0.10726953 0.69100004
0.056261908 0.10789049 0.69500005
-0.096900009 0.093500003 0.59500003
-0.095605724 0.093342863 0.59400004
-0.094474293 0.093342863 0.59400004
-0.093185723 0.093185723 0.59300005
-0.091745719 0.092871435 0.59100002
-0.090466671 0.092714295 0.59000003
-0.089191437 0.092557147 0.58900005
-0.088069528 0.092557147 0.58900005
-0.086947627 0.092557147 0.58900005
-0.085680008 0.092400007 0.588
-0.084560007 0.092400007 0.588
-0.083298102 0.092242867 0.58700001
-0.082180008 0.092242867 0.58700001
-0.080923818 0.092085719 0.58600003
-0.079807624 0.092085719 0.58600003
-0.07869143 0.092085719 0.58600003
-0.077575244 0.092085719 0.58600003
-0.076328576 0.091928579 0.58500004
-0.075342864 0.092085719 0.58600003
-0.07422667 0.092085719 0.58600003
-0.073110484 0.092085719 0.58600003
-0.07199429 0.092085719 0.58600003
-0.070878103 0.092085719 0.58600003
-0.06976191 0.092085719 0.58600003
-0.068645716 0.092085719 0.58600003
-0.067529529 0.092085719 0.58600003
-0.066300005 0.091928579 0.58500004
-0.065297149 0.092085719 0.58600003
-0.064180955 0.092085719 0.58600003
-0.063064769 0.092085719 0.58600003
-0.061948575 0.092085719 0.58600003
-0.060832385 0.092085719 0.58600003
-0.059716195 0.092085719 0.58600003
-0.058600005 0.092085719 0.58600003
-0.057483815 0.092085719 0.58600003
-0.056367625 0.092085719 0.58600003
-0.055251431 0.092085719 0.58600003
-0.054135241 0.092085719 0.58600003
-0.053019051 0.092085719 0.58600003
-0.05190286 0.092085719 0.58600003
-0.050700005 0.091928579 0.58500004
-0.04967048 0.092085719 0.58600003
-0.04855429 0.092085719 0.58600003
-0.0474381 0.092085719 0.58600003
-0.046400957 0.092242867 0.58700001
-0.045282859 0.092242867 0.58700001
-0.044240002 0.092400007 0.588
-0.043120004 0.092400007 0.588
-0.042071432 0.092557147 0.58900005
-0.041019049 0.092714295 0.59000003
-0.039827622 0.092557147 0.58900005
-0.038705718 0.092557147 0.58900005
-0.03771143 0.092871435 0.59100002
-0.036647622 0.093028575 0.59200001
-0.035580002 0.093185723 0.59300005
-0.034508575 0.093342863 0.59400004
-0.033433337 0.093500003 0.59500003
-0.032354288 0.093657151 0.59600002
-0.031271432 0.093814291 0.597
-0.030184764 0.093971431 0.59800005
-0.029142858 0.094285719 0.60000002
-0.028046669 0.094442867 0.60100001
-0.026946668 0.094600007 0.60200006
-0.025842858 0.094757147 0.60300004
-0.02473524 0.094914295 0.60400003
-0.023623811 0.095071435 0.60500002
-0.022545716 0.095385723 0.60700005
-0.021389525 0.095385723 0.60700005
-0.020233335 0.095385723 0.60700005
-0.019108573 0.095542863 0.60800004
-0.017980002 0.095700003 0.60900003
-0.01682 0.095700003 0.60900003
-0.015737144 0.096171431 0.61200005
-0.014619049 0.096485719 0.61400002
-0.013471429 0.096642867 0.61500001
-0.012320001 0.096800007 0.61600006
-0.011164763 0.096957147 0.61700004
-0.010021905 0.097271435 0.61900002
-0.0088571431 0.097428575 0.62
-0.0077133337 0.097900003 0.62300003
-0.0065371431 0.098057151 0.62400001
-0.005357143 0.098214291 0.625
-0.0041733338 0.098371439 0.62600005
-0.0029857145 0.098528579 0.62700003
-0.001797143 0.098842867 0.62900001
-0.00060095242 0.099157147 0.63100004
0.00060190482 0.099314295 0.63200003
0.0018085715 0.099471435 0.63300002
0.0030142858 0.099471435 0.63300002
0.0042266669 0.099628575 0.634
0.0054342858 0.099628575 0.634
0.0066838101 0.10025715 0.63800001
0.0079114288 0.10041429 0.63900006
0.009142858 0.10057144 0.64000005
0.010378096 0.10072858 0.64100003
0.011617144 0.10088572 0.64200002
0.012880001 0.10120001 0.64400005
0.014150477 0.10151429 0.64600003
0.015404763 0.10167143 0.64700001
0.016714286 0.10214286 0.65000004
0.017980002 0.1023 0.65100002
0.01927905 0.10261429 0.65300006
0.020585716 0.10292858 0.65500003
0.021900002 0.10324287 0.65700001
0.023186669 0.10340001 0.65800005
0.024514288 0.10371429 0.66000003
0.025810478 0.10387143 0.66100001
0.027110478 0.10402858 0.66200006
0.028414287 0.10418572 0.66300005
0.029766669 0.1045 0.66500002
0.031033335 0.1045 0.66500002
0.032300003 0.1045 0.66500002
0.033566669 0.1045 0.66500002
0.034833334 0.1045 0.66500002
0.036588576 0.10591429 0.67400002
0.037984766 0.10622858 0.67600006
0.039446671 0.10670001 0.67900002
0.040740002 0.10670001 0.67900002
0.04209524 0.10685715 0.68000001
0.043390479 0.10685715 0.68000001
0.044817146 0.10717144 0.68200004
0.046251431 0.10748572 0.68400002
0.047693338 0.10780001 0.68600005
0.049285717 0.10842858 0.69000006
0.050673336 0.10858572 0.69100004
0.051989526 0.10858572 0.69100004
0.053305719 0.10858572 0.69100004
0.054780003 0.10890001 0.69300002
-0.095605724 0.094474293 0.59400004
-0.094474293 0.094474293 0.59400004
-0.093185723 0.094315246 0.59300005
-0.091745719 0.093997151 0.59100002
-0.090466671 0.093838103 0.59000003
-0.089191437 0.093679056 0.58900005
-0.088069528 0.093679056 0.58900005
-0.086800009 0.093520008 0.588
-0.085534289 0.09336096 0.58700001
-0.084416196 0.09336096 0.58700001
-0.083156198 0.093201913 0.58600003
-0.081900008 0.093042865 0.58500004
-0.080509529 0.09272477 0.583
-0.079399049 0.09272477 0.583
-0.078422859 0.092883818 0.58400005
-0.07731048 0.092883818 0.58400005
-0.076067626 0.09272477 0.583
-0.075214289 0.093042865 0.58500004
-0.074100003 0.093042865 0.58500004
-0.072985716 0.093042865 0.58500004
-0.07187143 0.093042865 0.58500004
-0.070757151 0.093042865 0.58500004
-0.069523811 0.092883818 0.58400005
-0.068411432 0.092883818 0.58400005
-0.067299053 0.092883818 0.58400005
-0.066186674 0.092883818 0.58400005
-0.065074287 0.092883818 0.58400005
-0.063961908 0.092883818 0.58400005
-0.062849529 0.092883818 0.58400005
-0.061737146 0.092883818 0.58400005
-0.060624767 0.092883818 0.58400005
-0.059512384 0.092883818 0.58400005
-0.058500003 0.093042865 0.58500004
-0.057385717 0.093042865 0.58500004
-0.056271434 0.093042865 0.58500004
-0.055157147 0.093042865 0.58500004
-0.054042861 0.093042865 0.58500004
-0.052928574 0.093042865 0.58500004
-0.051725719 0.092883818 0.58400005
-0.050613336 0.092883818 0.58400005
-0.049500957 0.092883818 0.58400005
-0.048471432 0.093042865 0.58500004
-0.047357146 0.093042865 0.58500004
-0.046321906 0.093201913 0.58600003
-0.045205716 0.093201913 0.58600003
-0.044164766 0.09336096 0.58700001
-0.043046668 0.09336096 0.58700001
-0.042000003 0.093520008 0.588
-0.040949527 0.093679056 0.58900005
-0.039827622 0.093679056 0.58900005
-0.038771432 0.093838103 0.59000003
-0.03771143 0.093997151 0.59100002
-0.036647622 0.094156198 0.59200001
-0.035640001 0.094474293 0.59400004
-0.034566671 0.094633341 0.59500003
-0.033489525 0.094792388 0.59600002
-0.032408573 0.094951436 0.597
-0.031271432 0.094951436 0.597
-0.030184764 0.095110483 0.59800005
-0.029142858 0.095428579 0.60000002
-0.028046669 0.095587626 0.60100001
-0.026946668 0.095746674 0.60200006
-0.025885716 0.096064769 0.60400003
-0.024776192 0.096223816 0.60500002
-0.02366286 0.096382864 0.60600001
-0.022545716 0.096541911 0.60700005
-0.021389525 0.096541911 0.60700005
-0.020266669 0.096700959 0.60800004
-0.019108573 0.096700959 0.60800004
-0.017980002 0.096860006 0.60900003
-0.01682 0.096860006 0.60900003
-0.015737144 0.097337149 0.61200005
-0.014642858 0.097814292 0.61500001
-0.013493334 0.097973339 0.61600006
-0.012340001 0.098132387 0.61700004
-0.011182858 0.098291434 0.61800003
-0.010038096 0.098609529 0.62
-0.0088857152 0.098927625 0.62200004
-0.0077009527 0.098927625 0.62200004
-0.0065371431 0.09924572 0.62400001
-0.005357143 0.099404767 0.625
-0.0041733338 0.099563815 0.62600005
-0.0029904763 0.09988191 0.62800002
-0.001797143 0.10004096 0.62900001
-0.00060095242 0.10035905 0.63100004
0.00060190482 0.1005181 0.63200003
0.0018085715 0.10067715 0.63300002
0.0030142858 0.10067715 0.63300002
0.0042266669 0.1008362 0.634
0.0054342858 0.1008362 0.634
0.0066942861 0.10163143 0.63900006
0.0079114288 0.10163143 0.63900006
0.009142858 0.10179048 0.64000005
0.010394286 0.10210858 0.64200002
0.011653334 0.10242667 0.64400005
0.012920001 0.10274477 0.64600003
0.014172382 0.10290381 0.64700001
0.015428573 0.10306286 0.648
0.016714286 0.10338096 0.65000004
0.017980002 0.10354 0.65100002
0.019338097 0.1041762 0.65500003
0.020648573 0.1044943 0.65700001
0.021933334 0.10465334 0.65800005
0.023257144 0.10497144 0.66000003
0.024551431 0.10513049 0.66100001
0.025888573 0.10544858 0.66300005
0.02715143 0.10544858 0.66300005
0.028500002 0.10576668 0.66500002
0.029766669 0.10576668 0.66500002
0.031080002 0.10592572 0.66600001
0.032300003 0.10576668 0.66500002
0.033566669 0.10576668 0.66500002
0.034833334 0.10576668 0.66500002
0.036642861 0.10735715 0.67500001
0.038153335 0.10799334 0.67900002
0.039504763 0.10815239 0.68000001
0.040800001 0.10815239 0.68000001
0.04209524 0.10815239 0.68000001
0.0435181 0.10847048 0.68200004
0.04488286 0.10862953 0.68300003
0.046251431 0.10878858 0.68400002
0.04776286 0.10926572 0.68700004
0.049285717 0.10974286 0.69000006
0.050673336 0.10990191 0.69100004
0.052140005 0.11022001 0.69300002
0.053537145 0.11037906 0.69400001
0.0549381 0.1105381 0.69500005
-0.095605724 0.095605724 0.59400004
-0.094474293 0.095605724 0.59400004
-0.093185723 0.095444769 0.59300005
-0.091745719 0.095122866 0.59100002
-0.090466671 0.094961911 0.59000003
-0.089191437 0.094800957 0.58900005
-0.088069528 0.094800957 0.58900005
-0.086800009 0.094640009 0.588
-0.085534289 0.094479054 0.58700001
-0.084416196 0.094479054 0.58700001
-0.083156198 0.094318099 0.58600003
-0.081620008 0.093835242 0.583
-0.080371432 0.093674295 0.58200002
-0.07926286 0.093674295 0.58200002
-0.078020006 0.09351334 0.58100003
-0.076913342 0.09351334 0.58100003
-0.07580667 0.09351334 0.58100003
-0.074957147 0.093835242 0.583
-0.073846668 0.093835242 0.583
-0.072736196 0.093835242 0.583
-0.071748577 0.093996197 0.58400005
-0.070636198 0.093996197 0.58400005
-0.069404766 0.093835242 0.583
-0.068411432 0.093996197 0.58400005
-0.067299053 0.093996197 0.58400005
-0.066073336 0.093835242 0.583
-0.065074287 0.093996197 0.58400005
-0.063742861 0.093674295 0.58200002
-0.062634289 0.093674295 0.58200002
-0.061525717 0.093674295 0.58200002
-0.060417145 0.093674295 0.58200002
-0.059410479 0.093835242 0.583
-0.058400005 0.093996197 0.58400005
-0.057287622 0.093996197 0.58400005
-0.056175243 0.093996197 0.58400005
-0.055157147 0.094157152 0.58500004
-0.054042861 0.094157152 0.58500004
-0.052838098 0.093996197 0.58400005
-0.051725719 0.093996197 0.58400005
-0.050526671 0.093835242 0.583
-0.049500957 0.093996197 0.58400005
-0.048388574 0.093996197 0.58400005
-0.047276195 0.093996197 0.58400005
-0.046242859 0.094157152 0.58500004
-0.045205716 0.094318099 0.58600003
-0.044164766 0.094479054 0.58700001
-0.043046668 0.094479054 0.58700001
-0.042000003 0.094640009 0.588
-0.040880002 0.094640009 0.588
-0.039760001 0.094640009 0.588
-0.038640004 0.094640009 0.588
-0.03764762 0.094961911 0.59000003
-0.036647622 0.095283814 0.59200001
-0.035640001 0.095605724 0.59400004
-0.034566671 0.095766671 0.59500003
-0.033489525 0.095927626 0.59600002
-0.032408573 0.096088581 0.597
-0.031323813 0.096249528 0.59800005
-0.03023524 0.096410483 0.59900004
-0.029142858 0.096571438 0.60000002
-0.028140001 0.097054295 0.60300004
-0.027080955 0.097376198 0.60500002
-0.025928574 0.097376198 0.60500002
-0.024817144 0.097537152 0.60600001
-0.023701906 0.0976981 0.60700005
-0.022582859 0.097859055 0.60800004
-0.021424763 0.097859055 0.60800004
-0.020266669 0.097859055 0.60800004
-0.019140001 0.09802001 0.60900003
-0.017980002 0.09802001 0.60900003
-0.016875239 0.098341912 0.611
-0.015788572 0.098824769 0.61400002
-0.014666667 0.099146672 0.61600006
-0.013515239 0.099307626 0.61700004
-0.012360001 0.099468581 0.61800003
-0.011200953 0.099629529 0.61900002
-0.010038096 0.099790484 0.62
-0.0088857152 0.10011239 0.62200004
-0.0077133337 0.10027334 0.62300003
-0.0065371431 0.1004343 0.62400001
-0.0053657144 0.1007562 0.62600005
-0.0041800002 0.10091715 0.62700003
-0.0029952384 0.10123906 0.62900001
-0.0018028573 0.10156096 0.63100004
-0.00060190482 0.10172191 0.63200003
0.00060285721 0.10188287 0.63300002
0.0018085715 0.10188287 0.63300002
0.0030190479 0.10204381 0.634
0.0042333337 0.10220477 0.63500005
0.0054428573 0.10220477 0.63500005
0.0066942861 0.10284857 0.63900006
0.0079238098 0.10300953 0.64000005
0.0091571435 0.10317048 0.64100003
0.010426668 0.10365334 0.64400005
0.011671429 0.10381429 0.64500004
0.012940001 0.1041362 0.64700001
0.014194286 0.10429715 0.648
0.015476191 0.10461906 0.65000004
0.016740002 0.10478 0.65100002
0.017980002 0.10478 0.65100002
0.019485716 0.10622858 0.66000003
0.020648573 0.10574572 0.65700001
0.021933334 0.10590667 0.65800005
0.023257144 0.10622858 0.66000003
0.024551431 0.10638953 0.66100001
0.025888573 0.10671143 0.66300005
0.027233334 0.10703334 0.66500002
0.028542859 0.10719429 0.66600001
0.029811431 0.10719429 0.66600001
0.031080002 0.10719429 0.66600001
0.032300003 0.10703334 0.66500002
0.033566669 0.10703334 0.66500002
0.035514288 0.10912572 0.67800003
0.036805715 0.10912572 0.67800003
0.038153335 0.10928667 0.67900002
0.039504763 0.10944763 0.68000001
0.040800001 0.10944763 0.68000001
0.04209524 0.10944763 0.68000001
0.043581907 0.10993049 0.68300003
0.044948574 0.11009143 0.68400002
0.04638667 0.11041334 0.68600005
0.047901906 0.1108962 0.68900001
0.049285717 0.11105715 0.69000006
0.050820004 0.11154 0.69300002
-0.097551435 0.097551435 0.59900004
-0.096410483 0.097551435 0.59900004
-0.094474293 0.096737146 0.59400004
-0.093028575 0.096411437 0.59200001
-0.091745719 0.096248575 0.59100002
-0.090466671 0.09608572 0.59000003
-0.089191437 0.095922865 0.58900005
-0.088069528 0.095922865 0.58900005
-0.086800009 0.095760003 0.588
-0.085534289 0.095597148 0.58700001
-0.084272385 0.095434293 0.58600003
-0.083014295 0.095271438 0.58500004
-0.081480004 0.094782867 0.58200002
-0.080233335 0.094620004 0.58100003
-0.079126671 0.094620004 0.58100003
-0.077885717 0.09445715 0.58000004
-0.076913342 0.094620004 0.58100003
-0.07580667 0.094620004 0.58100003
-0.07482858 0.094782867 0.58200002
-0.073720008 0.094782867 0.58200002
-0.072486669 0.094620004 0.58100003
-0.071502864 0.094782867 0.58200002
-0.070394292 0.094782867 0.58200002
-0.069285721 0.094782867 0.58200002
-0.068177149 0.094782867 0.58200002
-0.067183815 0.094945721 0.583
-0.065960005 0.094782867 0.58200002
-0.064851433 0.094782867 0.58200002
-0.063633338 0.094620004 0.58100003
-0.062419053 0.09445715 0.58000004
-0.061314289 0.09445715 0.58000004
-0.060209528 0.09445715 0.58000004
-0.059206672 0.094620004 0.58100003
-0.058200005 0.094782867 0.58200002
-0.057189528 0.094945721 0.583
-0.056079052 0.094945721 0.583
-0.05506286 0.095108576 0.58400005
-0.053950481 0.095108576 0.58400005
-0.052838098 0.095108576 0.58400005
-0.051637147 0.094945721 0.583
-0.050526671 0.094945721 0.583
-0.049416192 0.094945721 0.583
-0.048305716 0.094945721 0.583
-0.047276195 0.095108576 0.58400005
-0.046242859 0.095271438 0.58500004
-0.045205716 0.095434293 0.58600003
-0.044164766 0.095597148 0.58700001
-0.043046668 0.095597148 0.58700001
-0.042000003 0.095760003 0.588
-0.040880002 0.095760003 0.588
-0.039760001 0.095760003 0.588
-0.038640004 0.095760003 0.588
-0.03764762 0.09608572 0.59000003
-0.036647622 0.096411437 0.59200001
-0.035640001 0.096737146 0.59400004
-0.034566671 0.096900009 0.59500003
-0.033545718 0.097225718 0.597
-0.032408573 0.097225718 0.597
-0.031323813 0.09738858 0.59800005
-0.03023524 0.097551435 0.59900004
-0.029191431 0.097877152 0.60100001
-0.028140001 0.098202862 0.60300004
-0.027080955 0.098528579 0.60500002
-0.025971429 0.098691434 0.60600001
-0.024858097 0.098854296 0.60700005
-0.023740955 0.099017151 0.60800004
-0.022582859 0.099017151 0.60800004
-0.021424763 0.099017151 0.60800004
-0.020266669 0.099017151 0.60800004
-0.019140001 0.099180005 0.60900003
-0.017980002 0.099180005 0.60900003
-0.016930478 0.099831432 0.61300004
-0.015840001 0.10032 0.61600006
-0.014690477 0.10048287 0.61700004
-0.013515239 0.10048287 0.61700004
-0.012380001 0.10080858 0.61900002
-0.011219048 0.10097144 0.62
-0.010070477 0.10129715 0.62200004
-0.0089000007 0.10146001 0.62300003
-0.0077257147 0.10162286 0.62400001
-0.0065476196 0.10178572 0.625
-0.0053657144 0.10194858 0.62600005
-0.004186667 0.10227429 0.62800002
-0.0029952384 0.10243715 0.62900001
-0.0018057144 0.10292572 0.63200003
-0.00060285721 0.10308858 0.63300002
0.00060380955 0.10325143 0.634
0.0018114287 0.10325143 0.634
0.0030190479 0.10325143 0.634
0.0042333337 0.10341429 0.63500005
0.0054514287 0.10357715 0.63600004
0.0067047626 0.10422858 0.64000005
0.0079361908 0.10439143 0.64100003
0.0091714291 0.1045543 0.64200002
0.010442858 0.10504287 0.64500004
0.011689524 0.10520572 0.64600003
0.012940001 0.10536858 0.64700001
0.014194286 0.10553144 0.648
0.015476191 0.10585715 0.65000004
0.016765716 0.10618287 0.65200001
0.018035239 0.10634572 0.65300006
0.019397143 0.10699715 0.65700001
0.020680001 0.10716001 0.65800005
0.022000002 0.10748572 0.66000003
0.023292383 0.10764858 0.66100001
0.024625717 0.10797429 0.66300005
0.025966669 0.10830001 0.66500002
0.027274288 0.10846286 0.66600001
0.028542859 0.10846286 0.66600001
0.029856192 0.10862572 0.66700006
0.031126669 0.10862572 0.66700006
0.032397144 0.10862572 0.66700006
0.03366762 0.10862572 0.66700006
0.035514288 0.11041715 0.67800003
0.036805715 0.11041715 0.67800003
0.038153335 0.11058 0.67900002
0.039504763 0.11074287 0.68000001
0.040800001 0.11074287 0.68000001
0.04209524 0.11074287 0.68000001
0.043581907 0.11123144 0.68300003
0.045080002 0.11172001 0.68600005
0.046454288 0.11188287 0.68700004
0.047971431 0.11237144 0.69000006
0.049285717 0.11237144 0.69000006
0.050673336 0.11253429 0.69100004
-0.099845722 0.099845722 0.60600001
-0.098691434 0.099845722 0.60600001
-0.097537152 0.099845722 0.60600001
-0.094156198 0.097539052 0.59200001
-0.093028575 0.097539052 0.59200001
-0.091745719 0.09737429 0.59100002
-0.090466671 0.097209528 0.59000003
-0.089342862 0.097209528 0.59000003
-0.088069528 0.097044766 0.58900005
-0.086800009 0.096880004 0.588
-0.085534289 0.096715242 0.58700001
-0.084416196 0.096715242 0.58700001
-0.08273048 0.096056193 0.583
-0.081620008 0.096056193 0.583
-0.080095246 0.095561914 0.58000004
-0.078854293 0.095397152 0.57900006
-0.077751435 0.095397152 0.57900006
-0.076648578 0.095397152 0.57900006
-0.075545721 0.095397152 0.57900006
-0.074571431 0.095561914 0.58000004
-0.073466673 0.095561914 0.58000004
-0.072361909 0.095561914 0.58000004
-0.071380004 0.095726676 0.58100003
-0.07027334 0.095726676 0.58100003
-0.069047622 0.095561914 0.58000004
-0.068060003 0.095726676 0.58100003
-0.066953339 0.095726676 0.58100003
-0.065733336 0.095561914 0.58000004
-0.064628579 0.095561914 0.58000004
-0.063523814 0.095561914 0.58000004
-0.062311433 0.095397152 0.57900006
-0.061314289 0.095561914 0.58000004
-0.060209528 0.095561914 0.58000004
-0.059104767 0.095561914 0.58000004
-0.058100004 0.095726676 0.58100003
-0.056993335 0.095726676 0.58100003
-0.055886671 0.095726676 0.58100003
-0.05487429 0.095891438 0.58200002
-0.053858098 0.096056193 0.583
-0.052747622 0.096056193 0.583
-0.051637147 0.096056193 0.583
-0.050440002 0.095891438 0.58200002
-0.049416192 0.096056193 0.583
-0.048305716 0.096056193 0.583
-0.047195241 0.096056193 0.583
-0.046163812 0.096220955 0.58400005
-0.045282859 0.096715242 0.58700001
-0.044240002 0.096880004 0.588
-0.043120004 0.096880004 0.588
-0.042071432 0.097044766 0.58900005
-0.040949527 0.097044766 0.58900005
-0.039827622 0.097044766 0.58900005
-0.038705718 0.097044766 0.58900005
-0.03771143 0.09737429 0.59100002
-0.036709525 0.097703815 0.59300005
-0.035700001 0.098033339 0.59500003
-0.034566671 0.098033339 0.59500003
-0.033545718 0.098362863 0.597
-0.032571431 0.098857149 0.60000002
-0.031480953 0.099021912 0.60100001
-0.030336192 0.099021912 0.60100001
-0.029240001 0.099186674 0.60200006
-0.028186668 0.099516198 0.60400003
-0.027125716 0.099845722 0.60600001
-0.026014287 0.10001048 0.60700005
-0.024858097 0.10001048 0.60700005
-0.023740955 0.10017525 0.60800004
-0.022582859 0.10017525 0.60800004
-0.021460002 0.10034001 0.60900003
-0.020300001 0.10034001 0.60900003
-0.019202858 0.10066953 0.611
-0.018068573 0.1008343 0.61200005
-0.016985716 0.10132858 0.61500001
-0.015840001 0.10149334 0.61600006
-0.014690477 0.1016581 0.61700004
-0.013537143 0.10182286 0.61800003
-0.0124 0.10215238 0.62
-0.011255239 0.10248191 0.62200004
-0.010086668 0.10264667 0.62300003
-0.0089142863 0.10281143 0.62400001
-0.0077380957 0.1029762 0.625
-0.0065476196 0.1029762 0.625
-0.0053742859 0.10330572 0.62700003
-0.0041933334 0.10363524 0.62900001
-0.0030047621 0.10396477 0.63100004
-0.0018085715 0.10429429 0.63300002
-0.00060380955 0.10445905 0.634
0.00060476194 0.10462382 0.63500005
0.0018142859 0.10462382 0.63500005
0.0030238098 0.10462382 0.63500005
0.0042400002 0.10478858 0.63600004
0.0054857144 0.10544763 0.64000005
0.0067152386 0.10561239 0.64100003
0.0079361908 0.10561239 0.64100003
0.0092000002 0.10610668 0.64400005
0.010442858 0.10627144 0.64500004
0.011689524 0.1064362 0.64600003
0.012960001 0.10676572 0.648
0.014238096 0.10709524 0.65000004
0.015500001 0.10726 0.65100002
0.016791429 0.10758953 0.65300006
0.018090477 0.10791905 0.65500003
0.019397143 0.10824858 0.65700001
0.020680001 0.10841334 0.65800005
0.022000002 0.10874286 0.66000003
0.023327621 0.10907239 0.66200006
0.024625717 0.10923715 0.66300005
0.026005715 0.10973144 0.66600001
0.02731524 0.1098962 0.66700006
0.02867143 0.11022572 0.66900003
0.029945716 0.11022572 0.66900003
0.031220002 0.11022572 0.66900003
0.032542858 0.11039048 0.67000002
0.034071431 0.1112143 0.67500001
0.035357144 0.1112143 0.67500001
0.036914289 0.11203811 0.68000001
0.038209528 0.11203811 0.68000001
0.039620955 0.11236763 0.68200004
0.040920004 0.11236763 0.68200004
0.04221905 0.11236763 0.68200004
0.043645717 0.11269715 0.68400002
0.045145717 0.11319143 0.68700004
0.046589527 0.11352096 0.68900001
-0.10116667 0.10116667 0.60700005
-0.099845722 0.101 0.60600001
-0.098691434 0.101 0.60600001
-0.097537152 0.101 0.60600001
-0.094315246 0.098833337 0.59300005
-0.093185723 0.098833337 0.59300005
-0.091745719 0.098500006 0.59100002
-0.090466671 0.098333336 0.59000003
-0.089342862 0.098333336 0.59000003
-0.088069528 0.098166674 0.58900005
-0.086947627 0.098166674 0.58900005
-0.085680008 0.098000005 0.588
-0.084416196 0.097833343 0.58700001
-0.083156198 0.097666673 0.58600003
-0.081340007 0.096833341 0.58100003
-0.07995715 0.096500009 0.57900006
-0.078718103 0.09633334 0.57800001
-0.077617146 0.09633334 0.57800001
-0.076516196 0.09633334 0.57800001
-0.075415246 0.09633334 0.57800001
-0.074442863 0.096500009 0.57900006
-0.073213339 0.09633334 0.57800001
-0.072112389 0.09633334 0.57800001
-0.071134292 0.096500009 0.57900006
-0.069910482 0.09633334 0.57800001
-0.068809532 0.09633334 0.57800001
-0.067708574 0.09633334 0.57800001
-0.066607624 0.09633334 0.57800001
-0.065506674 0.09633334 0.57800001
-0.064405717 0.09633334 0.57800001
-0.063414291 0.096500009 0.57900006
-0.062203813 0.09633334 0.57800001
-0.061208576 0.096500009 0.57900006
-0.060105719 0.096500009 0.57900006
-0.059002861 0.096500009 0.57900006
-0.057900004 0.096500009 0.57900006
-0.056797147 0.096500009 0.57900006
-0.05579048 0.096666671 0.58000004
-0.054780003 0.096833341 0.58100003
-0.053765718 0.097000003 0.58200002
-0.052657146 0.097000003 0.58200002
-0.051548574 0.097000003 0.58200002
-0.050440002 0.097000003 0.58200002
-0.04933143 0.097000003 0.58200002
-0.048305716 0.097166672 0.583
-0.047195241 0.097166672 0.583
-0.046242859 0.097500004 0.58500004
-0.045282859 0.097833343 0.58700001
-0.044315241 0.098166674 0.58900005
-0.043193337 0.098166674 0.58900005
-0.042142861 0.098333336 0.59000003
-0.041019049 0.098333336 0.59000003
-0.039827622 0.098166674 0.58900005
-0.038771432 0.098333336 0.59000003
-0.03771143 0.098500006 0.59100002
-0.036771432 0.099000007 0.59400004
-0.035700001 0.099166676 0.59500003
-0.034682859 0.099500008 0.597
-0.033714287 0.10000001 0.60000002
-0.032571431 0.10000001 0.60000002
-0.031428572 0.10000001 0.60000002
-0.030336192 0.10016667 0.60100001
-0.029240001 0.10033334 0.60200006
-0.028233334 0.10083334 0.60500002
-0.027080955 0.10083334 0.60500002
-0.026014287 0.10116667 0.60700005
-0.024899049 0.10133334 0.60800004
-0.023780001 0.1015 0.60900003
-0.022620002 0.1015 0.60900003
-0.021460002 0.1015 0.60900003
-0.020366669 0.10183334 0.611
-0.019265715 0.10216668 0.61300004
-0.018098097 0.10216668 0.61300004
-0.017013334 0.10266668 0.61600006
-0.015865715 0.10283334 0.61700004
-0.014714287 0.10300001 0.61800003
-0.013580954 0.10333334 0.62
-0.012440001 0.10366667 0.62200004
-0.011291429 0.10400001 0.62400001
-0.010102858 0.10400001 0.62400001
-0.0089285718 0.10416667 0.625
-0.0077380957 0.10416667 0.625
-0.0065580956 0.10433334 0.62600005
-0.0053742859 0.1045 0.62700003
-0.0041933334 0.10483334 0.62900001
-0.003009524 0.10533334 0.63200003
-0.0018114287 0.10566667 0.634
-0.00060476194 0.10583334 0.63500005
0.00060571433 0.10600001 0.63600004
0.0018171429 0.10600001 0.63600004
0.0030380955 0.10633334 0.63800001
0.0042600003 0.10650001 0.63900006
0.0054857144 0.10666668 0.64000005
0.0067152386 0.10683334 0.64100003
0.0079733338 0.10733334 0.64400005
0.0092142867 0.10750001 0.64500004
0.010459049 0.10766667 0.64600003
0.01170762 0.10783334 0.64700001
0.012960001 0.10800001 0.648
0.014238096 0.10833334 0.65000004
0.015523811 0.10866667 0.65200001
0.016842859 0.10916667 0.65500003
0.018145716 0.10950001 0.65700001
0.019426668 0.10966668 0.65800005
0.020742858 0.11000001 0.66000003
0.022000002 0.11000001 0.66000003
0.023327621 0.11033334 0.66200006
0.024700001 0.11083334 0.66500002
0.026044764 0.11116667 0.66700006
0.027397145 0.11150001 0.66900003
0.02867143 0.11150001 0.66900003
0.029990477 0.11166667 0.67000002
0.031266667 0.11166667 0.67000002
0.032591432 0.11183334 0.671
0.033869527 0.11183334 0.671
0.035566669 0.11316667 0.67900002
0.036914289 0.11333334 0.68000001
0.038434289 0.11400001 0.68400002
0.039737146 0.11400001 0.68400002
0.040980004 0.11383334 0.68300003
0.04234286 0.11400001 0.68400002
0.043773334 0.11433334 0.68600005
-0.10133334 0.10249144 0.60800004
-0.10001048 0.10232286 0.60700005
-0.099017151 0.10249144 0.60800004
-0.0976981 0.10232286 0.60700005
-0.096860006 0.10266001 0.60900003
-0.095700003 0.10266001 0.60900003
-0.094850481 0.10299715 0.611
-0.090773337 0.099794291 0.59200001
-0.089494288 0.099625722 0.59100002
-0.088219054 0.099457152 0.59000003
