# .PCD v0.7 - Point Cloud Data file format
VERSION 0.7
FIELDS x y z
SIZE 4 4 4
TYPE F F F
COUNT 1 1 1
WIDTH 1363
HEIGHT 1
VIEWPOINT 0 0 0 1 0 0 0
POINTS 1363
DATA ascii
-0.1200362 0.0532781 0.67400002
-0.11875239 0.0532781 0.67400002
-0.11746858 0.0532781 0.67400002
-0.11618477 0.0532781 0.67400002
-0.11507144 0.053357147 0.67500001
-0.11378572 0.053357147 0.67500001
-0.1125 0.053357147 0.67500001
-0.1112143 0.053357147 0.67500001
-0.10992858 0.053357147 0.67500001
-0.10864286 0.053357147 0.67500001
-0.1075162 0.053436194 0.67600006
-0.10622858 0.053436194 0.67600006
-0.10478572 0.053357147 0.67500001
-0.10350001 0.053357147 0.67500001
-0.10236572 0.053436194 0.67600006
-0.1010781 0.053436194 0.67600006
-0.099790484 0.053436194 0.67600006
-0.098794289 0.053594287 0.67800003
-0.097646676 0.053673338 0.67900002
-0.096353337 0.053673338 0.67900002
-0.095060006 0.053673338 0.67900002
-0.093766674 0.053673338 0.67900002
-0.092473343 0.053673338 0.67900002
-0.091180004 0.053673338 0.67900002
-0.089886673 0.053673338 0.67900002
-0.088593341 0.053673338 0.67900002
-0.087428577 0.053752385 0.68000001
-0.086133339 0.053752385 0.68000001
-0.0848381 0.053752385 0.68000001
-0.083542861 0.053752385 0.68000001
-0.082247622 0.053752385 0.68000001
-0.081190482 0.053910479 0.68200004
-0.079891436 0.053910479 0.68200004
-0.07859239 0.053910479 0.68200004
-0.077293336 0.053910479 0.68200004
-0.076105721 0.053989526 0.68300003
-0.074804768 0.053989526 0.68300003
-0.073503815 0.053989526 0.68300003
-0.072308578 0.054068577 0.68400002
-0.071005717 0.054068577 0.68400002
-0.069702864 0.054068577 0.68400002
-0.068400003 0.054068577 0.68400002
-0.06709715 0.054068577 0.68400002
-0.065794289 0.054068577 0.68400002
-0.064491436 0.054068577 0.68400002
-0.063188575 0.054068577 0.68400002
-0.061885718 0.054068577 0.68400002
-0.060582861 0.054068577 0.68400002
-0.059280004 0.054068577 0.68400002
-0.05814667 0.05422667 0.68600005
-0.056840003 0.05422667 0.68600005
-0.055533338 0.05422667 0.68600005
-0.05422667 0.05422667 0.68600005
-0.052920002 0.05422667 0.68600005
-0.051613338 0.05422667 0.68600005
-0.05030667 0.05422667 0.68600005
-0.049071431 0.054305717 0.68700004
-0.04776286 0.054305717 0.68700004
-0.046454288 0.054305717 0.68700004
-0.045277145 0.054463815 0.68900001
-0.043964766 0.054463815 0.68900001
-0.042652383 0.054463815 0.68900001
-0.041400004 0.054542862 0.69000006
-0.040085718 0.054542862 0.69000006
-0.038771432 0.054542862 0.69000006
-0.037457146 0.054542862 0.69000006
-0.03614286 0.054542862 0.69000006
-0.034879051 0.054621909 0.69100004
-0.033562858 0.054621909 0.69100004
-0.032246668 0.054621909 0.69100004
-0.030930478 0.054621909 0.69100004
-0.029700002 0.054780003 0.69300002
-0.028380001 0.054780003 0.69300002
-0.027060002 0.054780003 0.69300002
-0.025740001 0.054780003 0.69300002
-0.024420002 0.054780003 0.69300002
-0.023033334 0.054621909 0.69100004
-0.021717144 0.054621909 0.69100004
-0.020460002 0.054780003 0.69300002
-0.019140001 0.054780003 0.69300002
-0.017820001 0.054780003 0.69300002
-0.01652381 0.05485905 0.69400001
-0.015201906 0.05485905 0.69400001
-0.01388 0.05485905 0.69400001
-0.012558096 0.05485905 0.69400001
-0.011236191 0.05485905 0.69400001
-0.0099142864 0.05485905 0.69400001
-0.0085923811 0.05485905 0.69400001
-0.0072809528 0.0549381 0.69500005
-0.0059571434 0.0549381 0.69500005
-0.0046333335 0.0549381 0.69500005
-0.0033095239 0.0549381 0.69500005
-0.0019857143 0.0549381 0.69500005
-0.00066380959 0.055096194 0.69700003
0.00066380959 0.055096194 0.69700003
0.0019942857 0.055175241 0.69800001
0.0033238097 0.055175241 0.69800001
0.004666667 0.055333339 0.70000005
0.0060000005 0.055333339 0.70000005
0.0073333336 0.055333339 0.70000005
0.0086790482 0.055412386 0.70100003
0.010014286 0.055412386 0.70100003
0.011349524 0.055412386 0.70100003
0.012684762 0.055412386 0.70100003
0.014060001 0.055570479 0.70300001
0.015399049 0.055570479 0.70300001
0.016738096 0.055570479 0.70300001
0.018077144 0.055570479 0.70300001
0.01944381 0.055649526 0.70400006
0.020755239 0.055570479 0.70300001
0.022125715 0.055649526 0.70400006
0.023466669 0.055649526 0.70400006
0.024807621 0.055649526 0.70400006
0.026185716 0.055728573 0.70500004
0.027528573 0.055728573 0.70500004
0.028953334 0.055886671 0.70700002
0.030300003 0.055886671 0.70700002
0.031691432 0.055965718 0.708
0.033040002 0.055965718 0.708
0.034388572 0.055965718 0.708
0.035737146 0.055965718 0.708
0.037085716 0.055965718 0.708
-0.16706763 0.05399524 0.66700006
-0.16579716 0.05399524 0.66700006
-0.16452667 0.05399524 0.66700006
-0.16301145 0.05391429 0.66600001
-0.16174287 0.05391429 0.66600001
-0.1604743 0.05391429 0.66600001
-0.15944478 0.05399524 0.66700006
-0.15817429 0.05399524 0.66700006
-0.15737429 0.054157145 0.66900003
-0.1561 0.054157145 0.66900003
-0.15482572 0.054157145 0.66900003
-0.15355144 0.054157145 0.66900003
-0.15250477 0.0542381 0.67000002
-0.15122858 0.0542381 0.67000002
-0.1499524 0.0542381 0.67000002
-0.1486762 0.0542381 0.67000002
-0.14740001 0.0542381 0.67000002
-0.14612383 0.0542381 0.67000002
-0.14484763 0.0542381 0.67000002
-0.14357144 0.0542381 0.67000002
-0.14229524 0.0542381 0.67000002
-0.14101906 0.0542381 0.67000002
-0.13974287 0.0542381 0.67000002
-0.13867334 0.05431905 0.671
-0.13739525 0.05431905 0.671
-0.13611715 0.05431905 0.671
-0.13483906 0.05431905 0.671
-0.13356096 0.05431905 0.671
-0.13228287 0.05431905 0.671
-0.13120002 0.054400004 0.67200005
-0.13030668 0.054561909 0.67400002
-0.12902287 0.054561909 0.67400002
-0.12773906 0.054561909 0.67400002
-0.12645525 0.054561909 0.67400002
-0.12517144 0.054561909 0.67400002
-0.12388763 0.054561909 0.67400002
-0.12260382 0.054561909 0.67400002
-0.12132001 0.054561909 0.67400002
-0.12021429 0.05464286 0.67500001
-0.11892858 0.05464286 0.67500001
-0.11764286 0.05464286 0.67500001
-0.11635715 0.05464286 0.67500001
-0.11507144 0.05464286 0.67500001
-0.11378572 0.05464286 0.67500001
-0.1125 0.05464286 0.67500001
-0.1112143 0.05464286 0.67500001
-0.10992858 0.05464286 0.67500001
-0.10864286 0.05464286 0.67500001
-0.1075162 0.054723814 0.67600006
-0.10622858 0.054723814 0.67600006
-0.10478572 0.05464286 0.67500001
-0.10350001 0.05464286 0.67500001
-0.10236572 0.054723814 0.67600006
-0.10137715 0.054885719 0.67800003
-0.10008572 0.054885719 0.67800003
-0.098794289 0.054885719 0.67800003
-0.097646676 0.05496667 0.67900002
-0.096353337 0.05496667 0.67900002
-0.095060006 0.05496667 0.67900002
-0.093766674 0.05496667 0.67900002
-0.092473343 0.05496667 0.67900002
-0.091180004 0.05496667 0.67900002
-0.090019055 0.055047624 0.68000001
-0.088723816 0.055047624 0.68000001
-0.087428577 0.055047624 0.68000001
-0.086133339 0.055047624 0.68000001
-0.0848381 0.055047624 0.68000001
-0.083788574 0.055209529 0.68200004
-0.082489528 0.055209529 0.68200004
-0.081190482 0.055209529 0.68200004
-0.079891436 0.055209529 0.68200004
-0.078707621 0.055290479 0.68300003
-0.077406675 0.055290479 0.68300003
-0.076105721 0.055290479 0.68300003
-0.074804768 0.055290479 0.68300003
-0.073611431 0.055371433 0.68400002
-0.072308578 0.055371433 0.68400002
-0.071005717 0.055371433 0.68400002
-0.069702864 0.055371433 0.68400002
-0.068600006 0.055533338 0.68600005
-0.067293338 0.055533338 0.68600005
-0.065794289 0.055371433 0.68400002
-0.064491436 0.055371433 0.68400002
-0.063188575 0.055371433 0.68400002
-0.062066671 0.055533338 0.68600005
-0.060760003 0.055533338 0.68600005
-0.059453338 0.055533338 0.68600005
-0.05814667 0.055533338 0.68600005
-0.056840003 0.055533338 0.68600005
-0.055533338 0.055533338 0.68600005
-0.05422667 0.055533338 0.68600005
-0.052920002 0.055533338 0.68600005
-0.051688574 0.055614289 0.68700004
-0.050380003 0.055614289 0.68700004
-0.049071431 0.055614289 0.68700004
-0.04776286 0.055614289 0.68700004
-0.046589527 0.055776194 0.68900001
-0.045277145 0.055776194 0.68900001
-0.043964766 0.055776194 0.68900001
-0.04271429 0.055857148 0.69000006
-0.041400004 0.055857148 0.69000006
-0.040085718 0.055857148 0.69000006
-0.038771432 0.055857148 0.69000006
-0.037457146 0.055857148 0.69000006
-0.036195241 0.055938099 0.69100004
-0.034879051 0.055938099 0.69100004
-0.033562858 0.055938099 0.69100004
-0.032246668 0.055938099 0.69100004
-0.031020002 0.056100003 0.69300002
-0.029700002 0.056100003 0.69300002
-0.028380001 0.056100003 0.69300002
-0.027060002 0.056100003 0.69300002
-0.025740001 0.056100003 0.69300002
-0.02445524 0.056180958 0.69400001
-0.023100002 0.056100003 0.69300002
-0.021780001 0.056100003 0.69300002
-0.020460002 0.056100003 0.69300002
-0.019167621 0.056180958 0.69400001
-0.017845716 0.056180958 0.69400001
-0.01652381 0.056180958 0.69400001
-0.015201906 0.056180958 0.69400001
-0.013900001 0.056261908 0.69500005
-0.012576192 0.056261908 0.69500005
-0.011252382 0.056261908 0.69500005
-0.009928572 0.056261908 0.69500005
-0.0086047621 0.056261908 0.69500005
-0.0072809528 0.056261908 0.69500005
-0.0059571434 0.056261908 0.69500005
-0.0046333335 0.056261908 0.69500005
-0.0033095239 0.056261908 0.69500005
-0.0019914287 0.056423813 0.69700003
-0.00066476193 0.056504767 0.69800001
0.00066476193 0.056504767 0.69800001
0.0019942857 0.056504767 0.69800001
0.0033333336 0.056666672 0.70000005
0.004666667 0.056666672 0.70000005
0.0060000005 0.056666672 0.70000005
0.0073438101 0.056747623 0.70100003
0.0086790482 0.056747623 0.70100003
0.010014286 0.056747623 0.70100003
0.011381906 0.056909528 0.70300001
0.012720954 0.056909528 0.70300001
0.014060001 0.056909528 0.70300001
0.015420954 0.056990478 0.70400006
0.016761906 0.056990478 0.70400006
0.018102858 0.056990478 0.70400006
0.01944381 0.056990478 0.70400006
0.020784764 0.056990478 0.70400006
0.022125715 0.056990478 0.70400006
0.023500001 0.057071432 0.70500004
0.024842858 0.057071432 0.70500004
0.026185716 0.057071432 0.70500004
0.027606668 0.057233337 0.70700002
0.028994288 0.057314288 0.708
0.030342858 0.057314288 0.708
0.031691432 0.057314288 0.708
0.033040002 0.057314288 0.708
0.034388572 0.057314288 0.708
0.035737146 0.057314288 0.708
0.037085716 0.057314288 0.708
-0.21161906 0.066948578 0.80800003
-0.16756858 0.055431433 0.66900003
-0.16579716 0.055265717 0.66700006
-0.16428001 0.055182859 0.66600001
-0.16301145 0.055182859 0.66600001
-0.16174287 0.055182859 0.66600001
-0.1604743 0.055182859 0.66600001
-0.15944478 0.055265717 0.66700006
-0.15817429 0.055265717 0.66700006
-0.15737429 0.055431433 0.66900003
-0.1561 0.055431433 0.66900003
-0.15482572 0.055431433 0.66900003
-0.15355144 0.055431433 0.66900003
-0.15250477 0.055514291 0.67000002
-0.15122858 0.055514291 0.67000002
-0.1499524 0.055514291 0.67000002
-0.1486762 0.055514291 0.67000002
-0.14740001 0.055514291 0.67000002
-0.14612383 0.055514291 0.67000002
-0.14484763 0.055514291 0.67000002
-0.14357144 0.055514291 0.67000002
-0.14250763 0.055597145 0.671
-0.14122954 0.055597145 0.671
-0.13995144 0.055597145 0.671
-0.13867334 0.055597145 0.671
-0.13739525 0.055597145 0.671
-0.13611715 0.055597145 0.671
-0.13483906 0.055597145 0.671
-0.13356096 0.055597145 0.671
-0.13248001 0.055680003 0.67200005
-0.13120002 0.055680003 0.67200005
-0.13030668 0.055845719 0.67400002
-0.12902287 0.055845719 0.67400002
-0.12773906 0.055845719 0.67400002
-0.12645525 0.055845719 0.67400002
-0.12517144 0.055845719 0.67400002
-0.12388763 0.055845719 0.67400002
-0.12260382 0.055845719 0.67400002
-0.12150001 0.055928577 0.67500001
-0.12021429 0.055928577 0.67500001
-0.11892858 0.055928577 0.67500001
-0.11764286 0.055928577 0.67500001
-0.11635715 0.055928577 0.67500001
-0.11507144 0.055928577 0.67500001
-0.11395429 0.056011431 0.67600006
-0.11266667 0.056011431 0.67600006
-0.1112143 0.055928577 0.67500001
-0.11009143 0.056011431 0.67600006
-0.10880382 0.056011431 0.67600006
-0.1075162 0.056011431 0.67600006
-0.10622858 0.056011431 0.67600006
-0.10494096 0.056011431 0.67600006
-0.10365334 0.056011431 0.67600006
-0.10266858 0.056177147 0.67800003
-0.10137715 0.056177147 0.67800003
-0.10008572 0.056177147 0.67800003
-0.098940007 0.056260005 0.67900002
-0.097646676 0.056260005 0.67900002
-0.096353337 0.056260005 0.67900002
-0.095060006 0.056260005 0.67900002
-0.093766674 0.056260005 0.67900002
-0.092473343 0.056260005 0.67900002
-0.091314293 0.056342863 0.68000001
-0.090019055 0.056342863 0.68000001
-0.088723816 0.056342863 0.68000001
-0.087685719 0.056508575 0.68200004
-0.086386673 0.056508575 0.68200004
-0.085087627 0.056508575 0.68200004
-0.083911434 0.056591433 0.68300003
-0.08261048 0.056591433 0.68300003
-0.081309527 0.056591433 0.68300003
-0.080008574 0.056591433 0.68300003
-0.078707621 0.056591433 0.68300003
-0.077406675 0.056591433 0.68300003
-0.076217145 0.05667429 0.68400002
-0.074914292 0.05667429 0.68400002
-0.073611431 0.05667429 0.68400002
-0.072308578 0.05667429 0.68400002
-0.071213335 0.056840003 0.68600005
-0.069906674 0.056840003 0.68600005
-0.068600006 0.056840003 0.68600005
-0.067293338 0.056840003 0.68600005
-0.065986671 0.056840003 0.68600005
-0.064680003 0.056840003 0.68600005
-0.063373335 0.056840003 0.68600005
-0.062066671 0.056840003 0.68600005
-0.060760003 0.056840003 0.68600005
-0.059453338 0.056840003 0.68600005
-0.058231432 0.05692286 0.68700004
-0.05692286 0.05692286 0.68700004
-0.055614289 0.05692286 0.68700004
-0.054305717 0.05692286 0.68700004
-0.052997146 0.05692286 0.68700004
-0.051688574 0.05692286 0.68700004
-0.050380003 0.05692286 0.68700004
-0.049214289 0.057088576 0.68900001
-0.047901906 0.057088576 0.68900001
-0.046589527 0.057088576 0.68900001
-0.045342859 0.057171434 0.69000006
-0.044028573 0.057171434 0.69000006
-0.04271429 0.057171434 0.69000006
-0.041400004 0.057171434 0.69000006
-0.040085718 0.057171434 0.69000006
-0.03882762 0.057254288 0.69100004
-0.037511431 0.057254288 0.69100004
-0.036195241 0.057254288 0.69100004
-0.034879051 0.057254288 0.69100004
-0.033562858 0.057254288 0.69100004
-0.032340001 0.057420004 0.69300002
-0.031020002 0.057420004 0.69300002
-0.029700002 0.057420004 0.69300002
-0.028420955 0.057502862 0.69400001
-0.027099049 0.057502862 0.69400001
-0.025777144 0.057502862 0.69400001
-0.024490478 0.057585716 0.69500005
-0.023133336 0.057502862 0.69400001
-0.021811429 0.057502862 0.69400001
-0.020489525 0.057502862 0.69400001
-0.019167621 0.057502862 0.69400001
-0.01787143 0.057585716 0.69500005
-0.01654762 0.057585716 0.69500005
-0.01522381 0.057585716 0.69500005
-0.013900001 0.057585716 0.69500005
-0.012576192 0.057585716 0.69500005
-0.011252382 0.057585716 0.69500005
-0.009928572 0.057585716 0.69500005
-0.0086047621 0.057585716 0.69500005
-0.0073019052 0.057751432 0.69700003
-0.0059742862 0.057751432 0.69700003
-0.0046466668 0.057751432 0.69700003
-0.0033190479 0.057751432 0.69700003
-0.0019914287 0.057751432 0.69700003
-0.00066476193 0.05783429 0.69800001
0.00066476193 0.05783429 0.69800001
0.0020000001 0.058000002 0.70000005
0.0033333336 0.058000002 0.70000005
0.004666667 0.058000002 0.70000005
0.0060085719 0.05808286 0.70100003
0.0073438101 0.05808286 0.70100003
0.0087038102 0.058248576 0.70300001
0.010042857 0.058248576 0.70300001
0.011381906 0.058248576 0.70300001
0.012739048 0.058331434 0.70400006
0.014080001 0.058331434 0.70400006
0.015420954 0.058331434 0.70400006
0.016785715 0.058414288 0.70500004
0.018128572 0.058414288 0.70500004
0.019471429 0.058414288 0.70500004
0.020814287 0.058414288 0.70500004
0.022157144 0.058414288 0.70500004
0.023566669 0.058580004 0.70700002
0.024913335 0.058580004 0.70700002
0.026260002 0.058580004 0.70700002
0.027645716 0.058662862 0.708
0.029076193 0.058828574 0.71000004
0.030428573 0.058828574 0.71000004
0.031780954 0.058828574 0.71000004
0.033133335 0.058828574 0.71000004
0.034485716 0.058828574 0.71000004
0.035737146 0.058662862 0.708
0.037085716 0.058662862 0.708
-0.16756858 0.056705717 0.66900003
-0.16629429 0.056705717 0.66900003
-0.16452667 0.056536194 0.66700006
-0.1632562 0.056536194 0.66700006
-0.16198573 0.056536194 0.66700006
-0.16071525 0.056536194 0.66700006
-0.15944478 0.056536194 0.66700006
-0.15817429 0.056536194 0.66700006
-0.15737429 0.056705717 0.66900003
-0.1561 0.056705717 0.66900003
-0.15482572 0.056705717 0.66900003
-0.15355144 0.056705717 0.66900003
-0.15250477 0.056790479 0.67000002
-0.15122858 0.056790479 0.67000002
-0.1499524 0.056790479 0.67000002
-0.1486762 0.056790479 0.67000002
-0.14740001 0.056790479 0.67000002
-0.14612383 0.056790479 0.67000002
-0.14506382 0.05687524 0.671
-0.14378573 0.05687524 0.671
-0.14250763 0.05687524 0.671
-0.14122954 0.05687524 0.671
-0.13995144 0.05687524 0.671
-0.13888001 0.056960005 0.67200005
-0.1376 0.056960005 0.67200005
-0.13632001 0.056960005 0.67200005
-0.13504001 0.056960005 0.67200005
-0.13376001 0.056960005 0.67200005
-0.13248001 0.056960005 0.67200005
-0.13159049 0.057129528 0.67400002
-0.13030668 0.057129528 0.67400002
-0.12902287 0.057129528 0.67400002
-0.12773906 0.057129528 0.67400002
-0.12645525 0.057129528 0.67400002
-0.12535715 0.05721429 0.67500001
-0.12407143 0.05721429 0.67500001
-0.12278572 0.05721429 0.67500001
-0.12168001 0.057299051 0.67600006
-0.12021429 0.05721429 0.67500001
-0.11910477 0.057299051 0.67600006
-0.11764286 0.05721429 0.67500001
-0.11652953 0.057299051 0.67600006
-0.11524191 0.057299051 0.67600006
-0.11429144 0.057468574 0.67800003
-0.11300001 0.057468574 0.67800003
-0.11170858 0.057468574 0.67800003
-0.11041715 0.057468574 0.67800003
-0.10912572 0.057468574 0.67800003
-0.10783429 0.057468574 0.67800003
-0.10654286 0.057468574 0.67800003
-0.10525144 0.057468574 0.67800003
-0.10396001 0.057468574 0.67800003
-0.10266858 0.057468574 0.67800003
-0.10152667 0.057553336 0.67900002
-0.10023334 0.057553336 0.67900002
-0.098940007 0.057553336 0.67900002
-0.097646676 0.057553336 0.67900002
-0.096353337 0.057553336 0.67900002
-0.095060006 0.057553336 0.67900002
-0.093904771 0.057638098 0.68000001
-0.092609532 0.057638098 0.68000001
-0.091314293 0.057638098 0.68000001
-0.090019055 0.057638098 0.68000001
-0.088984765 0.057807624 0.68200004
-0.087685719 0.057807624 0.68200004
-0.086386673 0.057807624 0.68200004
-0.085212387 0.057892386 0.68300003
-0.083911434 0.057892386 0.68300003
-0.08261048 0.057892386 0.68300003
-0.081309527 0.057892386 0.68300003
-0.080008574 0.057892386 0.68300003
-0.078707621 0.057892386 0.68300003
-0.077520005 0.057977147 0.68400002
-0.076217145 0.057977147 0.68400002
-0.074914292 0.057977147 0.68400002
-0.073826671 0.05814667 0.68600005
-0.072520003 0.05814667 0.68600005
-0.071213335 0.05814667 0.68600005
-0.069906674 0.05814667 0.68600005
-0.068600006 0.05814667 0.68600005
-0.067293338 0.05814667 0.68600005
-0.065986671 0.05814667 0.68600005
-0.064680003 0.05814667 0.68600005
-0.063373335 0.05814667 0.68600005
-0.062157147 0.058231432 0.68700004
-0.060848575 0.058231432 0.68700004
-0.059540004 0.058231432 0.68700004
-0.058231432 0.058231432 0.68700004
-0.05692286 0.058231432 0.68700004
-0.055614289 0.058231432 0.68700004
-0.054305717 0.058231432 0.68700004
-0.052997146 0.058231432 0.68700004
-0.051688574 0.058231432 0.68700004
-0.050526671 0.058400955 0.68900001
-0.049214289 0.058400955 0.68900001
-0.047971431 0.058485717 0.69000006
-0.046657145 0.058485717 0.69000006
-0.045342859 0.058485717 0.69000006
-0.044028573 0.058485717 0.69000006
-0.04271429 0.058485717 0.69000006
-0.041400004 0.058485717 0.69000006
-0.040143814 0.058570482 0.69100004
-0.03882762 0.058570482 0.69100004
-0.037511431 0.058570482 0.69100004
-0.036195241 0.058570482 0.69100004
-0.034980003 0.058740005 0.69300002
-0.033562858 0.058570482 0.69100004
-0.032340001 0.058740005 0.69300002
-0.031020002 0.058740005 0.69300002
-0.029700002 0.058740005 0.69300002
-0.028420955 0.058824766 0.69400001
-0.027099049 0.058824766 0.69400001
-0.025814287 0.058909528 0.69500005
-0.024490478 0.058909528 0.69500005
-0.023133336 0.058824766 0.69400001
-0.021811429 0.058824766 0.69400001
-0.02051905 0.058909528 0.69500005
-0.01919524 0.058909528 0.69500005
-0.01787143 0.058909528 0.69500005
-0.01654762 0.058909528 0.69500005
-0.01522381 0.058909528 0.69500005
-0.013900001 0.058909528 0.69500005
-0.012612382 0.059079051 0.69700003
-0.011284763 0.059079051 0.69700003
-0.0099571431 0.059079051 0.69700003
-0.0086295241 0.059079051 0.69700003
-0.0073019052 0.059079051 0.69700003
-0.0059828577 0.059163813 0.69800001
-0.0046533337 0.059163813 0.69800001
-0.0033238097 0.059163813 0.69800001
-0.0019942857 0.059163813 0.69800001
-0.00066666672 0.059333336 0.70000005
0.00066666672 0.059333336 0.70000005
0.0020000001 0.059333336 0.70000005
0.0033333336 0.059333336 0.70000005
0.0046733338 0.059418101 0.70100003
0.0060085719 0.059418101 0.70100003
0.0073438101 0.059418101 0.70100003
0.0087038102 0.059587624 0.70300001
0.010042857 0.059587624 0.70300001
0.011398096 0.059672385 0.70400006
0.012739048 0.059672385 0.70400006
0.014080001 0.059672385 0.70400006
0.015442858 0.059757147 0.70500004
0.016785715 0.059757147 0.70500004
0.018128572 0.059757147 0.70500004
0.019471429 0.059757147 0.70500004
0.020814287 0.059757147 0.70500004
0.022157144 0.059757147 0.70500004
0.023566669 0.05992667 0.70700002
0.024913335 0.05992667 0.70700002
0.026297145 0.060011432 0.708
0.027645716 0.060011432 0.708
0.029076193 0.060180955 0.71000004
0.030428573 0.060180955 0.71000004
0.031780954 0.060180955 0.71000004
0.033133335 0.060180955 0.71000004
0.034485716 0.060180955 0.71000004
0.035838097 0.060180955 0.71000004
0.037190478 0.060180955 0.71000004
0.14388667 0.067046672 0.79100001
0.14539334 0.067046672 0.79100001
-0.16654287 0.05806667 0.67000002
-0.16526668 0.05806667 0.67000002
-0.16374573 0.057980005 0.66900003
-0.16247144 0.057980005 0.66900003
-0.16119716 0.057980005 0.66900003
-0.15992287 0.057980005 0.66900003
-0.15864858 0.057980005 0.66900003
-0.15737429 0.057980005 0.66900003
-0.1561 0.057980005 0.66900003
-0.15482572 0.057980005 0.66900003
-0.15378097 0.05806667 0.67000002
-0.15250477 0.05806667 0.67000002
-0.15122858 0.05806667 0.67000002
-0.1499524 0.05806667 0.67000002
-0.14889811 0.058153339 0.671
-0.14762001 0.058153339 0.671
-0.14634192 0.058153339 0.671
-0.14506382 0.058153339 0.671
-0.14378573 0.058153339 0.671
-0.14250763 0.058153339 0.671
-0.14144 0.058240004 0.67200005
-0.14016001 0.058240004 0.67200005
-0.13888001 0.058240004 0.67200005
-0.1376 0.058240004 0.67200005
-0.13632001 0.058240004 0.67200005
-0.13544191 0.058413338 0.67400002
-0.1341581 0.058413338 0.67400002
-0.1328743 0.058413338 0.67400002
-0.13159049 0.058413338 0.67400002
-0.13030668 0.058413338 0.67400002
-0.12902287 0.058413338 0.67400002
-0.12792858 0.058500003 0.67500001
-0.12664287 0.058500003 0.67500001
-0.12535715 0.058500003 0.67500001
-0.12407143 0.058500003 0.67500001
-0.12278572 0.058500003 0.67500001
-0.12168001 0.058586672 0.67600006
-0.12039239 0.058586672 0.67600006
-0.11910477 0.058586672 0.67600006
-0.11781715 0.058586672 0.67600006
-0.11652953 0.058586672 0.67600006
-0.11575334 0.058846671 0.67900002
-0.11446001 0.058846671 0.67900002
-0.11316667 0.058846671 0.67900002
-0.11187334 0.058846671 0.67900002
-0.11058 0.058846671 0.67900002
-0.10928667 0.058846671 0.67900002
-0.10783429 0.058760002 0.67800003
-0.10654286 0.058760002 0.67800003
-0.10525144 0.058760002 0.67800003
-0.10396001 0.058760002 0.67800003
-0.10266858 0.058760002 0.67800003
-0.10152667 0.058846671 0.67900002
-0.10023334 0.058846671 0.67900002
-0.098940007 0.058846671 0.67900002
-0.097646676 0.058846671 0.67900002
-0.096495241 0.058933336 0.68000001
-0.09520001 0.058933336 0.68000001
-0.093904771 0.058933336 0.68000001
-0.092609532 0.058933336 0.68000001
-0.091314293 0.058933336 0.68000001
-0.090283819 0.05910667 0.68200004
-0.088984765 0.05910667 0.68200004
-0.087814294 0.059193335 0.68300003
-0.08651334 0.059193335 0.68300003
-0.085212387 0.059193335 0.68300003
-0.083911434 0.059193335 0.68300003
-0.082731433 0.059280004 0.68400002
-0.08142858 0.059280004 0.68400002
-0.080125719 0.059280004 0.68400002
-0.078822859 0.059280004 0.68400002
-0.077520005 0.059280004 0.68400002
-0.076217145 0.059280004 0.68400002
-0.075133339 0.059453338 0.68600005
-0.073826671 0.059453338 0.68600005
-0.072520003 0.059453338 0.68600005
-0.071213335 0.059453338 0.68600005
-0.069906674 0.059453338 0.68600005
-0.068600006 0.059453338 0.68600005
-0.067293338 0.059453338 0.68600005
-0.065986671 0.059453338 0.68600005
-0.06477429 0.059540004 0.68700004
-0.063465722 0.059540004 0.68700004
-0.062157147 0.059540004 0.68700004
-0.060848575 0.059540004 0.68700004
-0.059540004 0.059540004 0.68700004
-0.058400955 0.059713338 0.68900001
-0.057088576 0.059713338 0.68900001
-0.055776194 0.059713338 0.68900001
-0.054463815 0.059713338 0.68900001
-0.053151432 0.059713338 0.68900001
-0.05183905 0.059713338 0.68900001
-0.050526671 0.059713338 0.68900001
-0.049285717 0.059800003 0.69000006
-0.047971431 0.059800003 0.69000006
-0.046657145 0.059800003 0.69000006
-0.045342859 0.059800003 0.69000006
-0.044092383 0.059886672 0.69100004
-0.042776193 0.059886672 0.69100004
-0.041460004 0.059886672 0.69100004
-0.040143814 0.059886672 0.69100004
-0.03882762 0.059886672 0.69100004
-0.037511431 0.059886672 0.69100004
-0.036300004 0.060060006 0.69300002
-0.034980003 0.060060006 0.69300002
-0.033660002 0.060060006 0.69300002
-0.032340001 0.060060006 0.69300002
-0.031064764 0.060146671 0.69400001
-0.029742859 0.060146671 0.69400001
-0.028420955 0.060146671 0.69400001
-0.027138097 0.060233336 0.69500005
-0.025814287 0.060233336 0.69500005
-0.024560954 0.06040667 0.69700003
-0.023166668 0.060233336 0.69500005
-0.021842858 0.060233336 0.69500005
-0.02051905 0.060233336 0.69500005
-0.019250477 0.06040667 0.69700003
-0.017922858 0.06040667 0.69700003
-0.016595239 0.06040667 0.69700003
-0.01526762 0.06040667 0.69700003
-0.013940001 0.06040667 0.69700003
-0.012612382 0.06040667 0.69700003
-0.011300953 0.060493339 0.69800001
-0.0099714296 0.060493339 0.69800001
-0.0086419052 0.060493339 0.69800001
-0.0073333336 0.060666669 0.70000005
-0.0060000005 0.060666669 0.70000005
-0.004666667 0.060666669 0.70000005
-0.0033333336 0.060666669 0.70000005
-0.0020000001 0.060666669 0.70000005
-0.00066666672 0.060666669 0.70000005
0.00066761911 0.060753338 0.70100003
0.0020028572 0.060753338 0.70100003
0.0033380955 0.060753338 0.70100003
0.0046733338 0.060753338 0.70100003
0.0060257148 0.060926672 0.70300001
0.0073647625 0.060926672 0.70300001
0.0087161912 0.061013337 0.70400006
0.010057144 0.061013337 0.70400006
0.011398096 0.061013337 0.70400006
0.012739048 0.061013337 0.70400006
0.014080001 0.061013337 0.70400006
0.015442858 0.061100002 0.70500004
0.016785715 0.061100002 0.70500004
0.018128572 0.061100002 0.70500004
0.019471429 0.061100002 0.70500004
0.020814287 0.061100002 0.70500004
0.022220001 0.061273336 0.70700002
0.023600001 0.061360005 0.708
0.024948573 0.061360005 0.708
0.026297145 0.061360005 0.708
0.027723812 0.061533336 0.71000004
0.029076193 0.061533336 0.71000004
0.030471431 0.061620004 0.71100003
0.031780954 0.061533336 0.71000004
0.033133335 0.061533336 0.71000004
0.034485716 0.061533336 0.71000004
0.035838097 0.061533336 0.71000004
0.037190478 0.061533336 0.71000004
0.13751143 0.068380006 0.78900003
0.14051715 0.068380006 0.78900003
0.14202 0.068380006 0.78900003
0.14352287 0.068380006 0.78900003
-0.16526668 0.059342861 0.67000002
-0.16374573 0.059254289 0.66900003
-0.1627143 0.059342861 0.67000002
-0.16119716 0.059254289 0.66900003
-0.15992287 0.059254289 0.66900003
-0.15864858 0.059254289 0.66900003
-0.15737429 0.059254289 0.66900003
-0.15633334 0.059342861 0.67000002
-0.15505715 0.059342861 0.67000002
-0.15378097 0.059342861 0.67000002
-0.15250477 0.059342861 0.67000002
-0.15122858 0.059342861 0.67000002
-0.1501762 0.059431434 0.671
-0.14889811 0.059431434 0.671
-0.14762001 0.059431434 0.671
-0.14634192 0.059431434 0.671
-0.14506382 0.059431434 0.671
-0.14400001 0.059520002 0.67200005
-0.14272001 0.059520002 0.67200005
-0.14144 0.059520002 0.67200005
-0.14016001 0.059520002 0.67200005
-0.13929334 0.059697147 0.67400002
-0.13800953 0.059697147 0.67400002
-0.13672572 0.059697147 0.67400002
-0.13544191 0.059697147 0.67400002
-0.1341581 0.059697147 0.67400002
-0.1328743 0.059697147 0.67400002
-0.13159049 0.059697147 0.67400002
-0.1305 0.05978572 0.67500001
-0.12921429 0.05978572 0.67500001
-0.12792858 0.05978572 0.67500001
-0.12664287 0.05978572 0.67500001
-0.12535715 0.05978572 0.67500001
-0.12407143 0.05978572 0.67500001
-0.12278572 0.05978572 0.67500001
-0.12168001 0.059874289 0.67600006
-0.12039239 0.059874289 0.67600006
-0.11910477 0.059874289 0.67600006
-0.11781715 0.059874289 0.67600006
-0.11687429 0.060051434 0.67800003
-0.11575334 0.060140003 0.67900002
-0.11446001 0.060140003 0.67900002
-0.11316667 0.060140003 0.67900002
-0.11187334 0.060140003 0.67900002
-0.11058 0.060140003 0.67900002
-0.10928667 0.060140003 0.67900002
-0.10799334 0.060140003 0.67900002
-0.10670001 0.060140003 0.67900002
-0.10540667 0.060140003 0.67900002
-0.10411334 0.060140003 0.67900002
-0.10282001 0.060140003 0.67900002
-0.10152667 0.060140003 0.67900002
-0.10023334 0.060140003 0.67900002
-0.098940007 0.060140003 0.67900002
-0.09779048 0.060228575 0.68000001
-0.096495241 0.060228575 0.68000001
-0.09520001 0.060228575 0.68000001
-0.093904771 0.060228575 0.68000001
-0.092609532 0.060228575 0.68000001
-0.091582865 0.06040572 0.68200004
-0.090283819 0.06040572 0.68200004
-0.088984765 0.06040572 0.68200004
-0.087814294 0.060494289 0.68300003
-0.08651334 0.060494289 0.68300003
-0.085337147 0.060582861 0.68400002
-0.084034294 0.060582861 0.68400002
-0.082731433 0.060582861 0.68400002
-0.08142858 0.060582861 0.68400002
-0.080125719 0.060582861 0.68400002
-0.078822859 0.060582861 0.68400002
-0.077746674 0.060760003 0.68600005
-0.076440006 0.060760003 0.68600005
-0.075133339 0.060760003 0.68600005
-0.073826671 0.060760003 0.68600005
-0.072520003 0.060760003 0.68600005
-0.071213335 0.060760003 0.68600005
-0.070008576 0.060848575 0.68700004
-0.068700008 0.060848575 0.68700004
-0.067391433 0.060848575 0.68700004
-0.066082865 0.060848575 0.68700004
-0.06477429 0.060848575 0.68700004
-0.063465722 0.060848575 0.68700004
-0.062157147 0.060848575 0.68700004
-0.06102572 0.06102572 0.68900001
-0.059713338 0.06102572 0.68900001
-0.058400955 0.06102572 0.68900001
-0.057088576 0.06102572 0.68900001
-0.055776194 0.06102572 0.68900001
-0.054463815 0.06102572 0.68900001
-0.053151432 0.06102572 0.68900001
-0.05191429 0.061114289 0.69000006
-0.050600003 0.061114289 0.69000006
-0.049285717 0.061114289 0.69000006
-0.047971431 0.061114289 0.69000006
-0.046657145 0.061114289 0.69000006
-0.045408573 0.061202861 0.69100004
-0.044092383 0.061202861 0.69100004
-0.042776193 0.061202861 0.69100004
-0.041460004 0.061202861 0.69100004
-0.040143814 0.061202861 0.69100004
-0.038940001 0.061380003 0.69300002
-0.037620004 0.061380003 0.69300002
-0.036300004 0.061380003 0.69300002
-0.034980003 0.061380003 0.69300002
-0.033660002 0.061380003 0.69300002
-0.032386668 0.061468575 0.69400001
-0.031064764 0.061468575 0.69400001
-0.029785717 0.061557148 0.69500005
-0.028461907 0.061557148 0.69500005
-0.027138097 0.061557148 0.69500005
-0.025888573 0.061734289 0.69700003
-0.024560954 0.061734289 0.69700003
-0.023166668 0.061557148 0.69500005
-0.021842858 0.061557148 0.69500005
-0.020578096 0.061734289 0.69700003
-0.019250477 0.061734289 0.69700003
-0.017922858 0.061734289 0.69700003
-0.016595239 0.061734289 0.69700003
-0.01526762 0.061734289 0.69700003
-0.013960001 0.061822861 0.69800001
-0.012630477 0.061822861 0.69800001
-0.011300953 0.061822861 0.69800001
-0.0099714296 0.061822861 0.69800001
-0.0086666672 0.062000003 0.70000005
-0.0073333336 0.062000003 0.70000005
-0.0060000005 0.062000003 0.70000005
-0.0046733338 0.062088575 0.70100003
-0.0033380955 0.062088575 0.70100003
-0.0020028572 0.062088575 0.70100003
-0.00066761911 0.062088575 0.70100003
0.00066761911 0.062088575 0.70100003
0.0020028572 0.062088575 0.70100003
0.0033476192 0.06226572 0.70300001
0.0046866671 0.06226572 0.70300001
0.0060342862 0.062354289 0.70400006
0.0073752385 0.062354289 0.70400006
0.0087161912 0.062354289 0.70400006
0.010071429 0.062442861 0.70500004
0.011414287 0.062442861 0.70500004
0.012757144 0.062442861 0.70500004
0.014100001 0.062442861 0.70500004
0.015442858 0.062442861 0.70500004
0.016785715 0.062442861 0.70500004
0.018128572 0.062442861 0.70500004
0.019526668 0.062620007 0.70700002
0.020873334 0.062620007 0.70700002
0.022251431 0.062708579 0.708
0.023666669 0.062885717 0.71000004
0.02501905 0.062885717 0.71000004
0.026371431 0.062885717 0.71000004
0.027762858 0.062974289 0.71100003
0.029117145 0.062974289 0.71100003
0.030471431 0.062974289 0.71100003
0.031825718 0.062974289 0.71100003
0.033133335 0.062885717 0.71000004
0.034534287 0.062974289 0.71100003
0.035838097 0.062885717 0.71000004
-0.16448002 0.060800005 0.67200005
-0.16320001 0.060800005 0.67200005
-0.16167906 0.060709529 0.671
-0.16016191 0.060619052 0.67000002
-0.15888572 0.060619052 0.67000002
-0.15760954 0.060619052 0.67000002
-0.15633334 0.060619052 0.67000002
-0.15505715 0.060619052 0.67000002
-0.15378097 0.060619052 0.67000002
-0.15273239 0.060709529 0.671
-0.1514543 0.060709529 0.671
-0.15040001 0.060800005 0.67200005
-0.14912 0.060800005 0.67200005
-0.14784001 0.060800005 0.67200005
-0.14656001 0.060800005 0.67200005
-0.14528 0.060800005 0.67200005
-0.14400001 0.060800005 0.67200005
-0.14314477 0.060980957 0.67400002
-0.14186096 0.060980957 0.67400002
-0.14057715 0.060980957 0.67400002
-0.13929334 0.060980957 0.67400002
-0.13800953 0.060980957 0.67400002
-0.13672572 0.060980957 0.67400002
-0.13564287 0.061071433 0.67500001
-0.13435715 0.061071433 0.67500001
-0.13307144 0.061071433 0.67500001
-0.13178572 0.061071433 0.67500001
-0.1305 0.061071433 0.67500001
-0.12921429 0.061071433 0.67500001
-0.12792858 0.061071433 0.67500001
-0.12683049 0.061161909 0.67600006
-0.12554286 0.061161909 0.67600006
-0.12425525 0.061161909 0.67600006
-0.12296763 0.061161909 0.67600006
-0.12204001 0.061342862 0.67800003
-0.12074858 0.061342862 0.67800003
-0.11945715 0.061342862 0.67800003
-0.11834001 0.061433338 0.67900002
-0.11704668 0.061433338 0.67900002
-0.11575334 0.061433338 0.67900002
-0.11446001 0.061433338 0.67900002
-0.11316667 0.061433338 0.67900002
-0.11187334 0.061433338 0.67900002
-0.11058 0.061433338 0.67900002
-0.10928667 0.061433338 0.67900002
-0.10799334 0.061433338 0.67900002
-0.10670001 0.061433338 0.67900002
-0.10540667 0.061433338 0.67900002
-0.10411334 0.061433338 0.67900002
-0.10282001 0.061433338 0.67900002
-0.1016762 0.061523814 0.68000001
-0.10038096 0.061523814 0.68000001
-0.099085718 0.061523814 0.68000001
-0.09779048 0.061523814 0.68000001
-0.096495241 0.061523814 0.68000001
-0.09548001 0.061704766 0.68200004
-0.094180956 0.061704766 0.68200004
-0.092881911 0.061704766 0.68200004
-0.091717146 0.061795242 0.68300003
-0.090416193 0.061795242 0.68300003
-0.089115247 0.061795242 0.68300003
-0.087942861 0.061885718 0.68400002
-0.086640008 0.061885718 0.68400002
-0.085337147 0.061885718 0.68400002
-0.084280007 0.062066671 0.68600005
-0.082973339 0.062066671 0.68600005
-0.081666671 0.062066671 0.68600005
-0.080360003 0.062066671 0.68600005
-0.079053335 0.062066671 0.68600005
-0.077746674 0.062066671 0.68600005
-0.076440006 0.062066671 0.68600005
-0.075242862 0.062157147 0.68700004
-0.073934294 0.062157147 0.68700004
-0.072625719 0.062157147 0.68700004
-0.071317151 0.062157147 0.68700004
-0.070008576 0.062157147 0.68700004
-0.068700008 0.062157147 0.68700004
-0.067391433 0.062157147 0.68700004
-0.066275239 0.062338099 0.68900001
-0.064962864 0.062338099 0.68900001
-0.063650481 0.062338099 0.68900001
-0.062428575 0.062428575 0.69000006
-0.061114289 0.062428575 0.69000006
-0.059800003 0.062428575 0.69000006
-0.058485717 0.062428575 0.69000006
-0.057171434 0.062428575 0.69000006
-0.055857148 0.062428575 0.69000006
-0.054542862 0.062428575 0.69000006
-0.053228576 0.062428575 0.69000006
-0.051989526 0.062519051 0.69100004
-0.050673336 0.062519051 0.69100004
-0.049357146 0.062519051 0.69100004
-0.048040956 0.062519051 0.69100004
-0.046724766 0.062519051 0.69100004
-0.045408573 0.062519051 0.69100004
-0.044092383 0.062519051 0.69100004
-0.042776193 0.062519051 0.69100004
-0.041580003 0.062700003 0.69300002
-0.040260002 0.062700003 0.69300002
-0.038940001 0.062700003 0.69300002
-0.037620004 0.062700003 0.69300002
-0.036300004 0.062700003 0.69300002
-0.035030477 0.062790483 0.69400001
-0.033708572 0.062790483 0.69400001
-0.032386668 0.062790483 0.69400001
-0.031109527 0.062880956 0.69500005
-0.029785717 0.062880956 0.69500005
-0.028461907 0.062880956 0.69500005
-0.027216192 0.063061908 0.69700003
-0.025888573 0.063061908 0.69700003
-0.024596192 0.063152388 0.69800001
-0.023233335 0.063061908 0.69700003
-0.021905717 0.063061908 0.69700003
-0.02060762 0.063152388 0.69800001
-0.019278096 0.063152388 0.69800001
-0.017948573 0.063152388 0.69800001
-0.016666668 0.06333334 0.70000005
-0.015289525 0.063152388 0.69800001
-0.014000001 0.06333334 0.70000005
-0.012666668 0.06333334 0.70000005
-0.011333334 0.06333334 0.70000005
-0.010000001 0.06333334 0.70000005
-0.0086790482 0.063423812 0.70100003
-0.0073438101 0.063423812 0.70100003
-0.0060085719 0.063423812 0.70100003
-0.0046733338 0.063423812 0.70100003
-0.0033380955 0.063423812 0.70100003
-0.0020028572 0.063423812 0.70100003
-0.00066952384 0.063604765 0.70300001
0.00066761911 0.063423812 0.70100003
0.0020085715 0.063604765 0.70300001
0.0033476192 0.063604765 0.70300001
0.0046933335 0.063695244 0.70400006
0.0060342862 0.063695244 0.70400006
0.0073857149 0.063785717 0.70500004
0.0087285722 0.063785717 0.70500004
0.010071429 0.063785717 0.70500004
0.011414287 0.063785717 0.70500004
0.012793334 0.063966669 0.70700002
0.014140001 0.063966669 0.70700002
0.015486668 0.063966669 0.70700002
0.016833335 0.063966669 0.70700002
0.018205715 0.064057149 0.708
0.019554287 0.064057149 0.708
0.020961907 0.064238101 0.71000004
0.022314288 0.064238101 0.71000004
0.023700001 0.064328574 0.71100003
0.025054287 0.064328574 0.71100003
0.026408574 0.064328574 0.71100003
0.027840953 0.064509526 0.71300006
0.029199049 0.064509526 0.71300006
0.030557144 0.064509526 0.71300006
0.03191524 0.064509526 0.71300006
0.033180002 0.064328574 0.71100003
0.034534287 0.064328574 0.71100003
0.035888575 0.064328574 0.71100003
-0.16625334 0.062264767 0.67400002
-0.16448002 0.062080003 0.67200005
-0.16320001 0.062080003 0.67200005
-0.16167906 0.061987624 0.671
-0.16040096 0.061987624 0.671
-0.15912287 0.061987624 0.671
-0.15760954 0.061895244 0.67000002
-0.15656668 0.061987624 0.671
-0.15528858 0.061987624 0.671
-0.15401049 0.061987624 0.671
-0.15296002 0.062080003 0.67200005
-0.15168001 0.062080003 0.67200005
-0.15040001 0.062080003 0.67200005
-0.14912 0.062080003 0.67200005
-0.14784001 0.062080003 0.67200005
-0.1469962 0.062264767 0.67400002
-0.14571239 0.062264767 0.67400002
-0.14442858 0.062264767 0.67400002
-0.14314477 0.062264767 0.67400002
-0.14186096 0.062264767 0.67400002
-0.14057715 0.062264767 0.67400002
-0.13950001 0.062357146 0.67500001
-0.13800953 0.062264767 0.67400002
-0.13692857 0.062357146 0.67500001
-0.13564287 0.062357146 0.67500001
-0.13435715 0.062357146 0.67500001
-0.13307144 0.062357146 0.67500001
-0.13178572 0.062357146 0.67500001
-0.1305 0.062357146 0.67500001
-0.12921429 0.062357146 0.67500001
-0.1281181 0.06244953 0.67600006
-0.12683049 0.06244953 0.67600006
-0.12591429 0.062634289 0.67800003
-0.12462287 0.062634289 0.67800003
-0.12333144 0.062634289 0.67800003
-0.12204001 0.062634289 0.67800003
-0.12092668 0.062726669 0.67900002
-0.11963334 0.062726669 0.67900002
-0.11834001 0.062726669 0.67900002
-0.11704668 0.062726669 0.67900002
-0.11575334 0.062726669 0.67900002
-0.11446001 0.062726669 0.67900002
-0.11316667 0.062726669 0.67900002
-0.11187334 0.062726669 0.67900002
-0.11058 0.062726669 0.67900002
-0.10928667 0.062726669 0.67900002
-0.10815239 0.062819049 0.68000001
-0.10685715 0.062819049 0.68000001
-0.10556191 0.062819049 0.68000001
-0.10426667 0.062819049 0.68000001
-0.10297143 0.062819049 0.68000001
-0.1016762 0.062819049 0.68000001
-0.10038096 0.062819049 0.68000001
-0.099085718 0.062819049 0.68000001
-0.098078102 0.063003816 0.68200004
-0.096779056 0.063003816 0.68200004
-0.09548001 0.063003816 0.68200004
-0.094319053 0.063096195 0.68300003
-0.0930181 0.063096195 0.68300003
-0.091717146 0.063096195 0.68300003
-0.090548575 0.063188575 0.68400002
-0.089245722 0.063188575 0.68400002
-0.087942861 0.063188575 0.68400002
-0.086640008 0.063188575 0.68400002
-0.085337147 0.063188575 0.68400002
-0.084280007 0.063373335 0.68600005
-0.082973339 0.063373335 0.68600005
-0.081666671 0.063373335 0.68600005
-0.080360003 0.063373335 0.68600005
-0.079053335 0.063373335 0.68600005
-0.077746674 0.063373335 0.68600005
-0.07655143 0.063465722 0.68700004
-0.075242862 0.063465722 0.68700004
-0.073934294 0.063465722 0.68700004
-0.072625719 0.063465722 0.68700004
-0.071317151 0.063465722 0.68700004
-0.070008576 0.063465722 0.68700004
-0.068900004 0.063650481 0.68900001
-0.067587622 0.063650481 0.68900001
-0.066275239 0.063650481 0.68900001
-0.064962864 0.063650481 0.68900001
-0.063742861 0.063742861 0.69000006
-0.062428575 0.063742861 0.69000006
-0.061114289 0.063742861 0.69000006
-0.059800003 0.063742861 0.69000006
-0.058485717 0.063742861 0.69000006
-0.057171434 0.063742861 0.69000006
-0.055857148 0.063742861 0.69000006
-0.054621909 0.063835241 0.69100004
-0.053305719 0.063835241 0.69100004
-0.051989526 0.063835241 0.69100004
-0.050673336 0.063835241 0.69100004
-0.049357146 0.063835241 0.69100004
-0.048040956 0.063835241 0.69100004
-0.046860002 0.064020008 0.69300002
-0.045540001 0.064020008 0.69300002
-0.044220004 0.064020008 0.69300002
-0.042900003 0.064020008 0.69300002
-0.041580003 0.064020008 0.69300002
-0.040318098 0.064112388 0.69400001
-0.038996194 0.064112388 0.69400001
-0.037674289 0.064112388 0.69400001
-0.036352385 0.064112388 0.69400001
-0.035030477 0.064112388 0.69400001
-0.033757146 0.064204767 0.69500005
-0.032433335 0.064204767 0.69500005
-0.031109527 0.064204767 0.69500005
-0.029785717 0.064204767 0.69500005
-0.028543811 0.064389527 0.69700003
-0.027216192 0.064389527 0.69700003
-0.025925716 0.064481907 0.69800001
-0.024596192 0.064481907 0.69800001
-0.023266668 0.064481907 0.69800001
-0.021937145 0.064481907 0.69800001
-0.02060762 0.064481907 0.69800001
-0.019278096 0.064481907 0.69800001
-0.018000001 0.064666674 0.70000005
-0.016666668 0.064666674 0.70000005
-0.015333334 0.064666674 0.70000005
-0.014000001 0.064666674 0.70000005
-0.012666668 0.064666674 0.70000005
-0.011333334 0.064666674 0.70000005
-0.010000001 0.064666674 0.70000005
-0.0086790482 0.064759053 0.70100003
-0.0073438101 0.064759053 0.70100003
-0.0060085719 0.064759053 0.70100003
-0.0046733338 0.064759053 0.70100003
-0.0033476192 0.064943813 0.70300001
-0.0020085715 0.064943813 0.70300001
-0.00066952384 0.064943813 0.70300001
0.00066952384 0.064943813 0.70300001
0.0020114286 0.065036193 0.70400006
0.0033523813 0.065036193 0.70400006
0.0047000004 0.065128572 0.70500004
0.0060428577 0.065128572 0.70500004
0.0073857149 0.065128572 0.70500004
0.0087285722 0.065128572 0.70500004
0.010100001 0.065313339 0.70700002
0.011446668 0.065313339 0.70700002
0.012793334 0.065313339 0.70700002
0.014140001 0.065313339 0.70700002
0.015486668 0.065313339 0.70700002
0.016857143 0.065405719 0.708
0.018205715 0.065405719 0.708
0.019609526 0.065590478 0.71000004
0.020961907 0.065590478 0.71000004
0.022345716 0.065682858 0.71100003
0.023700001 0.065682858 0.71100003
0.025054287 0.065682858 0.71100003
0.02648286 0.065867625 0.71300006
0.027840953 0.065867625 0.71300006
0.029199049 0.065867625 0.71300006
0.030557144 0.065867625 0.71300006
0.03191524 0.065867625 0.71300006
0.033273336 0.065867625 0.71300006
0.034631431 0.065867625 0.71300006
0.035989527 0.065867625 0.71300006
-0.16625334 0.063548572 0.67400002
-0.16496953 0.063548572 0.67400002
-0.16368572 0.063548572 0.67400002
-0.16192001 0.063360006 0.67200005
-0.16040096 0.063265719 0.671
-0.15912287 0.063265719 0.671
-0.15784477 0.063265719 0.671
-0.15656668 0.063265719 0.671
-0.15528858 0.063265719 0.671
-0.15401049 0.063265719 0.671
-0.15341525 0.063548572 0.67400002
-0.15213144 0.063548572 0.67400002
-0.15040001 0.063360006 0.67200005
-0.14956382 0.063548572 0.67400002
-0.14828001 0.063548572 0.67400002
-0.1469962 0.063548572 0.67400002
-0.14571239 0.063548572 0.67400002
-0.14442858 0.063548572 0.67400002
-0.14314477 0.063548572 0.67400002
-0.14186096 0.063548572 0.67400002
-0.14078572 0.063642859 0.67500001
-0.13950001 0.063642859 0.67500001
-0.13821429 0.063642859 0.67500001
-0.13692857 0.063642859 0.67500001
-0.13564287 0.063642859 0.67500001
-0.13435715 0.063642859 0.67500001
-0.13307144 0.063642859 0.67500001
-0.13178572 0.063642859 0.67500001
-0.1305 0.063642859 0.67500001
-0.12921429 0.063642859 0.67500001
-0.1281181 0.063737147 0.67600006
-0.12683049 0.063737147 0.67600006
-0.12591429 0.063925721 0.67800003
-0.12462287 0.063925721 0.67800003
-0.12333144 0.063925721 0.67800003
-0.12222001 0.064020008 0.67900002
-0.12092668 0.064020008 0.67900002
-0.11963334 0.064020008 0.67900002
-0.11834001 0.064020008 0.67900002
-0.11704668 0.064020008 0.67900002
-0.11575334 0.064020008 0.67900002
-0.11462858 0.064114287 0.68000001
-0.11316667 0.064020008 0.67900002
-0.11203811 0.064114287 0.68000001
-0.11074287 0.064114287 0.68000001
-0.10944763 0.064114287 0.68000001
-0.10815239 0.064114287 0.68000001
-0.10685715 0.064114287 0.68000001
-0.10556191 0.064114287 0.68000001
-0.10426667 0.064114287 0.68000001
-0.10327429 0.064302862 0.68200004
-0.1016762 0.064114287 0.68000001
-0.10038096 0.064114287 0.68000001
-0.099377148 0.064302862 0.68200004
-0.098078102 0.064302862 0.68200004
-0.09692096 0.064397149 0.68300003
-0.095620006 0.064397149 0.68300003
-0.094319053 0.064397149 0.68300003
-0.0930181 0.064397149 0.68300003
-0.091851436 0.064491436 0.68400002
-0.090548575 0.064491436 0.68400002
-0.089245722 0.064491436 0.68400002
-0.087942861 0.064491436 0.68400002
-0.086640008 0.064491436 0.68400002
-0.085586675 0.064680003 0.68600005
-0.084280007 0.064680003 0.68600005
-0.082973339 0.064680003 0.68600005
-0.081666671 0.064680003 0.68600005
-0.080360003 0.064680003 0.68600005
-0.079053335 0.064680003 0.68600005
-0.077860005 0.06477429 0.68700004
-0.07655143 0.06477429 0.68700004
-0.075242862 0.06477429 0.68700004
-0.073934294 0.06477429 0.68700004
-0.072625719 0.06477429 0.68700004
-0.071317151 0.06477429 0.68700004
-0.070212387 0.064962864 0.68900001
-0.068900004 0.064962864 0.68900001
-0.067587622 0.064962864 0.68900001
-0.066275239 0.064962864 0.68900001
-0.065057144 0.065057144 0.69000006
-0.063742861 0.065057144 0.69000006
-0.062428575 0.065057144 0.69000006
-0.061114289 0.065057144 0.69000006
-0.059800003 0.065057144 0.69000006
-0.058570482 0.065151431 0.69100004
-0.057254288 0.065151431 0.69100004
-0.055938099 0.065151431 0.69100004
-0.054621909 0.065151431 0.69100004
-0.053305719 0.065151431 0.69100004
-0.052140005 0.065340005 0.69300002
-0.050820004 0.065340005 0.69300002
-0.049500003 0.065340005 0.69300002
-0.048180003 0.065340005 0.69300002
-0.046860002 0.065340005 0.69300002
-0.045605719 0.065434292 0.69400001
-0.044220004 0.065340005 0.69300002
-0.042961907 0.065434292 0.69400001
-0.041640002 0.065434292 0.69400001
-0.040318098 0.065434292 0.69400001
-0.039052382 0.065528579 0.69500005
-0.037728574 0.065528579 0.69500005
-0.036404766 0.065528579 0.69500005
-0.035080954 0.065528579 0.69500005
-0.033757146 0.065528579 0.69500005
-0.032526668 0.065717146 0.69700003
-0.031199049 0.065717146 0.69700003
-0.02987143 0.065717146 0.69700003
-0.028584763 0.065811433 0.69800001
-0.027255239 0.065811433 0.69800001
-0.026000002 0.066000007 0.70000005
-0.024666669 0.066000007 0.70000005
-0.023266668 0.065811433 0.69800001
-0.021937145 0.065811433 0.69800001
-0.020666668 0.066000007 0.70000005
-0.019333335 0.066000007 0.70000005
-0.018000001 0.066000007 0.70000005
-0.016666668 0.066000007 0.70000005
-0.015333334 0.066000007 0.70000005
-0.014000001 0.066000007 0.70000005
-0.012666668 0.066000007 0.70000005
-0.011349524 0.066094287 0.70100003
-0.010014286 0.066094287 0.70100003
-0.0086790482 0.066094287 0.70100003
-0.0073647625 0.066282861 0.70300001
