# .PCD v0.7 - Point Cloud Data file format
VERSION 0.7
FIELDS x y z
SIZE 4 4 4
TYPE F F F
COUNT 1 1 1
WIDTH 1354
HEIGHT 1
VIEWPOINT 0 0 0 1 0 0 0
POINTS 1354
DATA ascii
0.056468576 0.03555429 0.73200005
0.057783812 0.035505716 0.73100001
0.059176195 0.035505716 0.73100001
0.060568575 0.035505716 0.73100001
0.062045719 0.03555429 0.73200005
0.063440003 0.03555429 0.73200005
0.064834289 0.03555429 0.73200005
0.066228576 0.03555429 0.73200005
0.067622863 0.03555429 0.73200005
0.06901715 0.03555429 0.73200005
0.16819715 0.040654287 0.83700001
0.16979145 0.040654287 0.83700001
0.17138572 0.040654287 0.83700001
-0.14411144 0.036898099 0.73100001
-0.14271906 0.036898099 0.73100001
-0.14132668 0.036898099 0.73100001
-0.14012572 0.036948573 0.73200005
-0.13873143 0.036948573 0.73200005
-0.13733715 0.036948573 0.73200005
-0.13631429 0.037049524 0.73400003
-0.13546763 0.037200954 0.73700005
-0.13442762 0.037301905 0.73900002
-0.1332 0.037352383 0.74000001
-0.13161239 0.037301905 0.73900002
-0.13020477 0.037301905 0.73900002
-0.12844858 0.037200954 0.73700005
-0.12704477 0.037200954 0.73700005
-0.12564096 0.037200954 0.73700005
-0.12423715 0.037200954 0.73700005
-0.12283334 0.037200954 0.73700005
-0.12142953 0.037200954 0.73700005
-0.12035143 0.037301905 0.73900002
-0.11862192 0.037200954 0.73700005
-0.1172181 0.037200954 0.73700005
-0.11581429 0.037200954 0.73700005
-0.11441048 0.037200954 0.73700005
-0.11300667 0.037200954 0.73700005
-0.11145144 0.03715048 0.73600006
-0.11004953 0.03715048 0.73600006
-0.10864763 0.03715048 0.73600006
-0.10724572 0.03715048 0.73600006
-0.1055562 0.037049524 0.73400003
-0.1041581 0.037049524 0.73400003
-0.10248001 0.036948573 0.73200005
-0.10136191 0.037049524 0.73400003
-0.099963814 0.037049524 0.73400003
-0.098834291 0.03715048 0.73600006
-0.097167626 0.037049524 0.73400003
-0.095769532 0.037049524 0.73400003
-0.09462858 0.03715048 0.73600006
-0.092720009 0.036948573 0.73200005
-0.091325723 0.036948573 0.73200005
-0.089931436 0.036948573 0.73200005
-0.088416196 0.036898099 0.73100001
-0.087023817 0.036898099 0.73100001
-0.085631438 0.036898099 0.73100001
-0.084239051 0.036898099 0.73100001
-0.082846671 0.036898099 0.73100001
-0.081454292 0.036898099 0.73100001
-0.080061913 0.036898099 0.73100001
-0.078669526 0.036898099 0.73100001
-0.077277146 0.036898099 0.73100001
-0.075884767 0.036898099 0.73100001
-0.074492387 0.036898099 0.73100001
-0.073100008 0.036898099 0.73100001
-0.071805716 0.036948573 0.73200005
-0.070411436 0.036948573 0.73200005
-0.06901715 0.036948573 0.73200005
-0.067530483 0.036898099 0.73100001
-0.066138096 0.036898099 0.73100001
-0.064745717 0.036898099 0.73100001
-0.063353337 0.036898099 0.73100001
-0.061791431 0.036797144 0.72900003
-0.060402863 0.036797144 0.72900003
-0.059014291 0.036797144 0.72900003
-0.057625718 0.036797144 0.72900003
-0.056237146 0.036797144 0.72900003
-0.054848574 0.036797144 0.72900003
-0.053460002 0.036797144 0.72900003
-0.052071434 0.036797144 0.72900003
-0.050682861 0.036797144 0.72900003
-0.049294289 0.036797144 0.72900003
-0.047905717 0.036797144 0.72900003
-0.046453338 0.03674667 0.72800004
-0.04506667 0.03674667 0.72800004
-0.043680001 0.03674667 0.72800004
-0.042293336 0.03674667 0.72800004
-0.040906668 0.03674667 0.72800004
-0.039411429 0.036645718 0.72600001
-0.038028575 0.036645718 0.72600001
-0.03674667 0.03674667 0.72800004
-0.03526286 0.036645718 0.72600001
-0.033880003 0.036645718 0.72600001
-0.032586668 0.03674667 0.72800004
-0.031200003 0.03674667 0.72800004
-0.029813336 0.03674667 0.72800004
-0.028426668 0.03674667 0.72800004
-0.027040001 0.03674667 0.72800004
-0.025653334 0.03674667 0.72800004
-0.024266668 0.03674667 0.72800004
-0.022880001 0.03674667 0.72800004
-0.021434287 0.036645718 0.72600001
-0.020051429 0.036645718 0.72600001
-0.018668573 0.036645718 0.72600001
-0.017285716 0.036645718 0.72600001
-0.015880954 0.03659524 0.72500002
-0.014500001 0.03659524 0.72500002
-0.013119048 0.03659524 0.72500002
-0.011738096 0.03659524 0.72500002
-0.010357143 0.03659524 0.72500002
-0.0089885723 0.036645718 0.72600001
-0.0076057147 0.036645718 0.72600001
-0.0062228576 0.036645718 0.72600001
-0.0048400005 0.036645718 0.72600001
-0.003457143 0.036645718 0.72600001
-0.0020742859 0.036645718 0.72600001
-0.00069142861 0.036645718 0.72600001
0.00069142861 0.036645718 0.72600001
0.0020714288 0.03659524 0.72500002
0.0034666669 0.03674667 0.72800004
0.0048400005 0.036645718 0.72600001
0.0062400005 0.03674667 0.72800004
0.0076266672 0.03674667 0.72800004
0.0089885723 0.036645718 0.72600001
0.010400001 0.03674667 0.72800004
0.011786668 0.03674667 0.72800004
0.013137144 0.036645718 0.72600001
0.014520001 0.036645718 0.72600001
0.015902858 0.036645718 0.72600001
0.017285716 0.036645718 0.72600001
0.018668573 0.036645718 0.72600001
0.020106668 0.03674667 0.72800004
0.021493334 0.03674667 0.72800004
0.022880001 0.03674667 0.72800004
0.024266668 0.03674667 0.72800004
0.025653334 0.03674667 0.72800004
0.027040001 0.03674667 0.72800004
0.028426668 0.03674667 0.72800004
0.029813336 0.03674667 0.72800004
0.031200003 0.03674667 0.72800004
0.032586668 0.03674667 0.72800004
0.033973336 0.03674667 0.72800004
0.035360001 0.03674667 0.72800004
0.03674667 0.03674667 0.72800004
0.038028575 0.036645718 0.72600001
0.039411429 0.036645718 0.72600001
0.040794287 0.036645718 0.72600001
0.042177144 0.036645718 0.72600001
0.043560002 0.036645718 0.72600001
0.04494286 0.036645718 0.72600001
0.046453338 0.03674667 0.72800004
0.047905717 0.036797144 0.72900003
0.049226671 0.03674667 0.72800004
0.050682861 0.036797144 0.72900003
0.052071434 0.036797144 0.72900003
0.053460002 0.036797144 0.72900003
0.05499905 0.036898099 0.73100001
0.056391433 0.036898099 0.73100001
0.057783812 0.036898099 0.73100001
0.059176195 0.036898099 0.73100001
0.060568575 0.036898099 0.73100001
0.061960958 0.036898099 0.73100001
0.063353337 0.036898099 0.73100001
0.064745717 0.036898099 0.73100001
0.066228576 0.036948573 0.73200005
0.067622863 0.036948573 0.73200005
0.06901715 0.036948573 0.73200005
0.15348096 0.042147622 0.83500004
0.15507144 0.042147622 0.83500004
0.16143334 0.042147622 0.83500004
0.16302381 0.042147622 0.83500004
0.16461429 0.042147622 0.83500004
-0.14411144 0.038290478 0.73100001
-0.1429143 0.03834286 0.73200005
-0.14152001 0.03834286 0.73200005
-0.14012572 0.03834286 0.73200005
-0.13873143 0.03834286 0.73200005
-0.13733715 0.03834286 0.73200005
-0.13631429 0.038447622 0.73400003
-0.13528381 0.038552385 0.73600006
-0.13406383 0.038604766 0.73700005
-0.13302001 0.038709525 0.73900002
-0.13125619 0.038604766 0.73700005
-0.12985238 0.038604766 0.73700005
-0.12844858 0.038604766 0.73700005
-0.12704477 0.038604766 0.73700005
-0.12564096 0.038604766 0.73700005
-0.12423715 0.038604766 0.73700005
-0.12283334 0.038604766 0.73700005
-0.12142953 0.038604766 0.73700005
-0.12002572 0.038604766 0.73700005
-0.11862192 0.038604766 0.73700005
-0.11705905 0.038552385 0.73600006
-0.11581429 0.038604766 0.73700005
-0.11441048 0.038604766 0.73700005
-0.11285334 0.038552385 0.73600006
-0.11145144 0.038552385 0.73600006
-0.10975049 0.038447622 0.73400003
-0.10835239 0.038447622 0.73400003
-0.10695429 0.038447622 0.73400003
-0.10526858 0.03834286 0.73200005
-0.1038743 0.03834286 0.73200005
-0.10234001 0.038290478 0.73100001
-0.10108572 0.03834286 0.73200005
-0.099691436 0.03834286 0.73200005
-0.098297149 0.03834286 0.73200005
-0.09677048 0.038290478 0.73100001
-0.095378101 0.038290478 0.73100001
-0.093985721 0.038290478 0.73100001
-0.092593342 0.038290478 0.73100001
-0.091200955 0.038290478 0.73100001
-0.089808576 0.038290478 0.73100001
-0.088416196 0.038290478 0.73100001
-0.087023817 0.038290478 0.73100001
-0.085631438 0.038290478 0.73100001
-0.084239051 0.038290478 0.73100001
-0.082846671 0.038290478 0.73100001
-0.081231438 0.038185716 0.72900003
-0.079842865 0.038185716 0.72900003
-0.078454293 0.038185716 0.72900003
-0.076960005 0.038133334 0.72800004
-0.07557334 0.038133334 0.72800004
-0.074288577 0.038185716 0.72900003
-0.072900005 0.038185716 0.72900003
-0.071511433 0.038185716 0.72900003
-0.070315242 0.038290478 0.73100001
-0.068734288 0.038185716 0.72900003
-0.067530483 0.038290478 0.73100001
-0.065957144 0.038185716 0.72900003
-0.064568579 0.038185716 0.72900003
-0.063180007 0.038185716 0.72900003
-0.06170667 0.038133334 0.72800004
-0.060320005 0.038133334 0.72800004
-0.058933336 0.038133334 0.72800004
-0.057388574 0.038028575 0.72600001
-0.056005716 0.038028575 0.72600001
-0.054773338 0.038133334 0.72800004
-0.053240005 0.038028575 0.72600001
-0.052000005 0.038133334 0.72800004
-0.050613336 0.038133334 0.72800004
-0.049226671 0.038133334 0.72800004
-0.047708575 0.038028575 0.72600001
-0.046325717 0.038028575 0.72600001
-0.04494286 0.038028575 0.72600001
-0.043560002 0.038028575 0.72600001
-0.042177144 0.038028575 0.72600001
-0.040794287 0.038028575 0.72600001
-0.039411429 0.038028575 0.72600001
-0.038028575 0.038028575 0.72600001
-0.036645718 0.038028575 0.72600001
-0.035214286 0.037976194 0.72500002
-0.033833336 0.037976194 0.72500002
-0.032497145 0.038028575 0.72600001
-0.03107143 0.037976194 0.72500002
-0.02973143 0.038028575 0.72600001
-0.028348573 0.038028575 0.72600001
-0.026928574 0.037976194 0.72500002
-0.025582859 0.038028575 0.72600001
-0.024200002 0.038028575 0.72600001
-0.022785716 0.037976194 0.72500002
-0.021404764 0.037976194 0.72500002
-0.019968573 0.037871432 0.72300005
-0.018642858 0.037976194 0.72500002
-0.017261906 0.037976194 0.72500002
-0.015837144 0.037871432 0.72300005
-0.014460001 0.037871432 0.72300005
-0.013119048 0.037976194 0.72500002
-0.011705715 0.037871432 0.72300005
-0.010328572 0.037871432 0.72300005
-0.0089761913 0.037976194 0.72500002
-0.0075952387 0.037976194 0.72500002
-0.0062142862 0.037976194 0.72500002
-0.0048333337 0.037976194 0.72500002
-0.0034523811 0.037976194 0.72500002
-0.0020714288 0.037976194 0.72500002
-0.00069047621 0.037976194 0.72500002
0.00068857148 0.037871432 0.72300005
0.0020657144 0.037871432 0.72300005
0.0034523811 0.037976194 0.72500002
0.0048333337 0.037976194 0.72500002
0.0062142862 0.037976194 0.72500002
0.0075952387 0.037976194 0.72500002
0.0089761913 0.037976194 0.72500002
0.010371429 0.038028575 0.72600001
0.011754286 0.038028575 0.72600001
0.013137144 0.038028575 0.72600001
0.014520001 0.038028575 0.72600001
0.015902858 0.038028575 0.72600001
0.017285716 0.038028575 0.72600001
0.018668573 0.038028575 0.72600001
0.020051429 0.038028575 0.72600001
0.021434287 0.038028575 0.72600001
0.022817144 0.038028575 0.72600001
0.024200002 0.038028575 0.72600001
0.025582859 0.038028575 0.72600001
0.026965717 0.038028575 0.72600001
0.028348573 0.038028575 0.72600001
0.02973143 0.038028575 0.72600001
0.031114288 0.038028575 0.72600001
0.032497145 0.038028575 0.72600001
0.033880003 0.038028575 0.72600001
0.03526286 0.038028575 0.72600001
0.036645718 0.038028575 0.72600001
0.037976194 0.037976194 0.72500002
0.039357144 0.037976194 0.72500002
0.040738098 0.037976194 0.72500002
0.042119049 0.037976194 0.72500002
0.043500002 0.037976194 0.72500002
0.044880956 0.037976194 0.72500002
0.046325717 0.038028575 0.72600001
0.047840003 0.038133334 0.72800004
0.049226671 0.038133334 0.72800004
0.050613336 0.038133334 0.72800004
0.052000005 0.038133334 0.72800004
0.053166669 0.037976194 0.72500002
0.054848574 0.038185716 0.72900003
0.056005716 0.038028575 0.72600001
0.057388574 0.038028575 0.72600001
0.059014291 0.038185716 0.72900003
0.060402863 0.038185716 0.72900003
0.061960958 0.038290478 0.73100001
0.063353337 0.038290478 0.73100001
0.064745717 0.038290478 0.73100001
0.066228576 0.03834286 0.73200005
0.067622863 0.03834286 0.73200005
0.06901715 0.03834286 0.73200005
0.070411436 0.03834286 0.73200005
0.15470001 0.043633334 0.83300006
-0.14411144 0.039682861 0.73100001
-0.14271906 0.039682861 0.73100001
-0.14152001 0.039737146 0.73200005
-0.14012572 0.039737146 0.73200005
-0.13873143 0.039737146 0.73200005
-0.13733715 0.039737146 0.73200005
-0.13631429 0.039845716 0.73400003
-0.13528381 0.03995429 0.73600006
-0.13406383 0.040008575 0.73700005
-0.13248001 0.03995429 0.73600006
-0.13107811 0.03995429 0.73600006
-0.12967619 0.03995429 0.73600006
-0.12827429 0.03995429 0.73600006
-0.12687239 0.03995429 0.73600006
-0.12547049 0.03995429 0.73600006
-0.12406858 0.03995429 0.73600006
-0.12266667 0.03995429 0.73600006
-0.12142953 0.040008575 0.73700005
-0.12002572 0.040008575 0.73700005
-0.11846096 0.03995429 0.73600006
-0.11705905 0.03995429 0.73600006
-0.11565715 0.03995429 0.73600006
-0.11425524 0.03995429 0.73600006
-0.11285334 0.03995429 0.73600006
-0.11114858 0.039845716 0.73400003
-0.10945144 0.039737146 0.73200005
-0.10805715 0.039737146 0.73200005
-0.10651715 0.039682861 0.73100001
-0.10512477 0.039682861 0.73100001
-0.10373238 0.039682861 0.73100001
-0.10234001 0.039682861 0.73100001
-0.10094763 0.039682861 0.73100001
-0.099282861 0.039574288 0.72900003
-0.097894289 0.039574288 0.72900003
-0.096373342 0.039520003 0.72800004
-0.09498667 0.039520003 0.72800004
-0.093600005 0.039520003 0.72800004
-0.09221334 0.039520003 0.72800004
-0.090951435 0.039574288 0.72900003
-0.089562863 0.039574288 0.72900003
-0.088174291 0.039574288 0.72900003
-0.086785719 0.039574288 0.72900003
-0.085397147 0.039574288 0.72900003
-0.084008574 0.039574288 0.72900003
-0.082620002 0.039574288 0.72900003
-0.081120007 0.039520003 0.72800004
-0.079733342 0.039520003 0.72800004
-0.07834667 0.039520003 0.72800004
-0.07674858 0.039411429 0.72600001
-0.075365722 0.039411429 0.72600001
-0.073982865 0.039411429 0.72600001
-0.072800003 0.039520003 0.72800004
-0.071413338 0.039520003 0.72800004
-0.070026673 0.039520003 0.72800004
-0.068640001 0.039520003 0.72800004
-0.067253336 0.039520003 0.72800004
-0.065866672 0.039520003 0.72800004
-0.064480007 0.039520003 0.72800004
-0.062920004 0.039411429 0.72600001
-0.061537147 0.039411429 0.72600001
-0.060071431 0.039357144 0.72500002
-0.058690481 0.039357144 0.72500002
-0.057309527 0.039357144 0.72500002
-0.055928577 0.039357144 0.72500002
-0.054547623 0.039357144 0.72500002
-0.053166669 0.039357144 0.72500002
-0.051857147 0.039411429 0.72600001
-0.050404765 0.039357144 0.72500002
-0.049091432 0.039411429 0.72600001
-0.047642861 0.039357144 0.72500002
-0.046261907 0.039357144 0.72500002
-0.044880956 0.039357144 0.72500002
-0.043500002 0.039357144 0.72500002
-0.042119049 0.039357144 0.72500002
-0.040738098 0.039357144 0.72500002
-0.039357144 0.039357144 0.72500002
-0.037976194 0.039357144 0.72500002
-0.03659524 0.039357144 0.72500002
-0.035214286 0.039357144 0.72500002
-0.033740003 0.039248575 0.72300005
-0.032452382 0.039357144 0.72500002
-0.030985717 0.039248575 0.72300005
-0.029690478 0.039357144 0.72500002
-0.028231431 0.039248575 0.72300005
-0.026854288 0.039248575 0.72300005
-0.02554762 0.039357144 0.72500002
-0.024100002 0.039248575 0.72300005
-0.022722859 0.039248575 0.72300005
-0.021345716 0.039248575 0.72300005
-0.019940954 0.03919429 0.72200006
-0.018565716 0.03919429 0.72200006
-0.017190477 0.03919429 0.72200006
-0.015815239 0.03919429 0.72200006
-0.014440001 0.03919429 0.72200006
-0.013082858 0.039248575 0.72300005
-0.011689524 0.03919429 0.72200006
-0.010314287 0.03919429 0.72200006
-0.0089514293 0.039248575 0.72300005
-0.0075742863 0.039248575 0.72300005
-0.0061885719 0.03919429 0.72200006
-0.0048200004 0.039248575 0.72300005
-0.0034380956 0.03919429 0.72200006
-0.0020628574 0.03919429 0.72200006
-0.00068857148 0.039248575 0.72300005
0.00068761909 0.03919429 0.72200006
0.0020628574 0.03919429 0.72200006
0.0034428574 0.039248575 0.72300005
0.0048200004 0.039248575 0.72300005
0.0061971433 0.039248575 0.72300005
0.0075742863 0.039248575 0.72300005
0.0089761913 0.039357144 0.72500002
0.010357143 0.039357144 0.72500002
0.011738096 0.039357144 0.72500002
0.013119048 0.039357144 0.72500002
0.014500001 0.039357144 0.72500002
0.015837144 0.039248575 0.72300005
0.017214287 0.039248575 0.72300005
0.018565716 0.03919429 0.72200006
0.019940954 0.03919429 0.72200006
0.021316191 0.03919429 0.72200006
0.022691431 0.03919429 0.72200006
0.024066668 0.03919429 0.72200006
0.025441907 0.03919429 0.72200006
0.026854288 0.039248575 0.72300005
0.028231431 0.039248575 0.72300005
0.029608574 0.039248575 0.72300005
0.030985717 0.039248575 0.72300005
0.032452382 0.039357144 0.72500002
0.033693336 0.03919429 0.72200006
0.035214286 0.039357144 0.72500002
0.036494289 0.039248575 0.72300005
0.037976194 0.039357144 0.72500002
0.039248575 0.039248575 0.72300005
0.040625717 0.039248575 0.72300005
0.04200286 0.039248575 0.72300005
0.043380003 0.039248575 0.72300005
0.044757146 0.039248575 0.72300005
0.046261907 0.039357144 0.72500002
0.047642861 0.039357144 0.72500002
0.049091432 0.039411429 0.72600001
0.05047429 0.039411429 0.72600001
0.051857147 0.039411429 0.72600001
0.053240005 0.039411429 0.72600001
0.054547623 0.039357144 0.72500002
0.055928577 0.039357144 0.72500002
0.057309527 0.039357144 0.72500002
0.058690481 0.039357144 0.72500002
0.060320005 0.039520003 0.72800004
0.061791431 0.039574288 0.72900003
0.063180007 0.039574288 0.72900003
0.064745717 0.039682861 0.73100001
0.066138096 0.039682861 0.73100001
0.067622863 0.039737146 0.73200005
0.068922862 0.039682861 0.73100001
0.070315242 0.039682861 0.73100001
-0.14430858 0.041131433 0.73200005
-0.1429143 0.041131433 0.73200005
-0.14152001 0.041131433 0.73200005
-0.14012572 0.041131433 0.73200005
-0.13873143 0.041131433 0.73200005
-0.13733715 0.041131433 0.73200005
-0.13594286 0.041131433 0.73200005
-0.1349162 0.041243814 0.73400003
-0.13388191 0.041356195 0.73600006
-0.13212001 0.041243814 0.73400003
-0.13072191 0.041243814 0.73400003
-0.12932383 0.041243814 0.73400003
-0.12827429 0.041356195 0.73600006
-0.12687239 0.041356195 0.73600006
-0.12512954 0.041243814 0.73400003
-0.12373143 0.041243814 0.73400003
-0.12233334 0.041243814 0.73400003
-0.12126477 0.041356195 0.73600006
-0.11986286 0.041356195 0.73600006
-0.11781715 0.041131433 0.73200005
-0.11674096 0.041243814 0.73400003
-0.11565715 0.041356195 0.73600006
-0.11394477 0.041243814 0.73400003
-0.11254667 0.041243814 0.73400003
-0.1106943 0.041075241 0.73100001
-0.10930191 0.041075241 0.73100001
-0.10790953 0.041075241 0.73100001
-0.10651715 0.041075241 0.73100001
-0.10483715 0.04096286 0.72900003
-0.10344858 0.04096286 0.72900003
-0.10206001 0.04096286 0.72900003
-0.10053334 0.040906668 0.72800004
-0.099146672 0.040906668 0.72800004
-0.097491436 0.040794287 0.72600001
-0.096108578 0.040794287 0.72600001
-0.094725721 0.040794287 0.72600001
-0.093342863 0.040794287 0.72600001
-0.091960005 0.040794287 0.72600001
-0.090577148 0.040794287 0.72600001
-0.089440003 0.040906668 0.72800004
-0.088053338 0.040906668 0.72800004
-0.086666673 0.040906668 0.72800004
-0.085280009 0.040906668 0.72800004
-0.083893336 0.040906668 0.72800004
-0.082280003 0.040794287 0.72600001
-0.081120007 0.040906668 0.72800004
-0.079514287 0.040794287 0.72600001
-0.078131437 0.040794287 0.72600001
-0.076642863 0.040738098 0.72500002
-0.075261913 0.040738098 0.72500002
-0.073880956 0.040738098 0.72500002
-0.072500005 0.040738098 0.72500002
-0.071119055 0.040738098 0.72500002
-0.069545716 0.040625717 0.72300005
-0.068357147 0.040738098 0.72500002
-0.066976197 0.040738098 0.72500002
-0.065595239 0.040738098 0.72500002
-0.064214289 0.040738098 0.72500002
-0.062833339 0.040738098 0.72500002
-0.061452385 0.040738098 0.72500002
-0.059905719 0.040625717 0.72300005
-0.058528576 0.040625717 0.72300005
-0.057151433 0.040625717 0.72300005
-0.05577429 0.040625717 0.72300005
-0.054397147 0.040625717 0.72300005
-0.053020004 0.040625717 0.72300005
-0.051785719 0.040738098 0.72500002
-0.050265718 0.040625717 0.72300005
-0.049023814 0.040738098 0.72500002
-0.047511432 0.040625717 0.72300005
-0.046134289 0.040625717 0.72300005
-0.044757146 0.040625717 0.72300005
-0.043380003 0.040625717 0.72300005
-0.04200286 0.040625717 0.72300005
-0.040625717 0.040625717 0.72300005
-0.039248575 0.040625717 0.72300005
-0.037871432 0.040625717 0.72300005
-0.036494289 0.040625717 0.72300005
-0.035117146 0.040625717 0.72300005
-0.033740003 0.040625717 0.72300005
-0.03236286 0.040625717 0.72300005
-0.030942859 0.040569525 0.72200006
-0.029608574 0.040625717 0.72300005
-0.028192382 0.040569525 0.72200006
-0.026817145 0.040569525 0.72200006
-0.025441907 0.040569525 0.72200006
-0.024066668 0.040569525 0.72200006
-0.022628574 0.040457144 0.72000003
-0.021316191 0.040569525 0.72200006
-0.019885715 0.040457144 0.72000003
-0.018514287 0.040457144 0.72000003
-0.017142858 0.040457144 0.72000003
-0.01577143 0.040457144 0.72000003
-0.014400001 0.040457144 0.72000003
-0.013028572 0.040457144 0.72000003
-0.011657144 0.040457144 0.72000003
-0.010271429 0.040400956 0.71900004
-0.0089142863 0.040457144 0.72000003
-0.0075428574 0.040457144 0.72000003
-0.0061714291 0.040457144 0.72000003
-0.0048000002 0.040457144 0.72000003
-0.0034238098 0.040400956 0.71900004
-0.002054286 0.040400956 0.71900004
-0.0006857143 0.040457144 0.72000003
0.00068476197 0.040400956 0.71900004
0.002054286 0.040400956 0.71900004
0.0034380956 0.040569525 0.72200006
0.0048133335 0.040569525 0.72200006
0.0061714291 0.040457144 0.72000003
0.0075428574 0.040457144 0.72000003
0.0089514293 0.040625717 0.72300005
0.010314287 0.040569525 0.72200006
0.011689524 0.040569525 0.72200006
0.013064763 0.040569525 0.72200006
0.014440001 0.040569525 0.72200006
0.015815239 0.040569525 0.72200006
0.017190477 0.040569525 0.72200006
0.018514287 0.040457144 0.72000003
0.019885715 0.040457144 0.72000003
0.021257143 0.040457144 0.72000003
0.022628574 0.040457144 0.72000003
0.024000002 0.040457144 0.72000003
0.02537143 0.040457144 0.72000003
0.026742859 0.040457144 0.72000003
0.028114287 0.040457144 0.72000003
0.029567622 0.040569525 0.72200006
0.030985717 0.040625717 0.72300005
0.03236286 0.040625717 0.72300005
0.033740003 0.040625717 0.72300005
0.035117146 0.040625717 0.72300005
0.036494289 0.040625717 0.72300005
0.037871432 0.040625717 0.72300005
0.03919429 0.040569525 0.72200006
0.040569525 0.040569525 0.72200006
0.041944765 0.040569525 0.72200006
0.043320004 0.040569525 0.72200006
0.04469524 0.040569525 0.72200006
0.046134289 0.040625717 0.72300005
0.047511432 0.040625717 0.72300005
0.048888575 0.040625717 0.72300005
0.050404765 0.040738098 0.72500002
0.051642861 0.040625717 0.72300005
0.052946672 0.040569525 0.72200006
0.054321907 0.040569525 0.72200006
0.055697147 0.040569525 0.72200006
0.057072386 0.040569525 0.72200006
0.058528576 0.040625717 0.72300005
0.060071431 0.040738098 0.72500002
0.061791431 0.04096286 0.72900003
0.063180007 0.04096286 0.72900003
0.064568579 0.04096286 0.72900003
0.066138096 0.041075241 0.73100001
0.067530483 0.041075241 0.73100001
0.068922862 0.041075241 0.73100001
0.070315242 0.041075241 0.73100001
0.15395716 0.046581909 0.82900006
0.1567362 0.046469528 0.82700002
-0.14271906 0.04246762 0.73100001
-0.14132668 0.04246762 0.73100001
-0.14012572 0.042525716 0.73200005
-0.13873143 0.042525716 0.73200005
-0.13714953 0.04246762 0.73100001
-0.13575715 0.04246762 0.73100001
-0.13454857 0.042525716 0.73200005
-0.13315429 0.042525716 0.73200005
-0.13176002 0.042525716 0.73200005
-0.13018763 0.04246762 0.73100001
-0.12791429 0.042177144 0.72600001
-0.12740287 0.04246762 0.73100001
-0.12566572 0.042351432 0.72900003
-0.12427715 0.042351432 0.72900003
-0.12238286 0.042177144 0.72600001
-0.12133334 0.042293336 0.72800004
-0.12044096 0.04246762 0.73100001
-0.11904858 0.04246762 0.73100001
-0.1176562 0.04246762 0.73100001
-0.11642286 0.042525716 0.73200005
-0.11502858 0.042525716 0.73200005
-0.1136343 0.042525716 0.73200005
-0.11224001 0.042525716 0.73200005
-0.11039144 0.042351432 0.72900003
-0.10900287 0.042351432 0.72900003
-0.10761429 0.042351432 0.72900003
-0.10622572 0.042351432 0.72900003
-0.10483715 0.042351432 0.72900003
-0.10302287 0.042177144 0.72600001
-0.1015 0.042119049 0.72500002
-0.10025715 0.042177144 0.72600001
-0.098874293 0.042177144 0.72600001
-0.097491436 0.042177144 0.72600001
-0.095976196 0.042119049 0.72500002
-0.094595246 0.042119049 0.72500002
-0.093214288 0.042119049 0.72500002
-0.091833338 0.042119049 0.72500002
-0.090452388 0.042119049 0.72500002
-0.089071438 0.042119049 0.72500002
-0.087811433 0.042177144 0.72600001
-0.086428575 0.042177144 0.72600001
-0.085045718 0.042177144 0.72600001
-0.083547622 0.042119049 0.72500002
-0.082166672 0.042119049 0.72500002
-0.080785722 0.042119049 0.72500002
-0.079404764 0.042119049 0.72500002
-0.078023814 0.042119049 0.72500002
-0.076431431 0.04200286 0.72300005
-0.075054288 0.04200286 0.72300005
-0.073677145 0.04200286 0.72300005
-0.072200008 0.041944765 0.72200006
-0.070824765 0.041944765 0.72200006
-0.069449529 0.041944765 0.72200006
-0.068074293 0.041944765 0.72200006
-0.06669905 0.041944765 0.72200006
-0.065323815 0.041944765 0.72200006
-0.063948579 0.041944765 0.72200006
-0.062573336 0.041944765 0.72200006
-0.0611981 0.041944765 0.72200006
-0.059822861 0.041944765 0.72200006
-0.058285717 0.041828573 0.72000003
-0.057072386 0.041944765 0.72200006
-0.055697147 0.041944765 0.72200006
-0.054321907 0.041944765 0.72200006
-0.052946672 0.041944765 0.72200006
-0.051428575 0.041828573 0.72000003
-0.049987622 0.041770481 0.71900004
-0.048820954 0.041944765 0.72200006
-0.047445718 0.041944765 0.72200006
-0.046070479 0.041944765 0.72200006
-0.04469524 0.041944765 0.72200006
-0.043320004 0.041944765 0.72200006
-0.041944765 0.041944765 0.72200006
-0.040569525 0.041944765 0.72200006
-0.03919429 0.041944765 0.72200006
-0.03781905 0.041944765 0.72200006
-0.036443811 0.041944765 0.72200006
-0.035068575 0.041944765 0.72200006
-0.033693336 0.041944765 0.72200006
-0.032318097 0.041944765 0.72200006
-0.030857146 0.041828573 0.72000003
-0.029567622 0.041944765 0.72200006
-0.028114287 0.041828573 0.72000003
-0.026742859 0.041828573 0.72000003
-0.02537143 0.041828573 0.72000003
-0.024000002 0.041828573 0.72000003
-0.022628574 0.041828573 0.72000003
-0.021257143 0.041828573 0.72000003
-0.019858096 0.041770481 0.71900004
-0.018488573 0.041770481 0.71900004
-0.01707143 0.041654289 0.71700001
-0.015705716 0.041654289 0.71700001
-0.014340001 0.041654289 0.71700001
-0.012974286 0.041654289 0.71700001
-0.011608572 0.041654289 0.71700001
-0.010242858 0.041654289 0.71700001
-0.0088771433 0.041654289 0.71700001
-0.007511429 0.041654289 0.71700001
-0.0061628576 0.041770481 0.71900004
-0.0047933338 0.041770481 0.71900004
-0.0034142858 0.041654289 0.71700001
-0.0020485716 0.041654289 0.71700001
-0.00068476197 0.041770481 0.71900004
0.00068285718 0.041654289 0.71700001
0.0020485716 0.041654289 0.71700001
0.0034238098 0.041770481 0.71900004
0.0047800005 0.041654289 0.71700001
0.0061371434 0.041596193 0.71600002
0.0074800006 0.041480001 0.71400005
0.0088771433 0.041654289 0.71700001
0.010242858 0.041654289 0.71700001
0.011608572 0.041654289 0.71700001
0.012956192 0.041596193 0.71600002
0.014340001 0.041654289 0.71700001
0.015749525 0.041770481 0.71900004
0.017142858 0.041828573 0.72000003
0.018488573 0.041770481 0.71900004
0.019858096 0.041770481 0.71900004
0.021227621 0.041770481 0.71900004
0.022597143 0.041770481 0.71900004
0.023966668 0.041770481 0.71900004
0.025336193 0.041770481 0.71900004
0.026705716 0.041770481 0.71900004
0.028075241 0.041770481 0.71900004
0.029444763 0.041770481 0.71900004
0.030857146 0.041828573 0.72000003
0.032228574 0.041828573 0.72000003
0.033600003 0.041828573 0.72000003
0.034971431 0.041828573 0.72000003
0.036342859 0.041828573 0.72000003
0.03781905 0.041944765 0.72200006
0.03919429 0.041944765 0.72200006
0.040569525 0.041944765 0.72200006
0.041944765 0.041944765 0.72200006
0.043320004 0.041944765 0.72200006
0.04469524 0.041944765 0.72200006
0.046070479 0.041944765 0.72200006
0.047445718 0.041944765 0.72200006
0.048820954 0.041944765 0.72200006
0.050196193 0.041944765 0.72200006
0.051428575 0.041828573 0.72000003
0.052800003 0.041828573 0.72000003
0.054171432 0.041828573 0.72000003
0.05554286 0.041828573 0.72000003
0.056914289 0.041828573 0.72000003
0.058285717 0.041828573 0.72000003
0.059657145 0.041828573 0.72000003
0.061028574 0.041828573 0.72000003
0.062660001 0.04200286 0.72300005
0.064568579 0.042351432 0.72900003
0.065957144 0.042351432 0.72900003
0.067530483 0.04246762 0.73100001
0.068922862 0.04246762 0.73100001
-0.14271906 0.043860003 0.73100001
-0.14132668 0.043860003 0.73100001
-0.1399343 0.043860003 0.73100001
-0.13854191 0.043860003 0.73100001
-0.1367743 0.043740004 0.72900003
-0.13520001 0.043680001 0.72800004
-0.13399716 0.043740004 0.72900003
-0.13260858 0.043740004 0.72900003
-0.13104001 0.043680001 0.72800004
-0.12929715 0.043560002 0.72600001
-0.1277381 0.043500002 0.72500002
-0.12653144 0.043560002 0.72600001
-0.1249762 0.043500002 0.72500002
-0.12359525 0.043500002 0.72500002
-0.12187715 0.043380003 0.72300005
-0.12 0.043200001 0.72000003
-0.11862858 0.043200001 0.72000003
-0.11856001 0.043680001 0.72800004
-0.11685143 0.043560002 0.72600001
-0.11546858 0.043560002 0.72600001
-0.11314286 0.043200001 0.72000003
-0.11177143 0.043200001 0.72000003
-0.11040001 0.043200001 0.72000003
-0.10902858 0.043200001 0.72000003
-0.10750762 0.043140002 0.71900004
-0.1061381 0.043140002 0.71900004
-0.10426191 0.043500002 0.72500002
-0.10288096 0.043500002 0.72500002
-0.10122 0.043380003 0.72300005
-0.10011905 0.043500002 0.72500002
-0.098738104 0.043500002 0.72500002
-0.097357146 0.043500002 0.72500002
-0.095711432 0.043380003 0.72300005
-0.094334289 0.043380003 0.72300005
-0.092828579 0.043320004 0.72200006
-0.091453336 0.043320004 0.72200006
-0.090078101 0.043320004 0.72200006
-0.088457152 0.043200001 0.72000003
-0.087085716 0.043200001 0.72000003
-0.085952386 0.043320004 0.72200006
-0.084577151 0.043320004 0.72200006
-0.083201908 0.043320004 0.72200006
-0.081940003 0.043380003 0.72300005
-0.080451436 0.043320004 0.72200006
-0.079076193 0.043320004 0.72200006
-0.077700958 0.043320004 0.72200006
-0.076325722 0.043320004 0.72200006
-0.074742861 0.043200001 0.72000003
-0.073371433 0.043200001 0.72000003
-0.072000004 0.043200001 0.72000003
-0.070628576 0.043200001 0.72000003
-0.069160961 0.043140002 0.71900004
-0.067885719 0.043200001 0.72000003
-0.066421911 0.043140002 0.71900004
-0.065052383 0.043140002 0.71900004
-0.063682862 0.043140002 0.71900004
-0.062400006 0.043200001 0.72000003
-0.061028574 0.043200001 0.72000003
-0.059657145 0.043200001 0.72000003
-0.058204766 0.043140002 0.71900004
-0.056835242 0.043140002 0.71900004
-0.055465717 0.043140002 0.71900004
-0.054096196 0.043140002 0.71900004
-0.052726671 0.043140002 0.71900004
-0.051214289 0.043020003 0.71700001
-0.049848575 0.043020003 0.71700001
-0.048482861 0.043020003 0.71700001
-0.047117148 0.043020003 0.71700001
-0.045879051 0.043140002 0.71900004
-0.044509526 0.043140002 0.71900004
-0.043140002 0.043140002 0.71900004
-0.041770481 0.043140002 0.71900004
-0.040569525 0.043320004 0.72200006
-0.039031431 0.043140002 0.71900004
-0.037714288 0.043200001 0.72000003
-0.036292382 0.043140002 0.71900004
-0.034922861 0.043140002 0.71900004
-0.033553336 0.043140002 0.71900004
-0.032183811 0.043140002 0.71900004
-0.030728573 0.043020003 0.71700001
-0.029444763 0.043140002 0.71900004
-0.027997145 0.043020003 0.71700001
-0.02663143 0.043020003 0.71700001
-0.025265716 0.043020003 0.71700001
-0.023900002 0.043020003 0.71700001
-0.022534287 0.043020003 0.71700001
-0.021168573 0.043020003 0.71700001
-0.01977524 0.042960003 0.71600002
-0.01841143 0.042960003 0.71600002
-0.017047619 0.042960003 0.71600002
-0.015683811 0.042960003 0.71600002
-0.014280001 0.042840004 0.71400005
-0.012920001 0.042840004 0.71400005
-0.01156 0.042840004 0.71400005
-0.0102 0.042840004 0.71400005
-0.0088400003 0.042840004 0.71400005
-0.007500953 0.042960003 0.71600002
-0.0061371434 0.042960003 0.71600002
-0.0047800005 0.043020003 0.71700001
-0.003409524 0.042960003 0.71600002
-0.0020457145 0.042960003 0.71600002
-0.00068285718 0.043020003 0.71700001
0.00068190478 0.042960003 0.71600002
0.0020457145 0.042960003 0.71600002
0.003409524 0.042960003 0.71600002
0.0047600004 0.042840004 0.71400005
0.0061200005 0.042840004 0.71400005
0.0074800006 0.042840004 0.71400005
0.0088400003 0.042840004 0.71400005
0.0102 0.042840004 0.71400005
0.01156 0.042840004 0.71400005
0.012920001 0.042840004 0.71400005
0.014280001 0.042840004 0.71400005
0.015683811 0.042960003 0.71600002
0.01707143 0.043020003 0.71700001
0.018437143 0.043020003 0.71700001
0.019802859 0.043020003 0.71700001
0.021168573 0.043020003 0.71700001
0.022534287 0.043020003 0.71700001
0.023900002 0.043020003 0.71700001
0.025265716 0.043020003 0.71700001
0.02663143 0.043020003 0.71700001
0.027958097 0.042960003 0.71600002
0.029321907 0.042960003 0.71600002
0.030685715 0.042960003 0.71600002
0.032094289 0.043020003 0.71700001
0.033460002 0.043020003 0.71700001
0.034922861 0.043140002 0.71900004
0.036342859 0.043200001 0.72000003
0.037714288 0.043200001 0.72000003
0.039085716 0.043200001 0.72000003
0.040457144 0.043200001 0.72000003
0.041828573 0.043200001 0.72000003
0.043200001 0.043200001 0.72000003
0.044571433 0.043200001 0.72000003
0.045942862 0.043200001 0.72000003
0.04731429 0.043200001 0.72000003
0.048685718 0.043200001 0.72000003
0.050057147 0.043200001 0.72000003
0.051428575 0.043200001 0.72000003
0.052800003 0.043200001 0.72000003
0.054171432 0.043200001 0.72000003
0.055465717 0.043140002 0.71900004
0.056835242 0.043140002 0.71900004
0.058204766 0.043140002 0.71900004
0.059574291 0.043140002 0.71900004
0.060774289 0.043020003 0.71700001
0.062053338 0.042960003 0.71600002
0.063417144 0.042960003 0.71600002
0.064600006 0.042840004 0.71400005
0.065960005 0.042840004 0.71400005
0.1774924 0.049260002 0.82100004
0.1790562 0.049260002 0.82100004
0.18062001 0.049260002 0.82100004
0.18218382 0.049260002 0.82100004
0.18374763 0.049260002 0.82100004
-0.13602382 0.044880956 0.72500002
-0.13464287 0.044880956 0.72500002
-0.13326192 0.044880956 0.72500002
-0.13151716 0.044757146 0.72300005
-0.1305 0.044880956 0.72500002
-0.12911905 0.044880956 0.72500002
-0.12738572 0.044757146 0.72300005
-0.12600859 0.044757146 0.72300005
-0.12463143 0.044757146 0.72300005
-0.12325429 0.044757146 0.72300005
-0.12170858 0.04469524 0.72200006
-0.12 0.044571433 0.72000003
-0.11846381 0.044509526 0.71900004
-0.11709429 0.044509526 0.71900004
-0.11588572 0.044571433 0.72000003
-0.11451429 0.044571433 0.72000003
-0.11314286 0.044571433 0.72000003
-0.11177143 0.044571433 0.72000003
-0.11040001 0.044571433 0.72000003
-0.10857429 0.044385716 0.71700001
-0.10750762 0.044509526 0.71900004
-0.1061381 0.044509526 0.71900004
-0.10476858 0.044509526 0.71900004
-0.10383049 0.04469524 0.72200006
-0.10217144 0.044571433 0.72000003
-0.10080001 0.044571433 0.72000003
-0.099704765 0.04469524 0.72200006
-0.098329529 0.04469524 0.72200006
-0.096954294 0.04469524 0.72200006
-0.095314294 0.044571433 0.72000003
-0.093942866 0.044571433 0.72000003
-0.092442863 0.044509526 0.71900004
-0.091073342 0.044509526 0.71900004
-0.089703813 0.044509526 0.71900004
-0.088334292 0.044509526 0.71900004
-0.086964771 0.044509526 0.71900004
-0.085595243 0.044509526 0.71900004
-0.084225722 0.044509526 0.71900004
-0.082856193 0.044509526 0.71900004
-0.081600003 0.044571433 0.72000003
-0.080117151 0.044509526 0.71900004
-0.078747623 0.044509526 0.71900004
-0.077378102 0.044509526 0.71900004
-0.076114289 0.044571433 0.72000003
-0.074742861 0.044571433 0.72000003
-0.073371433 0.044571433 0.72000003
-0.071900003 0.044509526 0.71900004
-0.070530482 0.044509526 0.71900004
-0.069160961 0.044509526 0.71900004
-0.067791432 0.044509526 0.71900004
-0.066421911 0.044509526 0.71900004
-0.06487143 0.044385716 0.71700001
-0.063682862 0.044509526 0.71900004
-0.062313337 0.044509526 0.71900004
-0.060943812 0.044509526 0.71900004
-0.059574291 0.044509526 0.71900004
-0.058042862 0.044385716 0.71700001
-0.056677148 0.044385716 0.71700001
-0.055311434 0.044385716 0.71700001
-0.053945716 0.044385716 0.71700001
-0.05250667 0.044323813 0.71600002
-0.05114286 0.044323813 0.71600002
-0.04977905 0.044323813 0.71600002
-0.04841524 0.044323813 0.71600002
-0.047051433 0.044323813 0.71600002
-0.045687623 0.044323813 0.71600002
-0.044323813 0.044323813 0.71600002
-0.042960003 0.044323813 0.71600002
-0.041480001 0.044200003 0.71400005
-0.040232383 0.044323813 0.71600002
-0.038760003 0.044200003 0.71400005
-0.037504766 0.044323813 0.71600002
-0.036140956 0.044323813 0.71600002
-0.034777146 0.044323813 0.71600002
-0.033413336 0.044323813 0.71600002
-0.032049526 0.044323813 0.71600002
-0.030685715 0.044323813 0.71600002
-0.029321907 0.044323813 0.71600002
-0.027958097 0.044323813 0.71600002
-0.026594287 0.044323813 0.71600002
-0.025230478 0.044323813 0.71600002
-0.023866668 0.044323813 0.71600002
-0.022502858 0.044323813 0.71600002
-0.021080002 0.044200003 0.71400005
-0.019720001 0.044200003 0.71400005
-0.018360002 0.044200003 0.71400005
-0.016976191 0.0441381 0.71300006
-0.015640002 0.044200003 0.71400005
-0.014260001 0.0441381 0.71300006
-0.012901906 0.0441381 0.71300006
-0.01156 0.044200003 0.71400005
-0.010185715 0.0441381 0.71300006
-0.0088400003 0.044200003 0.71400005
-0.007500953 0.044323813 0.71600002
-0.0061371434 0.044323813 0.71600002
-0.0047733337 0.044323813 0.71600002
-0.003409524 0.044323813 0.71600002
-0.0020457145 0.044323813 0.71600002
-0.00068190478 0.044323813 0.71600002
0.00068000006 0.044200003 0.71400005
0.0020400002 0.044200003 0.71400005
0.0034000003 0.044200003 0.71400005
0.0047600004 0.044200003 0.71400005
0.0061114291 0.0441381 0.71300006
0.0074695242 0.0441381 0.71300006
0.0088276193 0.0441381 0.71300006
0.010185715 0.0441381 0.71300006
0.01154381 0.0441381 0.71300006
0.012901906 0.0441381 0.71300006
0.014260001 0.0441381 0.71300006
0.015640002 0.044200003 0.71400005
0.017047619 0.044323813 0.71600002
0.018437143 0.044385716 0.71700001
0.01977524 0.044323813 0.71600002
0.021168573 0.044385716 0.71700001
0.022534287 0.044385716 0.71700001
0.023900002 0.044385716 0.71700001
0.025265716 0.044385716 0.71700001
0.026594287 0.044323813 0.71600002
0.027958097 0.044323813 0.71600002
0.029240001 0.044200003 0.71400005
0.030600002 0.044200003 0.71400005
0.031960003 0.044200003 0.71400005
0.033320002 0.044200003 0.71400005
0.034777146 0.044323813 0.71600002
0.03619143 0.044385716 0.71700001
0.037661906 0.044509526 0.71900004
0.039031431 0.044509526 0.71900004
0.040400956 0.044509526 0.71900004
0.041770481 0.044509526 0.71900004
0.043140002 0.044509526 0.71900004
0.044509526 0.044509526 0.71900004
0.045879051 0.044509526 0.71900004
0.047248576 0.044509526 0.71900004
0.048618097 0.044509526 0.71900004
0.049987622 0.044509526 0.71900004
0.051357146 0.044509526 0.71900004
0.052726671 0.044509526 0.71900004
0.054096196 0.044509526 0.71900004
0.055465717 0.044509526 0.71900004
0.056835242 0.044509526 0.71900004
0.058042862 0.044385716 0.71700001
0.059408575 0.044385716 0.71700001
0.060689528 0.044323813 0.71600002
0.062053338 0.044323813 0.71600002
0.063417144 0.044323813 0.71600002
0.064600006 0.044200003 0.71400005
0.065960005 0.044200003 0.71400005
0.067320004 0.044200003 0.71400005
0.17862001 0.050700005 0.81900007
0.18018001 0.050700005 0.81900007
0.18174002 0.050700005 0.81900007
0.18330002 0.050700005 0.81900007
-0.13546096 0.046070479 0.72200006
-0.13408573 0.046070479 0.72200006
-0.13234286 0.045942862 0.72000003
-0.13097143 0.045942862 0.72000003
-0.12996002 0.046070479 0.72200006
-0.12876287 0.046134289 0.72300005
-0.12720953 0.046070479 0.72200006
-0.1258343 0.046070479 0.72200006
-0.1241143 0.045942862 0.72000003
-0.12308381 0.046070479 0.72200006
-0.12137143 0.045942862 0.72000003
-0.11983334 0.045879051 0.71900004
-0.11846381 0.045879051 0.71900004
-0.11709429 0.045879051 0.71900004
-0.11572477 0.045879051 0.71900004
-0.11435524 0.045879051 0.71900004
-0.11298572 0.045879051 0.71900004
-0.11161619 0.045879051 0.71900004
-0.10994001 0.04575143 0.71700001
-0.10857429 0.04575143 0.71700001
-0.10750762 0.045879051 0.71900004
-0.1061381 0.045879051 0.71900004
-0.10476858 0.045879051 0.71900004
-0.10339905 0.045879051 0.71900004
-0.10202953 0.045879051 0.71900004
-0.10066 0.045879051 0.71900004
-0.099290483 0.045879051 0.71900004
-0.097920962 0.045879051 0.71900004
-0.096551433 0.045879051 0.71900004
-0.095181912 0.045879051 0.71900004
-0.093812384 0.045879051 0.71900004
-0.092185721 0.04575143 0.71700001
-0.090820007 0.04575143 0.71700001
-0.089329533 0.045687623 0.71600002
-0.088088579 0.04575143 0.71700001
-0.086722866 0.04575143 0.71700001
-0.085238099 0.045687623 0.71600002
-0.083991431 0.04575143 0.71700001
-0.082625717 0.04575143 0.71700001
-0.081260003 0.04575143 0.71700001
-0.079894289 0.04575143 0.71700001
-0.078528576 0.04575143 0.71700001
-0.077162862 0.04575143 0.71700001
-0.076008573 0.045879051 0.71900004
-0.074639052 0.045879051 0.71900004
-0.07306572 0.04575143 0.71700001
-0.071700007 0.04575143 0.71700001
-0.070334293 0.04575143 0.71700001
-0.068968579 0.04575143 0.71700001
-0.067602858 0.04575143 0.71700001
-0.066237144 0.04575143 0.71700001
-0.064780958 0.045687623 0.71600002
-0.063505717 0.04575143 0.71700001
-0.062140003 0.04575143 0.71700001
-0.060774289 0.04575143 0.71700001
-0.059408575 0.04575143 0.71700001
-0.057961907 0.045687623 0.71600002
-0.056440003 0.045560002 0.71400005
-0.055080004 0.045560002 0.71400005
-0.053720005 0.045560002 0.71400005
-0.052360002 0.045560002 0.71400005
-0.051000003 0.045560002 0.71400005
-0.049640004 0.045560002 0.71400005
-0.048280004 0.045560002 0.71400005
-0.046920002 0.045560002 0.71400005
-0.045560002 0.045560002 0.71400005
-0.044200003 0.045560002 0.71400005
-0.042840004 0.045560002 0.71400005
-0.041421909 0.045496192 0.71300006
-0.040063813 0.045496192 0.71300006
-0.038705718 0.045496192 0.71300006
-0.037347622 0.045496192 0.71300006
-0.036040001 0.045560002 0.71400005
-0.034680001 0.045560002 0.71400005
-0.033320002 0.045560002 0.71400005
-0.031960003 0.045560002 0.71400005
-0.030600002 0.045560002 0.71400005
-0.029240001 0.045560002 0.71400005
-0.027880002 0.045560002 0.71400005
-0.026520003 0.045560002 0.71400005
-0.025160002 0.045560002 0.71400005
-0.023800002 0.045560002 0.71400005
-0.022440001 0.045560002 0.71400005
-0.021080002 0.045560002 0.71400005
-0.019692382 0.045496192 0.71300006
-0.018334286 0.045496192 0.71300006
-0.016976191 0.045496192 0.71300006
-0.015618096 0.045496192 0.71300006
-0.014260001 0.045496192 0.71300006
-0.012901906 0.045496192 0.71300006
-0.01154381 0.045496192 0.71300006
-0.010157144 0.045368575 0.71100003
-0.0088028582 0.045368575 0.71100003
-0.0074695242 0.045496192 0.71300006
-0.0061114291 0.045496192 0.71300006
-0.0047533335 0.045496192 0.71300006
-0.0033952384 0.045496192 0.71300006
-0.0020371431 0.045496192 0.71300006
-0.00067904766 0.045496192 0.71300006
0.00067904766 0.045496192 0.71300006
0.0020371431 0.045496192 0.71300006
0.0033952384 0.045496192 0.71300006
0.0047533335 0.045496192 0.71300006
0.0060942862 0.045368575 0.71100003
0.0074485717 0.045368575 0.71100003
0.0088028582 0.045368575 0.71100003
0.010157144 0.045368575 0.71100003
0.011511429 0.045368575 0.71100003
0.012865715 0.045368575 0.71100003
0.014260001 0.045496192 0.71300006
0.015574287 0.045368575 0.71100003
0.016976191 0.045496192 0.71300006
0.018360002 0.045560002 0.71400005
0.019720001 0.045560002 0.71400005
0.021080002 0.045560002 0.71400005
0.022440001 0.045560002 0.71400005
0.023866668 0.045687623 0.71600002
0.025230478 0.045687623 0.71600002
0.026520003 0.045560002 0.71400005
0.027880002 0.045560002 0.71400005
0.029240001 0.045560002 0.71400005
0.030557144 0.045496192 0.71300006
0.031960003 0.045560002 0.71400005
0.033320002 0.045560002 0.71400005
0.034680001 0.045560002 0.71400005
0.036040001 0.045560002 0.71400005
0.037504766 0.045687623 0.71600002
0.038922861 0.04575143 0.71700001
0.040288575 0.04575143 0.71700001
0.041654289 0.04575143 0.71700001
0.043020003 0.04575143 0.71700001
0.044385716 0.04575143 0.71700001
0.04575143 0.04575143 0.71700001
0.047117148 0.04575143 0.71700001
0.04841524 0.045687623 0.71600002
0.04977905 0.045687623 0.71600002
0.05114286 0.045687623 0.71600002
0.052580003 0.04575143 0.71700001
0.053945716 0.04575143 0.71700001
0.055311434 0.04575143 0.71700001
0.056598101 0.045687623 0.71600002
0.057961907 0.045687623 0.71600002
0.059325717 0.045687623 0.71600002
0.060520004 0.045560002 0.71400005
0.061880004 0.045560002 0.71400005
0.063240007 0.045560002 0.71400005
0.064600006 0.045560002 0.71400005
0.065960005 0.045560002 0.71400005
0.067320004 0.045560002 0.71400005
0.068872385 0.045687623 0.71600002
0.17507143 0.052132383 0.81700003
-0.13489811 0.047248576 0.71900004
-0.13352858 0.047248576 0.71900004
-0.13215905 0.047248576 0.71900004
-0.13078953 0.047248576 0.71900004
-0.12942001 0.047248576 0.71900004
-0.12822857 0.04731429 0.72000003
-0.12668096 0.047248576 0.71900004
-0.12548572 0.04731429 0.72000003
-0.12394191 0.047248576 0.71900004
-0.12257239 0.047248576 0.71900004
-0.12120286 0.047248576 0.71900004
-0.11983334 0.047248576 0.71900004
-0.11846381 0.047248576 0.71900004
-0.11709429 0.047248576 0.71900004
-0.11540286 0.047117148 0.71700001
-0.11403715 0.047117148 0.71700001
-0.11267143 0.047117148 0.71700001
-0.11130572 0.047117148 0.71700001
-0.10994001 0.047117148 0.71700001
-0.10857429 0.047117148 0.71700001
-0.10720858 0.047117148 0.71700001
-0.10584287 0.047117148 0.71700001
-0.10447715 0.047117148 0.71700001
-0.10311144 0.047117148 0.71700001
-0.10174572 0.047117148 0.71700001
-0.10038 0.047117148 0.71700001
-0.09901429 0.047117148 0.71700001
-0.097512387 0.047051433 0.71600002
-0.096282862 0.047117148 0.71700001
-0.094784766 0.047051433 0.71600002
-0.093160003 0.046920002 0.71400005
-0.092057146 0.047051433 0.71600002
-0.090440005 0.046920002 0.71400005
-0.088955246 0.046854287 0.71300006
-0.087720007 0.046920002 0.71400005
-0.086360008 0.046920002 0.71400005
-0.085000008 0.046920002 0.71400005
-0.083640009 0.046920002 0.71400005
-0.082280003 0.046920002 0.71400005
-0.080920003 0.046920002 0.71400005
-0.079782866 0.047051433 0.71600002
-0.078419052 0.047051433 0.71600002
-0.077055246 0.047051433 0.71600002
-0.075691432 0.047051433 0.71600002
-0.074327625 0.047051433 0.71600002
-0.072963811 0.047051433 0.71600002
-0.071600005 0.047051433 0.71600002
-0.070236199 0.047051433 0.71600002
-0.068872385 0.047051433 0.71600002
-0.067508578 0.047051433 0.71600002
-0.066144764 0.047051433 0.71600002
-0.064600006 0.046920002 0.71400005
-0.063240007 0.046920002 0.71400005
-0.061880004 0.046920002 0.71400005
-0.060520004 0.046920002 0.71400005
-0.059160005 0.046920002 0.71400005
-0.057800002 0.046920002 0.71400005
-0.056360956 0.046854287 0.71300006
-0.055002861 0.046854287 0.71300006
-0.053644765 0.046854287 0.71300006
-0.05228667 0.046854287 0.71300006
-0.050928574 0.046854287 0.71300006
-0.049570478 0.046854287 0.71300006
-0.048212383 0.046854287 0.71300006
-0.046854287 0.046854287 0.71300006
-0.045368575 0.046722859 0.71100003
-0.04401429 0.046722859 0.71100003
-0.042660002 0.046722859 0.71100003
-0.041305717 0.046722859 0.71100003
-0.039951432 0.046722859 0.71100003
-0.038597144 0.046722859 0.71100003
-0.037347622 0.046854287 0.71300006
-0.035989527 0.046854287 0.71300006
-0.034534287 0.046722859 0.71100003
-0.033273336 0.046854287 0.71300006
-0.03191524 0.046854287 0.71300006
-0.030557144 0.046854287 0.71300006
-0.029199049 0.046854287 0.71300006
-0.027840953 0.046854287 0.71300006
-0.02648286 0.046854287 0.71300006
-0.025124764 0.046854287 0.71300006
-0.023766669 0.046854287 0.71300006
-0.022345716 0.046722859 0.71100003
-0.02099143 0.046722859 0.71100003
-0.019637143 0.046722859 0.71100003
-0.018282859 0.046722859 0.71100003
-0.016928572 0.046722859 0.71100003
-0.015574287 0.046722859 0.71100003
-0.014220001 0.046722859 0.71100003
-0.01284762 0.046657145 0.71000004
-0.011495239 0.046657145 0.71000004
-0.010142858 0.046657145 0.71000004
-0.0087904772 0.046657145 0.71000004
-0.0074380958 0.046657145 0.71000004
-0.0060942862 0.046722859 0.71100003
-0.0047400002 0.046722859 0.71100003
-0.0033857145 0.046722859 0.71100003
-0.0020314287 0.046722859 0.71100003
-0.00067714287 0.046722859 0.71100003
0.00067714287 0.046722859 0.71100003
0.0020314287 0.046722859 0.71100003
