# .PCD v0.7 - Point Cloud Data file format
VERSION 0.7
FIELDS x y z
SIZE 4 4 4
TYPE F F F
COUNT 1 1 1
WIDTH 1354
HEIGHT 1
VIEWPOINT 0 0 0 1 0 0 0
POINTS 1354
DATA ascii
0.018035239 0.037936192 0.65300006
0.01927905 0.037936192 0.65300006
-0.067060955 0.038760003 0.64600003
-0.065626673 0.038640004 0.64400005
-0.064200006 0.038520001 0.64200002
-0.06268286 0.038340002 0.63900006
-0.061369527 0.038280003 0.63800001
-0.059965719 0.038160004 0.63600004
-0.058661908 0.038100004 0.63500005
-0.057361908 0.038040001 0.634
-0.056154288 0.038040001 0.634
-0.054340005 0.037620004 0.62700003
-0.053145718 0.037620004 0.62700003
-0.051951431 0.037620004 0.62700003
-0.050676193 0.037560001 0.62600005
-0.049246669 0.037380002 0.62300003
-0.04798286 0.037320003 0.62200004
-0.046647623 0.037200004 0.62
-0.045320004 0.037080001 0.61800003
-0.044071432 0.037020002 0.61700004
-0.042826671 0.036960002 0.61600006
-0.041653335 0.036960002 0.61600006
-0.040348575 0.036840003 0.61400002
-0.039051432 0.036720004 0.61200005
-0.037576191 0.036420003 0.60700005
-0.036420003 0.036420003 0.60700005
-0.035205718 0.036360003 0.60600001
-0.034051429 0.036360003 0.60600001
-0.032897145 0.036360003 0.60600001
-0.03174286 0.036360003 0.60600001
-0.030588573 0.036360003 0.60600001
-0.029434288 0.036360003 0.60600001
-0.028186668 0.036240004 0.60400003
-0.027036192 0.036240004 0.60400003
-0.025885716 0.036240004 0.60400003
-0.024776192 0.036300004 0.60500002
-0.023623811 0.036300004 0.60500002
-0.02247143 0.036300004 0.60500002
-0.021354288 0.036360003 0.60600001
-0.020233335 0.036420003 0.60700005
-0.019108573 0.036480002 0.60800004
-0.017980002 0.036540002 0.60900003
-0.016875239 0.036660001 0.611
-0.015762858 0.036780003 0.61300004
-0.014619049 0.036840003 0.61400002
-0.013493334 0.036960002 0.61600006
-0.012360001 0.037080001 0.61800003
-0.011200953 0.037140001 0.61900002
-0.010038096 0.037200004 0.62
-0.0088857152 0.037320003 0.62200004
-0.0077133337 0.037380002 0.62300003
-0.0065371431 0.037440002 0.62400001
-0.0053657144 0.037560001 0.62600005
-0.0041800002 0.037620004 0.62700003
-0.0029857145 0.037620004 0.62700003
-0.001797143 0.037740003 0.62900001
-0.00060285721 0.037980001 0.63300002
0.00060476194 0.038100004 0.63500005
0.0018171429 0.038160004 0.63600004
0.0030428574 0.038340002 0.63900006
0.0042666672 0.038400002 0.64000005
0.0054942863 0.038460001 0.64100003
0.0067152386 0.038460001 0.64100003
0.0079485718 0.038520001 0.64200002
0.0092142867 0.038700003 0.64500004
0.01052381 0.039000001 0.65000004
0.011798096 0.039120004 0.65200001
0.013060001 0.039180003 0.65300006
0.01434762 0.039300002 0.65500003
0.015595239 0.039300002 0.65500003
0.016842859 0.039300002 0.65500003
0.018090477 0.039300002 0.65500003
-0.064100005 0.039680954 0.64100003
-0.06268286 0.039557144 0.63900006
-0.061369527 0.039495241 0.63800001
-0.059965719 0.039371431 0.63600004
-0.058661908 0.039309528 0.63500005
-0.057361908 0.039247621 0.634
-0.05606572 0.039185718 0.63300002
-0.054340005 0.038814288 0.62700003
-0.053145718 0.038814288 0.62700003
-0.051951431 0.038814288 0.62700003
-0.050676193 0.038752384 0.62600005
-0.049404766 0.038690478 0.625
-0.04798286 0.038504764 0.62200004
-0.046798099 0.038504764 0.62200004
-0.045393337 0.038319051 0.61900002
-0.044071432 0.038195241 0.61700004
-0.042896193 0.038195241 0.61700004
-0.041653335 0.038133334 0.61600006
-0.040348575 0.038009528 0.61400002
-0.039051432 0.037885718 0.61200005
-0.037638098 0.037638098 0.60800004
-0.036420003 0.037576191 0.60700005
-0.035205718 0.037514288 0.60600001
-0.034051429 0.037514288 0.60600001
-0.032897145 0.037514288 0.60600001
-0.03174286 0.037514288 0.60600001
-0.030588573 0.037514288 0.60600001
-0.029434288 0.037514288 0.60600001
-0.028186668 0.037390478 0.60400003
-0.027080955 0.037452385 0.60500002
-0.025928574 0.037452385 0.60500002
-0.024817144 0.037514288 0.60600001
-0.023623811 0.037452385 0.60500002
-0.02247143 0.037452385 0.60500002
-0.021354288 0.037514288 0.60600001
-0.020233335 0.037576191 0.60700005
-0.019108573 0.037638098 0.60800004
-0.01803905 0.037823811 0.611
-0.016902858 0.037885718 0.61200005
-0.015814288 0.038071431 0.61500001
-0.014666667 0.038133334 0.61600006
-0.013537143 0.038257144 0.61800003
-0.012380001 0.038319051 0.61900002
-0.011200953 0.038319051 0.61900002
-0.010038096 0.038380954 0.62
-0.0089000007 0.038566668 0.62300003
-0.0077257147 0.038628574 0.62400001
-0.0065371431 0.038628574 0.62400001
-0.0053657144 0.038752384 0.62600005
-0.0041800002 0.038814288 0.62700003
-0.0029857145 0.038814288 0.62700003
-0.001797143 0.038938098 0.62900001
-0.00060285721 0.039185718 0.63300002
0.00060571433 0.039371431 0.63600004
0.0018257144 0.039557144 0.63900006
0.0030523811 0.039680954 0.64100003
0.0042733336 0.039680954 0.64100003
0.0055028577 0.039742861 0.64200002
0.006746667 0.039866671 0.64400005
0.0079733338 0.039866671 0.64400005
0.0092285722 0.039990477 0.64600003
0.010556191 0.040361907 0.65200001
0.011816191 0.04042381 0.65300006
0.013060001 0.04042381 0.65300006
0.01434762 0.040547621 0.65500003
0.015619049 0.040609527 0.65600002
0.016842859 0.040547621 0.65500003
0.018090477 0.040547621 0.65500003
0.019338097 0.040547621 0.65500003
-0.065626673 0.041093335 0.64400005
-0.064200006 0.040965717 0.64200002
-0.062780954 0.040838096 0.64000005
-0.061658099 0.040901907 0.64100003
-0.059965719 0.040582858 0.63600004
-0.058661908 0.040519051 0.63500005
-0.057361908 0.040455241 0.634
-0.05606572 0.04039143 0.63300002
-0.05442667 0.040072385 0.62800002
-0.053145718 0.040008575 0.62700003
-0.051868577 0.039944764 0.62600005
-0.050676193 0.039944764 0.62600005
-0.049325716 0.039817147 0.62400001
-0.048060004 0.039753336 0.62300003
-0.046873335 0.039753336 0.62300003
-0.045466669 0.039561909 0.62
-0.044142861 0.039434288 0.61800003
-0.042896193 0.039370477 0.61700004
-0.041653335 0.03930667 0.61600006
-0.040348575 0.039179049 0.61400002
-0.039051432 0.039051432 0.61200005
-0.037700001 0.038860004 0.60900003
-0.036480002 0.038796194 0.60800004
-0.03526381 0.038732383 0.60700005
-0.034107622 0.038732383 0.60700005
-0.032951429 0.038732383 0.60700005
-0.03174286 0.038668573 0.60600001
-0.030639051 0.038732383 0.60700005
-0.029434288 0.038668573 0.60600001
-0.028233334 0.038604766 0.60500002
-0.027080955 0.038604766 0.60500002
-0.025928574 0.038604766 0.60500002
-0.024817144 0.038668573 0.60600001
-0.023623811 0.038604766 0.60500002
-0.022508573 0.038668573 0.60600001
-0.021389525 0.038732383 0.60700005
-0.020233335 0.038732383 0.60700005
-0.019108573 0.038796194 0.60800004
-0.01803905 0.038987622 0.611
-0.016930478 0.039115239 0.61300004
-0.015840001 0.03930667 0.61600006
-0.014714287 0.039434288 0.61800003
-0.013537143 0.039434288 0.61800003
-0.012380001 0.039498098 0.61900002
-0.011219048 0.039561909 0.62
-0.010038096 0.039561909 0.62
-0.0089000007 0.039753336 0.62300003
-0.0077257147 0.039817147 0.62400001
-0.0065371431 0.039817147 0.62400001
-0.0053657144 0.039944764 0.62600005
-0.0041800002 0.040008575 0.62700003
-0.0029904763 0.040072385 0.62800002
-0.001797143 0.040136192 0.62900001
-0.00060380955 0.040455241 0.634
0.00060761906 0.040710479 0.63800001
0.0018285715 0.040838096 0.64000005
0.0030523811 0.040901907 0.64100003
0.0042800005 0.040965717 0.64200002
0.0055200006 0.041093335 0.64400005
0.006746667 0.041093335 0.64400005
0.0079857148 0.041157145 0.64500004
0.009300001 0.041540004 0.65100002
0.010556191 0.041603811 0.65200001
0.011816191 0.041667622 0.65300006
0.013060001 0.041667622 0.65300006
0.01434762 0.041795243 0.65500003
0.015595239 0.041795243 0.65500003
0.016842859 0.041795243 0.65500003
0.018090477 0.041795243 0.65500003
0.019249525 0.041603811 0.65200001
-0.064200006 0.042188574 0.64200002
-0.062780954 0.042057145 0.64000005
-0.061658099 0.04212286 0.64100003
-0.060154289 0.041925717 0.63800001
-0.058661908 0.041728575 0.63500005
-0.057361908 0.041662861 0.634
-0.05606572 0.041597147 0.63300002
-0.05442667 0.041268576 0.62800002
-0.053145718 0.041202858 0.62700003
-0.051868577 0.041137144 0.62600005
-0.050676193 0.041137144 0.62600005
-0.049404766 0.04107143 0.625
-0.048060004 0.040940002 0.62300003
-0.046873335 0.040940002 0.62300003
-0.045613337 0.040874287 0.62200004
-0.044285718 0.040742859 0.62
-0.043035243 0.040677145 0.61900002
-0.041720957 0.040545717 0.61700004
-0.040348575 0.040348575 0.61400002
-0.039051432 0.040217146 0.61200005
-0.037700001 0.040020004 0.60900003
-0.036480002 0.03995429 0.60800004
-0.035321906 0.03995429 0.60800004
-0.034107622 0.039888576 0.60700005
-0.032951429 0.039888576 0.60700005
-0.031795241 0.039888576 0.60700005
-0.030588573 0.039822862 0.60600001
-0.029434288 0.039822862 0.60600001
-0.028233334 0.039757144 0.60500002
-0.027080955 0.039757144 0.60500002
-0.025928574 0.039757144 0.60500002
-0.024817144 0.039822862 0.60600001
-0.02366286 0.039822862 0.60600001
-0.022508573 0.039822862 0.60600001
-0.021389525 0.039888576 0.60700005
-0.020266669 0.03995429 0.60800004
-0.019140001 0.040020004 0.60900003
-0.018068573 0.040217146 0.61200005
-0.016958097 0.040348575 0.61400002
-0.015891429 0.040611431 0.61800003
-0.014714287 0.040611431 0.61800003
-0.013559048 0.040677145 0.61900002
-0.012380001 0.040677145 0.61900002
-0.011219048 0.040742859 0.62
-0.010070477 0.040874287 0.62200004
-0.0089000007 0.040940002 0.62300003
-0.0077257147 0.041005716 0.62400001
-0.0065476196 0.04107143 0.625
-0.0053657144 0.041137144 0.62600005
-0.004186667 0.041268576 0.62800002
-0.0029952384 0.04133429 0.62900001
-0.001797143 0.04133429 0.62900001
-0.00060571433 0.041794289 0.63600004
0.00060857146 0.041991431 0.63900006
0.0018285715 0.042057145 0.64000005
0.003057143 0.042188574 0.64200002
0.0042800005 0.042188574 0.64200002
0.0055200006 0.042320002 0.64400005
0.0067571434 0.042385716 0.64500004
0.0079980958 0.04245143 0.64600003
0.009300001 0.042780004 0.65100002
0.010556191 0.042845719 0.65200001
0.011816191 0.042911433 0.65300006
0.013060001 0.042911433 0.65300006
0.01434762 0.043042861 0.65500003
0.015619049 0.043108575 0.65600002
0.016868573 0.043108575 0.65600002
0.018090477 0.043042861 0.65500003
0.01927905 0.042911433 0.65300006
-0.064200006 0.04341143 0.64200002
-0.062879048 0.043343812 0.64100003
-0.061658099 0.043343812 0.64100003
-0.060154289 0.043140955 0.63800001
-0.058661908 0.042938098 0.63500005
-0.057361908 0.042870481 0.634
-0.056154288 0.042870481 0.634
-0.054340005 0.042397145 0.62700003
-0.053145718 0.042397145 0.62700003
-0.051868577 0.042329527 0.62600005
-0.050676193 0.042329527 0.62600005
-0.049404766 0.042261906 0.625
-0.048137147 0.042194288 0.62400001
-0.046873335 0.04212667 0.62300003
-0.045613337 0.042059049 0.62200004
-0.044285718 0.041923814 0.62
-0.043104764 0.041923814 0.62
-0.041788574 0.041788574 0.61800003
-0.040414289 0.041585717 0.61500001
-0.039115239 0.041450478 0.61300004
-0.037700001 0.041180003 0.60900003
-0.036540002 0.041180003 0.60900003
-0.035321906 0.041112382 0.60800004
-0.03416381 0.041112382 0.60800004
-0.033005718 0.041112382 0.60800004
-0.031795241 0.041044764 0.60700005
-0.030639051 0.041044764 0.60700005
-0.029482858 0.041044764 0.60700005
-0.028280001 0.040977146 0.60600001
-0.027125716 0.040977146 0.60600001
-0.025971429 0.040977146 0.60600001
-0.024817144 0.040977146 0.60600001
-0.02366286 0.040977146 0.60600001
-0.022545716 0.041044764 0.60700005
-0.021424763 0.041112382 0.60800004
-0.020300001 0.041180003 0.60900003
-0.019202858 0.041315243 0.611
-0.018098097 0.041450478 0.61300004
-0.016985716 0.041585717 0.61500001
-0.015865715 0.041720957 0.61700004
-0.014714287 0.041788574 0.61800003
-0.013559048 0.041856192 0.61900002
-0.0124 0.041923814 0.62
-0.011255239 0.042059049 0.62200004
-0.010086668 0.04212667 0.62300003
-0.0089142863 0.042194288 0.62400001
-0.0077380957 0.042261906 0.625
-0.0065476196 0.042261906 0.625
-0.0053742859 0.042397145 0.62700003
-0.0041933334 0.042532384 0.62900001
-0.0030047621 0.042667624 0.63100004
-0.0018028573 0.042667624 0.63100004
-0.00060571433 0.043005716 0.63600004
0.00060857146 0.043208573 0.63900006
0.0018314287 0.043343812 0.64100003
0.003057143 0.04341143 0.64200002
0.0042933337 0.043546669 0.64400005
0.005528572 0.043614287 0.64500004
0.0067676194 0.043681908 0.64600003
0.0080104768 0.043749526 0.64700001
0.009300001 0.044020005 0.65100002
0.010556191 0.044087622 0.65200001
0.011816191 0.04415524 0.65300006
0.013100001 0.044290479 0.65500003
0.014369525 0.044358097 0.65600002
0.015642859 0.044425718 0.65700001
0.016894286 0.044425718 0.65700001
0.018145716 0.044425718 0.65700001
0.019397143 0.044425718 0.65700001
-0.062879048 0.044564765 0.64100003
-0.061658099 0.044564765 0.64100003
-0.060342859 0.04449524 0.64000005
-0.059123814 0.04449524 0.64000005
-0.057361908 0.044078097 0.634
-0.056154288 0.044078097 0.634
-0.054340005 0.043591432 0.62700003
-0.053145718 0.043591432 0.62700003
-0.051868577 0.043521907 0.62600005
-0.050676193 0.043521907 0.62600005
-0.049404766 0.043452382 0.625
-0.048137147 0.043382861 0.62400001
-0.046873335 0.043313336 0.62300003
-0.045613337 0.043243811 0.62200004
-0.044428576 0.043243811 0.62200004
-0.043035243 0.043035243 0.61900002
-0.041788574 0.042965718 0.61800003
-0.040480003 0.042826671 0.61600006
-0.039179049 0.042687621 0.61400002
-0.037947621 0.0426181 0.61300004
-0.036660001 0.042479049 0.611
-0.035380002 0.042340003 0.60900003
-0.03416381 0.042270478 0.60800004
-0.033005718 0.042270478 0.60800004
-0.031795241 0.042200956 0.60700005
-0.030639051 0.042200956 0.60700005
-0.029482858 0.042200956 0.60700005
-0.028280001 0.042131431 0.60600001
-0.027125716 0.042131431 0.60600001
-0.025971429 0.042131431 0.60600001
-0.024858097 0.042200956 0.60700005
-0.023701906 0.042200956 0.60700005
-0.022545716 0.042200956 0.60700005
-0.021424763 0.042270478 0.60800004
-0.020366669 0.042479049 0.611
-0.019234287 0.042548575 0.61200005
-0.01812762 0.042687621 0.61400002
-0.017013334 0.042826671 0.61600006
-0.015891429 0.042965718 0.61800003
-0.014738096 0.043035243 0.61900002
-0.013580954 0.043104764 0.62
-0.012440001 0.043243811 0.62200004
-0.011273334 0.043313336 0.62300003
-0.010102858 0.043382861 0.62400001
-0.0089142863 0.043382861 0.62400001
-0.0077380957 0.043452382 0.625
-0.0065580956 0.043521907 0.62600005
-0.0053742859 0.043591432 0.62700003
-0.0041933334 0.043730479 0.62900001
-0.0030047621 0.043869525 0.63100004
-0.0018028573 0.043869525 0.63100004
-0.00060476194 0.044147622 0.63500005
0.00061047624 0.044564765 0.64100003
0.0018342858 0.04463429 0.64200002
0.0030666669 0.044773336 0.64400005
0.0042933337 0.044773336 0.64400005
0.005528572 0.044842862 0.64500004
0.0067676194 0.044912383 0.64600003
0.0080104768 0.044981908 0.64700001
0.009300001 0.045260005 0.65100002
0.010572381 0.045399051 0.65300006
0.011816191 0.045399051 0.65300006
0.013100001 0.045538098 0.65500003
0.014413334 0.045746669 0.65800005
0.015666667 0.045746669 0.65800005
0.01697143 0.045885716 0.66000003
-0.06175429 0.045857146 0.64200002
-0.060531434 0.045857146 0.64200002
-0.059216194 0.045785718 0.64100003
-0.057904765 0.045714289 0.64000005
-0.056331433 0.045428574 0.63600004
-0.055033337 0.045357145 0.63500005
-0.053739052 0.045285717 0.634
-0.051951431 0.044785716 0.62700003
-0.050676193 0.044714287 0.62600005
-0.049483813 0.044714287 0.62600005
-0.048137147 0.044571433 0.62400001
-0.046873335 0.044500005 0.62300003
-0.04568667 0.044500005 0.62300003
-0.044285718 0.044285718 0.62
-0.043035243 0.04421429 0.61900002
-0.041788574 0.044142861 0.61800003
-0.040545717 0.044071432 0.61700004
-0.03930667 0.044000003 0.61600006
-0.038071431 0.043928575 0.61500001
-0.036840003 0.043857146 0.61400002
-0.03555429 0.043714289 0.61200005
-0.034332383 0.04364286 0.611
-0.033168573 0.04364286 0.611
-0.031900004 0.043500002 0.60900003
-0.030740002 0.043500002 0.60900003
-0.02953143 0.043428574 0.60800004
-0.028326668 0.043357145 0.60700005
-0.027170477 0.043357145 0.60700005
-0.026014287 0.043357145 0.60700005
-0.024899049 0.043428574 0.60800004
-0.023740955 0.043428574 0.60800004
-0.022582859 0.043428574 0.60800004
-0.021530477 0.04364286 0.611
-0.020400001 0.043714289 0.61200005
-0.019328572 0.043928575 0.61500001
-0.018186668 0.044000003 0.61600006
-0.017068572 0.044142861 0.61800003
-0.015917145 0.04421429 0.61900002
-0.014761906 0.044285718 0.62
-0.013624763 0.044428576 0.62200004
-0.012460001 0.044500005 0.62300003
-0.011291429 0.044571433 0.62400001
-0.010119048 0.044642862 0.625
-0.0089285718 0.044642862 0.625
-0.0077504767 0.044714287 0.62600005
-0.006568572 0.044785716 0.62700003
-0.0053828573 0.044857144 0.62800002
-0.0041933334 0.044928573 0.62900001
-0.003009524 0.045142859 0.63200003
-0.0018085715 0.045214288 0.63300002
-0.00060571433 0.045428574 0.63600004
0.0018400002 0.046000004 0.64400005
0.0030714287 0.046071433 0.64500004
0.004306667 0.046142861 0.64600003
0.0055457149 0.04621429 0.64700001
0.0067885718 0.046285719 0.648
0.0080476198 0.046428576 0.65000004
0.0093142865 0.04657143 0.65200001
0.010572381 0.046642859 0.65300006
0.011852382 0.046785716 0.65500003
0.013160001 0.047000002 0.65800005
0.014457144 0.04714286 0.66000003
0.015738096 0.047214288 0.66100001
0.017022857 0.047285717 0.66200006
-0.058754291 0.046640001 0.63600004
-0.057542861 0.046640001 0.63600004
-0.056331433 0.046640001 0.63600004
-0.055120002 0.046640001 0.63600004
-0.053823814 0.046566669 0.63500005
-0.051868577 0.04590667 0.62600005
-0.050676193 0.04590667 0.62600005
-0.049483813 0.04590667 0.62600005
-0.048137147 0.045760002 0.62400001
-0.046873335 0.04568667 0.62300003
-0.04568667 0.04568667 0.62300003
-0.044428576 0.045613337 0.62200004
-0.043035243 0.045393337 0.61900002
-0.041788574 0.045320004 0.61800003
-0.040545717 0.045246668 0.61700004
-0.03930667 0.045173336 0.61600006
-0.038133334 0.045173336 0.61600006
-0.036900003 0.045100003 0.61500001
-0.035612382 0.044953335 0.61300004
-0.034388572 0.044880003 0.61200005
-0.033168573 0.04480667 0.611
-0.032004762 0.04480667 0.611
-0.030740002 0.044660002 0.60900003
-0.02953143 0.04458667 0.60800004
-0.028373335 0.04458667 0.60800004
-0.027215241 0.04458667 0.60800004
-0.026057145 0.04458667 0.60800004
-0.024899049 0.04458667 0.60800004
-0.023740955 0.04458667 0.60800004
-0.022582859 0.04458667 0.60800004
-0.021530477 0.04480667 0.611
-0.020466669 0.045026671 0.61400002
-0.019360002 0.045173336 0.61600006
-0.018216191 0.045246668 0.61700004
-0.017068572 0.045320004 0.61800003
-0.015917145 0.045393337 0.61900002
-0.014761906 0.045466669 0.62
-0.013624763 0.045613337 0.62200004
-0.012460001 0.04568667 0.62300003
-0.011291429 0.045760002 0.62400001
-0.010119048 0.045833338 0.625
-0.0089428574 0.04590667 0.62600005
-0.0077628577 0.045980003 0.62700003
-0.006579048 0.046053335 0.62800002
-0.0053914287 0.046126671 0.62900001
-0.0041933334 0.046126671 0.62900001
-0.003009524 0.046346668 0.63200003
-0.0018142859 0.046566669 0.63500005
0.00061142864 0.047080003 0.64200002
0.0018400002 0.047226671 0.64400005
0.0030714287 0.047300003 0.64500004
0.004306667 0.047373336 0.64600003
0.0055457149 0.047446668 0.64700001
0.0067885718 0.047520004 0.648
0.0080476198 0.047666669 0.65000004
0.0093142865 0.047813337 0.65200001
0.010572381 0.04788667 0.65300006
0.011870477 0.04810667 0.65600002
0.013160001 0.048253335 0.65800005
0.014479049 0.048473336 0.66100001
0.015785715 0.048620004 0.66300005
-0.060437147 0.048227623 0.64100003
-0.059123814 0.048152383 0.64000005
-0.057723813 0.048001908 0.63800001
-0.056331433 0.047851432 0.63600004
-0.055033337 0.047776192 0.63500005
-0.053823814 0.047776192 0.63500005
-0.052531432 0.047700956 0.634
-0.050676193 0.04709905 0.62600005
-0.049483813 0.04709905 0.62600005
-0.04821429 0.047023814 0.625
-0.046873335 0.046873335 0.62300003
-0.045613337 0.046798099 0.62200004
-0.044285718 0.046647623 0.62
-0.043035243 0.046572383 0.61900002
-0.041788574 0.046497148 0.61800003
-0.040545717 0.046421908 0.61700004
-0.039370477 0.046421908 0.61700004
-0.038133334 0.046346668 0.61600006
-0.036960002 0.046346668 0.61600006
-0.035612382 0.046120957 0.61300004
-0.034388572 0.046045717 0.61200005
-0.033222858 0.046045717 0.61200005
-0.032004762 0.045970481 0.611
-0.030840954 0.045970481 0.611
-0.029580003 0.045820002 0.60900003
-0.028373335 0.045744766 0.60800004
-0.027215241 0.045744766 0.60800004
-0.026057145 0.045744766 0.60800004
-0.024940001 0.045820002 0.60900003
-0.023780001 0.045820002 0.60900003
-0.022620002 0.045820002 0.60900003
-0.021600954 0.046120957 0.61300004
-0.020500001 0.046271432 0.61500001
-0.019360002 0.046346668 0.61600006
-0.018216191 0.046421908 0.61700004
-0.017068572 0.046497148 0.61800003
-0.015942859 0.046647623 0.62
-0.014809525 0.046798099 0.62200004
-0.013646668 0.046873335 0.62300003
-0.012480001 0.046948574 0.62400001
-0.011309525 0.047023814 0.625
-0.010135239 0.04709905 0.62600005
-0.0089571439 0.04717429 0.62700003
-0.0077752387 0.047249526 0.62800002
-0.0065895244 0.047324765 0.62900001
-0.0053914287 0.047324765 0.62900001
-0.0042066667 0.047475241 0.63100004
-0.003009524 0.047550481 0.63200003
-0.0018171429 0.047851432 0.63600004
0.00061047624 0.048227623 0.64100003
0.0018400002 0.048453335 0.64400005
0.0030761906 0.048603814 0.64600003
0.0043133334 0.04867905 0.64700001
0.0055542863 0.04875429 0.648
0.0067885718 0.04875429 0.648
0.0080476198 0.048904765 0.65000004
0.0093142865 0.049055241 0.65200001
0.010572381 0.049130481 0.65300006
0.011888572 0.049431432 0.65700001
0.013240001 0.049807623 0.66200006
0.014522858 0.049882859 0.66300005
0.015857143 0.050108574 0.66600001
-0.060437147 0.049448576 0.64100003
-0.059123814 0.049371433 0.64000005
-0.057723813 0.049217146 0.63800001
-0.056508575 0.049217146 0.63800001
-0.055120002 0.049062859 0.63600004
-0.053823814 0.048985716 0.63500005
-0.052531432 0.048908576 0.634
-0.051323812 0.048908576 0.634
-0.050116193 0.048908576 0.634
-0.048137147 0.048137147 0.62400001
-0.046948574 0.048137147 0.62400001
-0.04568667 0.048060004 0.62300003
-0.044428576 0.04798286 0.62200004
-0.043104764 0.047828574 0.62
-0.041856192 0.04775143 0.61900002
-0.040611431 0.047674287 0.61800003
-0.039370477 0.047597148 0.61700004
-0.038195241 0.047597148 0.61700004
-0.036960002 0.047520004 0.61600006
-0.035670478 0.047365718 0.61400002
-0.034444764 0.047288574 0.61300004
-0.033277147 0.047288574 0.61300004
-0.032057144 0.047211431 0.61200005
-0.030891431 0.047211431 0.61200005
-0.029677145 0.047134288 0.611
-0.028420001 0.046980005 0.60900003
-0.027260002 0.046980005 0.60900003
-0.026100002 0.046980005 0.60900003
-0.025021907 0.047134288 0.611
-0.023780001 0.046980005 0.60900003
-0.022694288 0.047134288 0.611
-0.021600954 0.047288574 0.61300004
-0.020500001 0.047442861 0.61500001
-0.019360002 0.047520004 0.61600006
-0.018216191 0.047597148 0.61700004
-0.017096192 0.04775143 0.61900002
-0.015942859 0.047828574 0.62
-0.014809525 0.04798286 0.62200004
-0.013646668 0.048060004 0.62300003
-0.012480001 0.048137147 0.62400001
-0.011309525 0.04821429 0.625
-0.010135239 0.048291434 0.62600005
-0.0089571439 0.048368573 0.62700003
-0.0077752387 0.048445717 0.62800002
-0.0065895244 0.04852286 0.62900001
-0.0053914287 0.04852286 0.62900001
-0.0042066667 0.048677146 0.63100004
-0.0030142858 0.048831433 0.63300002
-0.00060857146 0.049294289 0.63900006
0.00061333337 0.049680002 0.64400005
0.0018428572 0.049757145 0.64500004
0.0030809527 0.049911432 0.64700001
0.0043200003 0.049988575 0.648
0.0055714292 0.050142862 0.65000004
0.0068095243 0.050142862 0.65000004
0.0080600008 0.050220001 0.65100002
0.0093142865 0.050297145 0.65200001
0.010620954 0.050605718 0.65600002
0.011942858 0.050914288 0.66000003
0.013240001 0.051068574 0.66200006
0.014522858 0.051145718 0.66300005
0.015833335 0.051300004 0.66500002
0.017125715 0.051377147 0.66600001
0.018394288 0.051377147 0.66600001
-0.060342859 0.050590478 0.64000005
-0.059123814 0.050590478 0.64000005
-0.057814289 0.050511431 0.63900006
-0.056508575 0.050432384 0.63800001
-0.055120002 0.05027429 0.63600004
-0.053908575 0.05027429 0.63600004
-0.05261429 0.050195243 0.63500005
-0.051404767 0.050195243 0.63500005
-0.049958099 0.049958099 0.63200003
-0.04821429 0.049404766 0.625
-0.047023814 0.049404766 0.625
-0.045760002 0.049325716 0.62400001
-0.044428576 0.049167622 0.62200004
-0.043104764 0.049009528 0.62
-0.041856192 0.048930481 0.61900002
-0.040611431 0.04885143 0.61800003
-0.039370477 0.048772383 0.61700004
-0.038133334 0.048693337 0.61600006
-0.036960002 0.048693337 0.61600006
-0.035670478 0.048535243 0.61400002
-0.034500953 0.048535243 0.61400002
-0.033277147 0.048456192 0.61300004
-0.032109525 0.048456192 0.61300004
-0.030941907 0.048456192 0.61300004
-0.029725716 0.048377145 0.61200005
-0.028513335 0.048298098 0.611
-0.027349526 0.048298098 0.611
-0.026185716 0.048298098 0.611
-0.025021907 0.048298098 0.611
-0.023858096 0.048298098 0.611
-0.022731431 0.048377145 0.61200005
-0.021600954 0.048456192 0.61300004
-0.020500001 0.04861429 0.61500001
-0.019391431 0.048772383 0.61700004
-0.018216191 0.048772383 0.61700004
-0.017096192 0.048930481 0.61900002
-0.015942859 0.049009528 0.62
-0.014809525 0.049167622 0.62200004
-0.013646668 0.049246669 0.62300003
-0.012480001 0.049325716 0.62400001
-0.01132762 0.049483813 0.62600005
-0.010135239 0.049483813 0.62600005
-0.0089571439 0.04956286 0.62700003
-0.0077752387 0.049641907 0.62800002
-0.0065895244 0.049720954 0.62900001
-0.0054085716 0.049879052 0.63100004
-0.0042066667 0.049879052 0.63100004
-0.0030142858 0.050037146 0.63300002
-0.0018142859 0.050195243 0.63500005
-0.00061142864 0.050748575 0.64200002
0.00061428576 0.050985716 0.64500004
0.0018457144 0.051064767 0.64600003
0.0030809527 0.051143814 0.64700001
0.0043200003 0.051222861 0.648
0.0055714292 0.051380955 0.65000004
0.0068095243 0.051380955 0.65000004
0.0080600008 0.051460002 0.65100002
0.0093142865 0.051539052 0.65200001
0.010604762 0.051776193 0.65500003
0.011942858 0.052171431 0.66000003
0.013240001 0.052329529 0.66200006
0.014522858 0.052408576 0.66300005
0.015833335 0.05256667 0.66500002
0.017125715 0.052645717 0.66600001
0.018421905 0.052724764 0.66700006
-0.061946671 0.052133337 0.64400005
-0.060531434 0.051971432 0.64200002
-0.059123814 0.051809527 0.64000005
-0.057814289 0.051728576 0.63900006
-0.056508575 0.051647622 0.63800001
-0.055120002 0.051485717 0.63600004
-0.053908575 0.051485717 0.63600004
-0.05261429 0.051404767 0.63500005
-0.051242862 0.051242862 0.63300002
-0.049958099 0.051161908 0.63200003
-0.04875429 0.051161908 0.63200003
-0.046948574 0.050514288 0.62400001
-0.045760002 0.050514288 0.62400001
-0.044428576 0.050352383 0.62200004
-0.043104764 0.050190479 0.62
-0.041788574 0.050028574 0.61800003
-0.040611431 0.050028574 0.61800003
-0.039370477 0.049947623 0.61700004
-0.038133334 0.049866669 0.61600006
-0.036960002 0.049866669 0.61600006
-0.035670478 0.049704764 0.61400002
-0.034500953 0.049704764 0.61400002
-0.033331431 0.049704764 0.61400002
-0.032161906 0.049704764 0.61400002
-0.030941907 0.049623813 0.61300004
-0.029774288 0.049623813 0.61300004
-0.028560001 0.049542859 0.61200005
-0.027394287 0.049542859 0.61200005
-0.026228573 0.049542859 0.61200005
-0.025062859 0.049542859 0.61200005
-0.023858096 0.049461909 0.611
-0.022768574 0.049623813 0.61300004
-0.021636192 0.049704764 0.61400002
-0.020533334 0.049866669 0.61600006
-0.019391431 0.049947623 0.61700004
-0.018245716 0.050028574 0.61800003
-0.017096192 0.050109528 0.61900002
-0.015942859 0.050190479 0.62
-0.014809525 0.050352383 0.62200004
-0.013646668 0.050433338 0.62300003
-0.012480001 0.050514288 0.62400001
-0.01132762 0.050676193 0.62600005
-0.010151429 0.050757147 0.62700003
-0.0089714294 0.050838098 0.62800002
-0.0077876197 0.050919052 0.62900001
-0.0066104764 0.051080957 0.63100004
-0.005417143 0.051161908 0.63200003
-0.0042200005 0.051242862 0.63300002
-0.0030285716 0.051485717 0.63600004
-0.0018257144 0.051728576 0.63900006
-0.00061142864 0.051971432 0.64200002
0.00061428576 0.052214291 0.64500004
0.0018485716 0.052376192 0.64700001
0.0030857145 0.052457146 0.648
0.0043333336 0.052619051 0.65000004
0.0055800006 0.052700002 0.65100002
0.0068304767 0.052780956 0.65200001
0.0080723818 0.052780956 0.65200001
0.0093285721 0.052861907 0.65300006
0.010620954 0.053104766 0.65600002
0.011960953 0.053509526 0.66100001
0.013260001 0.053671431 0.66300005
0.014566667 0.053833336 0.66500002
0.015857143 0.05391429 0.66600001
0.01715143 0.05399524 0.66700006
0.018477144 0.054157145 0.66900003
0.019780954 0.0542381 0.67000002
-0.061946671 0.053360004 0.64400005
-0.060531434 0.053194288 0.64200002
-0.059216194 0.05311143 0.64100003
-0.057904765 0.053028576 0.64000005
-0.056597147 0.052945718 0.63900006
-0.055293337 0.05286286 0.63800001
-0.053908575 0.052697148 0.63600004
-0.05261429 0.05261429 0.63500005
-0.051323812 0.052531432 0.634
-0.050037146 0.052448574 0.63300002
-0.048831433 0.052448574 0.63300002
-0.047625717 0.052448574 0.63300002
-0.045760002 0.051702861 0.62400001
-0.044428576 0.051537145 0.62200004
-0.043104764 0.051371433 0.62
-0.041856192 0.051288575 0.61900002
-0.040611431 0.051205717 0.61800003
-0.039370477 0.051122859 0.61700004
-0.038195241 0.051122859 0.61700004
-0.036960002 0.051040005 0.61600006
-0.035728574 0.050957147 0.61500001
-0.034557145 0.050957147 0.61500001
-0.033385716 0.050957147 0.61500001
-0.032214288 0.050957147 0.61500001
-0.030992383 0.050874289 0.61400002
-0.029774288 0.050791431 0.61300004
-0.028560001 0.050708573 0.61200005
-0.027439049 0.050791431 0.61300004
-0.026271431 0.050791431 0.61300004
-0.025103811 0.050791431 0.61300004
-0.023897145 0.050708573 0.61200005
-0.022768574 0.050791431 0.61300004
-0.021636192 0.050874289 0.61400002
-0.020533334 0.051040005 0.61600006
-0.019391431 0.051122859 0.61700004
-0.018245716 0.051205717 0.61800003
-0.017096192 0.051288575 0.61900002
-0.015942859 0.051371433 0.62
-0.014833334 0.051620003 0.62300003
-0.013668573 0.051702861 0.62400001
-0.012500001 0.051785719 0.625
-0.011345715 0.051951431 0.62700003
-0.010151429 0.051951431 0.62700003
-0.0089714294 0.052034289 0.62800002
-0.0077876197 0.052117147 0.62900001
-0.0066104764 0.052282862 0.63100004
-0.0054257144 0.052448574 0.63300002
-0.0042333337 0.05261429 0.63500005
-0.0030380955 0.05286286 0.63800001
-0.0018314287 0.05311143 0.64100003
-0.00061142864 0.053194288 0.64200002
0.00061428576 0.053442862 0.64500004
0.0018485716 0.053608574 0.64700001
0.0030857145 0.053691432 0.648
0.0043333336 0.053857148 0.65000004
0.0055800006 0.053940002 0.65100002
0.0068304767 0.05402286 0.65200001
0.0080847628 0.054105718 0.65300006
0.0093571432 0.054271434 0.65500003
0.010620954 0.054354288 0.65600002
0.011942858 0.054685719 0.66000003
0.013240001 0.054851431 0.66200006
0.014566667 0.055100005 0.66500002
0.015857143 0.055182859 0.66600001
0.01715143 0.055265717 0.66700006
0.018477144 0.055431433 0.66900003
0.019780954 0.055514291 0.67000002
-0.062042862 0.054671433 0.64500004
-0.060720004 0.054586671 0.64400005
-0.059308574 0.054417148 0.64200002
-0.058085717 0.054417148 0.64200002
-0.05668572 0.054247621 0.64000005
-0.055380005 0.05416286 0.63900006
-0.05416286 0.05416286 0.63900006
-0.05286286 0.054078098 0.63800001
-0.051404767 0.053823814 0.63500005
-0.050116193 0.053739052 0.634
-0.048908576 0.053739052 0.634
-0.047700956 0.053739052 0.634
-0.04568667 0.052806672 0.62300003
-0.044500005 0.052806672 0.62300003
-0.043243811 0.052721906 0.62200004
-0.041923814 0.052552383 0.62
-0.040677145 0.052467622 0.61900002
-0.039434288 0.05238286 0.61800003
-0.038195241 0.052298099 0.61700004
-0.037020002 0.052298099 0.61700004
-0.03578667 0.052213337 0.61600006
-0.034613337 0.052213337 0.61600006
-0.033440001 0.052213337 0.61600006
-0.032266669 0.052213337 0.61600006
-0.031093335 0.052213337 0.61600006
-0.02987143 0.052128576 0.61500001
-0.028606668 0.051959053 0.61300004
-0.027439049 0.051959053 0.61300004
-0.026271431 0.051959053 0.61300004
-0.025103811 0.051959053 0.61300004
-0.023897145 0.051874287 0.61200005
-0.022768574 0.051959053 0.61300004
-0.021636192 0.052043814 0.61400002
-0.020533334 0.052213337 0.61600006
-0.019391431 0.052298099 0.61700004
-0.018245716 0.05238286 0.61800003
-0.017123811 0.052552383 0.62
-0.015994286 0.052721906 0.62200004
-0.014833334 0.052806672 0.62300003
-0.013668573 0.052891433 0.62400001
-0.012520001 0.053060956 0.62600005
-0.01136381 0.053230479 0.62800002
-0.01016762 0.053230479 0.62800002
-0.008985715 0.053315241 0.62900001
-0.0078123813 0.053484764 0.63100004
-0.0066209529 0.053569525 0.63200003
-0.0054257144 0.053654291 0.63300002
-0.0042333337 0.053823814 0.63500005
-0.0030428574 0.05416286 0.63900006
-0.0018314287 0.054332383 0.64100003
-0.00061142864 0.054417148 0.64200002
0.00061523815 0.054756194 0.64600003
0.0018485716 0.054840956 0.64700001
0.0030857145 0.054925717 0.648
0.0043400005 0.055180002 0.65100002
0.005588572 0.055264767 0.65200001
0.0068409527 0.055349529 0.65300006
0.0080847628 0.055349529 0.65300006
0.0093571432 0.055519052 0.65500003
0.010620954 0.055603813 0.65600002
0.011942858 0.05594286 0.66000003
0.013240001 0.056112386 0.66200006
0.014566667 0.056366671 0.66500002
0.015833335 0.056366671 0.66500002
0.01715143 0.056536194 0.66700006
0.018477144 0.056705717 0.66900003
-0.062042862 0.055900004 0.64500004
-0.060720004 0.055813339 0.64400005
-0.059493337 0.055813339 0.64400005
-0.058085717 0.055640005 0.64200002
-0.056774288 0.055553336 0.64100003
-0.055466671 0.055466671 0.64000005
-0.05416286 0.055380005 0.63900006
-0.05286286 0.055293337 0.63800001
-0.051404767 0.055033337 0.63500005
-0.050116193 0.054946668 0.634
-0.048908576 0.054946668 0.634
-0.047700956 0.054946668 0.634
-0.044571433 0.054080002 0.62400001
-0.043243811 0.053906672 0.62200004
-0.041923814 0.053733338 0.62
-0.040742859 0.053733338 0.62
-0.039434288 0.053560004 0.61800003
-0.038195241 0.053473338 0.61700004
-0.037020002 0.053473338 0.61700004
-0.035844766 0.053473338 0.61700004
-0.034669526 0.053473338 0.61700004
-0.033494286 0.053473338 0.61700004
-0.032266669 0.05338667 0.61600006
-0.031093335 0.05338667 0.61600006
-0.029920002 0.05338667 0.61600006
-0.028653335 0.053213336 0.61400002
-0.027439049 0.05312667 0.61300004
-0.026271431 0.05312667 0.61300004
-0.025103811 0.05312667 0.61300004
-0.023897145 0.053040005 0.61200005
-0.022805715 0.053213336 0.61400002
-0.021671429 0.053300004 0.61500001
-0.020533334 0.05338667 0.61600006
-0.019422859 0.053560004 0.61800003
-0.018275239 0.053646669 0.61900002
-0.017123811 0.053733338 0.62
-0.015994286 0.053906672 0.62200004
-0.014857144 0.054080002 0.62400001
-0.013690477 0.054166671 0.625
-0.01254 0.054340005 0.62700003
-0.011381906 0.054513335 0.62900001
-0.01018381 0.054513335 0.62900001
-0.0090142861 0.054686669 0.63100004
-0.0078247627 0.054773338 0.63200003
-0.0066314288 0.054860003 0.63300002
-0.0054428573 0.055033337 0.63500005
-0.0042400002 0.055120002 0.63600004
-0.0030428574 0.055380005 0.63900006
-0.0018314287 0.055553336 0.64100003
-0.00061142864 0.055640005 0.64200002
0.00061428576 0.055900004 0.64500004
0.0018485716 0.056073338 0.64700001
0.0030952382 0.056333337 0.65000004
0.0043400005 0.056420002 0.65100002
0.005588572 0.056506671 0.65200001
0.0068409527 0.056593336 0.65300006
0.0081095239 0.05676667 0.65500003
0.0093714288 0.056853335 0.65600002
0.010637144 0.056940004 0.65700001
0.011960953 0.057286669 0.66100001
0.013260001 0.057460003 0.66300005
0.014566667 0.057633337 0.66500002
0.015857143 0.057720006 0.66600001
0.01715143 0.057806671 0.66700006
0.018477144 0.057980005 0.66900003
-0.063271433 0.057128575 0.64500004
-0.061946671 0.057040002 0.64400005
-0.060720004 0.057040002 0.64400005
-0.059493337 0.057040002 0.64400005
-0.058085717 0.056862861 0.64200002
-0.056774288 0.056774288 0.64100003
-0.055466671 0.05668572 0.64000005
-0.05416286 0.056597147 0.63900006
-0.05286286 0.056508575 0.63800001
-0.051404767 0.056242861 0.63500005
-0.050116193 0.056154288 0.634
-0.048831433 0.05606572 0.63300002
-0.047550481 0.055977147 0.63200003
-0.046273336 0.055888575 0.63100004
-0.044714287 0.05544572 0.62600005
-0.043313336 0.055180002 0.62300003
-0.042059049 0.055091433 0.62200004
-0.040742859 0.054914288 0.62
-0.039498098 0.054825719 0.61900002
-0.038257144 0.054737147 0.61800003
-0.037080001 0.054737147 0.61800003
-0.035844766 0.054648574 0.61700004
-0.034669526 0.054648574 0.61700004
-0.033494286 0.054648574 0.61700004
-0.03231905 0.054648574 0.61700004
-0.031093335 0.054560002 0.61600006
-0.029920002 0.054560002 0.61600006
-0.028700002 0.054471433 0.61500001
-0.027483812 0.054382861 0.61400002
-0.026314287 0.054382861 0.61400002
-0.025144763 0.054382861 0.61400002
-0.023936192 0.054294288 0.61300004
-0.022805715 0.054382861 0.61400002
-0.021671429 0.054471433 0.61500001
-0.020533334 0.054560002 0.61600006
-0.019422859 0.054737147 0.61800003
-0.018275239 0.054825719 0.61900002
-0.01717905 0.055091433 0.62200004
-0.015994286 0.055091433 0.62200004
-0.014857144 0.055268575 0.62400001
-0.013690477 0.055357147 0.625
-0.012520001 0.05544572 0.62600005
-0.011381906 0.055711433 0.62900001
-0.010216191 0.055888575 0.63100004
-0.0090285717 0.055977147 0.63200003
-0.0078371437 0.05606572 0.63300002
-0.0066419053 0.056154288 0.634
-0.0054514287 0.056331433 0.63600004
-0.0042533334 0.056508575 0.63800001
-0.0030428574 0.056597147 0.63900006
-0.0018285715 0.05668572 0.64000005
-0.00061142864 0.056862861 0.64200002
0.00061428576 0.057128575 0.64500004
0.001857143 0.057571433 0.65000004
0.0031000001 0.057660002 0.65100002
0.0043466669 0.057748575 0.65200001
0.0055971434 0.057837147 0.65300006
0.0068619051 0.058014289 0.65500003
0.0081095239 0.058014289 0.65500003
0.0093714288 0.058102861 0.65600002
0.010653334 0.058280002 0.65800005
0.011960953 0.05854572 0.66100001
0.013300001 0.058900002 0.66500002
0.014610477 0.059077147 0.66700006
0.015880954 0.059077147 0.66700006
0.017202858 0.059254289 0.66900003
0.018504763 0.059342861 0.67000002
-0.062042862 0.058357146 0.64500004
-0.060814291 0.058357146 0.64500004
-0.059493337 0.05826667 0.64400005
-0.05826667 0.05826667 0.64400005
-0.056774288 0.057995241 0.64100003
-0.055466671 0.057904765 0.64000005
-0.05416286 0.057814289 0.63900006
-0.052945718 0.057814289 0.63900006
-0.051485717 0.057542861 0.63600004
-0.050195243 0.057452384 0.63500005
-0.048908576 0.057361908 0.634
-0.047550481 0.057180956 0.63200003
-0.046273336 0.05709048 0.63100004
-0.044928573 0.056909528 0.62900001
-0.043452382 0.056547623 0.625
-0.042194288 0.056457147 0.62400001
-0.040940002 0.056366671 0.62300003
-0.039689526 0.056276195 0.62200004
-0.038319051 0.056004766 0.61900002
-0.037080001 0.05591429 0.61800003
-0.035902858 0.05591429 0.61800003
-0.034669526 0.055823814 0.61700004
-0.033494286 0.055823814 0.61700004
-0.03231905 0.055823814 0.61700004
-0.031143812 0.055823814 0.61700004
-0.029968573 0.055823814 0.61700004
-0.028746668 0.055733338 0.61600006
-0.027573336 0.055733338 0.61600006
-0.026400002 0.055733338 0.61600006
-0.025226668 0.055733338 0.61600006
-0.02397524 0.055552386 0.61400002
-0.022842858 0.055642862 0.61500001
-0.021706669 0.055733338 0.61600006
-0.020600002 0.05591429 0.61800003
-0.019454287 0.056004766 0.61900002
-0.018304763 0.056095243 0.62
-0.017206667 0.056366671 0.62300003
-0.016020002 0.056366671 0.62300003
-0.014857144 0.056457147 0.62400001
-0.013690477 0.056547623 0.625
-0.012580001 0.056909528 0.62900001
-0.011436191 0.057180956 0.63200003
-0.010248573 0.057271432 0.63300002
-0.0090428581 0.057271432 0.63300002
-0.0078495247 0.057361908 0.634
-0.0066523813 0.057452384 0.63500005
-0.0054685716 0.057723813 0.63800001
-0.0042666672 0.057904765 0.64000005
-0.003057143 0.058085717 0.64200002
-0.0018400002 0.05826667 0.64400005
-0.00061333337 0.05826667 0.64400005
0.00061619049 0.058538098 0.64700001
0.0018514286 0.058628574 0.648
0.0031000001 0.058900002 0.65100002
0.0043533337 0.059080955 0.65300006
0.0055971434 0.059080955 0.65300006
0.0068619051 0.059261907 0.65500003
0.0081219049 0.059352383 0.65600002
0.0094000008 0.059533339 0.65800005
0.010701905 0.059804767 0.66100001
0.012033334 0.060166672 0.66500002
0.013320001 0.060257148 0.66600001
0.014610477 0.060347624 0.66700006
0.015928572 0.060528576 0.66900003
0.017202858 0.060528576 0.66900003
0.018504763 0.060619052 0.67000002
0.019780954 0.060619052 0.67000002
-0.072833337 0.061433338 0.66500002
-0.071566671 0.061433338 0.66500002
-0.069982864 0.061156195 0.66200006
-0.062139053 0.0596781 0.64600003
-0.060814291 0.059585717 0.64500004
-0.059493337 0.059493337 0.64400005
-0.058085717 0.059308574 0.64200002
-0.056774288 0.059216194 0.64100003
-0.055466671 0.059123814 0.64000005
-0.05416286 0.059031431 0.63900006
-0.052945718 0.059031431 0.63900006
-0.051485717 0.058754291 0.63600004
-0.050195243 0.058661908 0.63500005
-0.048908576 0.058569528 0.634
-0.047625717 0.058477148 0.63300002
-0.046273336 0.058292385 0.63100004
-0.044928573 0.058107622 0.62900001
-0.043521907 0.057830479 0.62600005
-0.042261906 0.057738099 0.625
-0.040940002 0.057553336 0.62300003
-0.039689526 0.057460956 0.62200004
-0.038380954 0.057276193 0.62
-0.037140001 0.057183813 0.61900002
-0.035960954 0.057183813 0.61900002
-0.034725718 0.057091434 0.61800003
-0.033548575 0.057091434 0.61800003
-0.032371432 0.057091434 0.61800003
-0.031194288 0.057091434 0.61800003
-0.030017145 0.057091434 0.61800003
-0.028793335 0.05699905 0.61700004
-0.027618097 0.05699905 0.61700004
-0.026442859 0.05699905 0.61700004
-0.025226668 0.05690667 0.61600006
-0.024053335 0.05690667 0.61600006
-0.022842858 0.056814291 0.61500001
-0.021706669 0.05690667 0.61600006
-0.020600002 0.057091434 0.61800003
-0.019454287 0.057183813 0.61900002
-0.018304763 0.057276193 0.62
-0.017206667 0.057553336 0.62300003
-0.016020002 0.057553336 0.62300003
-0.014880953 0.057738099 0.625
-0.013712382 0.057830479 0.62600005
-0.012620001 0.058292385 0.63100004
-0.011454286 0.058477148 0.63300002
-0.010248573 0.058477148 0.63300002
-0.0090571437 0.058569528 0.634
-0.0078619057 0.058661908 0.63500005
-0.0066523813 0.058661908 0.63500005
-0.0054685716 0.058939051 0.63800001
-0.0042666672 0.059123814 0.64000005
-0.003057143 0.059308574 0.64200002
-0.0018400002 0.059493337 0.64400005
-0.00061523815 0.0596781 0.64600003
0.00061619049 0.05977048 0.64700001
0.001857143 0.060047623 0.65000004
0.0031047622 0.060232386 0.65200001
0.0043533337 0.060324766 0.65300006
0.0056142863 0.060509529 0.65500003
0.0068723815 0.060601909 0.65600002
0.0081342859 0.060694288 0.65700001
0.0094285719 0.060971431 0.66000003
0.010718096 0.061156195 0.66200006
0.01205143 0.061525717 0.66600001
0.013320001 0.061525717 0.66600001
0.014610477 0.061618101 0.66700006
0.015880954 0.061618101 0.66700006
0.017202858 0.06180286 0.66900003
0.018477144 0.06180286 0.66900003
0.01975143 0.06180286 0.66900003
-0.072833337 0.062700003 0.66500002
-0.071566671 0.062700003 0.66500002
-0.070088573 0.062511429 0.66300005
-0.068721913 0.062417146 0.66200006
-0.067257144 0.062228575 0.66000003
-0.065600008 0.061851434 0.65600002
-0.064252384 0.061757147 0.65500003
-0.062716193 0.06147429 0.65200001
-0.061002862 0.061002862 0.64700001
-0.059585717 0.060814291 0.64500004
-0.05826667 0.060720004 0.64400005
-0.056862861 0.060531434 0.64200002
-0.055466671 0.060342859 0.64000005
-0.054247621 0.060342859 0.64000005
-0.052945718 0.060248576 0.63900006
-0.051485717 0.059965719 0.63600004
-0.050195243 0.059871431 0.63500005
-0.048908576 0.059777148 0.634
-0.047625717 0.059682861 0.63300002
-0.046273336 0.059494291 0.63100004
-0.044928573 0.05930572 0.62900001
-0.043521907 0.059022862 0.62600005
-0.042261906 0.058928575 0.625
-0.041005716 0.058834288 0.62400001
-0.039753336 0.058740005 0.62300003
-0.038504764 0.058645718 0.62200004
-0.037200004 0.058457147 0.62
-0.035960954 0.05836286 0.61900002
-0.034781907 0.05836286 0.61900002
-0.033548575 0.058268577 0.61800003
-0.032371432 0.058268577 0.61800003
-0.031194288 0.058268577 0.61800003
-0.030017145 0.058268577 0.61800003
-0.028840002 0.058268577 0.61800003
-0.027618097 0.05817429 0.61700004
-0.026442859 0.05817429 0.61700004
-0.025267622 0.05817429 0.61700004
-0.024092382 0.05817429 0.61700004
-0.022880001 0.058080003 0.61600006
-0.021741906 0.05817429 0.61700004
-0.020633334 0.05836286 0.61900002
-0.019485716 0.058457147 0.62
-0.018363811 0.058645718 0.62200004
-0.017206667 0.058740005 0.62300003
-0.016045716 0.058834288 0.62400001
-0.014880953 0.058928575 0.625
-0.013690477 0.058928575 0.625
-0.012640001 0.059588574 0.63200003
-0.011454286 0.059682861 0.63300002
-0.010248573 0.059682861 0.63300002
-0.0090571437 0.059777148 0.634
-0.0078619057 0.059871431 0.63500005
-0.0066523813 0.059871431 0.63500005
-0.0054685716 0.060154289 0.63800001
-0.0042666672 0.060342859 0.64000005
-0.0030666669 0.060720004 0.64400005
-0.0018428572 0.060814291 0.64500004
-0.00061619049 0.061002862 0.64700001
0.00061714288 0.061097145 0.648
0.0018600001 0.061380003 0.65100002
0.0031047622 0.06147429 0.65200001
0.004366667 0.061757147 0.65500003
0.0056228577 0.061851434 0.65600002
0.0068723815 0.061851434 0.65600002
0.0081342859 0.061945718 0.65700001
0.0094285719 0.062228575 0.66000003
0.010766667 0.062700003 0.66500002
0.012069524 0.062888578 0.66700006
0.013340001 0.062888578 0.66700006
0.014610477 0.062888578 0.66700006
0.015880954 0.062888578 0.66700006
0.01715143 0.062888578 0.66700006
0.018421905 0.062888578 0.66700006
0.019692382 0.062888578 0.66700006
-0.07294286 0.064062864 0.66600001
-0.071566671 0.063966669 0.66500002
-0.070088573 0.063774288 0.66300005
-0.068618096 0.063581906 0.66100001
-0.067359053 0.063581906 0.66100001
-0.065500006 0.063004769 0.65500003
-0.064252384 0.063004769 0.65500003
-0.062812388 0.062812388 0.65300006
-0.061285719 0.062523812 0.65000004
-0.059585717 0.062042862 0.64500004
-0.05826667 0.061946671 0.64400005
-0.056862861 0.06175429 0.64200002
-0.055553336 0.061658099 0.64100003
-0.054247621 0.061561909 0.64000005
-0.053028576 0.061561909 0.64000005
-0.051728576 0.061465718 0.63900006
-0.050195243 0.061080955 0.63500005
-0.048908576 0.060984764 0.634
-0.047550481 0.060792387 0.63200003
-0.046273336 0.060696196 0.63100004
-0.044928573 0.060503814 0.62900001
-0.043521907 0.060215242 0.62600005
-0.042261906 0.060119051 0.625
-0.04107143 0.060119051 0.625
-0.039753336 0.05992667 0.62300003
-0.038504764 0.059830479 0.62200004
-0.037320003 0.059830479 0.62200004
-0.03601905 0.059638098 0.62
-0.034781907 0.059541907 0.61900002
-0.03360286 0.059541907 0.61900002
-0.032371432 0.059445716 0.61800003
-0.031244764 0.059541907 0.61900002
-0.030017145 0.059445716 0.61800003
-0.028840002 0.059445716 0.61800003
-0.027662858 0.059445716 0.61800003
-0.026485717 0.059445716 0.61800003
-0.025308574 0.059445716 0.61800003
-0.02413143 0.059445716 0.61800003
-0.022880001 0.059253339 0.61600006
-0.021777144 0.059445716 0.61800003
-0.020666668 0.059638098 0.62
-0.019485716 0.059638098 0.62
-0.018363811 0.059830479 0.62200004
-0.017206667 0.05992667 0.62300003
-0.016045716 0.060022861 0.62400001
-0.014880953 0.060119051 0.625
-0.013690477 0.060119051 0.625
-0.01266 0.060888577 0.63300002
-0.011472382 0.060984764 0.634
-0.010264763 0.060984764 0.634
-0.0090714293 0.061080955 0.63500005
-0.0078742858 0.061177146 0.63600004
-0.0066628577 0.061177146 0.63600004
-0.0054685716 0.061369527 0.63800001
-0.0042600003 0.061465718 0.63900006
-0.0030666669 0.061946671 0.64400005
-0.0018428572 0.062042862 0.64500004
-0.00061714288 0.062331434 0.648
0.00062000006 0.062620007 0.65100002
0.0018628573 0.062716193 0.65200001
0.003109524 0.062812388 0.65300006
0.004366667 0.063004769 0.65500003
0.0056228577 0.063100956 0.65600002
0.0068828575 0.063197143 0.65700001
0.0081342859 0.063197143 0.65700001
0.0094428575 0.063581906 0.66100001
0.01205143 0.064062864 0.66600001
0.013340001 0.064159051 0.66700006
0.014610477 0.064159051 0.66700006
0.015928572 0.064351432 0.66900003
0.017202858 0.064351432 0.66900003
0.018477144 0.064351432 0.66900003
0.019692382 0.064159051 0.66700006
-0.072833337 0.065233335 0.66500002
-0.071566671 0.065233335 0.66500002
-0.070088573 0.065037146 0.66300005
-0.068825722 0.065037146 0.66300005
-0.067562863 0.065037146 0.66300005
-0.065300003 0.064056195 0.65300006
-0.064056195 0.064056195 0.65300006
