# .PCD v0.7 - Point Cloud Data file format
VERSION 0.7
FIELDS x y z
SIZE 4 4 4
TYPE F F F
COUNT 1 1 1
WIDTH 1355
HEIGHT 1
VIEWPOINT 0 0 0 1 0 0 0
POINTS 1355
DATA ascii
-0.052133337 0.057040002 0.64400005
-0.050906669 0.057040002 0.64400005
-0.049525719 0.056862861 0.64200002
-0.048302859 0.056862861 0.64200002
-0.047080003 0.056862861 0.64200002
-0.045857146 0.056862861 0.64200002
-0.04463429 0.056862861 0.64200002
-0.043546669 0.057040002 0.64400005
-0.042320002 0.057040002 0.64400005
-0.041093335 0.057040002 0.64400005
-0.039990477 0.057217147 0.64600003
-0.038700003 0.057128575 0.64500004
-0.037529524 0.057217147 0.64600003
-0.03629905 0.057217147 0.64600003
-0.035068575 0.057217147 0.64600003
-0.091280006 0.058990479 0.65200001
-0.086882859 0.058538098 0.64700001
-0.085650481 0.058538098 0.64700001
-0.084026672 0.05826667 0.64400005
-0.082928576 0.058357146 0.64500004
-0.081700005 0.058357146 0.64500004
-0.080596194 0.058447622 0.64600003
-0.079365723 0.058447622 0.64600003
-0.078014292 0.058357146 0.64500004
-0.077023812 0.058538098 0.64700001
-0.075791433 0.058538098 0.64700001
-0.074559055 0.058538098 0.64700001
-0.07332667 0.058538098 0.64700001
-0.072094291 0.058538098 0.64700001
-0.070752382 0.058447622 0.64600003
-0.069521911 0.058447622 0.64600003
-0.068185717 0.058357146 0.64500004
-0.066957146 0.058357146 0.64500004
-0.065626673 0.05826667 0.64400005
-0.064400002 0.05826667 0.64400005
-0.063173339 0.05826667 0.64400005
-0.06175429 0.058085717 0.64200002
-0.060437147 0.057995241 0.64100003
-0.059216194 0.057995241 0.64100003
-0.057995241 0.057995241 0.64100003
-0.056862861 0.058085717 0.64200002
-0.055640005 0.058085717 0.64200002
-0.054417148 0.058085717 0.64200002
-0.053194288 0.058085717 0.64200002
-0.051971432 0.058085717 0.64200002
-0.050748575 0.058085717 0.64200002
-0.049448576 0.057995241 0.64100003
-0.048227623 0.057995241 0.64100003
-0.046933338 0.057904765 0.64000005
-0.045785718 0.057995241 0.64100003
-0.044564765 0.057995241 0.64100003
-0.04341143 0.058085717 0.64200002
-0.042188574 0.058085717 0.64200002
-0.040838096 0.057904765 0.64000005
-0.039619051 0.057904765 0.64000005
-0.038640004 0.05826667 0.64400005
-0.037471432 0.058357146 0.64500004
-0.03629905 0.058447622 0.64600003
-0.035068575 0.058447622 0.64600003
-0.092238098 0.060047623 0.65000004
-0.091000006 0.060047623 0.65000004
-0.08948572 0.05986286 0.648
-0.088115245 0.05977048 0.64700001
-0.086748578 0.0596781 0.64600003
-0.085253336 0.059493337 0.64400005
-0.084026672 0.059493337 0.64400005
-0.082800008 0.059493337 0.64400005
-0.081573337 0.059493337 0.64400005
-0.080346674 0.059493337 0.64400005
-0.079365723 0.0596781 0.64600003
-0.077893339 0.059493337 0.64400005
-0.076904766 0.0596781 0.64600003
-0.075674288 0.0596781 0.64600003
-0.074443817 0.0596781 0.64600003
-0.073213339 0.0596781 0.64600003
-0.07187143 0.059585717 0.64500004
-0.070533335 0.059493337 0.64400005
-0.069414288 0.059585717 0.64500004
-0.068080008 0.059493337 0.64400005
-0.066645719 0.059308574 0.64200002
-0.065422863 0.059308574 0.64200002
-0.064200006 0.059308574 0.64200002
-0.06297715 0.059308574 0.64200002
-0.061658099 0.059216194 0.64100003
-0.060437147 0.059216194 0.64100003
-0.059123814 0.059123814 0.64000005
-0.057904765 0.059123814 0.64000005
-0.056774288 0.059216194 0.64100003
-0.055553336 0.059216194 0.64100003
-0.054247621 0.059123814 0.64000005
-0.053028576 0.059123814 0.64000005
-0.051809527 0.059123814 0.64000005
-0.050590478 0.059123814 0.64000005
-0.049371433 0.059123814 0.64000005
-0.048152383 0.059123814 0.64000005
-0.046860002 0.059031431 0.63900006
-0.04564286 0.059031431 0.63900006
-0.044425718 0.059031431 0.63900006
-0.043276194 0.059123814 0.64000005
-0.041991431 0.059031431 0.63900006
-0.04077429 0.059031431 0.63900006
-0.039495241 0.058939051 0.63800001
-0.038460001 0.059216194 0.64100003
-0.037297145 0.059308574 0.64200002
-0.03629905 0.0596781 0.64600003
-0.035068575 0.0596781 0.64600003
-0.091812387 0.061002862 0.64700001
-0.090580009 0.061002862 0.64700001
-0.089347623 0.061002862 0.64700001
-0.087842859 0.060814291 0.64500004
-0.086614288 0.060814291 0.64500004
-0.085253336 0.060720004 0.64400005
-0.083765723 0.060531434 0.64200002
-0.082542859 0.060531434 0.64200002
-0.081320003 0.060531434 0.64200002
-0.080097146 0.060531434 0.64200002
-0.079120003 0.060720004 0.64400005
-0.077651434 0.060531434 0.64200002
-0.076666668 0.060720004 0.64400005
-0.07555715 0.060814291 0.64500004
-0.074213341 0.060720004 0.64400005
-0.073100008 0.060814291 0.64500004
-0.071537144 0.060531434 0.64200002
-0.070314288 0.060531434 0.64200002
-0.069091432 0.060531434 0.64200002
-0.067868575 0.060531434 0.64200002
-0.06654191 0.060437147 0.64100003
-0.065320954 0.060437147 0.64100003
-0.064100005 0.060437147 0.64100003
-0.062879048 0.060437147 0.64100003
-0.061561909 0.060342859 0.64000005
-0.060248576 0.060248576 0.63900006
-0.059031431 0.060248576 0.63900006
-0.057814289 0.060248576 0.63900006
-0.056597147 0.060248576 0.63900006
-0.055380005 0.060248576 0.63900006
-0.05416286 0.060248576 0.63900006
-0.052945718 0.060248576 0.63900006
-0.051728576 0.060248576 0.63900006
-0.050511431 0.060248576 0.63900006
-0.049294289 0.060248576 0.63900006
-0.048077147 0.060248576 0.63900006
-0.04678667 0.060154289 0.63800001
-0.045571432 0.060154289 0.63800001
-0.044356193 0.060154289 0.63800001
-0.043140955 0.060154289 0.63800001
-0.041925717 0.060154289 0.63800001
-0.040710479 0.060154289 0.63800001
-0.039371431 0.059965719 0.63600004
-0.038280003 0.060154289 0.63800001
-0.094131432 0.062139053 0.64600003
-0.092900962 0.062139053 0.64600003
-0.091670483 0.062139053 0.64600003
-0.090440005 0.062139053 0.64600003
-0.089209527 0.062139053 0.64600003
-0.08770667 0.061946671 0.64400005
-0.086480007 0.061946671 0.64400005
-0.084988579 0.06175429 0.64200002
-0.083765723 0.06175429 0.64200002
-0.082414292 0.061658099 0.64100003
-0.081193335 0.061658099 0.64100003
-0.079972386 0.061658099 0.64100003
-0.07887429 0.06175429 0.64200002
-0.077530481 0.061658099 0.64100003
-0.076190479 0.061561909 0.64000005
-0.075205721 0.06175429 0.64200002
-0.073867626 0.061658099 0.64100003
-0.07264667 0.061658099 0.64100003
-0.07131429 0.061561909 0.64000005
-0.070204765 0.061658099 0.64100003
-0.068983816 0.061658099 0.64100003
-0.067762859 0.061658099 0.64100003
-0.066438101 0.061561909 0.64000005
-0.065117151 0.061465718 0.63900006
-0.063900001 0.061465718 0.63900006
-0.06268286 0.061465718 0.63900006
-0.061465718 0.061465718 0.63900006
-0.060248576 0.061465718 0.63900006
-0.058939051 0.061369527 0.63800001
-0.057723813 0.061369527 0.63800001
-0.056508575 0.061369527 0.63800001
-0.055120002 0.061177146 0.63600004
-0.053908575 0.061177146 0.63600004
-0.052697148 0.061177146 0.63600004
-0.051485717 0.061177146 0.63600004
-0.05027429 0.061177146 0.63600004
-0.048985716 0.061080955 0.63500005
-0.047851432 0.061177146 0.63600004
-0.046640001 0.061177146 0.63600004
-0.045357145 0.061080955 0.63500005
-0.044147622 0.061080955 0.63500005
-0.042938098 0.061080955 0.63500005
-0.041728575 0.061080955 0.63500005
-0.040519051 0.061080955 0.63500005
-0.039309528 0.061080955 0.63500005
-0.095361911 0.063369527 0.64600003
-0.094131432 0.063369527 0.64600003
-0.092900962 0.063369527 0.64600003
-0.091670483 0.063369527 0.64600003
-0.090440005 0.063369527 0.64600003
-0.089071438 0.063271433 0.64500004
-0.087434292 0.06297715 0.64200002
-0.086211435 0.06297715 0.64200002
-0.084856197 0.062879048 0.64100003
-0.083635241 0.062879048 0.64100003
-0.082285717 0.062780954 0.64000005
-0.081066675 0.062780954 0.64000005
-0.079722859 0.06268286 0.63900006
-0.078505717 0.06268286 0.63900006
-0.077167623 0.062584765 0.63800001
-0.075952388 0.062584765 0.63800001
-0.074737146 0.062584765 0.63800001
-0.07363715 0.06268286 0.63900006
-0.07230667 0.062584765 0.63800001
-0.071091436 0.062584765 0.63800001
-0.069985718 0.06268286 0.63900006
-0.068768576 0.06268286 0.63900006
-0.067551434 0.06268286 0.63900006
-0.066230483 0.062584765 0.63800001
-0.065015242 0.062584765 0.63800001
-0.063800007 0.062584765 0.63800001
-0.062388577 0.062388577 0.63600004
-0.061177146 0.062388577 0.63600004
-0.059965719 0.062388577 0.63600004
-0.058754291 0.062388577 0.63600004
-0.057542861 0.062388577 0.63600004
-0.056242861 0.062290478 0.63500005
-0.054946668 0.062192384 0.634
-0.053739052 0.062192384 0.634
-0.052531432 0.062192384 0.634
-0.051323812 0.062192384 0.634
-0.050116193 0.062192384 0.634
-0.048908576 0.062192384 0.634
-0.047700956 0.062192384 0.634
-0.046493337 0.062192384 0.634
-0.045285717 0.062192384 0.634
-0.044008575 0.06209429 0.63300002
-0.042802859 0.06209429 0.63300002
-0.041662861 0.062192384 0.634
-0.040455241 0.062192384 0.634
-0.039185718 0.06209429 0.63300002
-0.096741915 0.064700007 0.64700001
-0.095361911 0.064600006 0.64600003
-0.094131432 0.064600006 0.64600003
-0.092900962 0.064600006 0.64600003
-0.091670483 0.064600006 0.64600003
-0.090440005 0.064600006 0.64600003
-0.089071438 0.064500004 0.64500004
-0.087434292 0.064200006 0.64200002
-0.086077146 0.064100005 0.64100003
-0.084591433 0.063900001 0.63900006
-0.083374292 0.063900001 0.63900006
-0.082028575 0.063800007 0.63800001
-0.080813341 0.063800007 0.63800001
-0.079348579 0.063600004 0.63600004
-0.078014292 0.063500002 0.63500005
-0.076804765 0.063500002 0.63500005
-0.075595245 0.063500002 0.63500005
-0.074385718 0.063500002 0.63500005
-0.073521912 0.063800007 0.63800001
-0.072080001 0.063600004 0.63600004
-0.071091436 0.063800007 0.63800001
-0.069876194 0.063800007 0.63800001
-0.06844572 0.063600004 0.63600004
-0.067234293 0.063600004 0.63600004
-0.065919049 0.063500002 0.63500005
-0.064709529 0.063500002 0.63500005
-0.063500002 0.063500002 0.63500005
-0.062192384 0.063400008 0.634
-0.060984764 0.063400008 0.634
-0.059777148 0.063400008 0.634
-0.058569528 0.063400008 0.634
-0.057361908 0.063400008 0.634
-0.056154288 0.063400008 0.634
-0.054860003 0.063300006 0.63300002
-0.053654291 0.063300006 0.63300002
-0.052448574 0.063300006 0.63300002
-0.051242862 0.063300006 0.63300002
-0.050037146 0.063300006 0.63300002
-0.048831433 0.063300006 0.63300002
-0.047625717 0.063300006 0.63300002
-0.046420004 0.063300006 0.63300002
-0.045142859 0.063200004 0.63200003
-0.04393905 0.063200004 0.63200003
-0.042735241 0.063200004 0.63200003
-0.041531432 0.063200004 0.63200003
-0.040327623 0.063200004 0.63200003
-0.039123811 0.063200004 0.63200003
-0.095361911 0.065830484 0.64600003
-0.094131432 0.065830484 0.64600003
-0.092757151 0.065728575 0.64500004
-0.09152858 0.065728575 0.64500004
-0.090440005 0.065830484 0.64600003
-0.088933341 0.065626673 0.64400005
-0.087298103 0.065320954 0.64100003
-0.085808575 0.065117151 0.63900006
-0.084459051 0.065015242 0.63800001
-0.082982861 0.064811431 0.63600004
-0.081771433 0.064811431 0.63600004
-0.080433339 0.064709529 0.63500005
-0.079223812 0.064709529 0.63500005
-0.077891432 0.06460762 0.634
-0.076804765 0.064709529 0.63500005
-0.075595245 0.064709529 0.63500005
-0.074385718 0.064709529 0.63500005
-0.073291436 0.064811431 0.63600004
-0.07196667 0.064709529 0.63500005
-0.070868574 0.064811431 0.63600004
-0.069657147 0.064811431 0.63600004
-0.068338096 0.064709529 0.63500005
-0.06702286 0.06460762 0.634
-0.065711431 0.064505719 0.63300002
-0.064505719 0.064505719 0.63300002
-0.063300006 0.064505719 0.63300002
-0.061996195 0.064403817 0.63200003
-0.060792387 0.064403817 0.63200003
-0.059588574 0.064403817 0.63200003
-0.058477148 0.064505719 0.63300002
-0.057271432 0.064505719 0.63300002
-0.05606572 0.064505719 0.63300002
-0.054773338 0.064403817 0.63200003
-0.053569525 0.064403817 0.63200003
-0.052365717 0.064403817 0.63200003
-0.051161908 0.064403817 0.63200003
-0.049958099 0.064403817 0.63200003
-0.048677146 0.064301908 0.63100004
-0.047475241 0.064301908 0.63100004
-0.046346668 0.064403817 0.63200003
-0.045071431 0.064301908 0.63100004
-0.043869525 0.064301908 0.63100004
-0.042667624 0.064301908 0.63100004
-0.041465718 0.064301908 0.63100004
-0.040327623 0.064403817 0.63200003
-0.039061908 0.064301908 0.63100004
-0.092613339 0.066853337 0.64400005
-0.088242866 0.066334292 0.63900006
-0.086889528 0.066230483 0.63800001
-0.085405722 0.066022858 0.63600004
-0.084061913 0.065919049 0.63500005
-0.082852386 0.065919049 0.63500005
-0.081642866 0.065919049 0.63500005
-0.080306672 0.06581524 0.634
-0.079099052 0.06581524 0.634
-0.077891432 0.06581524 0.634
-0.076683812 0.06581524 0.634
-0.075476192 0.06581524 0.634
-0.074268579 0.06581524 0.634
-0.07306096 0.06581524 0.634
-0.07185334 0.06581524 0.634
-0.070757151 0.065919049 0.63500005
-0.069547623 0.065919049 0.63500005
-0.06823048 0.06581524 0.634
-0.066917144 0.065711431 0.63300002
-0.065607622 0.065607622 0.63200003
-0.064403817 0.065607622 0.63200003
-0.063200004 0.065607622 0.63200003
-0.061898101 0.065503813 0.63100004
-0.060696196 0.065503813 0.63100004
-0.059494291 0.065503813 0.63100004
-0.058384765 0.065607622 0.63200003
-0.057180956 0.065607622 0.63200003
-0.055977147 0.065607622 0.63200003
-0.054686669 0.065503813 0.63100004
-0.053484764 0.065503813 0.63100004
-0.052282862 0.065503813 0.63100004
-0.051080957 0.065503813 0.63100004
-0.049879052 0.065503813 0.63100004
-0.04852286 0.065296195 0.62900001
-0.047324765 0.065296195 0.62900001
-0.046273336 0.065503813 0.63100004
-0.044928573 0.065296195 0.62900001
-0.043730479 0.065296195 0.62900001
-0.042532384 0.065296195 0.62900001
-0.04133429 0.065296195 0.62900001
-0.26566002 0.082140006 0.77700001
-0.087828577 0.067234293 0.63600004
-0.08648096 0.067128576 0.63500005
-0.085271433 0.067128576 0.63500005
-0.083929531 0.06702286 0.634
-0.082721911 0.06702286 0.634
-0.081514291 0.06702286 0.634
-0.080180004 0.066917144 0.63300002
-0.078974292 0.066917144 0.63300002
-0.077768579 0.066917144 0.63300002
-0.076441906 0.066811435 0.63200003
-0.075238101 0.066811435 0.63200003
-0.074034289 0.066811435 0.63200003
-0.072945721 0.066917144 0.63300002
-0.071740001 0.066917144 0.63300002
-0.070534289 0.066917144 0.63300002
-0.069109529 0.066705719 0.63100004
-0.06801524 0.066811435 0.63200003
-0.066705719 0.066705719 0.63100004
-0.065503813 0.066705719 0.63100004
-0.064301908 0.066705719 0.63100004
-0.063100003 0.066705719 0.63100004
-0.061701909 0.066494294 0.62900001
-0.060503814 0.066494294 0.62900001
-0.05930572 0.066494294 0.62900001
-0.058292385 0.066705719 0.63100004
-0.05709048 0.066705719 0.63100004
-0.055888575 0.066705719 0.63100004
-0.054513335 0.066494294 0.62900001
-0.053484764 0.066705719 0.63100004
-0.052282862 0.066705719 0.63100004
-0.050919052 0.066494294 0.62900001
-0.049720954 0.066494294 0.62900001
-0.04852286 0.066494294 0.62900001
-0.047324765 0.066494294 0.62900001
-0.046126671 0.066494294 0.62900001
-0.044857144 0.066388577 0.62800002
-0.043660954 0.066388577 0.62800002
-0.042464763 0.066388577 0.62800002
-0.087414294 0.068122864 0.63300002
-0.086208574 0.068122864 0.63300002
-0.08486858 0.06801524 0.63200003
-0.083664767 0.06801524 0.63200003
-0.082460955 0.06801524 0.63200003
-0.081128575 0.067907624 0.63100004
-0.07992667 0.067907624 0.63100004
-0.078724764 0.067907624 0.63100004
-0.077277146 0.067692384 0.62900001
-0.076079056 0.067692384 0.62900001
-0.074761912 0.067584768 0.62800002
-0.073565722 0.067584768 0.62800002
-0.072484769 0.067692384 0.62900001
-0.071286671 0.067692384 0.62900001
-0.070088573 0.067692384 0.62900001
-0.068780959 0.067584768 0.62800002
-0.067584768 0.067584768 0.62800002
-0.066388577 0.067584768 0.62800002
-0.065192387 0.067584768 0.62800002
-0.063996196 0.067584768 0.62800002
-0.062800005 0.067584768 0.62800002
-0.061603814 0.067584768 0.62800002
-0.060407624 0.067584768 0.62800002
-0.059211433 0.067584768 0.62800002
-0.058015242 0.067584768 0.62800002
-0.056819052 0.067584768 0.62800002
-0.055534288 0.067477144 0.62700003
-0.054340005 0.067477144 0.62700003
-0.053145718 0.067477144 0.62700003
-0.052034289 0.067584768 0.62800002
-0.050757147 0.067477144 0.62700003
-0.04956286 0.067477144 0.62700003
-0.048291434 0.067369528 0.62600005
-0.04709905 0.067369528 0.62600005
-0.045833338 0.067261912 0.625
-0.044642862 0.067261912 0.625
-0.043452382 0.067261912 0.625
-0.042261906 0.067261912 0.625
-0.041005716 0.067154288 0.62400001
-0.039817147 0.067154288 0.62400001
-0.085663818 0.068890482 0.62900001
-0.08446572 0.068890482 0.62900001
-0.083267622 0.068890482 0.62900001
-0.082069531 0.068890482 0.62900001
-0.081128575 0.069109529 0.63100004
-0.079673335 0.068890482 0.62900001
-0.078475244 0.068890482 0.62900001
-0.077154294 0.068780959 0.62800002
-0.075958103 0.068780959 0.62800002
-0.074642859 0.068671435 0.62700003
-0.073448576 0.068671435 0.62700003
-0.072139055 0.068561912 0.62600005
-0.07083334 0.068452388 0.625
-0.069642864 0.068452388 0.625
-0.068452388 0.068452388 0.625
-0.067369528 0.068561912 0.62600005
-0.066282861 0.068671435 0.62700003
-0.065088578 0.068671435 0.62700003
-0.063894287 0.068671435 0.62700003
-0.062700003 0.068671435 0.62700003
-0.061407622 0.068561912 0.62600005
-0.060215242 0.068561912 0.62600005
-0.059022862 0.068561912 0.62600005
-0.057830479 0.068561912 0.62600005
-0.056638099 0.068561912 0.62600005
-0.055357147 0.068452388 0.625
-0.054166671 0.068452388 0.625
-0.052976195 0.068452388 0.625
-0.051785719 0.068452388 0.625
-0.050514288 0.068342865 0.62400001
-0.049325716 0.068342865 0.62400001
-0.048137147 0.068342865 0.62400001
-0.046948574 0.068342865 0.62400001
-0.045760002 0.068342865 0.62400001
-0.044571433 0.068342865 0.62400001
-0.043382861 0.068342865 0.62400001
-0.042194288 0.068342865 0.62400001
-0.040940002 0.068233341 0.62300003
-0.039753336 0.068233341 0.62300003
-0.085527621 0.069977149 0.62800002
-0.084197149 0.069865718 0.62700003
-0.083135247 0.069977149 0.62800002
-0.081939057 0.069977149 0.62800002
-0.080871433 0.070088573 0.62900001
-0.079546675 0.069977149 0.62800002
-0.078350484 0.069977149 0.62800002
-0.077031434 0.069865718 0.62700003
-0.07583715 0.069865718 0.62700003
-0.074523814 0.069754288 0.62600005
-0.073331431 0.069754288 0.62600005
-0.072023816 0.069642864 0.625
-0.07083334 0.069642864 0.625
-0.069642864 0.069642864 0.625
-0.068452388 0.069642864 0.625
-0.067261912 0.069642864 0.625
-0.066071436 0.069642864 0.625
-0.06488096 0.069642864 0.625
-0.063792385 0.069754288 0.62600005
-0.062600002 0.069754288 0.62600005
-0.061309528 0.069642864 0.625
-0.060119051 0.069642864 0.625
-0.059022862 0.069754288 0.62600005
-0.057738099 0.069642864 0.625
-0.056547623 0.069642864 0.625
-0.055357147 0.069642864 0.625
-0.054080002 0.069531433 0.62400001
-0.052806672 0.069420002 0.62300003
-0.051537145 0.069308579 0.62200004
-0.050433338 0.069420002 0.62300003
-0.049246669 0.069420002 0.62300003
-0.048060004 0.069420002 0.62300003
-0.046873335 0.069420002 0.62300003
-0.04568667 0.069420002 0.62300003
-0.044500005 0.069420002 0.62300003
-0.043313336 0.069420002 0.62300003
-0.04212667 0.069420002 0.62300003
-0.040940002 0.069420002 0.62300003
-0.039689526 0.069308579 0.62200004
-0.25380573 0.087040007 0.76800001
-0.090456195 0.071286671 0.62900001
-0.089116193 0.07117334 0.62800002
-0.087640002 0.070946671 0.62600005
-0.086447626 0.070946671 0.62600005
-0.085527621 0.07117334 0.62800002
-0.083928578 0.07083334 0.625
-0.082870483 0.070946671 0.62600005
-0.081547625 0.07083334 0.625
-0.080357149 0.07083334 0.625
-0.079420008 0.071060002 0.62700003
-0.078100957 0.070946671 0.62600005
-0.076785721 0.07083334 0.625
-0.075595245 0.07083334 0.625
-0.074404769 0.07083334 0.625
-0.073214293 0.07083334 0.625
-0.071908578 0.070720002 0.62400001
-0.070720002 0.070720002 0.62400001
-0.069531433 0.070720002 0.62400001
-0.068233341 0.070606671 0.62300003
-0.067154288 0.070720002 0.62400001
-0.06596572 0.070720002 0.62400001
-0.064777151 0.070720002 0.62400001
-0.063588575 0.070720002 0.62400001
-0.062400006 0.070720002 0.62400001
-0.061211433 0.070720002 0.62400001
-0.060022861 0.070720002 0.62400001
-0.058834288 0.070720002 0.62400001
-0.057645719 0.070720002 0.62400001
-0.056457147 0.070720002 0.62400001
-0.055180002 0.070606671 0.62300003
-0.053906672 0.07049334 0.62200004
-0.052721906 0.07049334 0.62200004
-0.051371433 0.070266671 0.62
-0.050190479 0.070266671 0.62
-0.049167622 0.07049334 0.62200004
-0.04798286 0.07049334 0.62200004
-0.046798099 0.07049334 0.62200004
-0.045613337 0.07049334 0.62200004
-0.044428576 0.07049334 0.62200004
-0.043313336 0.070606671 0.62300003
-0.04212667 0.070606671 0.62300003
-0.040940002 0.070606671 0.62300003
-0.039689526 0.07049334 0.62200004
-0.090312384 0.072369531 0.62800002
-0.088832386 0.072139055 0.62600005
-0.087500006 0.072023816 0.625
-0.08630953 0.072023816 0.625
-0.085119054 0.072023816 0.625
-0.083928578 0.072023816 0.625
-0.082738101 0.072023816 0.625
-0.081547625 0.072023816 0.625
-0.080357149 0.072023816 0.625
-0.079166673 0.072023816 0.625
-0.077976197 0.072023816 0.625
-0.076662861 0.071908578 0.62400001
-0.075474292 0.071908578 0.62400001
-0.074285716 0.071908578 0.62400001
-0.073097147 0.071908578 0.62400001
-0.071908578 0.071908578 0.62400001
-0.070606671 0.07179334 0.62300003
-0.069308579 0.071678102 0.62200004
-0.067904763 0.071447626 0.62
-0.067046672 0.07179334 0.62300003
-0.065860003 0.07179334 0.62300003
-0.064569525 0.071678102 0.62200004
-0.063384764 0.071678102 0.62200004
-0.062300004 0.07179334 0.62300003
-0.061015241 0.071678102 0.62200004
-0.05992667 0.07179334 0.62300003
-0.058740005 0.07179334 0.62300003
-0.057276193 0.071447626 0.62
-0.056095243 0.071447626 0.62
-0.054914288 0.071447626 0.62
-0.053733338 0.071447626 0.62
-0.052467622 0.071332388 0.61900002
-0.051288575 0.071332388 0.61900002
-0.050109528 0.071332388 0.61900002
-0.048930481 0.071332388 0.61900002
-0.047828574 0.071447626 0.62
-0.046647623 0.071447626 0.62
-0.045466669 0.071447626 0.62
-0.044428576 0.071678102 0.62200004
-0.043313336 0.07179334 0.62300003
-0.042059049 0.071678102 0.62200004
-0.040874287 0.071678102 0.62200004
-0.039753336 0.07179334 0.62300003
-0.088832386 0.073331431 0.62600005
-0.087500006 0.073214293 0.625
-0.086171433 0.073097147 0.62400001
-0.084982865 0.073097147 0.62400001
-0.083660007 0.072980002 0.62300003
-0.081943817 0.072511435 0.61900002
-0.080764771 0.072511435 0.61900002
-0.079457149 0.072394289 0.61800003
-0.078280002 0.072394289 0.61800003
-0.07772667 0.072980002 0.62300003
-0.076540008 0.072980002 0.62300003
-0.075353339 0.072980002 0.62300003
-0.07416667 0.072980002 0.62300003
-0.072980002 0.072980002 0.62300003
-0.071678102 0.072862864 0.62200004
-0.070266671 0.072628573 0.62
-0.068974294 0.072511435 0.61900002
-0.067685716 0.072394289 0.61800003
-0.066508576 0.072394289 0.61800003
-0.065331429 0.072394289 0.61800003
-0.064258099 0.072511435 0.61900002
-0.063180953 0.072628573 0.62
-0.062000003 0.072628573 0.62
-0.060819052 0.072628573 0.62
-0.059830479 0.072862864 0.62200004
-0.058457147 0.072628573 0.62
-0.057183813 0.072511435 0.61900002
-0.05591429 0.072394289 0.61800003
-0.054737147 0.072394289 0.61800003
-0.053560004 0.072394289 0.61800003
-0.05238286 0.072394289 0.61800003
-0.051205717 0.072394289 0.61800003
-0.049866669 0.072160006 0.61600006
-0.048693337 0.072160006 0.61600006
-0.047674287 0.072394289 0.61800003
-0.046572383 0.072511435 0.61900002
-0.045393337 0.072511435 0.61900002
-0.044285718 0.072628573 0.62
-0.043104764 0.072628573 0.62
-0.041923814 0.072628573 0.62
-0.040742859 0.072628573 0.62
-0.039561909 0.072628573 0.62
-0.088690482 0.074404769 0.625
-0.087360002 0.074285716 0.62400001
-0.086033337 0.07416667 0.62300003
-0.084846675 0.07416667 0.62300003
-0.083525717 0.074047625 0.62200004
-0.081943817 0.073690481 0.61900002
-0.080764771 0.073690481 0.61900002
-0.079457149 0.073571436 0.61800003
-0.078280002 0.073571436 0.61800003
-0.077227622 0.073690481 0.61900002
-0.076048575 0.073690481 0.61900002
-0.074990481 0.073809527 0.62
-0.073809527 0.073809527 0.62
-0.072628573 0.073809527 0.62
-0.071332388 0.073690481 0.61900002
-0.070040002 0.073571436 0.61800003
-0.068751432 0.073452383 0.61700004
-0.067576192 0.073452383 0.61700004
-0.066293336 0.073333338 0.61600006
-0.065120004 0.073333338 0.61600006
-0.064050481 0.073452383 0.61700004
-0.062875241 0.073452383 0.61700004
-0.061800003 0.073571436 0.61800003
-0.06062286 0.073571436 0.61800003
-0.059541907 0.073690481 0.61900002
-0.058268577 0.073571436 0.61800003
-0.057091434 0.073571436 0.61800003
-0.055733338 0.073333338 0.61600006
-0.054560002 0.073333338 0.61600006
-0.053473338 0.073452383 0.61700004
-0.052298099 0.073452383 0.61700004
-0.051122859 0.073452383 0.61700004
-0.049866669 0.073333338 0.61600006
-0.048772383 0.073452383 0.61700004
-0.047597148 0.073452383 0.61700004
-0.046346668 0.073333338 0.61600006
-0.045173336 0.073333338 0.61600006
-0.044000003 0.073333338 0.61600006
-0.042548575 0.072857149 0.61200005
-0.0415181 0.07309524 0.61400002
-0.040348575 0.07309524 0.61400002
-0.039115239 0.072976194 0.61300004
-0.036840003 0.07309524 0.61400002
-0.035670478 0.07309524 0.61400002
-0.26853335 0.091923818 0.76000005
-0.087220006 0.075353339 0.62300003
-0.085619055 0.074990481 0.62
-0.084710479 0.075232387 0.62200004
-0.083257146 0.074990481 0.62
-0.081811436 0.074748576 0.61800003
-0.080634288 0.074748576 0.61800003
-0.079328574 0.074627623 0.61700004
-0.078153342 0.074627623 0.61700004
-0.076978102 0.074627623 0.61700004
-0.075802863 0.074627623 0.61700004
-0.074748576 0.074748576 0.61800003
-0.073690481 0.074869528 0.61900002
-0.072511435 0.074869528 0.61900002
-0.071101911 0.074627623 0.61700004
-0.069926672 0.074627623 0.61700004
-0.068751432 0.074627623 0.61700004
-0.067466669 0.07450667 0.61600006
-0.066293336 0.07450667 0.61600006
-0.065014288 0.074385718 0.61500001
-0.063946672 0.07450667 0.61600006
-0.062773339 0.07450667 0.61600006
-0.061700005 0.074627623 0.61700004
-0.060524765 0.074627623 0.61700004
-0.059349529 0.074627623 0.61700004
-0.058080003 0.07450667 0.61600006
-0.05690667 0.07450667 0.61600006
-0.055733338 0.07450667 0.61600006
-0.054560002 0.07450667 0.61600006
-0.05338667 0.07450667 0.61600006
-0.052128576 0.074385718 0.61500001
-0.050957147 0.074385718 0.61500001
-0.049785718 0.074385718 0.61500001
-0.04861429 0.074385718 0.61500001
-0.047442861 0.074385718 0.61500001
-0.046120957 0.074143812 0.61300004
-0.044953335 0.074143812 0.61300004
-0.043785717 0.074143812 0.61300004
-0.042548575 0.074022859 0.61200005
-0.041450478 0.074143812 0.61300004
-0.04028286 0.074143812 0.61300004
-0.039115239 0.074143812 0.61300004
-0.037947621 0.074143812 0.61300004
-0.036840003 0.074264765 0.61400002
-0.035670478 0.074264765 0.61400002
-0.086800009 0.076171435 0.62
-0.085619055 0.076171435 0.62
-0.0844381 0.076171435 0.62
-0.082988575 0.075925723 0.61800003
-0.081546672 0.075680003 0.61600006
-0.080373339 0.075680003 0.61600006
-0.079200007 0.075680003 0.61600006
-0.078026675 0.075680003 0.61600006
-0.076728575 0.07555715 0.61500001
-0.075680003 0.075680003 0.61600006
-0.074627623 0.075802863 0.61700004
-0.073452383 0.075802863 0.61700004
-0.072277151 0.075802863 0.61700004
-0.070986673 0.075680003 0.61600006
-0.069813341 0.075680003 0.61600006
-0.068640001 0.075680003 0.61600006
-0.067357145 0.07555715 0.61500001
-0.06618572 0.07555715 0.61500001
-0.064908579 0.07543429 0.61400002
-0.063739054 0.07543429 0.61400002
-0.06267143 0.07555715 0.61500001
-0.061500005 0.07555715 0.61500001
-0.060328577 0.07555715 0.61500001
-0.059157148 0.07555715 0.61500001
-0.057985719 0.07555715 0.61500001
-0.056721907 0.07543429 0.61400002
-0.055552386 0.07543429 0.61400002
-0.054294288 0.07531143 0.61300004
-0.053213336 0.07543429 0.61400002
-0.052043814 0.07543429 0.61400002
-0.050874289 0.07543429 0.61400002
-0.049623813 0.07531143 0.61300004
-0.048456192 0.07531143 0.61300004
-0.047288574 0.07531143 0.61300004
-0.046045717 0.075188577 0.61200005
-0.044880003 0.075188577 0.61200005
-0.043714289 0.075188577 0.61200005
-0.042548575 0.075188577 0.61200005
-0.04138286 0.075188577 0.61200005
-0.040217146 0.075188577 0.61200005
-0.039051432 0.075188577 0.61200005
-0.037885718 0.075188577 0.61200005
-0.036840003 0.07543429 0.61400002
-0.035670478 0.07543429 0.61400002
-0.2638905 0.094195247 0.75500005
-0.26101431 0.094195247 0.75500005
-0.2595762 0.094195247 0.75500005
-0.25813812 0.094195247 0.75500005
-0.25670001 0.094195247 0.75500005
-0.25526193 0.094195247 0.75500005
-0.23800477 0.094195247 0.75500005
-0.23656668 0.094195247 0.75500005
-0.23512858 0.094195247 0.75500005
-0.085480958 0.077227622 0.61900002
-0.084301911 0.077227622 0.61900002
-0.082720004 0.076853335 0.61600006
-0.08141429 0.076728575 0.61500001
-0.080242865 0.076728575 0.61500001
-0.079071432 0.076728575 0.61500001
-0.077900007 0.076728575 0.61500001
-0.076728575 0.076728575 0.61500001
-0.07555715 0.076728575 0.61500001
-0.074385718 0.076728575 0.61500001
-0.073333338 0.076853335 0.61600006
-0.07204286 0.076728575 0.61500001
-0.070756197 0.076603815 0.61400002
-0.069586672 0.076603815 0.61400002
-0.068417147 0.076603815 0.61400002
-0.067138098 0.076479055 0.61300004
-0.06597048 0.076479055 0.61300004
-0.064802863 0.076479055 0.61300004
-0.063635245 0.076479055 0.61300004
-0.062467624 0.076479055 0.61300004
-0.061300006 0.076479055 0.61300004
-0.060132384 0.076479055 0.61300004
-0.058964767 0.076479055 0.61300004
-0.057797145 0.076479055 0.61300004
-0.056537148 0.076354288 0.61200005
-0.055371433 0.076354288 0.61200005
-0.054205719 0.076354288 0.61200005
-0.053040005 0.076354288 0.61200005
-0.051874287 0.076354288 0.61200005
-0.050708573 0.076354288 0.61200005
-0.049461909 0.076229528 0.611
-0.048377145 0.076354288 0.61200005
-0.047211431 0.076354288 0.61200005
-0.045970481 0.076229528 0.611
-0.044660002 0.075980008 0.60900003
-0.043500002 0.075980008 0.60900003
-0.042479049 0.076229528 0.611
-0.04138286 0.076354288 0.61200005
-0.040217146 0.076354288 0.61200005
-0.039051432 0.076354288 0.61200005
-0.037885718 0.076354288 0.61200005
-0.036780003 0.076479055 0.61300004
-0.035670478 0.076603815 0.61400002
-0.086660005 0.078406669 0.61900002
-0.085480958 0.078406669 0.61900002
-0.08334858 0.077520005 0.61200005
-0.082451433 0.07777334 0.61400002
-0.081281908 0.07777334 0.61400002
-0.080242865 0.077900007 0.61500001
-0.079071432 0.077900007 0.61500001
-0.077900007 0.077900007 0.61500001
-0.076603815 0.07777334 0.61400002
-0.07555715 0.077900007 0.61500001
-0.074385718 0.077900007 0.61500001
-0.073214293 0.077900007 0.61500001
-0.07204286 0.077900007 0.61500001
-0.070640959 0.077646673 0.61300004
-0.069473341 0.077646673 0.61300004
-0.068305716 0.077646673 0.61300004
-0.067028575 0.077520005 0.61200005
-0.065862864 0.077520005 0.61200005
-0.064697146 0.077520005 0.61200005
-0.063531436 0.077520005 0.61200005
-0.062365718 0.077520005 0.61200005
-0.061100002 0.077393338 0.611
-0.06003429 0.077520005 0.61200005
-0.058772385 0.077393338 0.611
-0.057608575 0.077393338 0.611
-0.056444764 0.077393338 0.611
-0.055280957 0.077393338 0.611
-0.054117147 0.077393338 0.611
-0.052953336 0.077393338 0.611
-0.051789526 0.077393338 0.611
-0.050460003 0.077140003 0.60900003
-0.049300004 0.077140003 0.60900003
-0.048140004 0.077140003 0.60900003
-0.046980005 0.077140003 0.60900003
-0.045820002 0.077140003 0.60900003
-0.04458667 0.077013336 0.60800004
-0.043500002 0.077140003 0.60900003
-0.042340003 0.077140003 0.60900003
-0.041315243 0.077393338 0.611
-0.040217146 0.077520005 0.61200005
-0.039051432 0.077520005 0.61200005
-0.037885718 0.077520005 0.61200005
-0.036780003 0.077646673 0.61300004
-0.086987622 0.07881429 0.61300004
-0.085260004 0.078300007 0.60900003
-0.084100008 0.078300007 0.60900003
-0.083212383 0.078557149 0.611
-0.082182862 0.078685716 0.61200005
-0.081017151 0.078685716 0.61200005
-0.079851434 0.078685716 0.61200005
-0.07881429 0.07881429 0.61300004
-0.077646673 0.07881429 0.61300004
-0.076354288 0.078685716 0.61200005
-0.075188577 0.078685716 0.61200005
-0.074022859 0.078685716 0.61200005
-0.072738104 0.078557149 0.611
-0.071574293 0.078557149 0.611
-0.070180006 0.078300007 0.60900003
-0.069020003 0.078300007 0.60900003
-0.067860007 0.078300007 0.60900003
-0.066700004 0.078300007 0.60900003
-0.065540001 0.078300007 0.60900003
-0.064380005 0.078300007 0.60900003
-0.063220002 0.078300007 0.60900003
-0.061958101 0.078171432 0.60800004
-0.060800005 0.078171432 0.60800004
-0.059641909 0.078171432 0.60800004
-0.058483813 0.078171432 0.60800004
-0.057325717 0.078171432 0.60800004
-0.056167621 0.078171432 0.60800004
-0.055009529 0.078171432 0.60800004
-0.053762861 0.078042865 0.60700005
-0.052606668 0.078042865 0.60700005
-0.05145048 0.078042865 0.60700005
-0.050294288 0.078042865 0.60700005
-0.049138099 0.078042865 0.60700005
-0.04790286 0.07791429 0.60600001
-0.046748575 0.07791429 0.60600001
-0.045669526 0.078042865 0.60700005
-0.044513337 0.078042865 0.60700005
-0.043357145 0.078042865 0.60700005
-0.042200956 0.078042865 0.60700005
-0.041112382 0.078171432 0.60800004
-0.040020004 0.078300007 0.60900003
-0.038860004 0.078300007 0.60900003
-0.037700001 0.078300007 0.60900003
-0.036660001 0.078557149 0.611
-0.086278103 0.079329528 0.60800004
-0.085120007 0.079329528 0.60800004
-0.083961911 0.079329528 0.60800004
-0.082803816 0.079329528 0.60800004
-0.08204858 0.079720959 0.611
-0.08088477 0.079720959 0.611
-0.079720959 0.079720959 0.611
-0.078685716 0.079851434 0.61200005
-0.077520005 0.079851434 0.61200005
-0.076354288 0.079851434 0.61200005
-0.075188577 0.079851434 0.61200005
-0.07329715 0.079068579 0.60600001
-0.072142862 0.079068579 0.60600001
-0.071105719 0.079199053 0.60700005
-0.070064768 0.079329528 0.60800004
-0.068906672 0.079329528 0.60800004
-0.067637146 0.079199053 0.60700005
-0.066590481 0.079329528 0.60800004
-0.065432385 0.079329528 0.60800004
-0.064274289 0.079329528 0.60800004
-0.063116193 0.079329528 0.60800004
-0.061856195 0.079199053 0.60700005
-0.060700003 0.079199053 0.60700005
-0.059543815 0.079199053 0.60700005
-0.058387622 0.079199053 0.60700005
-0.057231434 0.079199053 0.60700005
-0.055982862 0.079068579 0.60600001
-0.054828577 0.079068579 0.60600001
-0.053674288 0.079068579 0.60600001
-0.052520003 0.079068579 0.60600001
-0.051365718 0.079068579 0.60600001
-0.050211433 0.079068579 0.60600001
-0.049057145 0.079068579 0.60600001
-0.047823813 0.078938097 0.60500002
-0.046671432 0.078938097 0.60500002
-0.04551905 0.078938097 0.60500002
-0.044440001 0.079068579 0.60600001
-0.043214288 0.078938097 0.60500002
-0.041992385 0.078807622 0.60400003
-0.040977146 0.079068579 0.60600001
-0.039888576 0.079199053 0.60700005
-0.038796194 0.079329528 0.60800004
-0.037638098 0.079329528 0.60800004
-0.036540002 0.079460002 0.60900003
-0.086278103 0.080487624 0.60800004
-0.085120007 0.080487624 0.60800004
-0.083823815 0.080355242 0.60700005
-0.082803816 0.080487624 0.60800004
-0.08164572 0.080487624 0.60800004
-0.080487624 0.080487624 0.60800004
-0.079460002 0.080620006 0.60900003
-0.078557149 0.08088477 0.611
-0.077393338 0.08088477 0.611
-0.076229528 0.08088477 0.611
-0.074451432 0.08022286 0.60600001
-0.073176198 0.080090478 0.60500002
-0.072142862 0.08022286 0.60600001
-0.070988573 0.08022286 0.60600001
-0.06994953 0.080355242 0.60700005
-0.068793342 0.080355242 0.60700005
-0.067637146 0.080355242 0.60700005
-0.066480957 0.080355242 0.60700005
-0.065324768 0.080355242 0.60700005
-0.064168572 0.080355242 0.60700005
-0.063012384 0.080355242 0.60700005
-0.061856195 0.080355242 0.60700005
-0.060700003 0.080355242 0.60700005
-0.059445716 0.08022286 0.60600001
-0.058291432 0.08022286 0.60600001
-0.057137147 0.08022286 0.60600001
-0.055890478 0.080090478 0.60500002
-0.054828577 0.08022286 0.60600001
-0.053674288 0.08022286 0.60600001
-0.052520003 0.08022286 0.60600001
-0.051365718 0.08022286 0.60600001
-0.050211433 0.08022286 0.60600001
-0.048976194 0.080090478 0.60500002
-0.047744766 0.079958104 0.60400003
-0.046594288 0.079958104 0.60400003
-0.045443814 0.079958104 0.60400003
-0.044293337 0.079958104 0.60400003
-0.04307143 0.079825722 0.60300004
-0.04192286 0.079825722 0.60300004
-0.040909525 0.080090478 0.60500002
-0.039822862 0.08022286 0.60600001
-0.038732383 0.080355242 0.60700005
-0.037576191 0.080355242 0.60700005
-0.036420003 0.080355242 0.60700005
-0.035205718 0.08022286 0.60600001
-0.0861362 0.08151143 0.60700005
-0.084980004 0.08151143 0.60700005
-0.083823815 0.08151143 0.60700005
-0.082667626 0.08151143 0.60700005
-0.08151143 0.08151143 0.60700005
-0.080355242 0.08151143 0.60700005
-0.079199053 0.08151143 0.60700005
-0.078042865 0.08151143 0.60700005
-0.076886669 0.08151143 0.60700005
-0.075231433 0.080974288 0.60300004
-0.074082859 0.080974288 0.60300004
-0.072934292 0.080974288 0.60300004
-0.071904764 0.081108578 0.60400003
-0.070871435 0.081242859 0.60500002
-0.069719054 0.081242859 0.60500002
-0.068566673 0.081242859 0.60500002
-0.067525722 0.081377149 0.60600001
-0.066371433 0.081377149 0.60600001
-0.065324768 0.08151143 0.60700005
-0.064168572 0.08151143 0.60700005
-0.062908575 0.081377149 0.60600001
-0.06175429 0.081377149 0.60600001
-0.060600005 0.081377149 0.60600001
-0.059347622 0.081242859 0.60500002
-0.058195241 0.081242859 0.60500002
-0.056948576 0.081108578 0.60400003
-0.055890478 0.081242859 0.60500002
-0.054738101 0.081242859 0.60500002
-0.053585719 0.081242859 0.60500002
-0.052433338 0.081242859 0.60500002
-0.051280957 0.081242859 0.60500002
-0.050128575 0.081242859 0.60500002
-0.04889524 0.081108578 0.60400003
-0.047665719 0.080974288 0.60300004
-0.046440002 0.080840006 0.60200006
-0.045368575 0.080974288 0.60300004
-0.044220004 0.080974288 0.60300004
-0.043000001 0.080840006 0.60200006
-0.041853335 0.080840006 0.60200006
-0.040841907 0.081108578 0.60400003
-0.039757144 0.081242859 0.60500002
-0.038668573 0.081377149 0.60600001
-0.037514288 0.081377149 0.60600001
-0.036360003 0.081377149 0.60600001
-0.035205718 0.081377149 0.60600001
-0.033995241 0.081242859 0.60500002
-0.22401334 0.10105334 0.74200004
-0.085994288 0.082531437 0.60600001
-0.084840007 0.082531437 0.60600001
-0.083823815 0.082667626 0.60700005
-0.082667626 0.082667626 0.60700005
-0.08151143 0.082667626 0.60700005
-0.08022286 0.082531437 0.60600001
-0.078938097 0.082395241 0.60500002
-0.077657148 0.082259052 0.60400003
-0.076506674 0.082259052 0.60400003
-0.075231433 0.082122862 0.60300004
-0.073960006 0.081986673 0.60200006
-0.07281334 0.081986673 0.60200006
-0.071785718 0.082122862 0.60300004
-0.070637144 0.082122862 0.60300004
-0.069488578 0.082122862 0.60300004
-0.068453334 0.082259052 0.60400003
-0.067414291 0.082395241 0.60500002
-0.06626191 0.082395241 0.60500002
-0.065217145 0.082531437 0.60600001
-0.064062864 0.082531437 0.60600001
-0.062597148 0.082122862 0.60300004
-0.061448574 0.082122862 0.60300004
-0.060300004 0.082122862 0.60300004
-0.059053339 0.081986673 0.60200006
-0.057906669 0.081986673 0.60200006
-0.056854289 0.082122862 0.60300004
-0.055613335 0.081986673 0.60200006
-0.054557145 0.082122862 0.60300004
-0.053408574 0.082122862 0.60300004
-0.052260004 0.082122862 0.60300004
-0.051111434 0.082122862 0.60300004
-0.04996286 0.082122862 0.60300004
-0.048733335 0.081986673 0.60200006
-0.047586668 0.081986673 0.60200006
-0.046362862 0.081850484 0.60100001
-0.045218099 0.081850484 0.60100001
-0.044073336 0.081850484 0.60100001
-0.042928573 0.081850484 0.60100001
-0.041783813 0.081850484 0.60100001
-0.04077429 0.082122862 0.60300004
-0.03969143 0.082259052 0.60400003
-0.038604766 0.082395241 0.60500002
-0.037452385 0.082395241 0.60500002
-0.036300004 0.082395241 0.60500002
-0.035147622 0.082395241 0.60500002
-0.033995241 0.082395241 0.60500002
-0.22401334 0.10246667 0.74200004
-0.085994288 0.083685718 0.60600001
-0.084840007 0.083685718 0.60600001
-0.083685718 0.083685718 0.60600001
-0.082531437 0.083685718 0.60600001
-0.081242859 0.083547622 0.60500002
-0.079958104 0.083409533 0.60400003
-0.078807622 0.083409533 0.60400003
-0.077528574 0.083271436 0.60300004
-0.07625334 0.08313334 0.60200006
-0.074981913 0.082995243 0.60100001
-0.073837146 0.082995243 0.60100001
-0.072571434 0.082857147 0.60000002
-0.071428575 0.082857147 0.60000002
-0.070402861 0.082995243 0.60100001
-0.069373339 0.08313334 0.60200006
-0.068340003 0.083271436 0.60300004
-0.06730286 0.083409533 0.60400003
-0.06626191 0.083547622 0.60500002
-0.065109529 0.083547622 0.60500002
-0.063745722 0.083271436 0.60300004
-0.062493339 0.08313334 0.60200006
-0.061346672 0.08313334 0.60200006
-0.060100004 0.082995243 0.60100001
-0.058955241 0.082995243 0.60100001
-0.057810482 0.082995243 0.60100001
-0.056665719 0.082995243 0.60100001
-0.055428576 0.082857147 0.60000002
-0.054285716 0.082857147 0.60000002
-0.053142861 0.082857147 0.60000002
-0.052000005 0.082857147 0.60000002
-0.050857145 0.082857147 0.60000002
-0.04971429 0.082857147 0.60000002
-0.04857143 0.082857147 0.60000002
-0.047428574 0.082857147 0.60000002
-0.046285719 0.082857147 0.60000002
-0.045142859 0.082857147 0.60000002
-0.044000003 0.082857147 0.60000002
-0.042857144 0.082857147 0.60000002
-0.041783813 0.082995243 0.60100001
-0.040706668 0.08313334 0.60200006
-0.039625715 0.083271436 0.60300004
-0.038604766 0.083547622 0.60500002
-0.037390478 0.083409533 0.60400003
-0.036240004 0.083409533 0.60400003
-0.035147622 0.083547622 0.60500002
-0.033995241 0.083547622 0.60500002
-0.085852385 0.084700003 0.60500002
-0.084700003 0.084700003 0.60500002
-0.083409533 0.084560007 0.60400003
-0.082259052 0.084560007 0.60400003
-0.080974288 0.084420003 0.60300004
-0.07969334 0.084280007 0.60200006
-0.078546673 0.084280007 0.60200006
-0.077400006 0.084280007 0.60200006
-0.076000005 0.084000006 0.60000002
-0.074857146 0.084000006 0.60000002
-0.073714294 0.084000006 0.60000002
-0.072571434 0.084000006 0.60000002
-0.071428575 0.084000006 0.60000002
-0.070285723 0.084000006 0.60000002
-0.069142863 0.084000006 0.60000002
-0.068113334 0.084140003 0.60100001
-0.067080006 0.084280007 0.60200006
-0.065933339 0.084280007 0.60200006
-0.064786673 0.084280007 0.60200006
-0.06353429 0.084140003 0.60100001
-0.062285718 0.084000006 0.60000002
-0.061142862 0.084000006 0.60000002
-0.060000002 0.084000006 0.60000002
-0.058759052 0.083860002 0.59900004
-0.0576181 0.083860002 0.59900004
-0.056477148 0.083860002 0.59900004
-0.055336192 0.083860002 0.59900004
-0.05419524 0.083860002 0.59900004
-0.053054288 0.083860002 0.59900004
-0.051913336 0.083860002 0.59900004
-0.050687622 0.083720006 0.59800005
-0.049631432 0.083860002 0.59900004
-0.048409525 0.083720006 0.59800005
-0.047270481 0.083720006 0.59800005
-0.046131432 0.083720006 0.59800005
-0.045067623 0.083860002 0.59900004
-0.043926671 0.083860002 0.59900004
-0.042785715 0.083860002 0.59900004
-0.041714288 0.084000006 0.60000002
-0.04063905 0.084140003 0.60100001
-0.039625715 0.084420003 0.60300004
-0.038604766 0.084700003 0.60500002
-0.037390478 0.084560007 0.60400003
-0.036300004 0.084700003 0.60500002
-0.035147622 0.084700003 0.60500002
-0.033995241 0.084700003 0.60500002
-0.24182859 0.10444191 0.73600006
-0.085568577 0.085568577 0.60300004
-0.084280007 0.085426673 0.60200006
-0.082857147 0.085142866 0.60000002
-0.081850484 0.08528477 0.60100001
-0.080840006 0.085426673 0.60200006
-0.079560958 0.08528477 0.60100001
-0.078416198 0.08528477 0.60100001
-0.077271432 0.08528477 0.60100001
-0.076000005 0.085142866 0.60000002
-0.074857146 0.085142866 0.60000002
-0.073714294 0.085142866 0.60000002
-0.072571434 0.085142866 0.60000002
-0.071309529 0.085000955 0.59900004
-0.070051432 0.084859051 0.59800005
-0.068912387 0.084859051 0.59800005
-0.067773335 0.084859051 0.59800005
-0.06663429 0.084859051 0.59800005
-0.065604769 0.085000955 0.59900004
-0.064463817 0.085000955 0.59900004
-0.063322864 0.085000955 0.59900004
-0.062181909 0.085000955 0.59900004
-0.060939051 0.084859051 0.59800005
-0.059800003 0.084859051 0.59800005
-0.058660958 0.084859051 0.59800005
-0.0576181 0.085000955 0.59900004
-0.056477148 0.085000955 0.59900004
-0.055243813 0.084859051 0.59800005
-0.054104764 0.084859051 0.59800005
-0.052965719 0.084859051 0.59800005
-0.051826671 0.084859051 0.59800005
-0.050687622 0.084859051 0.59800005
-0.049548574 0.084859051 0.59800005
-0.048409525 0.084859051 0.59800005
-0.047270481 0.084859051 0.59800005
-0.046131432 0.084859051 0.59800005
-0.044992384 0.084859051 0.59800005
-0.043926671 0.085000955 0.59900004
-0.042785715 0.085000955 0.59900004
-0.041644763 0.085000955 0.59900004
-0.04063905 0.08528477 0.60100001
-0.039560001 0.085426673 0.60200006
-0.038540956 0.085710481 0.60400003
-0.037390478 0.085710481 0.60400003
-0.036300004 0.085852385 0.60500002
-0.035147622 0.085852385 0.60500002
-0.085426673 0.08657334 0.60200006
-0.084140003 0.086429529 0.60100001
-0.082857147 0.086285718 0.60000002
-0.081714287 0.086285718 0.60000002
-0.080705717 0.086429529 0.60100001
-0.079428576 0.086285718 0.60000002
-0.078285716 0.086285718 0.60000002
-0.077142864 0.086285718 0.60000002
-0.076000005 0.086285718 0.60000002
-0.074857146 0.086285718 0.60000002
-0.073591433 0.086141914 0.59900004
-0.072450481 0.086141914 0.59900004
-0.071309529 0.086141914 0.59900004
-0.070051432 0.085998103 0.59800005
-0.068912387 0.085998103 0.59800005
-0.067773335 0.085998103 0.59800005
-0.06663429 0.085998103 0.59800005
-0.065495245 0.085998103 0.59800005
-0.064356193 0.085998103 0.59800005
-0.063217148 0.085998103 0.59800005
-0.0620781 0.085998103 0.59800005
-0.060939051 0.085998103 0.59800005
-0.059800003 0.085998103 0.59800005
-0.058660958 0.085998103 0.59800005
-0.057521909 0.085998103 0.59800005
-0.056382861 0.085998103 0.59800005
-0.055243813 0.085998103 0.59800005
-0.054104764 0.085998103 0.59800005
-0.052965719 0.085998103 0.59800005
-0.051826671 0.085998103 0.59800005
-0.050687622 0.085998103 0.59800005
-0.049548574 0.085998103 0.59800005
-0.048409525 0.085998103 0.59800005
-0.04719143 0.085854292 0.597
-0.046131432 0.085998103 0.59800005
-0.044992384 0.085998103 0.59800005
-0.043853335 0.085998103 0.59800005
-0.04271429 0.085998103 0.59800005
-0.041575242 0.085998103 0.59800005
-0.040571433 0.086285718 0.60000002
-0.039494287 0.086429529 0.60100001
-0.038540956 0.086860955 0.60400003
-0.037390478 0.086860955 0.60400003
-0.036240004 0.086860955 0.60400003
-0.087865718 0.087865718 0.60300004
-0.086717151 0.087865718 0.60300004
-0.085568577 0.087865718 0.60300004
-0.084000006 0.087428577 0.60000002
-0.08271905 0.087282866 0.59900004
-0.081578098 0.087282866 0.59900004
-0.080571435 0.087428577 0.60000002
-0.079428576 0.087428577 0.60000002
-0.078285716 0.087428577 0.60000002
-0.07701429 0.087282866 0.59900004
-0.076000005 0.087428577 0.60000002
-0.074732386 0.087282866 0.59900004
-0.073591433 0.087282866 0.59900004
-0.072450481 0.087282866 0.59900004
-0.071309529 0.087282866 0.59900004
-0.070168577 0.087282866 0.59900004
-0.069027625 0.087282866 0.59900004
-0.067886673 0.087282866 0.59900004
-0.06663429 0.087137148 0.59800005
-0.065495245 0.087137148 0.59800005
-0.064356193 0.087137148 0.59800005
-0.063217148 0.087137148 0.59800005
-0.0620781 0.087137148 0.59800005
-0.060837146 0.086991437 0.597
-0.059800003 0.087137148 0.59800005
-0.058660958 0.087137148 0.59800005
-0.057521909 0.087137148 0.59800005
-0.056382861 0.087137148 0.59800005
-0.055243813 0.087137148 0.59800005
-0.054104764 0.087137148 0.59800005
-0.052965719 0.087137148 0.59800005
-0.051826671 0.087137148 0.59800005
-0.050687622 0.087137148 0.59800005
-0.049548574 0.087137148 0.59800005
-0.048409525 0.087137148 0.59800005
-0.04719143 0.086991437 0.597
-0.046131432 0.087137148 0.59800005
-0.044992384 0.087137148 0.59800005
-0.043853335 0.087137148 0.59800005
-0.04271429 0.087137148 0.59800005
-0.041575242 0.087137148 0.59800005
-0.040571433 0.087428577 0.60000002
-0.039494287 0.087574288 0.60100001
-0.038540956 0.088011436 0.60400003
-0.037328575 0.087865718 0.60300004
-0.087574288 0.088719055 0.60100001
-0.086285718 0.088571437 0.60000002
-0.085142866 0.088571437 0.60000002
-0.084000006 0.088571437 0.60000002
-0.08271905 0.088423818 0.59900004
-0.081578098 0.088423818 0.59900004
-0.080437146 0.088423818 0.59900004
-0.079296194 0.088423818 0.59900004
-0.078285716 0.088571437 0.60000002
-0.07701429 0.088423818 0.59900004
-0.075873338 0.088423818 0.59900004
-0.074732386 0.088423818 0.59900004
-0.073591433 0.088423818 0.59900004
