# .PCD v0.7 - Point Cloud Data file format
VERSION 0.7
FIELDS x y z
SIZE 4 4 4
TYPE F F F
COUNT 1 1 1
WIDTH 1354
HEIGHT 1
VIEWPOINT 0 0 0 1 0 0 0
POINTS 1354
DATA ascii
-0.067562863 0.081454292 0.66300005
-0.066300005 0.081454292 0.66300005
-0.064939052 0.081331432 0.66200006
-0.063485719 0.081085719 0.66000003
-0.062228575 0.081085719 0.66000003
-0.060786672 0.080840006 0.65800005
-0.059442863 0.080717146 0.65700001
-0.058014289 0.080471434 0.65500003
-0.05676667 0.080471434 0.65500003
-0.055519052 0.080471434 0.65500003
-0.054105718 0.080225721 0.65300006
-0.052861907 0.080225721 0.65300006
-0.051618099 0.080225721 0.65300006
-0.050297145 0.080102861 0.65200001
-0.049055241 0.080102861 0.65200001
-0.047520004 0.079611436 0.648
-0.046285719 0.079611436 0.648
-0.045051433 0.079611436 0.648
-0.043749526 0.079488575 0.64700001
-0.042517144 0.079488575 0.64700001
-0.041220956 0.079365723 0.64600003
-0.039928574 0.079242863 0.64500004
-0.038640004 0.079120003 0.64400005
-0.037297145 0.07887429 0.64200002
-0.036074288 0.07887429 0.64200002
-0.034797147 0.078751437 0.64100003
-0.033576194 0.078751437 0.64100003
-0.032355241 0.078751437 0.64100003
-0.031085717 0.078628577 0.64000005
-0.029820003 0.078505717 0.63900006
-0.028602859 0.078505717 0.63900006
-0.02734286 0.078382865 0.63800001
-0.026045715 0.078137144 0.63600004
-0.024834286 0.078137144 0.63600004
-0.023585716 0.078014292 0.63500005
-0.022376193 0.078014292 0.63500005
-0.021133335 0.077891432 0.634
-0.019925715 0.077891432 0.634
-0.018718097 0.077891432 0.634
-0.017510477 0.077891432 0.634
-0.016302858 0.077891432 0.634
-0.01509524 0.077891432 0.634
-0.013909524 0.078014292 0.63500005
-0.012760001 0.078382865 0.63800001
-0.011562858 0.078505717 0.63900006
-0.010345715 0.078505717 0.63900006
-0.0091714291 0.07887429 0.64200002
-0.0079857148 0.079242863 0.64500004
-0.0067676194 0.079365723 0.64600003
-0.0055542863 0.079611436 0.648
-0.0043400005 0.079980008 0.65100002
-0.0031000001 0.079980008 0.65100002
-0.0018600001 0.079980008 0.65100002
-0.00062190479 0.080225721 0.65300006
0.00062190479 0.080225721 0.65300006
0.0018657144 0.080225721 0.65300006
-0.082191437 0.083465718 0.66900003
-0.081038103 0.083590485 0.67000002
-0.079642862 0.083465718 0.66900003
-0.078368574 0.083465718 0.66900003
-0.077094294 0.083465718 0.66900003
-0.075820006 0.083465718 0.66900003
-0.074322864 0.083216198 0.66700006
-0.073052384 0.083216198 0.66700006
-0.071674287 0.08309143 0.66600001
-0.070300005 0.08296667 0.66500002
-0.068825722 0.08271715 0.66300005
-0.067562863 0.08271715 0.66300005
-0.066200003 0.082592383 0.66200006
-0.065037146 0.08271715 0.66300005
-0.063678101 0.082592383 0.66200006
-0.062322862 0.082467623 0.66100001
-0.060971431 0.082342863 0.66000003
-0.059533339 0.082093336 0.65800005
-0.058191434 0.081968576 0.65700001
-0.05676667 0.081719056 0.65500003
-0.055519052 0.081719056 0.65500003
-0.054271434 0.081719056 0.65500003
-0.053023811 0.081719056 0.65500003
-0.051618099 0.081469528 0.65300006
-0.050374288 0.081469528 0.65300006
-0.049055241 0.081344768 0.65200001
-0.047740005 0.081220008 0.65100002
-0.046285719 0.080845721 0.648
-0.045051433 0.080845721 0.648
-0.043749526 0.080720961 0.64700001
-0.042517144 0.080720961 0.64700001
-0.041284766 0.080720961 0.64700001
-0.039990477 0.080596194 0.64600003
-0.038700003 0.080471434 0.64500004
-0.037413336 0.080346674 0.64400005
-0.036074288 0.080097146 0.64200002
-0.034851432 0.080097146 0.64200002
-0.033628572 0.080097146 0.64200002
-0.032355241 0.079972386 0.64100003
-0.031134287 0.079972386 0.64100003
-0.029866669 0.079847626 0.64000005
-0.028602859 0.079722859 0.63900006
-0.027385715 0.079722859 0.63900006
-0.026127622 0.079598099 0.63800001
-0.024834286 0.079348579 0.63600004
-0.023622859 0.079348579 0.63600004
-0.022376193 0.079223812 0.63500005
-0.021166667 0.079223812 0.63500005
-0.019925715 0.079099052 0.634
-0.018718097 0.079099052 0.634
-0.017510477 0.079099052 0.634
-0.016302858 0.079099052 0.634
-0.01509524 0.079099052 0.634
-0.01393143 0.079348579 0.63600004
-0.012760001 0.079598099 0.63800001
-0.011562858 0.079722859 0.63900006
-0.010345715 0.079722859 0.63900006
-0.0091714291 0.080097146 0.64200002
-0.0079857148 0.080471434 0.64500004
-0.0067676194 0.080596194 0.64600003
-0.0055542863 0.080845721 0.648
-0.0043333336 0.081095241 0.65000004
-0.0031000001 0.081220008 0.65100002
-0.0018600001 0.081220008 0.65100002
-0.00062190479 0.081469528 0.65300006
0.00062380958 0.081719056 0.65500003
0.0018714287 0.081719056 0.65500003
-0.082191437 0.084740005 0.66900003
-0.081038103 0.084866673 0.67000002
-0.079642862 0.084740005 0.66900003
-0.07848572 0.084866673 0.67000002
-0.077094294 0.084740005 0.66900003
-0.075820006 0.084740005 0.66900003
-0.074545719 0.084740005 0.66900003
-0.073052384 0.084486671 0.66700006
-0.071781911 0.084486671 0.66700006
-0.070511431 0.084486671 0.66700006
-0.06903334 0.084233336 0.66500002
-0.067562863 0.083980009 0.66300005
-0.066200003 0.083853342 0.66200006
-0.064939052 0.083853342 0.66200006
-0.063678101 0.083853342 0.66200006
-0.062322862 0.083726674 0.66100001
-0.060971431 0.083600007 0.66000003
-0.059533339 0.083346672 0.65800005
-0.058191434 0.083220005 0.65700001
-0.056853335 0.083093338 0.65600002
-0.055519052 0.08296667 0.65500003
-0.054271434 0.08296667 0.65500003
-0.053023811 0.08296667 0.65500003
-0.051618099 0.082713336 0.65300006
-0.050374288 0.082713336 0.65300006
-0.049055241 0.082586668 0.65200001
-0.047520004 0.082080007 0.648
-0.046428576 0.082333341 0.65000004
-0.045051433 0.082080007 0.648
-0.043817144 0.082080007 0.648
-0.042517144 0.081953339 0.64700001
-0.041284766 0.081953339 0.64700001
-0.039990477 0.081826672 0.64600003
-0.038700003 0.081700005 0.64500004
-0.037413336 0.081573337 0.64400005
-0.036074288 0.081320003 0.64200002
-0.034851432 0.081320003 0.64200002
-0.033628572 0.081320003 0.64200002
-0.032405715 0.081320003 0.64200002
-0.031182859 0.081320003 0.64200002
-0.029913336 0.081193335 0.64100003
-0.02864762 0.081066675 0.64000005
-0.027428573 0.081066675 0.64000005
-0.026168574 0.080940008 0.63900006
-0.024912383 0.080813341 0.63800001
-0.023697145 0.080813341 0.63800001
-0.02241143 0.080560006 0.63600004
-0.021166667 0.080433339 0.63500005
-0.019957144 0.080433339 0.63500005
-0.01874762 0.080433339 0.63500005
-0.017538097 0.080433339 0.63500005
-0.016302858 0.080306672 0.634
-0.015119049 0.080433339 0.63500005
-0.01393143 0.080560006 0.63600004
-0.01278 0.080940008 0.63900006
-0.011562858 0.080940008 0.63900006
-0.010361905 0.081066675 0.64000005
-0.0091714291 0.081320003 0.64200002
-0.0079857148 0.081700005 0.64500004
-0.0067676194 0.081826672 0.64600003
-0.0055542863 0.082080007 0.648
-0.0043333336 0.082333341 0.65000004
-0.0031047622 0.082586668 0.65200001
-0.0018628573 0.082586668 0.65200001
-0.00062380958 0.08296667 0.65500003
0.00062380958 0.08296667 0.65500003
0.0018714287 0.08296667 0.65500003
-0.08231429 0.08614286 0.67000002
-0.081159055 0.086271435 0.671
-0.079761907 0.08614286 0.67000002
-0.07848572 0.08614286 0.67000002
-0.077209532 0.08614286 0.67000002
-0.075820006 0.086014293 0.66900003
-0.074545719 0.086014293 0.66900003
-0.073271431 0.086014293 0.66900003
-0.071781911 0.085757151 0.66700006
-0.070511431 0.085757151 0.66700006
-0.069240957 0.085757151 0.66700006
-0.067562863 0.08524286 0.66300005
-0.066300005 0.08524286 0.66300005
-0.065037146 0.08524286 0.66300005
-0.063774288 0.08524286 0.66300005
-0.062417146 0.085114293 0.66200006
-0.061063815 0.084985718 0.66100001
-0.059714291 0.084857151 0.66000003
-0.058280002 0.084600009 0.65800005
-0.056940004 0.084471434 0.65700001
-0.055603813 0.08434286 0.65600002
-0.054354288 0.08434286 0.65600002
-0.053023811 0.084214292 0.65500003
-0.051776193 0.084214292 0.65500003
-0.050374288 0.083957151 0.65300006
-0.049130481 0.083957151 0.65300006
-0.047813337 0.083828576 0.65200001
-0.046500005 0.083700009 0.65100002
-0.04519048 0.083571434 0.65000004
-0.043817144 0.083314292 0.648
-0.042517144 0.083185717 0.64700001
-0.041284766 0.083185717 0.64700001
-0.040052384 0.083185717 0.64700001
-0.038760003 0.08305715 0.64600003
-0.037471432 0.082928576 0.64500004
-0.036186669 0.082800008 0.64400005
-0.034851432 0.082542859 0.64200002
-0.033628572 0.082542859 0.64200002
-0.032405715 0.082542859 0.64200002
-0.031182859 0.082542859 0.64200002
-0.029913336 0.082414292 0.64100003
-0.028692383 0.082414292 0.64100003
-0.027471431 0.082414292 0.64100003
-0.026209526 0.082285717 0.64000005
-0.02495143 0.08215715 0.63900006
-0.023734286 0.08215715 0.63900006
-0.022481907 0.082028575 0.63800001
-0.021200001 0.081771433 0.63600004
-0.019988572 0.081771433 0.63600004
-0.01874762 0.081642866 0.63500005
-0.017538097 0.081642866 0.63500005
-0.016302858 0.081514291 0.634
-0.015119049 0.081642866 0.63500005
-0.01393143 0.081771433 0.63600004
-0.012760001 0.082028575 0.63800001
-0.011580953 0.082285717 0.64000005
-0.010378096 0.082414292 0.64100003
-0.0092000002 0.082800008 0.64400005
-0.0079857148 0.082928576 0.64500004
-0.0067780958 0.083185717 0.64700001
-0.0055542863 0.083314292 0.648
-0.0043333336 0.083571434 0.65000004
-0.0031047622 0.083828576 0.65200001
-0.0018657144 0.083957151 0.65300006
-0.00062571431 0.084471434 0.65700001
0.00062571431 0.084471434 0.65700001
0.0018771429 0.084471434 0.65700001
-0.082560003 0.087680005 0.67200005
-0.081280008 0.087680005 0.67200005
-0.07988096 0.08754953 0.671
-0.078602865 0.08754953 0.671
-0.07732477 0.08754953 0.671
-0.075933337 0.087419055 0.67000002
-0.07465715 0.087419055 0.67000002
-0.073380955 0.087419055 0.67000002
-0.071997151 0.087288581 0.66900003
-0.070722863 0.087288581 0.66900003
-0.069448575 0.087288581 0.66900003
-0.067970477 0.087027624 0.66700006
-0.066300005 0.086505719 0.66300005
-0.065233335 0.086766675 0.66500002
-0.063966669 0.086766675 0.66500002
-0.062511429 0.086505719 0.66300005
-0.061156195 0.086375244 0.66200006
-0.059804767 0.086244769 0.66100001
-0.058457147 0.086114295 0.66000003
-0.057026669 0.085853338 0.65800005
-0.055773336 0.085853338 0.65800005
-0.054437146 0.085722864 0.65700001
-0.053185716 0.085722864 0.65700001
-0.05185524 0.085592389 0.65600002
-0.050528575 0.085461907 0.65500003
-0.049280956 0.085461907 0.65500003
-0.04788667 0.085200958 0.65300006
-0.046642859 0.085200958 0.65300006
-0.045329526 0.085070483 0.65200001
-0.044020005 0.084940009 0.65100002
-0.04271429 0.084809527 0.65000004
-0.041476194 0.084809527 0.65000004
-0.040114287 0.084548578 0.648
-0.038820002 0.084418103 0.64700001
-0.037529524 0.084287621 0.64600003
-0.036242861 0.084157147 0.64500004
-0.034960002 0.084026672 0.64400005
-0.033733334 0.084026672 0.64400005
-0.032506667 0.084026672 0.64400005
-0.031280003 0.084026672 0.64400005
-0.029960003 0.083765723 0.64200002
-0.028737145 0.083765723 0.64200002
-0.027514288 0.083765723 0.64200002
-0.026250478 0.083635241 0.64100003
-0.024990479 0.083504766 0.64000005
-0.023734286 0.083374292 0.63900006
-0.022517145 0.083374292 0.63900006
-0.021300001 0.083374292 0.63900006
-0.020051429 0.083243817 0.63800001
-0.018777143 0.082982861 0.63600004
-0.017565716 0.082982861 0.63600004
-0.016328573 0.082852386 0.63500005
-0.015190477 0.083243817 0.63800001
-0.013975239 0.083243817 0.63800001
-0.012760001 0.083243817 0.63800001
-0.011562858 0.083374292 0.63900006
-0.010378096 0.083635241 0.64100003
-0.0092000002 0.084026672 0.64400005
-0.0079857148 0.084157147 0.64500004
-0.0067780958 0.084418103 0.64700001
-0.0055714292 0.084809527 0.65000004
-0.0043866672 0.085853338 0.65800005
-0.0031333335 0.085853338 0.65800005
-0.0018885715 0.086244769 0.66100001
-0.00063047622 0.086375244 0.66200006
0.0006333334 0.086766675 0.66500002
0.0019028572 0.08689715 0.66600001
0.0031761907 0.087027624 0.66700006
-0.082560003 0.088960007 0.67200005
-0.081280008 0.088960007 0.67200005
-0.07988096 0.088827625 0.671
-0.078602865 0.088827625 0.671
-0.07732477 0.088827625 0.671
-0.075933337 0.088695243 0.67000002
-0.07465715 0.088695243 0.67000002
-0.073380955 0.088695243 0.67000002
-0.071997151 0.088562861 0.66900003
-0.070722863 0.088562861 0.66900003
-0.069448575 0.088562861 0.66900003
-0.067970477 0.088298105 0.66700006
-0.066700004 0.088298105 0.66700006
-0.065429531 0.088298105 0.66700006
-0.064062864 0.088165723 0.66600001
-0.062700003 0.088033341 0.66500002
-0.061156195 0.087636195 0.66200006
-0.059895243 0.087636195 0.66200006
-0.058457147 0.087371431 0.66000003
-0.057026669 0.087106675 0.65800005
-0.055773336 0.087106675 0.65800005
-0.054437146 0.086974293 0.65700001
-0.053185716 0.086974293 0.65700001
-0.051934291 0.086974293 0.65700001
-0.050605718 0.086841911 0.65600002
-0.049356192 0.086841911 0.65600002
-0.048033338 0.086709529 0.65500003
-0.046642859 0.086444765 0.65300006
-0.045399051 0.086444765 0.65300006
-0.044087622 0.086312383 0.65200001
-0.042780004 0.086180009 0.65100002
-0.041540004 0.086180009 0.65100002
-0.040238097 0.086047627 0.65000004
-0.038880002 0.085782863 0.648
-0.03758762 0.085650481 0.64700001
-0.036355242 0.085650481 0.64700001
-0.035014287 0.085385717 0.64500004
-0.033785716 0.085385717 0.64500004
-0.032557145 0.085385717 0.64500004
-0.031280003 0.085253336 0.64400005
-0.030053336 0.085253336 0.64400005
-0.028826669 0.085253336 0.64400005
-0.027514288 0.084988579 0.64200002
-0.02629143 0.084988579 0.64200002
-0.025029525 0.084856197 0.64100003
-0.023771429 0.084723815 0.64000005
-0.022517145 0.084591433 0.63900006
-0.021300001 0.084591433 0.63900006
-0.020082859 0.084591433 0.63900006
-0.018836191 0.084459051 0.63800001
-0.017565716 0.084194288 0.63600004
-0.016354287 0.084194288 0.63600004
-0.015190477 0.084459051 0.63800001
-0.013975239 0.084459051 0.63800001
-0.012760001 0.084459051 0.63800001
-0.011562858 0.084591433 0.63900006
-0.010361905 0.084723815 0.64000005
-0.0092000002 0.085253336 0.64400005
-0.0079857148 0.085385717 0.64500004
-0.0067885718 0.085782863 0.648
-0.0056228577 0.086841911 0.65600002
-0.0043866672 0.087106675 0.65800005
-0.0031476193 0.087503813 0.66100001
-0.0018914287 0.087636195 0.66200006
-0.0006333334 0.088033341 0.66500002
0.00063428574 0.088165723 0.66600001
0.0019028572 0.088165723 0.66600001
0.0031761907 0.088298105 0.66700006
0.0044466672 0.088298105 0.66700006
-0.081521913 0.09050858 0.67400002
-0.080238104 0.09050858 0.67400002
-0.078954294 0.09050858 0.67400002
-0.077440009 0.090240009 0.67200005
-0.076046668 0.09010572 0.671
-0.074768573 0.09010572 0.671
-0.073490478 0.09010572 0.671
-0.072104767 0.089971438 0.67000002
-0.070828579 0.089971438 0.67000002
-0.069448575 0.089837149 0.66900003
-0.068174288 0.089837149 0.66900003
-0.066700004 0.089568578 0.66700006
-0.065429531 0.089568578 0.66700006
-0.064062864 0.089434288 0.66600001
-0.06279429 0.089434288 0.66600001
-0.061248574 0.089031436 0.66300005
-0.059895243 0.088897146 0.66200006
-0.05854572 0.088762864 0.66100001
-0.057200003 0.088628575 0.66000003
-0.05594286 0.088628575 0.66000003
-0.054520003 0.088360004 0.65800005
-0.053266671 0.088360004 0.65800005
-0.051934291 0.088225722 0.65700001
-0.050682861 0.088225722 0.65700001
-0.049356192 0.088091433 0.65600002
-0.048033338 0.087957151 0.65500003
-0.046785716 0.087957151 0.65500003
-0.045399051 0.08768858 0.65300006
-0.044087622 0.087554291 0.65200001
-0.042845719 0.087554291 0.65200001
-0.041540004 0.087420009 0.65100002
-0.040300004 0.087420009 0.65100002
-0.039000001 0.08728572 0.65000004
-0.037761908 0.08728572 0.65000004
-0.036411431 0.087017149 0.648
-0.035068575 0.086748578 0.64600003
-0.033838097 0.086748578 0.64600003
-0.032557145 0.086614288 0.64500004
-0.031328574 0.086614288 0.64500004
-0.030053336 0.086480007 0.64400005
-0.028826669 0.086480007 0.64400005
-0.027600002 0.086480007 0.64400005
-0.02629143 0.086211435 0.64200002
-0.025029525 0.086077146 0.64100003
-0.023808572 0.086077146 0.64100003
-0.02258762 0.086077146 0.64100003
-0.021333335 0.085942864 0.64000005
-0.020082859 0.085808575 0.63900006
-0.018865716 0.085808575 0.63900006
-0.017620953 0.085674293 0.63800001
-0.016405715 0.085674293 0.63800001
-0.015214287 0.085808575 0.63900006
-0.013997144 0.085808575 0.63900006
-0.01278 0.085808575 0.63900006
-0.011562858 0.085808575 0.63900006
-0.010378096 0.086077146 0.64100003
-0.0092142867 0.086614288 0.64500004
-0.0079980958 0.086748578 0.64600003
-0.0067885718 0.087017149 0.648
-0.0056314291 0.088225722 0.65700001
-0.0043866672 0.088360004 0.65800005
-0.0031476193 0.088762864 0.66100001
-0.0018914287 0.088897146 0.66200006
-0.0006333334 0.089300007 0.66500002
0.00063428574 0.089434288 0.66600001
0.0019028572 0.089434288 0.66600001
0.0031761907 0.089568578 0.66700006
0.0044466672 0.089568578 0.66700006
-0.080357149 0.091928579 0.67500001
-0.079071432 0.091928579 0.67500001
-0.077670485 0.09179239 0.67400002
-0.076160006 0.091520004 0.67200005
-0.074880004 0.091520004 0.67200005
-0.073600002 0.091520004 0.67200005
-0.072212383 0.091383815 0.671
-0.070828579 0.091247626 0.67000002
-0.069552384 0.091247626 0.67000002
-0.068174288 0.091111436 0.66900003
-0.066900007 0.091111436 0.66900003
-0.06562572 0.091111436 0.66900003
-0.064159051 0.090839051 0.66700006
-0.062888578 0.090839051 0.66700006
-0.061433338 0.090566672 0.66500002
-0.060166672 0.090566672 0.66500002
-0.058634289 0.090158097 0.66200006
-0.057373337 0.090158097 0.66200006
-0.056027621 0.090021908 0.66100001
-0.054685719 0.089885719 0.66000003
-0.053266671 0.089613341 0.65800005
-0.052013338 0.089613341 0.65800005
-0.050682861 0.089477152 0.65700001
-0.049431432 0.089477152 0.65700001
-0.04810667 0.089340955 0.65600002
-0.046785716 0.089204766 0.65500003
-0.045399051 0.088932388 0.65300006
-0.04415524 0.088932388 0.65300006
-0.042845719 0.088796198 0.65200001
-0.041603811 0.088796198 0.65200001
-0.040300004 0.088660009 0.65100002
-0.039060004 0.088660009 0.65100002
-0.037820004 0.088660009 0.65100002
-0.036523812 0.088523813 0.65000004
-0.03512286 0.088115245 0.64700001
-0.033890478 0.088115245 0.64700001
-0.032607622 0.087979056 0.64600003
-0.031328574 0.087842859 0.64500004
-0.030100003 0.087842859 0.64500004
-0.028826669 0.08770667 0.64400005
-0.027600002 0.08770667 0.64400005
-0.026373334 0.08770667 0.64400005
-0.025068574 0.087434292 0.64200002
-0.023845715 0.087434292 0.64200002
-0.02258762 0.087298103 0.64100003
-0.021366669 0.087298103 0.64100003
-0.020114288 0.087161914 0.64000005
-0.018865716 0.087025717 0.63900006
-0.017648572 0.087025717 0.63900006
-0.01643143 0.087025717 0.63900006
-0.015238096 0.087161914 0.64000005
-0.013997144 0.087025717 0.63900006
-0.01278 0.087025717 0.63900006
-0.011599048 0.087298103 0.64100003
-0.010394286 0.087434292 0.64200002
-0.0092285722 0.087979056 0.64600003
-0.0080104768 0.088115245 0.64700001
-0.0067885718 0.088251434 0.648
-0.0056314291 0.089477152 0.65700001
-0.0043866672 0.089613341 0.65800005
-0.0031476193 0.090021908 0.66100001
-0.0018914287 0.090158097 0.66200006
-0.0006333334 0.090566672 0.66500002
0.0006333334 0.090566672 0.66500002
0.0019028572 0.090702862 0.66600001
0.0031714288 0.090702862 0.66600001
0.0044400003 0.090702862 0.66600001
-0.082005717 0.093628578 0.67800003
-0.079188578 0.093352385 0.67600006
-0.077785723 0.093214288 0.67500001
-0.076386675 0.093076199 0.67400002
-0.075102866 0.093076199 0.67400002
-0.073600002 0.092800006 0.67200005
-0.072212383 0.09266191 0.671
-0.070934288 0.09266191 0.671
-0.069552384 0.092523813 0.67000002
-0.068276197 0.092523813 0.67000002
-0.067000002 0.092523813 0.67000002
-0.06562572 0.092385717 0.66900003
-0.064159051 0.092109531 0.66700006
-0.062888578 0.092109531 0.66700006
-0.061525717 0.091971435 0.66600001
-0.060257148 0.091971435 0.66600001
-0.058722861 0.091557153 0.66300005
-0.057460003 0.091557153 0.66300005
-0.056112386 0.091419056 0.66200006
-0.054768573 0.09128096 0.66100001
-0.053428575 0.091142863 0.66000003
-0.052013338 0.09086667 0.65800005
-0.050760005 0.09086667 0.65800005
-0.049431432 0.090728581 0.65700001
-0.048180003 0.090728581 0.65700001
-0.046857145 0.090590484 0.65600002
-0.045538098 0.090452388 0.65500003
-0.04415524 0.090176195 0.65300006
-0.042911433 0.090176195 0.65300006
-0.041603811 0.090038098 0.65200001
-0.040361907 0.090038098 0.65200001
-0.039060004 0.089900009 0.65100002
-0.037820004 0.089900009 0.65100002
-0.036523812 0.089761913 0.65000004
-0.035177145 0.08948572 0.648
-0.03394286 0.08948572 0.648
-0.032658096 0.089347623 0.64700001
-0.031328574 0.089071438 0.64500004
-0.030100003 0.089071438 0.64500004
-0.02887143 0.089071438 0.64500004
-0.027600002 0.088933341 0.64400005
-0.026373334 0.088933341 0.64400005
-0.025146669 0.088933341 0.64400005
-0.023845715 0.088657148 0.64200002
-0.022622859 0.088657148 0.64200002
-0.021400001 0.088657148 0.64200002
-0.020145716 0.088519052 0.64100003
-0.018895239 0.088380955 0.64000005
-0.017676191 0.088380955 0.64000005
-0.016457144 0.088380955 0.64000005
-0.015261906 0.088519052 0.64100003
-0.014019049 0.088380955 0.64000005
-0.012800001 0.088380955 0.64000005
-0.011599048 0.088519052 0.64100003
-0.010459049 0.089209527 0.64600003
-0.0092428578 0.089347623 0.64700001
-0.0080476198 0.089761913 0.65000004
-0.0068200002 0.089900009 0.65100002
-0.0056314291 0.090728581 0.65700001
-0.0043866672 0.09086667 0.65800005
-0.0031476193 0.09128096 0.66100001
-0.0018914287 0.091419056 0.66200006
-0.0006333334 0.091833338 0.66500002
0.00063428574 0.091971435 0.66600001
0.0019028572 0.091971435 0.66600001
0.0031761907 0.092109531 0.66700006
0.0044466672 0.092109531 0.66700006
-0.080714293 0.094920009 0.67800003
-0.079422861 0.094920009 0.67800003
-0.077900961 0.094640009 0.67600006
-0.076613337 0.094640009 0.67600006
-0.075214289 0.094500005 0.67500001
-0.073819056 0.094360009 0.67400002
-0.072320007 0.094080009 0.67200005
-0.071040004 0.094080009 0.67200005
-0.069656193 0.093940005 0.671
-0.068276197 0.093800008 0.67000002
-0.067000002 0.093800008 0.67000002
-0.06562572 0.093660004 0.66900003
-0.064351432 0.093660004 0.66900003
-0.062888578 0.093380004 0.66700006
-0.061618101 0.093380004 0.66700006
-0.060257148 0.093240008 0.66600001
-0.058900002 0.093100004 0.66500002
-0.057460003 0.092820004 0.66300005
-0.056197148 0.092820004 0.66300005
-0.054851431 0.092680007 0.66200006
-0.053428575 0.092400007 0.66000003
-0.052171431 0.092400007 0.66000003
-0.050760005 0.092120007 0.65800005
-0.049506672 0.092120007 0.65800005
-0.048180003 0.091980003 0.65700001
-0.046857145 0.091840006 0.65600002
-0.045538098 0.091700003 0.65500003
-0.04415524 0.091420002 0.65300006
-0.042911433 0.091420002 0.65300006
-0.041603811 0.091280006 0.65200001
-0.040361907 0.091280006 0.65200001
-0.039120004 0.091280006 0.65200001
-0.037820004 0.091140009 0.65100002
-0.036580004 0.091140009 0.65100002
-0.035285715 0.091000006 0.65000004
-0.03394286 0.090720005 0.648
-0.032708574 0.090720005 0.648
-0.031425714 0.090580009 0.64700001
-0.030146668 0.090440005 0.64600003
-0.028916193 0.090440005 0.64600003
-0.027642859 0.090300009 0.64500004
-0.026414288 0.090300009 0.64500004
-0.025185715 0.090300009 0.64500004
-0.023920001 0.090160005 0.64400005
-0.022693334 0.090160005 0.64400005
-0.021466669 0.090160005 0.64400005
-0.020177145 0.089880005 0.64200002
-0.018924763 0.089740008 0.64100003
-0.017703811 0.089740008 0.64100003
-0.016482858 0.089740008 0.64100003
-0.015261906 0.089740008 0.64100003
-0.014040953 0.089740008 0.64100003
-0.012800001 0.089600004 0.64000005
-0.011599048 0.089740008 0.64100003
-0.010459049 0.090440005 0.64600003
-0.0092571434 0.090720005 0.648
-0.0080600008 0.091140009 0.65100002
-0.0068409527 0.091420002 0.65300006
-0.0056314291 0.091980003 0.65700001
-0.0043866672 0.092120007 0.65800005
-0.0031428575 0.092400007 0.66000003
-0.0018914287 0.092680007 0.66200006
-0.00063428574 0.093240008 0.66600001
0.00063428574 0.093240008 0.66600001
0.0019028572 0.093240008 0.66600001
0.0031761907 0.093380004 0.66700006
-0.080714293 0.096211433 0.67800003
-0.079422861 0.096211433 0.67800003
-0.078131437 0.096211433 0.67800003
-0.076840006 0.096211433 0.67800003
-0.07532572 0.095927626 0.67600006
-0.07392858 0.095785722 0.67500001
-0.072535239 0.095643818 0.67400002
-0.07125143 0.095643818 0.67400002
-0.069760002 0.095360003 0.67200005
-0.068378098 0.0952181 0.671
-0.067100003 0.0952181 0.671
-0.065723814 0.095076196 0.67000002
-0.064351432 0.094934292 0.66900003
-0.063077144 0.094934292 0.66900003
-0.06180286 0.094934292 0.66900003
-0.060347624 0.094650485 0.66700006
-0.058988575 0.094508581 0.66600001
-0.057633337 0.09436667 0.66500002
-0.056197148 0.094082862 0.66300005
-0.054851431 0.093940958 0.66200006
-0.053509526 0.093799055 0.66100001
-0.052250478 0.093799055 0.66100001
-0.050914288 0.093657151 0.66000003
-0.049506672 0.093373336 0.65800005
-0.048253335 0.093373336 0.65800005
-0.046928573 0.093231432 0.65700001
-0.045538098 0.092947625 0.65500003
-0.04415524 0.092663817 0.65300006
-0.042911433 0.092663817 0.65300006
-0.041667622 0.092663817 0.65300006
-0.040361907 0.092521913 0.65200001
-0.039120004 0.092521913 0.65200001
-0.037878096 0.092521913 0.65200001
-0.036580004 0.09238001 0.65100002
-0.035340004 0.09238001 0.65100002
-0.034047622 0.092238098 0.65000004
-0.032809526 0.092238098 0.65000004
-0.031474289 0.091954291 0.648
-0.030193334 0.091812387 0.64700001
-0.028960954 0.091812387 0.64700001
-0.027685717 0.091670483 0.64600003
-0.02645524 0.091670483 0.64600003
-0.025224764 0.091670483 0.64600003
-0.023920001 0.091386676 0.64400005
-0.022693334 0.091386676 0.64400005
-0.021466669 0.091386676 0.64400005
-0.020177145 0.091102861 0.64200002
-0.018924763 0.090960957 0.64100003
-0.017703811 0.090960957 0.64100003
-0.016508572 0.091102861 0.64200002
-0.015285715 0.091102861 0.64200002
-0.014062858 0.091102861 0.64200002
-0.012840001 0.091102861 0.64200002
-0.011653334 0.091386676 0.64400005
-0.010442858 0.09152858 0.64500004
-0.0092428578 0.091812387 0.64700001
-0.0080600008 0.09238001 0.65100002
-0.0056228577 0.093089528 0.65600002
-0.0043866672 0.093373336 0.65800005
-0.0031428575 0.093657151 0.66000003
-0.0018914287 0.093940958 0.66200006
-0.00063523813 0.094650485 0.66700006
0.00063714292 0.094934292 0.66900003
0.0019114286 0.094934292 0.66900003
0.0031857146 0.094934292 0.66900003
0.0044600004 0.094934292 0.66900003
-0.080714293 0.097502865 0.67800003
-0.079422861 0.097502865 0.67800003
-0.078131437 0.097502865 0.67800003
-0.076840006 0.097502865 0.67800003
-0.075548574 0.097502865 0.67800003
-0.074038103 0.097215243 0.67600006
-0.072750479 0.097215243 0.67600006
-0.07125143 0.096927628 0.67400002
-0.069760002 0.096640006 0.67200005
-0.068480007 0.096640006 0.67200005
-0.067100003 0.096496195 0.671
-0.065723814 0.096352391 0.67000002
-0.064351432 0.09620858 0.66900003
-0.063077144 0.09620858 0.66900003
-0.06180286 0.09620858 0.66900003
-0.060347624 0.095920958 0.66700006
-0.058988575 0.095777147 0.66600001
-0.057633337 0.095633343 0.66500002
-0.056366671 0.095633343 0.66500002
-0.054934289 0.095345721 0.66300005
-0.05359048 0.09520191 0.66200006
-0.052329529 0.09520191 0.66200006
-0.050914288 0.094914295 0.66000003
-0.049657147 0.094914295 0.66000003
-0.048253335 0.094626673 0.65800005
-0.046928573 0.094482861 0.65700001
-0.045607623 0.09433905 0.65600002
-0.044290479 0.094195247 0.65500003
-0.042911433 0.093907624 0.65300006
-0.041667622 0.093907624 0.65300006
-0.040361907 0.093763813 0.65200001
-0.039120004 0.093763813 0.65200001
-0.037878096 0.093763813 0.65200001
-0.036636192 0.093763813 0.65200001
-0.035340004 0.09362001 0.65100002
-0.034047622 0.093476199 0.65000004
-0.032809526 0.093476199 0.65000004
-0.031474289 0.093188576 0.648
-0.030240001 0.093188576 0.648
-0.028960954 0.093044765 0.64700001
-0.027728572 0.093044765 0.64700001
-0.02645524 0.092900962 0.64600003
-0.025224764 0.092900962 0.64600003
-0.023920001 0.092613339 0.64400005
-0.022693334 0.092613339 0.64400005
-0.021466669 0.092613339 0.64400005
-0.020177145 0.092325717 0.64200002
-0.018924763 0.092181914 0.64100003
-0.01773143 0.092325717 0.64200002
-0.016508572 0.092325717 0.64200002
-0.015333334 0.092613339 0.64400005
-0.014106668 0.092613339 0.64400005
-0.012880001 0.092613339 0.64400005
-0.011671429 0.092757151 0.64500004
-0.010459049 0.092900962 0.64600003
-0.0092428578 0.093044765 0.64700001
-0.0080476198 0.093476199 0.65000004
-0.0068304767 0.093763813 0.65200001
-0.0056228577 0.09433905 0.65600002
-0.0043866672 0.094626673 0.65800005
-0.0031428575 0.094914295 0.66000003
-0.0018942858 0.095345721 0.66300005
-0.00063714292 0.09620858 0.66900003
0.00063714292 0.09620858 0.66900003
0.0019114286 0.09620858 0.66900003
0.0031857146 0.09620858 0.66900003
0.0044600004 0.09620858 0.66900003
-0.080833338 0.098940007 0.67900002
-0.079540007 0.098940007 0.67900002
-0.078131437 0.098794289 0.67800003
-0.076953337 0.098940007 0.67900002
-0.075548574 0.098794289 0.67800003
-0.07425715 0.098794289 0.67800003
-0.072965719 0.098794289 0.67800003
-0.071462862 0.098502867 0.67600006
-0.070071436 0.098357148 0.67500001
-0.068683811 0.098211437 0.67400002
-0.067200005 0.097920008 0.67200005
-0.065821908 0.09777429 0.671
-0.064447626 0.097628579 0.67000002
-0.063077144 0.09748286 0.66900003
-0.06180286 0.09748286 0.66900003
-0.060347624 0.097191438 0.66700006
-0.059077147 0.097191438 0.66700006
-0.057720006 0.09704572 0.66600001
-0.056366671 0.096900009 0.66500002
-0.055100005 0.096900009 0.66500002
-0.053671431 0.096608579 0.66300005
-0.052408576 0.096608579 0.66300005
-0.051068574 0.096462861 0.66200006
-0.049732383 0.09631715 0.66100001
-0.048473336 0.09631715 0.66100001
-0.047000002 0.095880009 0.65800005
-0.045677144 0.095734291 0.65700001
-0.044358097 0.09558858 0.65600002
-0.043108575 0.09558858 0.65600002
-0.041795243 0.095442861 0.65500003
-0.04042381 0.095151432 0.65300006
-0.039180003 0.095151432 0.65300006
-0.037936192 0.095151432 0.65300006
-0.036636192 0.095005721 0.65200001
-0.035394289 0.095005721 0.65200001
-0.034152385 0.095005721 0.65200001
-0.032860003 0.09486001 0.65100002
-0.031620003 0.09486001 0.65100002
-0.030333335 0.094714291 0.65000004
-0.029005716 0.094422862 0.648
-0.027728572 0.094277151 0.64700001
-0.026496192 0.094277151 0.64700001
-0.025263811 0.094277151 0.64700001
-0.023994287 0.094131432 0.64600003
-0.022728574 0.093985721 0.64500004
-0.021466669 0.093840003 0.64400005
-0.020177145 0.093548581 0.64200002
-0.018954286 0.093548581 0.64200002
-0.01773143 0.093548581 0.64200002
-0.016508572 0.093548581 0.64200002
-0.015333334 0.093840003 0.64400005
-0.014128572 0.093985721 0.64500004
-0.0129 0.093985721 0.64500004
-0.011689524 0.094131432 0.64600003
-0.010459049 0.094131432 0.64600003
-0.0092571434 0.094422862 0.648
-0.0080476198 0.094714291 0.65000004
-0.0068304767 0.095005721 0.65200001
-0.0056228577 0.09558858 0.65600002
-0.0043866672 0.095880009 0.65800005
-0.0031428575 0.096171431 0.66000003
-0.0018942858 0.096608579 0.66300005
0.00063904765 0.09777429 0.671
0.001917143 0.09777429 0.671
0.0031952383 0.09777429 0.671
-0.080833338 0.10023334 0.67900002
-0.079540007 0.10023334 0.67900002
-0.078246675 0.10023334 0.67900002
-0.076953337 0.10023334 0.67900002
-0.075660005 0.10023334 0.67900002
-0.074366674 0.10023334 0.67900002
-0.072965719 0.10008572 0.67800003
-0.071674287 0.10008572 0.67800003
-0.070175245 0.099790484 0.67600006
-0.06878572 0.099642865 0.67500001
-0.067400001 0.099495247 0.67400002
-0.065821908 0.099052384 0.671
-0.064447626 0.098904766 0.67000002
-0.063171431 0.098904766 0.67000002
-0.06180286 0.098757148 0.66900003
-0.060528576 0.098757148 0.66900003
-0.059077147 0.098461911 0.66700006
-0.057720006 0.098314293 0.66600001
-0.056366671 0.098166674 0.66500002
-0.055100005 0.098166674 0.66500002
-0.053833336 0.098166674 0.66500002
-0.052408576 0.097871438 0.66300005
-0.051145718 0.097871438 0.66300005
-0.049807623 0.097723819 0.66200006
-0.048546668 0.097723819 0.66200006
-0.047214288 0.097576194 0.66100001
-0.045746669 0.097133338 0.65800005
-0.044425718 0.09698572 0.65700001
-0.043174289 0.09698572 0.65700001
-0.041859049 0.096838102 0.65600002
-0.040609527 0.096838102 0.65600002
-0.039300002 0.096690483 0.65500003
-0.037936192 0.096395247 0.65300006
-0.036692385 0.096395247 0.65300006
-0.035448574 0.096395247 0.65300006
-0.034204762 0.096395247 0.65300006
-0.032910477 0.096247628 0.65200001
-0.031668574 0.096247628 0.65200001
-0.030380001 0.09610001 0.65100002
-0.029005716 0.095657147 0.648
-0.02777143 0.095657147 0.648
-0.026496192 0.095509529 0.64700001
-0.025263811 0.095509529 0.64700001
-0.023994287 0.095361911 0.64600003
-0.022728574 0.095214292 0.64500004
-0.021466669 0.095066674 0.64400005
-0.020177145 0.094771437 0.64200002
-0.018954286 0.094771437 0.64200002
-0.01773143 0.094771437 0.64200002
-0.016560001 0.095066674 0.64400005
-0.015357144 0.095214292 0.64500004
-0.014150477 0.095361911 0.64600003
-0.012920001 0.095361911 0.64600003
-0.011689524 0.095361911 0.64600003
-0.010475239 0.095509529 0.64700001
-0.0092571434 0.095657147 0.648
-0.0080476198 0.095952384 0.65000004
-0.0068304767 0.096247628 0.65200001
-0.0056228577 0.096838102 0.65600002
-0.0043866672 0.097133338 0.65800005
-0.0031428575 0.097428575 0.66000003
-0.0019000001 0.098166674 0.66500002
0.00064000004 0.099200003 0.67200005
0.0019257144 0.099495247 0.67400002
-0.080952384 0.1016762 0.68000001
-0.079657145 0.1016762 0.68000001
-0.078361914 0.1016762 0.68000001
-0.077066675 0.1016762 0.68000001
-0.075660005 0.10152667 0.67900002
-0.074366674 0.10152667 0.67900002
-0.073073335 0.10152667 0.67900002
-0.071674287 0.10137715 0.67800003
-0.070382863 0.10137715 0.67800003
-0.068887621 0.1010781 0.67600006
-0.067500003 0.10092857 0.67500001
-0.066116191 0.10077906 0.67400002
-0.064640008 0.10048001 0.67200005
-0.063265719 0.10033048 0.671
-0.061895244 0.10018096 0.67000002
-0.060619052 0.10018096 0.67000002
-0.059342861 0.10018096 0.67000002
-0.057980005 0.10003144 0.66900003
-0.056536194 0.099732384 0.66700006
-0.055265717 0.099732384 0.66700006
-0.05399524 0.099732384 0.66700006
-0.052724764 0.099732384 0.66700006
-0.051145718 0.099134289 0.66300005
-0.049882859 0.099134289 0.66300005
-0.048620004 0.099134289 0.66300005
-0.047285717 0.09898477 0.66200006
-0.046024766 0.09898477 0.66200006
-0.044696193 0.098835245 0.66100001
-0.043240003 0.098386675 0.65800005
-0.04198667 0.098386675 0.65800005
-0.040733337 0.098386675 0.65800005
-0.039420001 0.098237149 0.65700001
-0.03811048 0.098087624 0.65600002
-0.036860954 0.098087624 0.65600002
-0.035611432 0.098087624 0.65600002
-0.034309525 0.097938098 0.65500003
-0.032960955 0.097639054 0.65300006
-0.031668574 0.097489528 0.65200001
-0.030426668 0.097489528 0.65200001
-0.029140001 0.09734001 0.65100002
-0.027857145 0.097190484 0.65000004
-0.026537145 0.096891433 0.648
-0.025302859 0.096891433 0.648
-0.02403143 0.096741915 0.64700001
-0.022763811 0.096592389 0.64600003
-0.021500001 0.096442863 0.64500004
-0.020177145 0.095994294 0.64200002
-0.018954286 0.095994294 0.64200002
-0.017786669 0.096293338 0.64400005
-0.016560001 0.096293338 0.64400005
-0.015357144 0.096442863 0.64500004
-0.014150477 0.096592389 0.64600003
-0.012920001 0.096592389 0.64600003
-0.01170762 0.096741915 0.64700001
-0.010491429 0.096891433 0.648
-0.0092571434 0.096891433 0.648
-0.0080600008 0.09734001 0.65100002
-0.0068409527 0.097639054 0.65300006
-0.0056142863 0.097938098 0.65500003
-0.0043866672 0.098386675 0.65800005
-0.0031523812 0.09898477 0.66200006
-0.00063523813 0.099732384 0.66700006
-0.079891436 0.10327429 0.68200004
-0.07859239 0.10327429 0.68200004
-0.077066675 0.10297143 0.68000001
-0.075771436 0.10297143 0.68000001
-0.074476197 0.10297143 0.68000001
-0.073073335 0.10282001 0.67900002
-0.071780004 0.10282001 0.67900002
-0.070382863 0.10266858 0.67800003
-0.069091432 0.10266858 0.67800003
-0.067600004 0.10236572 0.67600006
-0.066214293 0.10221429 0.67500001
-0.064832382 0.10206287 0.67400002
-0.063360006 0.10176001 0.67200005
-0.062080003 0.10176001 0.67200005
-0.060709529 0.10160857 0.671
-0.059431434 0.10160857 0.671
-0.057980005 0.10130572 0.66900003
-0.056705717 0.10130572 0.66900003
-0.055431433 0.10130572 0.66900003
-0.05399524 0.10100286 0.66700006
-0.052724764 0.10100286 0.66700006
-0.051377147 0.10085143 0.66600001
-0.050033338 0.10070001 0.66500002
-0.048620004 0.10039715 0.66300005
-0.047357146 0.10039715 0.66300005
-0.046024766 0.10024572 0.66200006
-0.044696193 0.10009429 0.66100001
-0.043371432 0.099942863 0.66000003
-0.042114288 0.099942863 0.66000003
-0.040733337 0.099640004 0.65800005
-0.039480001 0.099640004 0.65800005
-0.038168576 0.099488579 0.65700001
-0.036917146 0.099488579 0.65700001
-0.035611432 0.099337146 0.65600002
-0.034309525 0.09918572 0.65500003
-0.032960955 0.098882861 0.65300006
-0.031717144 0.098882861 0.65300006
-0.030426668 0.098731436 0.65200001
-0.029184764 0.098731436 0.65200001
-0.027900001 0.098580003 0.65100002
-0.026619049 0.098428577 0.65000004
-0.025380954 0.098428577 0.65000004
-0.024068573 0.098125719 0.648
-0.022763811 0.09782286 0.64600003
-0.021500001 0.097671434 0.64500004
-0.020240001 0.097520009 0.64400005
-0.019013334 0.097520009 0.64400005
-0.017786669 0.097520009 0.64400005
-0.016585715 0.097671434 0.64500004
-0.015357144 0.097671434 0.64500004
-0.014150477 0.09782286 0.64600003
-0.012940001 0.097974293 0.64700001
-0.01170762 0.097974293 0.64700001
-0.010491429 0.098125719 0.648
-0.0092857145 0.098428577 0.65000004
-0.0080600008 0.098580003 0.65100002
-0.0068409527 0.098882861 0.65300006
-0.0056228577 0.099337146 0.65600002
-0.0044066668 0.10009429 0.66100001
-0.003166667 0.10070001 0.66500002
-0.0019114286 0.10130572 0.66900003
-0.00063809525 0.10145715 0.67000002
0.00064000004 0.10176001 0.67200005
-0.080008574 0.10472667 0.68300003
-0.078707621 0.10472667 0.68300003
-0.077293336 0.10457334 0.68200004
-0.075771436 0.10426667 0.68000001
-0.074476197 0.10426667 0.68000001
-0.073073335 0.10411334 0.67900002
-0.071780004 0.10411334 0.67900002
-0.070486672 0.10411334 0.67900002
-0.069091432 0.10396001 0.67800003
-0.067800008 0.10396001 0.67800003
-0.066312388 0.10365334 0.67600006
-0.064928576 0.10350001 0.67500001
-0.063548572 0.10334668 0.67400002
-0.062080003 0.10304001 0.67200005
-0.060800005 0.10304001 0.67200005
-0.059431434 0.10288668 0.671
-0.057980005 0.10258 0.66900003
-0.056705717 0.10258 0.66900003
-0.055514291 0.10273334 0.67000002
-0.054157145 0.10258 0.66900003
-0.052724764 0.10227334 0.66700006
-0.051377147 0.10212 0.66600001
-0.050108574 0.10212 0.66600001
-0.048766669 0.10196667 0.66500002
-0.047357146 0.10166001 0.66300005
-0.046024766 0.10150667 0.66200006
-0.044763811 0.10150667 0.66200006
-0.04350286 0.10150667 0.66200006
-0.042178098 0.10135334 0.66100001
-0.040857144 0.10120001 0.66000003
-0.039480001 0.10089334 0.65800005
-0.038168576 0.10074001 0.65700001
-0.036917146 0.10074001 0.65700001
-0.035611432 0.10058668 0.65600002
-0.034361906 0.10058668 0.65600002
-0.032960955 0.10012668 0.65300006
-0.031717144 0.10012668 0.65300006
-0.030473335 0.10012668 0.65300006
-0.029229525 0.10012668 0.65300006
-0.027942859 0.099973343 0.65200001
-0.026700955 0.099973343 0.65200001
-0.025420001 0.099820003 0.65100002
-0.024180003 0.099820003 0.65100002
-0.022904763 0.09966667 0.65000004
-0.021566669 0.099206671 0.64700001
-0.020334287 0.099206671 0.64700001
-0.019042859 0.098900005 0.64500004
-0.017841905 0.099053338 0.64600003
-0.016611429 0.099053338 0.64600003
-0.015380953 0.099053338 0.64600003
-0.014172382 0.099206671 0.64700001
-0.012960001 0.099360004 0.648
-0.011725715 0.099360004 0.648
-0.010491429 0.099360004 0.648
-0.009300001 0.099820003 0.65100002
-0.0080723818 0.099973343 0.65200001
-0.0068409527 0.10012668 0.65300006
-0.0056314291 0.10074001 0.65700001
-0.0044200001 0.10166001 0.66300005
-0.003166667 0.10196667 0.66500002
-0.0019114286 0.10258 0.66900003
-0.00063714292 0.10258 0.66900003
-0.080008574 0.10602763 0.68300003
-0.078707621 0.10602763 0.68300003
-0.077406675 0.10602763 0.68300003
-0.07599429 0.10587239 0.68200004
-0.074476197 0.10556191 0.68000001
-0.073180959 0.10556191 0.68000001
-0.071780004 0.10540667 0.67900002
-0.070486672 0.10540667 0.67900002
-0.069193341 0.10540667 0.67900002
-0.067800008 0.10525144 0.67800003
-0.066508576 0.10525144 0.67800003
-0.065024763 0.10494096 0.67600006
-0.063737147 0.10494096 0.67600006
-0.062264767 0.10463049 0.67400002
-0.060980957 0.10463049 0.67400002
-0.059520002 0.10432 0.67200005
-0.058153339 0.10416477 0.671
-0.056790479 0.10400953 0.67000002
-0.055514291 0.10400953 0.67000002
-0.054157145 0.10385429 0.66900003
-0.052724764 0.10354382 0.66700006
-0.051377147 0.10338858 0.66600001
-0.050108574 0.10338858 0.66600001
-0.048840005 0.10338858 0.66600001
-0.047500003 0.10323334 0.66500002
-0.046094287 0.10292286 0.66300005
-0.044763811 0.10276762 0.66200006
-0.04350286 0.10276762 0.66200006
-0.042178098 0.10261239 0.66100001
-0.040857144 0.10245715 0.66000003
-0.039600004 0.10245715 0.66000003
-0.038226668 0.10214667 0.65800005
-0.036917146 0.10199144 0.65700001
-0.035665717 0.10199144 0.65700001
-0.034361906 0.1018362 0.65600002
-0.033061907 0.10168096 0.65500003
-0.031717144 0.10137048 0.65300006
-0.030473335 0.10137048 0.65300006
-0.029229525 0.10137048 0.65300006
-0.027985716 0.10137048 0.65300006
-0.026700955 0.10121524 0.65200001
-0.025459049 0.10121524 0.65200001
-0.024217144 0.10121524 0.65200001
-0.02297524 0.10121524 0.65200001
-0.021666668 0.10090477 0.65000004
-0.020365715 0.10059429 0.648
-0.019072382 0.10028382 0.64600003
-0.017841905 0.10028382 0.64600003
-0.016611429 0.10028382 0.64600003
-0.015404763 0.10043906 0.64700001
-0.014194286 0.10059429 0.648
-0.012960001 0.10059429 0.648
-0.011725715 0.10059429 0.648
-0.01052381 0.10090477 0.65000004
-0.0093142865 0.10121524 0.65200001
-0.0080847628 0.10137048 0.65300006
-0.0068409527 0.10137048 0.65300006
-0.0056400006 0.10214667 0.65800005
-0.0044200001 0.10292286 0.66300005
-0.0031714288 0.10338858 0.66600001
-0.0019142858 0.10400953 0.67000002
-0.00063809525 0.10400953 0.67000002
-0.080125719 0.10748572 0.68400002
-0.078822859 0.10748572 0.68400002
-0.077406675 0.10732858 0.68300003
-0.076105721 0.10732858 0.68300003
-0.074695244 0.10717144 0.68200004
-0.073180959 0.10685715 0.68000001
-0.07188572 0.10685715 0.68000001
-0.070486672 0.10670001 0.67900002
-0.069193341 0.10670001 0.67900002
-0.067800008 0.10654286 0.67800003
-0.066508576 0.10654286 0.67800003
-0.065217145 0.10654286 0.67800003
-0.063737147 0.10622858 0.67600006
-0.062357146 0.10607143 0.67500001
-0.060980957 0.10591429 0.67400002
-0.059520002 0.10560001 0.67200005
-0.058240004 0.10560001 0.67200005
-0.056790479 0.10528572 0.67000002
-0.055514291 0.10528572 0.67000002
-0.054157145 0.10512858 0.66900003
-0.052724764 0.10481429 0.66700006
-0.051377147 0.10465715 0.66600001
-0.050108574 0.10465715 0.66600001
-0.048840005 0.10465715 0.66600001
-0.047500003 0.1045 0.66500002
-0.046094287 0.10418572 0.66300005
-0.044763811 0.10402858 0.66200006
-0.04350286 0.10402858 0.66200006
-0.042178098 0.10387143 0.66100001
-0.040919051 0.10387143 0.66100001
-0.039600004 0.10371429 0.66000003
-0.038226668 0.10340001 0.65800005
-0.036973335 0.10340001 0.65800005
-0.035665717 0.10324287 0.65700001
-0.034361906 0.10308572 0.65600002
-0.033112384 0.10308572 0.65600002
-0.031814288 0.10292858 0.65500003
-0.030473335 0.10261429 0.65300006
-0.029229525 0.10261429 0.65300006
-0.027985716 0.10261429 0.65300006
-0.026741907 0.10261429 0.65300006
-0.025498098 0.10261429 0.65300006
-0.024254287 0.10261429 0.65300006
-0.02297524 0.10245715 0.65200001
-0.021733334 0.10245715 0.65200001
-0.020365715 0.10182858 0.648
-0.019072382 0.10151429 0.64600003
-0.017841905 0.10151429 0.64600003
-0.016611429 0.10151429 0.64600003
-0.015404763 0.10167143 0.64700001
-0.014194286 0.10182858 0.648
-0.012960001 0.10182858 0.648
-0.011761906 0.10214286 0.65000004
-0.010540001 0.1023 0.65100002
-0.0093285721 0.10261429 0.65300006
-0.0080847628 0.10261429 0.65300006
-0.0068619051 0.10292858 0.65500003
-0.0056657149 0.10387143 0.66100001
-0.0044466672 0.10481429 0.66700006
-0.0031761907 0.10481429 0.66700006
-0.001917143 0.10544287 0.671
-0.00063809525 0.10528572 0.67000002
0.00064000004 0.10560001 0.67200005
-0.080360003 0.10910667 0.68600005
-0.079053335 0.10910667 0.68600005
-0.077520005 0.10878858 0.68400002
-0.076217145 0.10878858 0.68400002
-0.074695244 0.10847048 0.68200004
-0.073396198 0.10847048 0.68200004
-0.07188572 0.10815239 0.68000001
-0.070486672 0.10799334 0.67900002
-0.069193341 0.10799334 0.67900002
-0.067900002 0.10799334 0.67900002
-0.066508576 0.10783429 0.67800003
-0.065217145 0.10783429 0.67800003
-0.063737147 0.1075162 0.67600006
-0.062357146 0.10735715 0.67500001
-0.060980957 0.1071981 0.67400002
-0.059697147 0.1071981 0.67400002
-0.058240004 0.10688001 0.67200005
-0.05687524 0.10672096 0.671
-0.055597145 0.10672096 0.671
-0.0542381 0.10656191 0.67000002
-0.052882861 0.10640287 0.66900003
-0.051454291 0.10608477 0.66700006
-0.050183814 0.10608477 0.66700006
-0.048840005 0.10592572 0.66600001
-0.047500003 0.10576668 0.66500002
-0.046094287 0.10544858 0.66300005
-0.044831432 0.10544858 0.66300005
-0.04350286 0.10528953 0.66200006
-0.042241909 0.10528953 0.66200006
-0.040980954 0.10528953 0.66200006
-0.039720003 0.10528953 0.66200006
-0.038400955 0.10513049 0.66100001
-0.036973335 0.10465334 0.65800005
-0.035720002 0.10465334 0.65800005
-0.034414288 0.1044943 0.65700001
-0.033112384 0.10433525 0.65600002
-0.031814288 0.1041762 0.65500003
-0.030473335 0.1038581 0.65300006
-0.02931905 0.1041762 0.65500003
-0.027985716 0.1038581 0.65300006
-0.026741907 0.1038581 0.65300006
-0.025498098 0.1038581 0.65300006
-0.024254287 0.1038581 0.65300006
-0.023010477 0.1038581 0.65300006
-0.021766668 0.1038581 0.65300006
-0.020428572 0.10338096 0.65000004
-0.019131429 0.10306286 0.648
-0.017869525 0.10290381 0.64700001
-0.016637145 0.10290381 0.64700001
-0.015428573 0.10306286 0.648
-0.014238096 0.10338096 0.65000004
-0.01302 0.10354 0.65100002
-0.011780001 0.10354 0.65100002
-0.010556191 0.10369905 0.65200001
-0.0093285721 0.1038581 0.65300006
-0.0081095239 0.1041762 0.65500003
-0.0068619051 0.1041762 0.65500003
-0.0056142863 0.1041762 0.65500003
-0.0044600004 0.10640287 0.66900003
-0.0031857146 0.10640287 0.66900003
-0.0019142858 0.10656191 0.67000002
-0.00063809525 0.10656191 0.67000002
0.00063904765 0.10672096 0.671
-0.080360003 0.11041334 0.68600005
-0.079053335 0.11041334 0.68600005
-0.077520005 0.11009143 0.68400002
-0.076217145 0.11009143 0.68400002
-0.074804768 0.10993049 0.68300003
-0.073503815 0.10993049 0.68300003
-0.072097145 0.10976953 0.68200004
-0.070590481 0.10944763 0.68000001
-0.069193341 0.10928667 0.67900002
-0.067900002 0.10928667 0.67900002
-0.066606671 0.10928667 0.67900002
-0.065313339 0.10928667 0.67900002
-0.063925721 0.10912572 0.67800003
-0.06244953 0.10880382 0.67600006
-0.061071433 0.10864286 0.67500001
-0.059697147 0.10848191 0.67400002
-0.058413338 0.10848191 0.67400002
-0.056960005 0.10816 0.67200005
-0.055680003 0.10816 0.67200005
-0.0542381 0.1078381 0.67000002
-0.052882861 0.10767715 0.66900003
-0.051608574 0.10767715 0.66900003
-0.050183814 0.10735524 0.66700006
-0.048913337 0.10735524 0.66700006
-0.047571432 0.10719429 0.66600001
-0.046233337 0.10703334 0.66500002
-0.044966668 0.10703334 0.66500002
-0.043568574 0.10671143 0.66300005
-0.042241909 0.10655048 0.66200006
-0.040980954 0.10655048 0.66200006
-0.039720003 0.10655048 0.66200006
-0.038459051 0.10655048 0.66200006
-0.037141908 0.10638953 0.66100001
-0.035828575 0.10622858 0.66000003
-0.034466669 0.10590667 0.65800005
-0.033162858 0.10574572 0.65700001
-0.031814288 0.10542382 0.65500003
-0.030566668 0.10542382 0.65500003
-0.02931905 0.10542382 0.65500003
-0.02807143 0.10542382 0.65500003
-0.026823811 0.10542382 0.65500003
-0.025576193 0.10542382 0.65500003
-0.024328573 0.10542382 0.65500003
-0.023010477 0.10510191 0.65300006
-0.021766668 0.10510191 0.65300006
-0.020460002 0.10478 0.65100002
-0.019190477 0.10461906 0.65000004
-0.017952383 0.10461906 0.65000004
-0.016714286 0.10461906 0.65000004
-0.015476191 0.10461906 0.65000004
-0.014260001 0.10478 0.65100002
-0.01302 0.10478 0.65100002
-0.011780001 0.10478 0.65100002
-0.010556191 0.10494096 0.65200001
-0.0093285721 0.10510191 0.65300006
