# .PCD v0.7 - Point Cloud Data file format
VERSION 0.7
FIELDS x y z
SIZE 4 4 4
TYPE F F F
COUNT 1 1 1
WIDTH 1357
HEIGHT 1
VIEWPOINT 0 0 0 1 0 0 0
POINTS 1357
DATA ascii
-0.07188572 0.036914289 0.68000001
-0.070590481 0.036914289 0.68000001
-0.069193341 0.036860004 0.67900002
-0.067900002 0.036860004 0.67900002
-0.066606671 0.036860004 0.67900002
-0.065409526 0.036914289 0.68000001
-0.064114287 0.036914289 0.68000001
-0.063003816 0.037022859 0.68200004
-0.061795242 0.037077144 0.68300003
0.16104668 0.045220003 0.83300006
-0.10008572 0.038097147 0.67800003
-0.098794289 0.038097147 0.67800003
-0.097215243 0.037984766 0.67600006
-0.096211433 0.038097147 0.67800003
-0.094640009 0.037984766 0.67600006
-0.093628578 0.038097147 0.67800003
-0.092337146 0.038097147 0.67800003
-0.091045722 0.038097147 0.67800003
-0.089754291 0.038097147 0.67800003
-0.088462859 0.038097147 0.67800003
-0.087171435 0.038097147 0.67800003
-0.085880004 0.038097147 0.67800003
-0.08458858 0.038097147 0.67800003
-0.083297148 0.038097147 0.67800003
-0.082005717 0.038097147 0.67800003
-0.080714293 0.038097147 0.67800003
-0.079422861 0.038097147 0.67800003
-0.078131437 0.038097147 0.67800003
-0.076840006 0.038097147 0.67800003
-0.075548574 0.038097147 0.67800003
-0.074366674 0.038153335 0.67900002
-0.073073335 0.038153335 0.67900002
-0.071780004 0.038153335 0.67900002
-0.070486672 0.038153335 0.67900002
-0.069091432 0.038097147 0.67800003
-0.067800008 0.038097147 0.67800003
-0.066508576 0.038097147 0.67800003
-0.065217145 0.038097147 0.67800003
-0.064020008 0.038153335 0.67900002
-0.062357146 0.037928574 0.67500001
-0.061433338 0.038153335 0.67900002
-0.098357148 0.039214287 0.67500001
-0.097071432 0.039214287 0.67500001
-0.095927626 0.039272383 0.67600006
-0.094500005 0.039214287 0.67500001
-0.093352385 0.039272383 0.67600006
-0.092064768 0.039272383 0.67600006
-0.090777151 0.039272383 0.67600006
-0.089489527 0.039272383 0.67600006
-0.08820191 0.039272383 0.67600006
-0.086785719 0.039214287 0.67500001
-0.085626669 0.039272383 0.67600006
-0.084339052 0.039272383 0.67600006
-0.083051436 0.039272383 0.67600006
-0.081642866 0.039214287 0.67500001
-0.080357149 0.039214287 0.67500001
-0.079188578 0.039272383 0.67600006
-0.077900961 0.039272383 0.67600006
-0.076840006 0.039388575 0.67800003
-0.075548574 0.039388575 0.67800003
-0.074366674 0.039446671 0.67900002
-0.072965719 0.039388575 0.67800003
-0.071674287 0.039388575 0.67800003
-0.070382863 0.039388575 0.67800003
-0.068887621 0.039272383 0.67600006
-0.067600004 0.039272383 0.67600006
-0.066214293 0.039214287 0.67500001
-0.064832382 0.039156195 0.67400002
-0.063642859 0.039214287 0.67500001
-0.062264767 0.039156195 0.67400002
-0.061071433 0.039214287 0.67500001
-0.098211437 0.040440004 0.67400002
-0.096927628 0.040440004 0.67400002
-0.095643818 0.040440004 0.67400002
-0.094360009 0.040440004 0.67400002
-0.093076199 0.040440004 0.67400002
-0.09179239 0.040440004 0.67400002
-0.09050858 0.040440004 0.67400002
-0.089224771 0.040440004 0.67400002
-0.087940961 0.040440004 0.67400002
-0.086657152 0.040440004 0.67400002
-0.085373342 0.040440004 0.67400002
-0.084089532 0.040440004 0.67400002
-0.082805723 0.040440004 0.67400002
-0.081521913 0.040440004 0.67400002
-0.080238104 0.040440004 0.67400002
-0.079071432 0.040500004 0.67500001
-0.077785723 0.040500004 0.67500001
-0.076500006 0.040500004 0.67500001
-0.07532572 0.040560003 0.67600006
-0.07425715 0.040680002 0.67800003
-0.072750479 0.040560003 0.67600006
-0.071462862 0.040560003 0.67600006
-0.070175245 0.040560003 0.67600006
-0.06878572 0.040500004 0.67500001
-0.067500003 0.040500004 0.67500001
-0.066116191 0.040440004 0.67400002
-0.064640008 0.040320002 0.67200005
-0.063548572 0.040440004 0.67400002
-0.062264767 0.040440004 0.67400002
-0.060980957 0.040440004 0.67400002
-0.059697147 0.040440004 0.67400002
-0.099200003 0.041600004 0.67200005
-0.097920008 0.041600004 0.67200005
-0.096640006 0.041600004 0.67200005
-0.095360003 0.041600004 0.67200005
-0.094080009 0.041600004 0.67200005
-0.092800006 0.041600004 0.67200005
-0.091520004 0.041600004 0.67200005
-0.090240009 0.041600004 0.67200005
-0.088827625 0.041538097 0.671
-0.08754953 0.041538097 0.671
-0.086400002 0.041600004 0.67200005
-0.08499334 0.041538097 0.671
-0.083715245 0.041538097 0.671
-0.08243715 0.041538097 0.671
-0.081159055 0.041538097 0.671
-0.080000006 0.041600004 0.67200005
-0.078720003 0.041600004 0.67200005
-0.077440009 0.041600004 0.67200005
-0.076160006 0.041600004 0.67200005
-0.075102866 0.041723814 0.67400002
-0.07392858 0.041785717 0.67500001
-0.072642863 0.041785717 0.67500001
-0.07125143 0.041723814 0.67400002
-0.069760002 0.041600004 0.67200005
-0.068480007 0.041600004 0.67200005
-0.067200005 0.041600004 0.67200005
-0.065920003 0.041600004 0.67200005
-0.064640008 0.041600004 0.67200005
-0.063360006 0.041600004 0.67200005
-0.062080003 0.041600004 0.67200005
-0.060800005 0.041600004 0.67200005
-0.059520002 0.041600004 0.67200005
-0.097920008 0.042880002 0.67200005
-0.096496195 0.042816192 0.671
-0.0952181 0.042816192 0.671
-0.093940005 0.042816192 0.671
-0.09266191 0.042816192 0.671
-0.091383815 0.042816192 0.671
-0.09010572 0.042816192 0.671
-0.088695243 0.042752385 0.67000002
-0.087419055 0.042752385 0.67000002
-0.08614286 0.042752385 0.67000002
-0.084740005 0.042688575 0.66900003
-0.083590485 0.042752385 0.67000002
-0.082191437 0.042688575 0.66900003
-0.08091715 0.042688575 0.66900003
-0.079642862 0.042688575 0.66900003
-0.078368574 0.042688575 0.66900003
-0.077094294 0.042688575 0.66900003
-0.075933337 0.042752385 0.67000002
-0.074545719 0.042688575 0.66900003
-0.073271431 0.042688575 0.66900003
-0.072104767 0.042752385 0.67000002
-0.070828579 0.042752385 0.67000002
-0.069552384 0.042752385 0.67000002
-0.068276197 0.042752385 0.67000002
-0.067100003 0.042816192 0.671
-0.065821908 0.042816192 0.671
-0.064543813 0.042816192 0.671
-0.063265719 0.042816192 0.671
-0.062080003 0.042880002 0.67200005
-0.060800005 0.042880002 0.67200005
-0.059431434 0.042816192 0.671
-0.058240004 0.042880002 0.67200005
-0.09777429 0.044094287 0.671
-0.096352391 0.044028573 0.67000002
-0.095076196 0.044028573 0.67000002
-0.093800008 0.044028573 0.67000002
-0.092523813 0.044028573 0.67000002
-0.091111436 0.043962859 0.66900003
-0.089837149 0.043962859 0.66900003
-0.088298105 0.04383143 0.66700006
-0.087027624 0.04383143 0.66700006
-0.085757151 0.04383143 0.66700006
-0.084486671 0.04383143 0.66700006
-0.083216198 0.04383143 0.66700006
-0.081945717 0.04383143 0.66700006
-0.080675244 0.04383143 0.66700006
-0.079404764 0.04383143 0.66700006
-0.078134291 0.04383143 0.66700006
-0.076863818 0.04383143 0.66700006
-0.075820006 0.043962859 0.66900003
-0.074545719 0.043962859 0.66900003
-0.073271431 0.043962859 0.66900003
-0.071997151 0.043962859 0.66900003
-0.070722863 0.043962859 0.66900003
-0.069448575 0.043962859 0.66900003
-0.068174288 0.043962859 0.66900003
-0.067000002 0.044028573 0.67000002
-0.065723814 0.044028573 0.67000002
-0.064447626 0.044028573 0.67000002
-0.063171431 0.044028573 0.67000002
-0.061987624 0.044094287 0.671
-0.060709529 0.044094287 0.671
-0.059431434 0.044094287 0.671
-0.058153339 0.044094287 0.671
-0.09748286 0.045237146 0.66900003
-0.09620858 0.045237146 0.66900003
-0.094650485 0.045101907 0.66700006
-0.093380004 0.045101907 0.66700006
-0.092109531 0.045101907 0.66700006
-0.090839051 0.045101907 0.66700006
-0.089568578 0.045101907 0.66700006
-0.088165723 0.045034289 0.66600001
-0.08689715 0.045034289 0.66600001
-0.085628577 0.045034289 0.66600001
-0.084360003 0.045034289 0.66600001
-0.08309143 0.045034289 0.66600001
-0.081822865 0.045034289 0.66600001
-0.080554292 0.045034289 0.66600001
-0.079285719 0.045034289 0.66600001
-0.078017145 0.045034289 0.66600001
-0.07674858 0.045034289 0.66600001
-0.075593337 0.045101907 0.66700006
-0.074322864 0.045101907 0.66700006
-0.073052384 0.045101907 0.66700006
-0.071781911 0.045101907 0.66700006
-0.070511431 0.045101907 0.66700006
-0.069240957 0.045101907 0.66700006
-0.067970477 0.045101907 0.66700006
-0.066700004 0.045101907 0.66700006
-0.06562572 0.045237146 0.66900003
-0.064159051 0.045101907 0.66700006
-0.062888578 0.045101907 0.66700006
-0.06180286 0.045237146 0.66900003
-0.060619052 0.045304764 0.67000002
-0.059342861 0.045304764 0.67000002
-0.094082862 0.046094287 0.66300005
-0.092820004 0.046094287 0.66300005
-0.091833338 0.046233337 0.66500002
-0.090566672 0.046233337 0.66500002
-0.089300007 0.046233337 0.66500002
-0.088033341 0.046233337 0.66500002
-0.086766675 0.046233337 0.66500002
-0.085500002 0.046233337 0.66500002
-0.084233336 0.046233337 0.66500002
-0.08271715 0.046094287 0.66300005
-0.081454292 0.046094287 0.66300005
-0.080070481 0.046024766 0.66200006
-0.078690484 0.045955241 0.66100001
-0.077431433 0.045955241 0.66100001
-0.076172389 0.045955241 0.66100001
-0.075026669 0.046024766 0.66200006
-0.073654294 0.045955241 0.66100001
-0.072395243 0.045955241 0.66100001
-0.071136191 0.045955241 0.66100001
-0.069877148 0.045955241 0.66100001
-0.068721913 0.046024766 0.66200006
-0.067359053 0.045955241 0.66100001
-0.066000007 0.045885716 0.66000003
-0.064939052 0.046024766 0.66200006
-0.063678101 0.046024766 0.66200006
-0.062511429 0.046094287 0.66300005
-0.061248574 0.046094287 0.66300005
-0.05998572 0.046094287 0.66300005
-0.058988575 0.046302859 0.66600001
-0.092680007 0.047285717 0.66200006
-0.091419056 0.047285717 0.66200006
-0.090158097 0.047285717 0.66200006
-0.089031436 0.047357146 0.66300005
-0.087768577 0.047357146 0.66300005
-0.086505719 0.047357146 0.66300005
-0.08524286 0.047357146 0.66300005
-0.083980009 0.047357146 0.66300005
-0.082592383 0.047285717 0.66200006
-0.081331432 0.047285717 0.66200006
-0.080070481 0.047285717 0.66200006
-0.078690484 0.047214288 0.66100001
-0.077314287 0.04714286 0.66000003
-0.076057151 0.04714286 0.66000003
-0.074800007 0.04714286 0.66000003
-0.073542863 0.04714286 0.66000003
-0.072285719 0.04714286 0.66000003
-0.071028575 0.04714286 0.66000003
-0.069771431 0.04714286 0.66000003
-0.068514287 0.04714286 0.66000003
-0.067257144 0.04714286 0.66000003
-0.066000007 0.04714286 0.66000003
-0.064742863 0.04714286 0.66000003
-0.063293338 0.047000002 0.65800005
-0.062228575 0.04714286 0.66000003
-0.060971431 0.04714286 0.66000003
-0.059714291 0.04714286 0.66000003
-0.05854572 0.047214288 0.66100001
-0.093373336 0.048253335 0.65800005
-0.092120007 0.048253335 0.65800005
-0.090452388 0.048033338 0.65500003
-0.090021908 0.048473336 0.66100001
-0.088762864 0.048473336 0.66100001
-0.087636195 0.048546668 0.66200006
-0.086375244 0.048546668 0.66200006
-0.085114293 0.048546668 0.66200006
-0.083726674 0.048473336 0.66100001
-0.082467623 0.048473336 0.66100001
-0.081208579 0.048473336 0.66100001
-0.079949528 0.048473336 0.66100001
-0.078571431 0.048400003 0.66000003
-0.077080004 0.048253335 0.65800005
-0.075826675 0.048253335 0.65800005
-0.074800007 0.048400003 0.66000003
-0.073320001 0.048253335 0.65800005
-0.072066672 0.048253335 0.65800005
-0.070813335 0.048253335 0.65800005
-0.069560006 0.048253335 0.65800005
-0.06830667 0.048253335 0.65800005
-0.06705334 0.048253335 0.65800005
-0.065800004 0.048253335 0.65800005
-0.064546674 0.048253335 0.65800005
-0.063293338 0.048253335 0.65800005
-0.062040005 0.048253335 0.65800005
-0.060786672 0.048253335 0.65800005
-0.059533339 0.048253335 0.65800005
-0.058280002 0.048253335 0.65800005
-0.057026669 0.048253335 0.65800005
-0.09433905 0.049356192 0.65600002
-0.093089528 0.049356192 0.65600002
-0.091700003 0.049280956 0.65500003
-0.090452388 0.049280956 0.65500003
-0.089477152 0.049431432 0.65700001
-0.088225722 0.049431432 0.65700001
-0.086974293 0.049431432 0.65700001
-0.085853338 0.049506672 0.65800005
-0.084600009 0.049506672 0.65800005
-0.083220005 0.049431432 0.65700001
-0.082093336 0.049506672 0.65800005
-0.080717146 0.049431432 0.65700001
-0.079465717 0.049431432 0.65700001
-0.078214288 0.049431432 0.65700001
-0.076962866 0.049431432 0.65700001
-0.075711437 0.049431432 0.65700001
-0.074460007 0.049431432 0.65700001
-0.073208578 0.049431432 0.65700001
-0.071957149 0.049431432 0.65700001
-0.070705719 0.049431432 0.65700001
-0.06945429 0.049431432 0.65700001
-0.068202861 0.049431432 0.65700001
-0.06705334 0.049506672 0.65800005
-0.065800004 0.049506672 0.65800005
-0.064546674 0.049506672 0.65800005
-0.063293338 0.049506672 0.65800005
-0.062040005 0.049506672 0.65800005
-0.060786672 0.049506672 0.65800005
-0.059442863 0.049431432 0.65700001
-0.058102861 0.049356192 0.65600002
-0.056853335 0.049356192 0.65600002
-0.095442861 0.050528575 0.65500003
-0.09433905 0.050605718 0.65600002
-0.092947625 0.050528575 0.65500003
-0.091420002 0.050374288 0.65300006
-0.090176195 0.050374288 0.65300006
-0.089204766 0.050528575 0.65500003
-0.08768858 0.050374288 0.65300006
-0.086312383 0.050297145 0.65200001
-0.085070483 0.050297145 0.65200001
-0.083828576 0.050297145 0.65200001
-0.082713336 0.050374288 0.65300006
-0.081719056 0.050528575 0.65500003
-0.080471434 0.050528575 0.65500003
-0.079223812 0.050528575 0.65500003
-0.078095242 0.050605718 0.65600002
-0.07684572 0.050605718 0.65600002
-0.075596198 0.050605718 0.65600002
-0.074346669 0.050605718 0.65600002
-0.073097147 0.050605718 0.65600002
-0.071847625 0.050605718 0.65600002
-0.070598103 0.050605718 0.65600002
-0.069348574 0.050605718 0.65600002
-0.068099052 0.050605718 0.65600002
-0.066951431 0.050682861 0.65700001
-0.065700002 0.050682861 0.65700001
-0.064448573 0.050682861 0.65700001
-0.063197143 0.050682861 0.65700001
-0.061945718 0.050682861 0.65700001
-0.060601909 0.050605718 0.65600002
-0.059352383 0.050605718 0.65600002
-0.058014289 0.050528575 0.65500003
-0.05676667 0.050528575 0.65500003
-0.055519052 0.050528575 0.65500003
-0.054105718 0.050374288 0.65300006
-0.095151432 0.051618099 0.65300006
-0.094195247 0.051776193 0.65500003
-0.092663817 0.051618099 0.65300006
-0.091280006 0.051539052 0.65200001
-0.090038098 0.051539052 0.65200001
-0.088660009 0.051460002 0.65100002
-0.087420009 0.051460002 0.65100002
-0.086180009 0.051460002 0.65100002
-0.084940009 0.051460002 0.65100002
-0.083828576 0.051539052 0.65200001
-0.082586668 0.051539052 0.65200001
-0.081469528 0.051618099 0.65300006
-0.080225721 0.051618099 0.65300006
-0.078981914 0.051618099 0.65300006
-0.077976197 0.051776193 0.65500003
-0.076728575 0.051776193 0.65500003
-0.075596198 0.05185524 0.65600002
-0.074233338 0.051776193 0.65500003
-0.073097147 0.05185524 0.65600002
-0.071738102 0.051776193 0.65500003
-0.070490479 0.051776193 0.65500003
-0.069242865 0.051776193 0.65500003
-0.067995243 0.051776193 0.65500003
-0.06684953 0.05185524 0.65600002
-0.065600008 0.05185524 0.65600002
-0.064350478 0.05185524 0.65600002
-0.063100956 0.05185524 0.65600002
-0.061851434 0.05185524 0.65600002
-0.060509529 0.051776193 0.65500003
-0.059261907 0.051776193 0.65500003
-0.057837147 0.051618099 0.65300006
-0.056593336 0.051618099 0.65300006
-0.055349529 0.051618099 0.65300006
-0.054105718 0.051618099 0.65300006
-0.052780956 0.051539052 0.65200001
-0.096395247 0.052861907 0.65300006
-0.095151432 0.052861907 0.65300006
-0.093907624 0.052861907 0.65300006
-0.092521913 0.052780956 0.65200001
-0.091280006 0.052780956 0.65200001
-0.089900009 0.052700002 0.65100002
-0.088660009 0.052700002 0.65100002
-0.087420009 0.052700002 0.65100002
-0.086047627 0.052619051 0.65000004
-0.084809527 0.052619051 0.65000004
-0.083571434 0.052619051 0.65000004
-0.082460009 0.052700002 0.65100002
-0.081344768 0.052780956 0.65200001
-0.080102861 0.052780956 0.65200001
-0.078981914 0.052861907 0.65300006
-0.077738099 0.052861907 0.65300006
-0.076728575 0.053023811 0.65500003
-0.07548096 0.053023811 0.65500003
-0.074233338 0.053023811 0.65500003
-0.072985716 0.053023811 0.65500003
-0.071409531 0.052780956 0.65200001
-0.070167623 0.052780956 0.65200001
-0.069031432 0.052861907 0.65300006
-0.067787625 0.052861907 0.65300006
-0.066543818 0.052861907 0.65300006
-0.065300003 0.052861907 0.65300006
-0.064056195 0.052861907 0.65300006
-0.062812388 0.052861907 0.65300006
-0.061568577 0.052861907 0.65300006
-0.060324766 0.052861907 0.65300006
-0.058990479 0.052780956 0.65200001
-0.057748575 0.052780956 0.65200001
-0.056506671 0.052780956 0.65200001
-0.055264767 0.052780956 0.65200001
-0.05402286 0.052780956 0.65200001
-0.052700002 0.052700002 0.65100002
-0.051460002 0.052700002 0.65100002
-0.04875429 0.052457146 0.648
-0.096247628 0.05402286 0.65200001
-0.095005721 0.05402286 0.65200001
-0.093763813 0.05402286 0.65200001
-0.092521913 0.05402286 0.65200001
-0.091140009 0.053940002 0.65100002
-0.089900009 0.053940002 0.65100002
-0.088523813 0.053857148 0.65000004
-0.08728572 0.053857148 0.65000004
-0.086047627 0.053857148 0.65000004
-0.084548578 0.053691432 0.648
-0.083314292 0.053691432 0.648
-0.082333341 0.053857148 0.65000004
-0.081095241 0.053857148 0.65000004
-0.079980008 0.053940002 0.65100002
-0.078740008 0.053940002 0.65100002
-0.077500008 0.053940002 0.65100002
-0.076377146 0.05402286 0.65200001
-0.075135246 0.05402286 0.65200001
-0.073893338 0.05402286 0.65200001
-0.072651431 0.05402286 0.65200001
-0.071190484 0.053857148 0.65000004
-0.069952384 0.053857148 0.65000004
-0.068820007 0.053940002 0.65100002
-0.067476198 0.053857148 0.65000004
-0.066238098 0.053857148 0.65000004
-0.065000005 0.053857148 0.65000004
-0.063761912 0.053857148 0.65000004
-0.062523812 0.053857148 0.65000004
-0.06147429 0.05402286 0.65200001
-0.060232386 0.05402286 0.65200001
-0.058900002 0.053940002 0.65100002
-0.057660002 0.053940002 0.65100002
-0.056420002 0.053940002 0.65100002
-0.055180002 0.053940002 0.65100002
-0.053940002 0.053940002 0.65100002
-0.052457146 0.053691432 0.648
-0.051222861 0.053691432 0.648
-0.049988575 0.053691432 0.648
-0.04875429 0.053691432 0.648
-0.047520004 0.053691432 0.648
-0.095005721 0.055264767 0.65200001
-0.09362001 0.055180002 0.65100002
-0.09238001 0.055180002 0.65100002
-0.091000006 0.05509524 0.65000004
-0.08948572 0.054925717 0.648
-0.088251434 0.054925717 0.648
-0.087017149 0.054925717 0.648
-0.085782863 0.054925717 0.648
-0.084548578 0.054925717 0.648
-0.083314292 0.054925717 0.648
-0.082333341 0.05509524 0.65000004
-0.081095241 0.05509524 0.65000004
-0.079857148 0.05509524 0.65000004
-0.078740008 0.055180002 0.65100002
-0.077380955 0.05509524 0.65000004
-0.076142862 0.05509524 0.65000004
-0.07490477 0.05509524 0.65000004
-0.073440008 0.054925717 0.648
-0.072205722 0.054925717 0.648
-0.070971437 0.054925717 0.648
-0.069737144 0.054925717 0.648
-0.068502858 0.054925717 0.648
-0.067268573 0.054925717 0.648
-0.066034287 0.054925717 0.648
-0.064800002 0.054925717 0.648
-0.063467622 0.054840956 0.64700001
-0.062235244 0.054840956 0.64700001
-0.061097145 0.054925717 0.648
-0.05986286 0.054925717 0.648
-0.058628574 0.054925717 0.648
-0.05730572 0.054840956 0.64700001
-0.056073338 0.054840956 0.64700001
-0.054840956 0.054840956 0.64700001
-0.053608574 0.054840956 0.64700001
-0.052376192 0.054840956 0.64700001
-0.051143814 0.054840956 0.64700001
-0.049911432 0.054840956 0.64700001
-0.04875429 0.054925717 0.648
-0.047520004 0.054925717 0.648
-0.095005721 0.056506671 0.65200001
-0.093476199 0.056333337 0.65000004
-0.091954291 0.056160003 0.648
-0.090720005 0.056160003 0.648
-0.089347623 0.056073338 0.64700001
-0.088115245 0.056073338 0.64700001
-0.086882859 0.056073338 0.64700001
-0.085650481 0.056073338 0.64700001
-0.084418103 0.056073338 0.64700001
-0.083314292 0.056160003 0.648
-0.082080007 0.056160003 0.648
-0.080845721 0.056160003 0.648
-0.079611436 0.056160003 0.648
-0.07837715 0.056160003 0.648
-0.077023812 0.056073338 0.64700001
-0.075791433 0.056073338 0.64700001
-0.074559055 0.056073338 0.64700001
-0.07332667 0.056073338 0.64700001
-0.072094291 0.056073338 0.64700001
-0.070861906 0.056073338 0.64700001
-0.069629528 0.056073338 0.64700001
-0.068397149 0.056073338 0.64700001
-0.067164764 0.056073338 0.64700001
-0.065932386 0.056073338 0.64700001
-0.064700007 0.056073338 0.64700001
-0.063369527 0.055986669 0.64600003
-0.062139053 0.055986669 0.64600003
-0.060908575 0.055986669 0.64600003
-0.0596781 0.055986669 0.64600003
-0.058447622 0.055986669 0.64600003
-0.057217147 0.055986669 0.64600003
-0.055986669 0.055986669 0.64600003
-0.054671433 0.055900004 0.64500004
-0.053442862 0.055900004 0.64500004
-0.052295242 0.055986669 0.64600003
-0.051064767 0.055986669 0.64600003
-0.049834289 0.055986669 0.64600003
-0.04867905 0.056073338 0.64700001
-0.047446668 0.056073338 0.64700001
0.14087334 0.068553336 0.79100001
0.14238001 0.068553336 0.79100001
0.14388667 0.068553336 0.79100001
0.14539334 0.068553336 0.79100001
0.14690001 0.068553336 0.79100001
0.14840667 0.068553336 0.79100001
-0.096247628 0.057748575 0.65200001
-0.095005721 0.057748575 0.65200001
-0.093476199 0.057571433 0.65000004
-0.091812387 0.05730572 0.64700001
-0.090300009 0.057128575 0.64500004
-0.088933341 0.057040002 0.64400005
-0.08770667 0.057040002 0.64400005
-0.086480007 0.057040002 0.64400005
-0.085253336 0.057040002 0.64400005
-0.084157147 0.057128575 0.64500004
-0.082928576 0.057128575 0.64500004
-0.081700005 0.057128575 0.64500004
-0.080471434 0.057128575 0.64500004
-0.078628577 0.05668572 0.64000005
-0.077651434 0.056862861 0.64200002
-0.076428577 0.056862861 0.64200002
-0.075088575 0.056774288 0.64100003
-0.073982865 0.056862861 0.64200002
-0.07298667 0.057040002 0.64400005
-0.071760006 0.057040002 0.64400005
-0.070533335 0.057040002 0.64400005
-0.069414288 0.057128575 0.64500004
-0.068185717 0.057128575 0.64500004
-0.066957146 0.057128575 0.64500004
-0.065626673 0.057040002 0.64400005
-0.064400002 0.057040002 0.64400005
-0.063173339 0.057040002 0.64400005
-0.061946671 0.057040002 0.64400005
-0.060720004 0.057040002 0.64400005
-0.059308574 0.056862861 0.64200002
-0.05826667 0.057040002 0.64400005
-0.057040002 0.057040002 0.64400005
-0.055813339 0.057040002 0.64400005
-0.054586671 0.057040002 0.64400005
-0.053360004 0.057040002 0.64400005
-0.052133337 0.057040002 0.64400005
-0.050906669 0.057040002 0.64400005
-0.049680002 0.057040002 0.64400005
-0.048453335 0.057040002 0.64400005
-0.047226671 0.057040002 0.64400005
-0.090160005 0.05826667 0.64400005
-0.088657148 0.058085717 0.64200002
-0.087298103 0.057995241 0.64100003
-0.086077146 0.057995241 0.64100003
-0.084856197 0.057995241 0.64100003
-0.083635241 0.057995241 0.64100003
-0.082414292 0.057995241 0.64100003
-0.080560006 0.057542861 0.63600004
-0.079348579 0.057542861 0.63600004
-0.078628577 0.057904765 0.64000005
-0.077409528 0.057904765 0.64000005
-0.076190479 0.057904765 0.64000005
-0.07497143 0.057904765 0.64000005
-0.073752388 0.057904765 0.64000005
-0.07264667 0.057995241 0.64100003
-0.07131429 0.057904765 0.64000005
-0.070204765 0.057995241 0.64100003
-0.069091432 0.058085717 0.64200002
-0.067868575 0.058085717 0.64200002
-0.066645719 0.058085717 0.64200002
-0.065422863 0.058085717 0.64200002
-0.064100005 0.057995241 0.64100003
-0.06297715 0.058085717 0.64200002
-0.06175429 0.058085717 0.64200002
-0.060437147 0.057995241 0.64100003
-0.059216194 0.057995241 0.64100003
-0.058085717 0.058085717 0.64200002
-0.056862861 0.058085717 0.64200002
-0.055640005 0.058085717 0.64200002
-0.054417148 0.058085717 0.64200002
-0.053194288 0.058085717 0.64200002
-0.052133337 0.05826667 0.64400005
-0.050906669 0.05826667 0.64400005
-0.049680002 0.05826667 0.64400005
-0.048453335 0.05826667 0.64400005
-0.047226671 0.05826667 0.64400005
-0.089460008 0.059031431 0.63900006
-0.088380955 0.059123814 0.64000005
-0.087025717 0.059031431 0.63900006
-0.085808575 0.059031431 0.63900006
-0.084591433 0.059031431 0.63900006
-0.083243817 0.058939051 0.63800001
-0.081771433 0.058754291 0.63600004
-0.080560006 0.058754291 0.63600004
-0.079348579 0.058754291 0.63600004
-0.078137144 0.058754291 0.63600004
-0.077167623 0.058939051 0.63800001
-0.076071434 0.059031431 0.63900006
-0.074854292 0.059031431 0.63900006
-0.07363715 0.059031431 0.63900006
-0.072420008 0.059031431 0.63900006
-0.071202859 0.059031431 0.63900006
-0.070095241 0.059123814 0.64000005
-0.068876192 0.059123814 0.64000005
-0.067762859 0.059216194 0.64100003
-0.06654191 0.059216194 0.64100003
-0.065320954 0.059216194 0.64100003
-0.064000003 0.059123814 0.64000005
-0.062780954 0.059123814 0.64000005
-0.061658099 0.059216194 0.64100003
-0.060342859 0.059123814 0.64000005
-0.059123814 0.059123814 0.64000005
-0.057995241 0.059216194 0.64100003
-0.056774288 0.059216194 0.64100003
-0.055553336 0.059216194 0.64100003
-0.054332383 0.059216194 0.64100003
-0.05311143 0.059216194 0.64100003
-0.051971432 0.059308574 0.64200002
-0.050669529 0.059216194 0.64100003
-0.049448576 0.059216194 0.64100003
-0.048227623 0.059216194 0.64100003
-0.046933338 0.059123814 0.64000005
-0.08810477 0.060154289 0.63800001
-0.086889528 0.060154289 0.63800001
-0.085674293 0.060154289 0.63800001
-0.084194288 0.059965719 0.63600004
-0.082982861 0.059965719 0.63600004
-0.081642866 0.059871431 0.63500005
-0.080433339 0.059871431 0.63500005
-0.079099052 0.059777148 0.634
-0.077891432 0.059777148 0.634
-0.076804765 0.059871431 0.63500005
-0.075952388 0.060154289 0.63800001
-0.074502863 0.059965719 0.63600004
-0.073521912 0.060154289 0.63800001
-0.072080001 0.059965719 0.63600004
-0.071091436 0.060154289 0.63800001
-0.069876194 0.060154289 0.63800001
-0.06866096 0.060154289 0.63800001
-0.067551434 0.060248576 0.63900006
-0.066334292 0.060248576 0.63900006
-0.065117151 0.060248576 0.63900006
-0.063900001 0.060248576 0.63900006
-0.06268286 0.060248576 0.63900006
-0.061465718 0.060248576 0.63900006
-0.060248576 0.060248576 0.63900006
-0.059031431 0.060248576 0.63900006
-0.057814289 0.060248576 0.63900006
-0.056597147 0.060248576 0.63900006
-0.055466671 0.060342859 0.64000005
-0.054247621 0.060342859 0.64000005
-0.053028576 0.060342859 0.64000005
-0.051809527 0.060342859 0.64000005
-0.050590478 0.060342859 0.64000005
-0.049371433 0.060342859 0.64000005
-0.048152383 0.060342859 0.64000005
-0.046933338 0.060342859 0.64000005
-0.088900007 0.061080955 0.63500005
-0.08769048 0.061080955 0.63500005
-0.08648096 0.061080955 0.63500005
-0.085271433 0.061080955 0.63500005
-0.084061913 0.061080955 0.63500005
-0.082721911 0.060984764 0.634
-0.081514291 0.060984764 0.634
-0.080306672 0.060984764 0.634
-0.078974292 0.060888577 0.63300002
-0.077768579 0.060888577 0.63300002
-0.076562859 0.060888577 0.63300002
-0.075476192 0.060984764 0.634
-0.074268579 0.060984764 0.634
-0.073176198 0.061080955 0.63500005
-0.07185334 0.060984764 0.634
-0.070868574 0.061177146 0.63600004
-0.069657147 0.061177146 0.63600004
-0.06844572 0.061177146 0.63600004
-0.067234293 0.061177146 0.63600004
-0.065919049 0.061080955 0.63500005
-0.064811431 0.061177146 0.63600004
-0.063800007 0.061369527 0.63800001
-0.062584765 0.061369527 0.63800001
-0.061369527 0.061369527 0.63800001
-0.059965719 0.061177146 0.63600004
-0.058754291 0.061177146 0.63600004
-0.057542861 0.061177146 0.63600004
-0.056331433 0.061177146 0.63600004
-0.055293337 0.061369527 0.63800001
-0.054078098 0.061369527 0.63800001
-0.052945718 0.061465718 0.63900006
-0.051728576 0.061465718 0.63900006
-0.050511431 0.061465718 0.63900006
-0.049294289 0.061465718 0.63900006
-0.048077147 0.061465718 0.63900006
-0.046860002 0.061465718 0.63900006
-0.045571432 0.061369527 0.63800001
-0.044356193 0.061369527 0.63800001
-0.089967623 0.062192384 0.634
-0.088760003 0.062192384 0.634
-0.087552384 0.062192384 0.634
-0.086344771 0.062192384 0.634
-0.085137151 0.062192384 0.634
-0.083929531 0.062192384 0.634
-0.082721911 0.062192384 0.634
-0.081385717 0.06209429 0.63300002
-0.080180004 0.06209429 0.63300002
-0.078974292 0.06209429 0.63300002
-0.077522859 0.061898101 0.63100004
-0.076320961 0.061898101 0.63100004
-0.075119056 0.061898101 0.63100004
-0.074034289 0.061996195 0.63200003
-0.07306096 0.062192384 0.634
-0.071740001 0.06209429 0.63300002
-0.07064572 0.062192384 0.634
-0.069547623 0.062290478 0.63500005
-0.068338096 0.062290478 0.63500005
-0.06702286 0.062192384 0.634
-0.06581524 0.062192384 0.634
-0.064709529 0.062290478 0.63500005
-0.063600004 0.062388577 0.63600004
-0.062290478 0.062290478 0.63500005
-0.061080955 0.062290478 0.63500005
-0.059871431 0.062290478 0.63500005
-0.058661908 0.062290478 0.63500005
-0.057452384 0.062290478 0.63500005
-0.056242861 0.062290478 0.63500005
-0.055033337 0.062290478 0.63500005
-0.053823814 0.062290478 0.63500005
-0.05261429 0.062290478 0.63500005
-0.051485717 0.062388577 0.63600004
-0.05027429 0.062388577 0.63600004
-0.049217146 0.062584765 0.63800001
-0.048001908 0.062584765 0.63800001
-0.04678667 0.062584765 0.63800001
-0.045571432 0.062584765 0.63800001
-0.044217147 0.062388577 0.63600004
-0.043005716 0.062388577 0.63600004
-0.041794289 0.062388577 0.63600004
-0.091031432 0.063300006 0.63300002
-0.089967623 0.063400008 0.634
-0.088760003 0.063400008 0.634
-0.087414294 0.063300006 0.63300002
-0.086344771 0.063400008 0.634
-0.085002862 0.063300006 0.63300002
-0.083797149 0.063300006 0.63300002
-0.082460955 0.063200004 0.63200003
-0.08125715 0.063200004 0.63200003
-0.07992667 0.063100003 0.63100004
-0.078724764 0.063100003 0.63100004
-0.077522859 0.063100003 0.63100004
-0.076079056 0.062900007 0.62900001
-0.074880958 0.062900007 0.62900001
-0.07368286 0.062900007 0.62900001
-0.072715245 0.063100003 0.63100004
-0.071626671 0.063200004 0.63200003
-0.070534289 0.063300006 0.63300002
-0.069328576 0.063300006 0.63300002
-0.068122864 0.063300006 0.63300002
-0.066811435 0.063200004 0.63200003
-0.065711431 0.063300006 0.63300002
-0.064403817 0.063200004 0.63200003
-0.063300006 0.063300006 0.63300002
-0.061996195 0.063200004 0.63200003
-0.060888577 0.063300006 0.63300002
-0.059682861 0.063300006 0.63300002
-0.058569528 0.063400008 0.634
-0.057361908 0.063400008 0.634
-0.056154288 0.063400008 0.634
-0.054946668 0.063400008 0.634
-0.053739052 0.063400008 0.634
-0.052531432 0.063400008 0.634
-0.051404767 0.063500002 0.63500005
-0.050195243 0.063500002 0.63500005
-0.049062859 0.063600004 0.63600004
-0.047851432 0.063600004 0.63600004
-0.046640001 0.063600004 0.63600004
-0.045428574 0.063600004 0.63600004
-0.044217147 0.063600004 0.63600004
-0.043005716 0.063600004 0.63600004
-0.041728575 0.063500002 0.63500005
-0.040519051 0.063500002 0.63500005
-0.08982572 0.064505719 0.63300002
-0.088620007 0.064505719 0.63300002
-0.087414294 0.064505719 0.63300002
-0.086208574 0.064505719 0.63300002
-0.08486858 0.064403817 0.63200003
-0.083664767 0.064403817 0.63200003
-0.08233048 0.064301908 0.63100004
-0.081128575 0.064301908 0.63100004
-0.079673335 0.064098097 0.62900001
-0.078475244 0.064098097 0.62900001
-0.077277146 0.064098097 0.62900001
-0.076079056 0.064098097 0.62900001
-0.074761912 0.063996196 0.62800002
-0.073565722 0.063996196 0.62800002
-0.072484769 0.064098097 0.62900001
-0.07151334 0.064301908 0.63100004
-0.070311435 0.064301908 0.63100004
-0.069109529 0.064301908 0.63100004
-0.067907624 0.064301908 0.63100004
-0.066705719 0.064301908 0.63100004
-0.065503813 0.064301908 0.63100004
-0.064301908 0.064301908 0.63100004
-0.063100003 0.064301908 0.63100004
-0.061701909 0.064098097 0.62900001
-0.060696196 0.064301908 0.63100004
-0.059494291 0.064301908 0.63100004
-0.058384765 0.064403817 0.63200003
-0.057180956 0.064403817 0.63200003
-0.055977147 0.064403817 0.63200003
-0.054860003 0.064505719 0.63300002
-0.053654291 0.064505719 0.63300002
-0.052448574 0.064505719 0.63300002
-0.051323812 0.06460762 0.634
-0.050116193 0.06460762 0.634
-0.048985716 0.064709529 0.63500005
-0.047776192 0.064709529 0.63500005
-0.046566669 0.064709529 0.63500005
-0.045357145 0.064709529 0.63500005
-0.044147622 0.064709529 0.63500005
-0.042938098 0.064709529 0.63500005
-0.041728575 0.064709529 0.63500005
-0.040455241 0.06460762 0.634
-0.089683816 0.065607622 0.63200003
-0.088480003 0.065607622 0.63200003
-0.087138101 0.065503813 0.63100004
-0.085936196 0.065503813 0.63100004
-0.084734291 0.065503813 0.63100004
-0.083532386 0.065503813 0.63100004
-0.082069531 0.065296195 0.62900001
-0.080871433 0.065296195 0.62900001
-0.079546675 0.065192387 0.62800002
-0.078475244 0.065296195 0.62900001
-0.077154294 0.065192387 0.62800002
-0.075958103 0.065192387 0.62800002
-0.074642859 0.065088578 0.62700003
-0.073448576 0.065088578 0.62700003
-0.072369531 0.065192387 0.62800002
-0.07117334 0.065192387 0.62800002
-0.070088573 0.065296195 0.62900001
-0.068890482 0.065296195 0.62900001
-0.067692384 0.065296195 0.62900001
-0.066494294 0.065296195 0.62900001
-0.065296195 0.065296195 0.62900001
-0.064098097 0.065296195 0.62900001
-0.062900007 0.065296195 0.62900001
-0.061701909 0.065296195 0.62900001
-0.060503814 0.065296195 0.62900001
-0.05930572 0.065296195 0.62900001
-0.058292385 0.065503813 0.63100004
-0.05709048 0.065503813 0.63100004
-0.055888575 0.065503813 0.63100004
-0.054686669 0.065503813 0.63100004
-0.053569525 0.065607622 0.63200003
-0.052365717 0.065607622 0.63200003
-0.051161908 0.065607622 0.63200003
-0.050037146 0.065711431 0.63300002
-0.048831433 0.065711431 0.63300002
-0.047625717 0.065711431 0.63300002
-0.046420004 0.065711431 0.63300002
-0.045285717 0.06581524 0.634
-0.044078097 0.06581524 0.634
-0.042870481 0.06581524 0.634
-0.041662861 0.06581524 0.634
-0.089116193 0.066388577 0.62800002
-0.087920003 0.066388577 0.62800002
-0.086723812 0.066388577 0.62800002
-0.085527621 0.066388577 0.62800002
-0.08433143 0.066388577 0.62800002
-0.083135247 0.066388577 0.62800002
-0.081939057 0.066388577 0.62800002
-0.080742866 0.066388577 0.62800002
-0.079420008 0.066282861 0.62700003
-0.078350484 0.066388577 0.62800002
-0.077031434 0.066282861 0.62700003
-0.07583715 0.066282861 0.62700003
-0.074523814 0.066177145 0.62600005
-0.073331431 0.066177145 0.62600005
-0.072139055 0.066177145 0.62600005
-0.071060002 0.066282861 0.62700003
-0.069977149 0.066388577 0.62800002
-0.068671435 0.066282861 0.62700003
-0.067477144 0.066282861 0.62700003
-0.066388577 0.066388577 0.62800002
-0.065088578 0.066282861 0.62700003
-0.063996196 0.066388577 0.62800002
-0.062800005 0.066388577 0.62800002
-0.061603814 0.066388577 0.62800002
-0.060407624 0.066388577 0.62800002
-0.05930572 0.066494294 0.62900001
-0.058107622 0.066494294 0.62900001
-0.056909528 0.066494294 0.62900001
-0.055711433 0.066494294 0.62900001
-0.054686669 0.066705719 0.63100004
-0.053484764 0.066705719 0.63100004
-0.052282862 0.066705719 0.63100004
-0.051080957 0.066705719 0.63100004
-0.049958099 0.066811435 0.63200003
-0.04875429 0.066811435 0.63200003
-0.047550481 0.066811435 0.63200003
-0.046420004 0.066917144 0.63300002
-0.045214288 0.066917144 0.63300002
-0.044008575 0.066917144 0.63300002
-0.042802859 0.066917144 0.63300002
-0.04039143 0.066917144 0.63300002
0.17920001 0.081188574 0.76800001
-0.088690482 0.067261912 0.625
-0.087500006 0.067261912 0.625
-0.08630953 0.067261912 0.625
-0.085119054 0.067261912 0.625
-0.084062859 0.067369528 0.62600005
-0.082870483 0.067369528 0.62600005
-0.0816781 0.067369528 0.62600005
-0.080357149 0.067261912 0.625
-0.079166673 0.067261912 0.625
-0.077976197 0.067261912 0.625
-0.076785721 0.067261912 0.625
-0.075474292 0.067154288 0.62400001
-0.074285716 0.067154288 0.62400001
-0.073097147 0.067154288 0.62400001
-0.071908578 0.067154288 0.62400001
-0.070720002 0.067154288 0.62400001
-0.069642864 0.067261912 0.625
-0.068452388 0.067261912 0.625
-0.067369528 0.067369528 0.62600005
-0.066177145 0.067369528 0.62600005
-0.064984769 0.067369528 0.62600005
-0.063792385 0.067369528 0.62600005
-0.062600002 0.067369528 0.62600005
-0.061407622 0.067369528 0.62600005
-0.060215242 0.067369528 0.62600005
-0.059022862 0.067369528 0.62600005
-0.057830479 0.067369528 0.62600005
-0.056638099 0.067369528 0.62600005
-0.055534288 0.067477144 0.62700003
-0.054340005 0.067477144 0.62700003
-0.053060956 0.067369528 0.62600005
-0.051785719 0.067261912 0.625
-0.050595243 0.067261912 0.625
-0.049404766 0.067261912 0.625
-0.04821429 0.067261912 0.625
-0.04709905 0.067369528 0.62600005
-0.045980003 0.067477144 0.62700003
-0.044785716 0.067477144 0.62700003
-0.043591432 0.067477144 0.62700003
-0.042464763 0.067584768 0.62800002
-0.041268576 0.067584768 0.62800002
-0.040008575 0.067477144 0.62700003
-0.046200003 0.082866669 0.77000004
-0.089737147 0.068342865 0.62400001
-0.088406675 0.068233341 0.62300003
-0.087220006 0.068233341 0.62300003
-0.086171433 0.068342865 0.62400001
-0.084982865 0.068342865 0.62400001
-0.083794288 0.068342865 0.62400001
-0.08260572 0.068342865 0.62400001
-0.081547625 0.068452388 0.625
-0.080228575 0.068342865 0.62400001
-0.079040006 0.068342865 0.62400001
-0.077851437 0.068342865 0.62400001
-0.076662861 0.068342865 0.62400001
-0.075474292 0.068342865 0.62400001
-0.07416667 0.068233341 0.62300003
-0.072862864 0.068123817 0.62200004
-0.071447626 0.067904763 0.62
-0.070266671 0.067904763 0.62
-0.069308579 0.068123817 0.62200004
-0.068123817 0.068123817 0.62200004
-0.067046672 0.068233341 0.62300003
-0.06596572 0.068342865 0.62400001
-0.064777151 0.068342865 0.62400001
-0.063588575 0.068342865 0.62400001
-0.062500007 0.068452388 0.625
-0.061211433 0.068342865 0.62400001
-0.060022861 0.068342865 0.62400001
-0.058834288 0.068342865 0.62400001
-0.057645719 0.068342865 0.62400001
-0.056457147 0.068342865 0.62400001
-0.055268575 0.068342865 0.62400001
-0.053993337 0.068233341 0.62300003
-0.052806672 0.068233341 0.62300003
-0.051537145 0.068123817 0.62200004
-0.050433338 0.068233341 0.62300003
-0.049246669 0.068233341 0.62300003
-0.048060004 0.068233341 0.62300003
-0.046948574 0.068342865 0.62400001
-0.045833338 0.068452388 0.625
-0.044642862 0.068452388 0.625
-0.043521907 0.068561912 0.62600005
-0.042397145 0.068671435 0.62700003
-0.041202858 0.068671435 0.62700003
-0.039944764 0.068561912 0.62600005
-0.090925723 0.069531433 0.62400001
-0.089593336 0.069420002 0.62300003
-0.088264771 0.069308579 0.62200004
-0.087080009 0.069308579 0.62200004
-0.086033337 0.069420002 0.62300003
-0.084710479 0.069308579 0.62200004
-0.083660007 0.069420002 0.62300003
-0.082473338 0.069420002 0.62300003
-0.081286669 0.069420002 0.62300003
-0.080100007 0.069420002 0.62300003
-0.078913338 0.069420002 0.62300003
-0.07760191 0.069308579 0.62200004
-0.076540008 0.069420002 0.62300003
-0.075353339 0.069420002 0.62300003
-0.073809527 0.069085717 0.62
-0.072511435 0.068974294 0.61900002
-0.071332388 0.068974294 0.61900002
-0.070153341 0.068974294 0.61900002
-0.068974294 0.068974294 0.61900002
-0.067685716 0.068862863 0.61800003
-0.066723816 0.069085717 0.62
-0.065542862 0.069085717 0.62
-0.064569525 0.069308579 0.62200004
-0.063384764 0.069308579 0.62200004
-0.062300004 0.069420002 0.62300003
-0.061015241 0.069308579 0.62200004
-0.059830479 0.069308579 0.62200004
-0.058740005 0.069420002 0.62300003
-0.057460956 0.069308579 0.62200004
-0.056276195 0.069308579 0.62200004
-0.055091433 0.069308579 0.62200004
-0.053906672 0.069308579 0.62200004
-0.052721906 0.069308579 0.62200004
-0.051537145 0.069308579 0.62200004
-0.050433338 0.069420002 0.62300003
-0.049246669 0.069420002 0.62300003
-0.048060004 0.069420002 0.62300003
-0.046873335 0.069420002 0.62300003
-0.045760002 0.069531433 0.62400001
-0.044571433 0.069531433 0.62400001
-0.043452382 0.069642864 0.625
-0.042261906 0.069642864 0.625
-0.04107143 0.069642864 0.625
-0.039880954 0.069642864 0.625
-0.089593336 0.070606671 0.62300003
-0.088264771 0.07049334 0.62200004
-0.086800009 0.070266671 0.62
-0.08589524 0.07049334 0.62200004
-0.084710479 0.07049334 0.62200004
-0.083525717 0.07049334 0.62200004
-0.082340956 0.07049334 0.62200004
-0.081156194 0.07049334 0.62200004
-0.079971433 0.07049334 0.62200004
-0.078533337 0.070266671 0.62
-0.07735239 0.070266671 0.62
-0.076171435 0.070266671 0.62
-0.074748576 0.070040002 0.61800003
-0.073571436 0.070040002 0.61800003
-0.072394289 0.070040002 0.61800003
-0.071217149 0.070040002 0.61800003
-0.070040002 0.070040002 0.61800003
-0.068751432 0.069926672 0.61700004
-0.067576192 0.069926672 0.61700004
-0.06640096 0.069926672 0.61700004
-0.065331429 0.070040002 0.61800003
-0.064258099 0.070153341 0.61900002
-0.063079052 0.070153341 0.61900002
-0.061900005 0.070153341 0.61900002
-0.060720958 0.070153341 0.61900002
-0.059541907 0.070153341 0.61900002
-0.058457147 0.070266671 0.62
-0.057276193 0.070266671 0.62
-0.056095243 0.070266671 0.62
-0.054914288 0.070266671 0.62
-0.053733338 0.070266671 0.62
-0.052552383 0.070266671 0.62
-0.051371433 0.070266671 0.62
-0.050190479 0.070266671 0.62
-0.049009528 0.070266671 0.62
-0.047828574 0.070266671 0.62
-0.046798099 0.07049334 0.62200004
-0.04568667 0.070606671 0.62300003
-0.044500005 0.070606671 0.62300003
-0.043382861 0.070720002 0.62400001
-0.042261906 0.07083334 0.625
-0.04107143 0.07083334 0.625
-0.039880954 0.07083334 0.625
-0.089449532 0.071678102 0.62200004
-0.087980956 0.071447626 0.62
-0.086660005 0.071332388 0.61900002
-0.085480958 0.071332388 0.61900002
-0.084301911 0.071332388 0.61900002
-0.083122864 0.071332388 0.61900002
-0.081811436 0.071217149 0.61800003
-0.080634288 0.071217149 0.61800003
-0.079071432 0.070871435 0.61500001
-0.078280002 0.071217149 0.61800003
-0.077102862 0.071217149 0.61800003
-0.075925723 0.071217149 0.61800003
-0.074627623 0.071101911 0.61700004
-0.073452383 0.071101911 0.61700004
-0.072160006 0.070986673 0.61600006
-0.071101911 0.071101911 0.61700004
-0.069813341 0.070986673 0.61600006
-0.068640001 0.070986673 0.61600006
-0.067466669 0.070986673 0.61600006
-0.066293336 0.070986673 0.61600006
-0.06522572 0.071101911 0.61700004
-0.06415429 0.071217149 0.61800003
-0.06297715 0.071217149 0.61800003
-0.061800003 0.071217149 0.61800003
-0.06062286 0.071217149 0.61800003
-0.059445716 0.071217149 0.61800003
-0.05836286 0.071332388 0.61900002
-0.057183813 0.071332388 0.61900002
-0.056004766 0.071332388 0.61900002
-0.054825719 0.071332388 0.61900002
-0.053646669 0.071332388 0.61900002
-0.052467622 0.071332388 0.61900002
-0.051288575 0.071332388 0.61900002
-0.050109528 0.071332388 0.61900002
-0.048930481 0.071332388 0.61900002
-0.04775143 0.071332388 0.61900002
-0.046647623 0.071447626 0.62
-0.045466669 0.071447626 0.62
-0.044428576 0.071678102 0.62200004
-0.043313336 0.07179334 0.62300003
-0.04212667 0.07179334 0.62300003
-0.040940002 0.07179334 0.62300003
-0.089018099 0.072511435 0.61900002
-0.087839052 0.072511435 0.61900002
-0.086380005 0.072277151 0.61700004
-0.085066669 0.072160006 0.61600006
-0.084029533 0.072277151 0.61700004
-0.082854293 0.072277151 0.61700004
-0.081546672 0.072160006 0.61600006
-0.080373339 0.072160006 0.61600006
-0.079071432 0.07204286 0.61500001
-0.077900007 0.07204286 0.61500001
-0.076728575 0.07204286 0.61500001
-0.075680003 0.072160006 0.61600006
-0.07450667 0.072160006 0.61600006
-0.073333338 0.072160006 0.61600006
-0.07204286 0.07204286 0.61500001
-0.070871435 0.07204286 0.61500001
-0.069700003 0.07204286 0.61500001
-0.068528578 0.07204286 0.61500001
-0.067466669 0.072160006 0.61600006
-0.066293336 0.072160006 0.61600006
-0.065120004 0.072160006 0.61600006
-0.064050481 0.072277151 0.61700004
-0.062875241 0.072277151 0.61700004
-0.061700005 0.072277151 0.61700004
-0.06062286 0.072394289 0.61800003
-0.059445716 0.072394289 0.61800003
-0.058268577 0.072394289 0.61800003
-0.057091434 0.072394289 0.61800003
-0.055823814 0.072277151 0.61700004
-0.054737147 0.072394289 0.61800003
-0.053560004 0.072394289 0.61800003
-0.05238286 0.072394289 0.61800003
-0.051205717 0.072394289 0.61800003
-0.050028574 0.072394289 0.61800003
-0.04885143 0.072394289 0.61800003
-0.047674287 0.072394289 0.61800003
-0.046497148 0.072394289 0.61800003
-0.045393337 0.072511435 0.61900002
-0.044142861 0.072394289 0.61800003
-0.043035243 0.072511435 0.61900002
-0.041923814 0.072628573 0.62
-0.040874287 0.072862864 0.62200004
-0.090197146 0.073690481 0.61900002
-0.088874288 0.073571436 0.61800003
-0.087697148 0.073571436 0.61800003
-0.086380005 0.073452383 0.61700004
-0.085066669 0.073333338 0.61600006
-0.083893336 0.073333338 0.61600006
-0.082585722 0.073214293 0.61500001
-0.081281908 0.07309524 0.61400002
-0.079981908 0.072976194 0.61300004
-0.078942865 0.07309524 0.61400002
-0.07777334 0.07309524 0.61400002
-0.076728575 0.073214293 0.61500001
-0.07543429 0.07309524 0.61400002
-0.074385718 0.073214293 0.61500001
-0.073214293 0.073214293 0.61500001
-0.07204286 0.073214293 0.61500001
-0.070871435 0.073214293 0.61500001
-0.069700003 0.073214293 0.61500001
-0.068528578 0.073214293 0.61500001
-0.067357145 0.073214293 0.61500001
-0.06618572 0.073214293 0.61500001
-0.065014288 0.073214293 0.61500001
-0.063842863 0.073214293 0.61500001
-0.062773339 0.073333338 0.61600006
-0.061600003 0.073333338 0.61600006
-0.060426671 0.073333338 0.61600006
-0.059253339 0.073333338 0.61600006
-0.05817429 0.073452383 0.61700004
-0.05690667 0.073333338 0.61600006
-0.055733338 0.073333338 0.61600006
-0.054648574 0.073452383 0.61700004
-0.053473338 0.073452383 0.61700004
-0.052298099 0.073452383 0.61700004
-0.051205717 0.073571436 0.61800003
-0.049947623 0.073452383 0.61700004
-0.048772383 0.073452383 0.61700004
-0.047597148 0.073452383 0.61700004
-0.046421908 0.073452383 0.61700004
-0.045246668 0.073452383 0.61700004
-0.044071432 0.073452383 0.61700004
-0.042896193 0.073452383 0.61700004
-0.041720957 0.073452383 0.61700004
-0.087555245 0.074627623 0.61700004
-0.086240008 0.07450667 0.61600006
-0.08492858 0.074385718 0.61500001
-0.083620958 0.074264765 0.61400002
-0.082317151 0.074143812 0.61300004
-0.081149526 0.074143812 0.61300004
-0.079851434 0.074022859 0.61200005
-0.07881429 0.074143812 0.61300004
-0.077520005 0.074022859 0.61200005
-0.076479055 0.074143812 0.61300004
-0.07531143 0.074143812 0.61300004
-0.074264765 0.074264765 0.61400002
-0.07309524 0.074264765 0.61400002
-0.07204286 0.074385718 0.61500001
-0.070756197 0.074264765 0.61400002
-0.069586672 0.074264765 0.61400002
-0.068417147 0.074264765 0.61400002
-0.067247622 0.074264765 0.61400002
-0.066078097 0.074264765 0.61400002
-0.064908579 0.074264765 0.61400002
-0.063739054 0.074264765 0.61400002
-0.06267143 0.074385718 0.61500001
-0.061500005 0.074385718 0.61500001
-0.060328577 0.074385718 0.61500001
-0.059157148 0.074385718 0.61500001
-0.057985719 0.074385718 0.61500001
-0.056814291 0.074385718 0.61500001
-0.055642862 0.074385718 0.61500001
-0.054382861 0.074264765 0.61400002
-0.053300004 0.074385718 0.61500001
-0.052128576 0.074385718 0.61500001
-0.050957147 0.074385718 0.61500001
-0.049785718 0.074385718 0.61500001
-0.04861429 0.074385718 0.61500001
-0.047520004 0.07450667 0.61600006
-0.046346668 0.07450667 0.61600006
-0.045173336 0.07450667 0.61600006
-0.044000003 0.07450667 0.61600006
-0.042826671 0.07450667 0.61600006
-0.041653335 0.07450667 0.61600006
-0.087555245 0.075802863 0.61700004
-0.086240008 0.075680003 0.61600006
-0.084652387 0.07531143 0.61300004
-0.083484769 0.07531143 0.61300004
-0.082317151 0.07531143 0.61300004
-0.081017151 0.075188577 0.61200005
-0.079851434 0.075188577 0.61200005
-0.078685716 0.075188577 0.61200005
-0.077520005 0.075188577 0.61200005
-0.076354288 0.075188577 0.61200005
-0.075188577 0.075188577 0.61200005
-0.074022859 0.075188577 0.61200005
-0.072976194 0.07531143 0.61300004
-0.071925722 0.07543429 0.61400002
-0.070756197 0.07543429 0.61400002
-0.069473341 0.07531143 0.61300004
-0.068305716 0.07531143 0.61300004
-0.067247622 0.07543429 0.61400002
-0.06597048 0.07531143 0.61300004
-0.064802863 0.07531143 0.61300004
-0.063635245 0.07531143 0.61300004
-0.062569529 0.07543429 0.61400002
-0.061300006 0.07531143 0.61300004
-0.060132384 0.07531143 0.61300004
-0.058964767 0.07531143 0.61300004
-0.057797145 0.07531143 0.61300004
-0.056629527 0.07531143 0.61300004
-0.05546191 0.07531143 0.61300004
-0.054294288 0.07531143 0.61300004
-0.05312667 0.07531143 0.61300004
-0.051959053 0.07531143 0.61300004
-0.050791431 0.07531143 0.61300004
-0.049623813 0.07531143 0.61300004
-0.048535243 0.07543429 0.61400002
-0.047365718 0.07543429 0.61400002
-0.046196193 0.07543429 0.61400002
-0.045026671 0.07543429 0.61400002
-0.043857146 0.07543429 0.61400002
-0.042687621 0.07543429 0.61400002
-0.0415181 0.07543429 0.61400002
-0.040414289 0.07555715 0.61500001
-0.03924286 0.07555715 0.61500001
-0.08451429 0.076354288 0.61200005
-0.083212383 0.076229528 0.611
-0.08204858 0.076229528 0.611
-0.08088477 0.076229528 0.611
