# .PCD v0.7 - Point Cloud Data file format
VERSION 0.7
FIELDS x y z
SIZE 4 4 4
TYPE F F F
COUNT 1 1 1
WIDTH 1347
HEIGHT 1
VIEWPOINT 0 0 0 1 0 0 0
POINTS 1347
DATA ascii
-0.01246762 0.024279049 0.68900001
-0.011252382 0.024490478 0.69500005
0.0046200003 0.024420002 0.69300002
0.0072600003 0.024420002 0.69300002
0.0085552391 0.024349526 0.69100004
0.027372383 0.024701906 0.70100003
0.028584763 0.024596192 0.69800001
0.029914288 0.024596192 0.69800001
0.031243812 0.024596192 0.69800001
0.070071436 0.023785716 0.67500001
0.071357146 0.023785716 0.67500001
0.072642863 0.023785716 0.67500001
0.07392858 0.023785716 0.67500001
0.075660005 0.023926668 0.67900002
0.076953337 0.023926668 0.67900002
0.12055715 0.030762859 0.87300003
0.12166001 0.030621907 0.86900002
0.12303144 0.03055143 0.86700004
0.12439524 0.030480955 0.86500007
-0.10407144 0.026185716 0.70500004
-0.10272858 0.026185716 0.70500004
-0.10138572 0.026185716 0.70500004
-0.10004286 0.026185716 0.70500004
-0.098560005 0.026148573 0.70400006
-0.097219057 0.026148573 0.70400006
-0.095878102 0.026148573 0.70400006
-0.094537146 0.026148573 0.70400006
-0.093063816 0.02611143 0.70300001
-0.091724768 0.02611143 0.70300001
-0.09038572 0.02611143 0.70300001
-0.088793337 0.026037145 0.70100003
-0.087458104 0.026037145 0.70100003
-0.086122863 0.026037145 0.70100003
-0.084787622 0.026037145 0.70100003
-0.083452389 0.026037145 0.70100003
-0.080781907 0.026037145 0.70100003
-0.079673335 0.02611143 0.70300001
-0.078334294 0.02611143 0.70300001
-0.076995246 0.02611143 0.70300001
-0.075333342 0.026000002 0.70000005
-0.074000008 0.026000002 0.70000005
-0.072666675 0.026000002 0.70000005
-0.071333341 0.026000002 0.70000005
-0.070000008 0.026000002 0.70000005
-0.067140959 0.025925716 0.69800001
-0.065811433 0.025925716 0.69800001
-0.064481907 0.025925716 0.69800001
-0.063785717 0.026185716 0.70500004
-0.062442861 0.026185716 0.70500004
-0.061013337 0.026148573 0.70400006
-0.059672385 0.026148573 0.70400006
-0.058414288 0.026185716 0.70500004
-0.057071432 0.026185716 0.70500004
-0.055728573 0.026185716 0.70500004
-0.054308575 0.026148573 0.70400006
-0.052290481 0.025814287 0.69500005
-0.050966669 0.025814287 0.69500005
-0.049642861 0.025814287 0.69500005
-0.048319049 0.025814287 0.69500005
-0.046995241 0.025814287 0.69500005
-0.045671433 0.025814287 0.69500005
-0.044283811 0.025777144 0.69400001
-0.04351905 0.02611143 0.70300001
-0.042180002 0.02611143 0.70300001
-0.0086047621 0.025814287 0.69500005
-0.0033047621 0.025777144 0.69400001
-0.00065809529 0.025665715 0.69100004
0.00065809529 0.025665715 0.69100004
0.0019800002 0.025740001 0.69300002
0.0033000002 0.025740001 0.69300002
0.0046200003 0.025740001 0.69300002
0.0059400005 0.025740001 0.69300002
0.0085552391 0.025665715 0.69100004
0.0098714288 0.025665715 0.69100004
0.01118762 0.025665715 0.69100004
0.01250381 0.025665715 0.69100004
0.013820001 0.025665715 0.69100004
0.021654287 0.025591429 0.68900001
0.027216192 0.025888573 0.69700003
0.028461907 0.025814287 0.69500005
0.029914288 0.025925716 0.69800001
0.032340001 0.025740001 0.69300002
0.034980003 0.025740001 0.69300002
0.054621909 0.025665715 0.69100004
0.055938099 0.025665715 0.69100004
0.057254288 0.025665715 0.69100004
0.06996762 0.025034288 0.67400002
0.071357146 0.025071431 0.67500001
0.072750479 0.025108574 0.67600006
0.07425715 0.025182858 0.67800003
0.075660005 0.025220001 0.67900002
0.076953337 0.025220001 0.67900002
0.078246675 0.025220001 0.67900002
0.079540007 0.025220001 0.67900002
0.080833338 0.025220001 0.67900002
0.084648579 0.025591429 0.68900001
0.087273337 0.025591429 0.68900001
0.12166001 0.032277144 0.86900002
-0.10407144 0.027528573 0.70500004
-0.10272858 0.027528573 0.70500004
-0.10138572 0.027528573 0.70500004
-0.10004286 0.027528573 0.70500004
-0.098560005 0.027489526 0.70400006
-0.097080961 0.027450478 0.70300001
-0.095878102 0.027489526 0.70400006
-0.094537146 0.027489526 0.70400006
-0.093063816 0.027450478 0.70300001
-0.091724768 0.027450478 0.70300001
-0.090128578 0.027372383 0.70100003
-0.088793337 0.027372383 0.70100003
-0.087458104 0.027372383 0.70100003
-0.086368576 0.027450478 0.70300001
-0.084787622 0.027372383 0.70100003
-0.083452389 0.027372383 0.70100003
-0.082000002 0.027333336 0.70000005
-0.080781907 0.027372383 0.70100003
-0.079446673 0.027372383 0.70100003
-0.078111432 0.027372383 0.70100003
-0.076776199 0.027372383 0.70100003
-0.075333342 0.027333336 0.70000005
-0.074000008 0.027333336 0.70000005
-0.072666675 0.027333336 0.70000005
-0.071333341 0.027333336 0.70000005
-0.070000008 0.027333336 0.70000005
-0.068470478 0.027255239 0.69800001
-0.067140959 0.027255239 0.69800001
-0.065811433 0.027255239 0.69800001
-0.064481907 0.027255239 0.69800001
-0.063604765 0.027450478 0.70300001
-0.06226572 0.027450478 0.70300001
-0.060753338 0.027372383 0.70100003
-0.059333336 0.027333336 0.70000005
-0.058000002 0.027333336 0.70000005
-0.056747623 0.027372383 0.70100003
-0.055175241 0.027255239 0.69800001
-0.053768575 0.027216192 0.69700003
-0.052290481 0.027138097 0.69500005
-0.050966669 0.027138097 0.69500005
-0.049642861 0.027138097 0.69500005
-0.048319049 0.027138097 0.69500005
-0.046995241 0.027138097 0.69500005
-0.045671433 0.027138097 0.69500005
-0.044283811 0.027099049 0.69400001
-0.043023814 0.027138097 0.69500005
-0.032200001 0.026942858 0.69000006
-0.030930478 0.026981907 0.69100004
-0.029614288 0.026981907 0.69100004
-0.028298097 0.026981907 0.69100004
-0.026903812 0.026903812 0.68900001
-0.025628572 0.026942858 0.69000006
-0.024314288 0.026942858 0.69000006
-0.013780001 0.026903812 0.68900001
-0.01246762 0.026903812 0.68900001
-0.009928572 0.027138097 0.69500005
-0.0086047621 0.027138097 0.69500005
-0.0072809528 0.027138097 0.69500005
-0.0059571434 0.027138097 0.69500005
-0.0046333335 0.027138097 0.69500005
-0.0033047621 0.027099049 0.69400001
-0.0019800002 0.027060002 0.69300002
-0.00065809529 0.026981907 0.69100004
0.00065809529 0.026981907 0.69100004
0.0019800002 0.027060002 0.69300002
0.0033000002 0.027060002 0.69300002
0.0046200003 0.027060002 0.69300002
0.0059400005 0.027060002 0.69300002
0.0072285719 0.026942858 0.69000006
0.0085552391 0.026981907 0.69100004
0.0098714288 0.026981907 0.69100004
0.01118762 0.026981907 0.69100004
0.01250381 0.026981907 0.69100004
0.013820001 0.026981907 0.69100004
0.017665716 0.026825717 0.68700004
0.020282859 0.026825717 0.68700004
0.021654287 0.026903812 0.68900001
0.023000002 0.026942858 0.69000006
0.024314288 0.026942858 0.69000006
0.025665715 0.026981907 0.69100004
0.027060002 0.027060002 0.69300002
0.028380001 0.027060002 0.69300002
0.029700002 0.027060002 0.69300002
0.031020002 0.027060002 0.69300002
0.033660002 0.027060002 0.69300002
0.034980003 0.027060002 0.69300002
0.036195241 0.026981907 0.69100004
0.037511431 0.026981907 0.69100004
0.038940001 0.027060002 0.69300002
0.050966669 0.027138097 0.69500005
0.052290481 0.027138097 0.69500005
0.053305719 0.026981907 0.69100004
0.054621909 0.026981907 0.69100004
0.071674287 0.026474288 0.67800003
0.072965719 0.026474288 0.67800003
0.074366674 0.026513334 0.67900002
0.075660005 0.026513334 0.67900002
0.076953337 0.026513334 0.67900002
0.078361914 0.026552383 0.68000001
0.079657145 0.026552383 0.68000001
-0.10407144 0.02887143 0.70500004
-0.10272858 0.02887143 0.70500004
-0.10138572 0.02887143 0.70500004
-0.099900961 0.028830478 0.70400006
-0.098560005 0.028830478 0.70400006
-0.096804768 0.028707622 0.70100003
-0.095741913 0.028789526 0.70300001
-0.094402865 0.028789526 0.70300001
-0.092799053 0.028707622 0.70100003
-0.091463819 0.028707622 0.70100003
-0.090128578 0.028707622 0.70100003
-0.088793337 0.028707622 0.70100003
-0.087458104 0.028707622 0.70100003
-0.086000003 0.028666668 0.70000005
-0.084303819 0.028543811 0.69700003
-0.082976192 0.028543811 0.69700003
-0.082000002 0.028666668 0.70000005
-0.080666669 0.028666668 0.70000005
-0.079333335 0.028666668 0.70000005
-0.078000002 0.028666668 0.70000005
-0.076666668 0.028666668 0.70000005
-0.075118102 0.028584763 0.69800001
-0.073788576 0.028584763 0.69800001
-0.07245905 0.028584763 0.69800001
-0.071129531 0.028584763 0.69800001
-0.069800004 0.028584763 0.69800001
-0.068176195 0.028461907 0.69500005
-0.066852383 0.028461907 0.69500005
-0.065528579 0.028461907 0.69500005
-0.064389527 0.028543811 0.69700003
-0.063061908 0.028543811 0.69700003
-0.061822861 0.028584763 0.69800001
-0.060493339 0.028584763 0.69800001
-0.059079051 0.028543811 0.69700003
-0.057751432 0.028543811 0.69700003
-0.056423813 0.028543811 0.69700003
-0.055096194 0.028543811 0.69700003
-0.053614289 0.028461907 0.69500005
-0.052290481 0.028461907 0.69500005
-0.050966669 0.028461907 0.69500005
-0.049642861 0.028461907 0.69500005
-0.048319049 0.028461907 0.69500005
-0.046927623 0.028420955 0.69400001
-0.045605719 0.028420955 0.69400001
-0.044283811 0.028420955 0.69400001
-0.043023814 0.028461907 0.69500005
-0.041700002 0.028461907 0.69500005
-0.032200001 0.028257145 0.69000006
-0.030930478 0.028298097 0.69100004
-0.029571431 0.028257145 0.69000006
-0.028216192 0.028216192 0.68900001
-0.026903812 0.028216192 0.68900001
-0.025628572 0.028257145 0.69000006
-0.021685716 0.028257145 0.69000006
-0.020341907 0.028216192 0.68900001
-0.019057143 0.028257145 0.69000006
-0.017742859 0.028257145 0.69000006
-0.016428573 0.028257145 0.69000006
-0.015092382 0.028216192 0.68900001
-0.013780001 0.028216192 0.68900001
-0.0086047621 0.028461907 0.69500005
-0.0072704768 0.028420955 0.69400001
-0.005948572 0.028420955 0.69400001
-0.0046266671 0.028420955 0.69400001
-0.0032904765 0.028298097 0.69100004
-0.0019742858 0.028298097 0.69100004
-0.00065809529 0.028298097 0.69100004
0.0006571429 0.028257145 0.69000006
0.0019742858 0.028298097 0.69100004
0.0032904765 0.028298097 0.69100004
0.004606667 0.028298097 0.69100004
0.0059142862 0.028257145 0.69000006
0.0072285719 0.028257145 0.69000006
0.0085304771 0.028216192 0.68900001
0.0098571433 0.028257145 0.69000006
0.011171429 0.028257145 0.69000006
0.012485716 0.028257145 0.69000006
0.013780001 0.028216192 0.68900001
0.015092382 0.028216192 0.68900001
0.016404763 0.028216192 0.68900001
0.017665716 0.028134288 0.68700004
0.018974287 0.028134288 0.68700004
0.020253334 0.028093334 0.68600005
0.021591431 0.028134288 0.68700004
0.022900002 0.028134288 0.68700004
0.024208574 0.028134288 0.68700004
0.025591429 0.028216192 0.68900001
0.026981907 0.028298097 0.69100004
0.028298097 0.028298097 0.69100004
0.029614288 0.028298097 0.69100004
0.030930478 0.028298097 0.69100004
0.032246668 0.028298097 0.69100004
0.033562858 0.028298097 0.69100004
0.034879051 0.028298097 0.69100004
0.03614286 0.028257145 0.69000006
0.037511431 0.028298097 0.69100004
0.03882762 0.028298097 0.69100004
0.040143814 0.028298097 0.69100004
0.041460004 0.028298097 0.69100004
0.045408573 0.028298097 0.69100004
0.046724766 0.028298097 0.69100004
0.048040956 0.028298097 0.69100004
0.049357146 0.028298097 0.69100004
0.050673336 0.028298097 0.69100004
0.051989526 0.028298097 0.69100004
0.053305719 0.028298097 0.69100004
0.054621909 0.028298097 0.69100004
0.055938099 0.028298097 0.69100004
0.057254288 0.028298097 0.69100004
0.071674287 0.027765715 0.67800003
0.072965719 0.027765715 0.67800003
0.074366674 0.027806668 0.67900002
0.075660005 0.027806668 0.67900002
0.076953337 0.027806668 0.67900002
0.078246675 0.027806668 0.67900002
0.079540007 0.027806668 0.67900002
0.08214286 0.028257145 0.69000006
0.08345715 0.028257145 0.69000006
0.084648579 0.028216192 0.68900001
0.087273337 0.028216192 0.68900001
-0.10272858 0.030214287 0.70500004
-0.10138572 0.030214287 0.70500004
-0.099900961 0.03017143 0.70400006
-0.098420009 0.030128574 0.70300001
-0.096804768 0.030042859 0.70100003
-0.095469527 0.030042859 0.70100003
-0.094134293 0.030042859 0.70100003
-0.092799053 0.030042859 0.70100003
-0.091333337 0.030000001 0.70000005
-0.090000004 0.030000001 0.70000005
-0.088413343 0.029914288 0.69800001
-0.087333336 0.030000001 0.70000005
-0.086000003 0.030000001 0.70000005
-0.084303819 0.02987143 0.69700003
-0.082976192 0.02987143 0.69700003
-0.081648573 0.02987143 0.69700003
-0.080436192 0.029914288 0.69800001
-0.079106674 0.029914288 0.69800001
-0.077777147 0.029914288 0.69800001
-0.076447621 0.029914288 0.69800001
-0.075010478 0.02987143 0.69700003
-0.07368286 0.02987143 0.69700003
-0.07245905 0.029914288 0.69800001
-0.071129531 0.029914288 0.69800001
-0.069700003 0.02987143 0.69700003
-0.068176195 0.029785717 0.69500005
-0.066756196 0.029742859 0.69400001
-0.065340005 0.029700002 0.69300002
-0.064020008 0.029700002 0.69300002
-0.062790483 0.029742859 0.69400001
-0.061557148 0.029785717 0.69500005
-0.060233336 0.029785717 0.69500005
-0.058909528 0.029785717 0.69500005
-0.057585716 0.029785717 0.69500005
-0.056423813 0.02987143 0.69700003
-0.055096194 0.02987143 0.69700003
-0.053614289 0.029785717 0.69500005
-0.052290481 0.029785717 0.69500005
-0.050966669 0.029785717 0.69500005
-0.049571432 0.029742859 0.69400001
-0.048319049 0.029785717 0.69500005
-0.046927623 0.029742859 0.69400001
-0.045605719 0.029742859 0.69400001
-0.044283811 0.029742859 0.69400001
-0.042961907 0.029742859 0.69400001
-0.041580003 0.029700002 0.69300002
-0.033368573 0.02944286 0.68700004
-0.032200001 0.029571431 0.69000006
-0.030930478 0.029614288 0.69100004
-0.029571431 0.029571431 0.69000006
-0.028257145 0.029571431 0.69000006
-0.026903812 0.029528573 0.68900001
-0.025628572 0.029571431 0.69000006
-0.024314288 0.029571431 0.69000006
-0.023000002 0.029571431 0.69000006
-0.021685716 0.029571431 0.69000006
-0.02037143 0.029571431 0.69000006
-0.019057143 0.029571431 0.69000006
-0.017742859 0.029571431 0.69000006
-0.016428573 0.029571431 0.69000006
-0.015092382 0.029528573 0.68900001
-0.013780001 0.029528573 0.68900001
-0.01246762 0.029528573 0.68900001
-0.011155238 0.029528573 0.68900001
-0.0098571433 0.029571431 0.69000006
-0.0085800001 0.029700002 0.69300002
-0.0072390479 0.029614288 0.69100004
-0.0059142862 0.029571431 0.69000006
-0.004606667 0.029614288 0.69100004
-0.0032857144 0.029571431 0.69000006
-0.0019714287 0.029571431 0.69000006
-0.0006571429 0.029571431 0.69000006
0.0006571429 0.029571431 0.69000006
0.0019714287 0.029571431 0.69000006
0.0032857144 0.029571431 0.69000006
0.0046000001 0.029571431 0.69000006
0.0059057148 0.029528573 0.68900001
0.0072180959 0.029528573 0.68900001
0.0085304771 0.029528573 0.68900001
0.0098428577 0.029528573 0.68900001
0.011155238 0.029528573 0.68900001
0.01246762 0.029528573 0.68900001
0.013740001 0.02944286 0.68700004
0.015048573 0.02944286 0.68700004
0.016357144 0.02944286 0.68700004
0.017640002 0.029400002 0.68600005
0.018946668 0.029400002 0.68600005
0.020253334 0.029400002 0.68600005
0.021591431 0.02944286 0.68700004
0.022866668 0.029400002 0.68600005
0.024208574 0.02944286 0.68700004
0.025517145 0.02944286 0.68700004
0.026942858 0.029571431 0.69000006
0.028257145 0.029571431 0.69000006
0.029528573 0.029528573 0.68900001
0.030885717 0.029571431 0.69000006
0.032200001 0.029571431 0.69000006
0.033562858 0.029614288 0.69100004
0.034828573 0.029571431 0.69000006
0.03614286 0.029571431 0.69000006
0.037457146 0.029571431 0.69000006
0.038771432 0.029571431 0.69000006
0.040085718 0.029571431 0.69000006
0.041400004 0.029571431 0.69000006
0.042776193 0.029614288 0.69100004
0.044028573 0.029571431 0.69000006
0.045342859 0.029571431 0.69000006
0.046657145 0.029571431 0.69000006
0.047971431 0.029571431 0.69000006
0.049285717 0.029571431 0.69000006
0.050600003 0.029571431 0.69000006
0.05191429 0.029571431 0.69000006
0.053305719 0.029614288 0.69100004
0.054621909 0.029614288 0.69100004
0.055938099 0.029614288 0.69100004
0.057254288 0.029614288 0.69100004
0.058570482 0.029614288 0.69100004
0.059800003 0.029571431 0.69000006
0.061202861 0.029614288 0.69100004
0.062519051 0.029614288 0.69100004
0.063835241 0.029614288 0.69100004
0.071005717 0.029314287 0.68400002
0.072202861 0.029271431 0.68300003
0.073073335 0.029100003 0.67900002
0.074476197 0.029142858 0.68000001
0.076217145 0.029314287 0.68400002
0.078313336 0.029614288 0.69100004
0.079629526 0.029614288 0.69100004
0.080125719 0.029314287 0.68400002
0.08345715 0.029571431 0.69000006
0.084648579 0.029528573 0.68900001
0.085960954 0.029528573 0.68900001
-0.10138572 0.031557146 0.70500004
-0.099900961 0.031512383 0.70400006
-0.098420009 0.03146762 0.70300001
-0.096666671 0.031333335 0.70000005
-0.095333338 0.031333335 0.70000005
-0.094000004 0.031333335 0.70000005
-0.092401914 0.031243812 0.69800001
-0.090941913 0.031199049 0.69700003
-0.089357145 0.031109527 0.69500005
-0.088033341 0.031109527 0.69500005
-0.086709529 0.031109527 0.69500005
-0.085385717 0.031109527 0.69500005
-0.084061913 0.031109527 0.69500005
-0.082738101 0.031109527 0.69500005
-0.081297152 0.031064764 0.69400001
-0.080090478 0.031109527 0.69500005
-0.078653336 0.031064764 0.69400001
-0.077331431 0.031064764 0.69400001
-0.076009527 0.031064764 0.69400001
-0.074687622 0.031064764 0.69400001
-0.073260002 0.031020002 0.69300002
-0.072043814 0.031064764 0.69400001
-0.070721909 0.031064764 0.69400001
-0.069400005 0.031064764 0.69400001
-0.067783818 0.030930478 0.69100004
-0.06646762 0.030930478 0.69100004
-0.065151431 0.030930478 0.69100004
-0.063742861 0.030885717 0.69000006
-0.062428575 0.030885717 0.69000006
-0.061114289 0.030885717 0.69000006
-0.059800003 0.030885717 0.69000006
-0.058740005 0.031020002 0.69300002
-0.057420004 0.031020002 0.69300002
-0.056180958 0.031064764 0.69400001
-0.0549381 0.031109527 0.69500005
-0.053537145 0.031064764 0.69400001
-0.052215241 0.031064764 0.69400001
-0.050893337 0.031064764 0.69400001
-0.049571432 0.031064764 0.69400001
-0.048249528 0.031064764 0.69400001
-0.046927623 0.031064764 0.69400001
-0.045540001 0.031020002 0.69300002
-0.044220004 0.031020002 0.69300002
-0.042900003 0.031020002 0.69300002
-0.041460004 0.030930478 0.69100004
-0.040027622 0.030840954 0.68900001
-0.038602859 0.030751431 0.68700004
-0.037294287 0.030751431 0.68700004
-0.035933334 0.030706668 0.68600005
-0.034525715 0.030617144 0.68400002
-0.033320002 0.030706668 0.68600005
-0.032153334 0.030840954 0.68900001
-0.030885717 0.030885717 0.69000006
-0.029571431 0.030885717 0.69000006
-0.028216192 0.030840954 0.68900001
-0.026903812 0.030840954 0.68900001
-0.025591429 0.030840954 0.68900001
-0.024279049 0.030840954 0.68900001
-0.022966668 0.030840954 0.68900001
-0.021654287 0.030840954 0.68900001
-0.020341907 0.030840954 0.68900001
-0.019029524 0.030840954 0.68900001
-0.017742859 0.030885717 0.69000006
-0.016428573 0.030885717 0.69000006
-0.015092382 0.030840954 0.68900001
-0.013780001 0.030840954 0.68900001
-0.01243143 0.030751431 0.68700004
-0.011122858 0.030751431 0.68700004
-0.0098428577 0.030840954 0.68900001
-0.0085428581 0.030885717 0.69000006
-0.0071866671 0.030706668 0.68600005
-0.005888572 0.030751431 0.68700004
-0.0045800004 0.030751431 0.68700004
-0.0032809526 0.030840954 0.68900001
-0.0019685715 0.030840954 0.68900001
-0.0006561905 0.030840954 0.68900001
0.0006561905 0.030840954 0.68900001
0.0019628573 0.030751431 0.68700004
0.0032809526 0.030840954 0.68900001
0.0045933337 0.030840954 0.68900001
0.0059057148 0.030840954 0.68900001
0.0071971435 0.030751431 0.68700004
0.0085057151 0.030751431 0.68700004
0.0098428577 0.030840954 0.68900001
0.011155238 0.030840954 0.68900001
0.01243143 0.030751431 0.68700004
0.013740001 0.030751431 0.68700004
0.015026668 0.030706668 0.68600005
0.016333334 0.030706668 0.68600005
0.017640002 0.030706668 0.68600005
0.018946668 0.030706668 0.68600005
0.020253334 0.030706668 0.68600005
0.021560002 0.030706668 0.68600005
0.022866668 0.030706668 0.68600005
0.024173334 0.030706668 0.68600005
0.025480002 0.030706668 0.68600005
0.026825717 0.030751431 0.68700004
0.028134288 0.030751431 0.68700004
0.029400002 0.030706668 0.68600005
0.030751431 0.030751431 0.68700004
0.032060001 0.030751431 0.68700004
0.033465717 0.030840954 0.68900001
0.034828573 0.030885717 0.69000006
0.036090478 0.030840954 0.68900001
0.037457146 0.030885717 0.69000006
0.038771432 0.030885717 0.69000006
0.040027622 0.030840954 0.68900001
0.041340001 0.030840954 0.68900001
0.042652383 0.030840954 0.68900001
0.043964766 0.030840954 0.68900001
0.045145717 0.030751431 0.68700004
0.046589527 0.030840954 0.68900001
0.04776286 0.030751431 0.68700004
0.049214289 0.030840954 0.68900001
0.050526671 0.030840954 0.68900001
0.051688574 0.030751431 0.68700004
0.052997146 0.030751431 0.68700004
0.054463815 0.030840954 0.68900001
0.055614289 0.030751431 0.68700004
0.05692286 0.030751431 0.68700004
0.058231432 0.030751431 0.68700004
0.059540004 0.030751431 0.68700004
0.06102572 0.030840954 0.68900001
0.062428575 0.030885717 0.69000006
0.063465722 0.030751431 0.68700004
0.069702864 0.030617144 0.68400002
0.070901908 0.030572383 0.68300003
0.072202861 0.030572383 0.68300003
0.073503815 0.030572383 0.68300003
0.074804768 0.030572383 0.68300003
0.076217145 0.030617144 0.68400002
0.077520005 0.030617144 0.68400002
0.078822859 0.030617144 0.68400002
0.080125719 0.030617144 0.68400002
0.08214286 0.030885717 0.69000006
0.08345715 0.030885717 0.69000006
0.084648579 0.030840954 0.68900001
0.085960954 0.030840954 0.68900001
0.087273337 0.030840954 0.68900001
0.088328578 0.030751431 0.68700004
0.089506671 0.030706668 0.68600005
0.090945721 0.030751431 0.68700004
-0.097720005 0.032573335 0.69800001
-0.096390486 0.032573335 0.69800001
-0.095060959 0.032573335 0.69800001
-0.093731433 0.032573335 0.69800001
-0.092269532 0.032526668 0.69700003
-0.090941913 0.032526668 0.69700003
-0.089357145 0.032433335 0.69500005
-0.087906674 0.032386668 0.69400001
-0.086709529 0.032433335 0.69500005
-0.085262865 0.032386668 0.69400001
-0.08394096 0.032386668 0.69400001
-0.082261913 0.032246668 0.69100004
-0.080945723 0.032246668 0.69100004
-0.079629526 0.032246668 0.69100004
-0.078313336 0.032246668 0.69100004
-0.076997146 0.032246668 0.69100004
-0.075680956 0.032246668 0.69100004
-0.074364766 0.032246668 0.69100004
-0.073048577 0.032246668 0.69100004
-0.071732387 0.032246668 0.69100004
-0.070416197 0.032246668 0.69100004
-0.069100007 0.032246668 0.69100004
-0.067685716 0.032200001 0.69000006
-0.066371433 0.032200001 0.69000006
-0.064962864 0.032153334 0.68900001
-0.063373335 0.032013334 0.68600005
-0.062066671 0.032013334 0.68600005
-0.060848575 0.032060001 0.68700004
-0.059540004 0.032060001 0.68700004
-0.058231432 0.032060001 0.68700004
-0.057088576 0.032153334 0.68900001
-0.056100003 0.032340001 0.69300002
-0.05485905 0.032386668 0.69400001
-0.053537145 0.032386668 0.69400001
-0.052140005 0.032340001 0.69300002
-0.050820004 0.032340001 0.69300002
-0.049500003 0.032340001 0.69300002
-0.048180003 0.032340001 0.69300002
-0.046860002 0.032340001 0.69300002
-0.045408573 0.032246668 0.69100004
-0.044092383 0.032246668 0.69100004
-0.042776193 0.032246668 0.69100004
-0.041340001 0.032153334 0.68900001
-0.039853334 0.032013334 0.68600005
-0.038434289 0.031920001 0.68400002
-0.037131432 0.031920001 0.68400002
-0.035776194 0.031873334 0.68300003
-0.034475241 0.031873334 0.68300003
-0.033222858 0.031920001 0.68400002
-0.032060001 0.032060001 0.68700004
-0.030885717 0.032200001 0.69000006
-0.029528573 0.032153334 0.68900001
-0.028134288 0.032060001 0.68700004
-0.026825717 0.032060001 0.68700004
-0.025517145 0.032060001 0.68700004
-0.024208574 0.032060001 0.68700004
-0.022900002 0.032060001 0.68700004
-0.021591431 0.032060001 0.68700004
-0.020253334 0.032013334 0.68600005
-0.018974287 0.032060001 0.68700004
-0.017717144 0.032153334 0.68900001
-0.016404763 0.032153334 0.68900001
-0.015048573 0.032060001 0.68700004
-0.013740001 0.032060001 0.68700004
-0.012377144 0.031920001 0.68400002
-0.011074287 0.031920001 0.68400002
-0.009800001 0.032013334 0.68600005
-0.0084685721 0.031920001 0.68400002
-0.0071657146 0.031920001 0.68400002
-0.0058628577 0.031920001 0.68400002
-0.0045733335 0.032013334 0.68600005
-0.0032666668 0.032013334 0.68600005
-0.0019628573 0.032060001 0.68700004
-0.00065428577 0.032060001 0.68700004
0.00065428577 0.032060001 0.68700004
0.00196 0.032013334 0.68600005
0.0032714289 0.032060001 0.68700004
0.0045800004 0.032060001 0.68700004
0.005888572 0.032060001 0.68700004
0.0071657146 0.031920001 0.68400002
0.0084933341 0.032013334 0.68600005
0.009800001 0.032013334 0.68600005
0.011122858 0.032060001 0.68700004
0.012413334 0.032013334 0.68600005
0.013720001 0.032013334 0.68600005
0.014982858 0.031920001 0.68400002
0.016285716 0.031920001 0.68400002
0.017588573 0.031920001 0.68400002
0.01889143 0.031920001 0.68400002
0.020194286 0.031920001 0.68400002
0.021560002 0.032013334 0.68600005
0.022866668 0.032013334 0.68600005
0.024173334 0.032013334 0.68600005
0.025480002 0.032013334 0.68600005
0.026786668 0.032013334 0.68600005
0.028093334 0.032013334 0.68600005
0.029314287 0.031920001 0.68400002
0.030706668 0.032013334 0.68600005
0.031920001 0.031920001 0.68400002
0.033320002 0.032013334 0.68600005
0.034677144 0.032060001 0.68700004
0.035933334 0.032013334 0.68600005
0.037240002 0.032013334 0.68600005
0.038602859 0.032060001 0.68700004
0.039853334 0.032013334 0.68600005
0.041160002 0.032013334 0.68600005
0.04246667 0.032013334 0.68600005
0.043773334 0.032013334 0.68600005
0.045080002 0.032013334 0.68600005
0.04638667 0.032013334 0.68600005
0.047693338 0.032013334 0.68600005
0.049000002 0.032013334 0.68600005
0.05030667 0.032013334 0.68600005
0.051462859 0.031920001 0.68400002
0.05276572 0.031920001 0.68400002
0.05422667 0.032013334 0.68600005
0.055533338 0.032013334 0.68600005
0.056840003 0.032013334 0.68600005
0.05814667 0.032013334 0.68600005
0.059453338 0.032013334 0.68600005
0.060848575 0.032060001 0.68700004
0.062157147 0.032060001 0.68700004
0.063373335 0.032013334 0.68600005
0.064680003 0.032013334 0.68600005
0.069600955 0.031873334 0.68300003
0.070798099 0.031826667 0.68200004
0.072202861 0.031873334 0.68300003
0.073396198 0.031826667 0.68200004
0.074804768 0.031873334 0.68300003
0.076217145 0.031920001 0.68400002
0.077520005 0.031920001 0.68400002
0.078822859 0.031920001 0.68400002
0.080125719 0.031920001 0.68400002
0.08142858 0.031920001 0.68400002
0.083336197 0.032153334 0.68900001
0.084648579 0.032153334 0.68900001
0.085711434 0.032060001 0.68700004
0.087020002 0.032060001 0.68700004
0.088328578 0.032060001 0.68700004
0.089637145 0.032060001 0.68700004
0.090945721 0.032060001 0.68700004
0.092254288 0.032060001 0.68700004
0.16619144 0.039340004 0.84300005
-0.098056197 0.033562858 0.69100004
-0.096740007 0.033562858 0.69100004
-0.095423818 0.033562858 0.69100004
-0.094107628 0.033562858 0.69100004
-0.093060009 0.033660002 0.69300002
-0.091740005 0.033660002 0.69300002
-0.090159051 0.033562858 0.69100004
-0.088842861 0.033562858 0.69100004
-0.087526672 0.033562858 0.69100004
-0.086085722 0.033514287 0.69000006
-0.084771432 0.033514287 0.69000006
-0.08345715 0.033514287 0.69000006
-0.082023814 0.033465717 0.68900001
-0.080711432 0.033465717 0.68900001
-0.079399049 0.033465717 0.68900001
-0.078086674 0.033465717 0.68900001
-0.076774292 0.033465717 0.68900001
-0.075242862 0.033368573 0.68700004
-0.073934294 0.033368573 0.68700004
-0.072625719 0.033368573 0.68700004
-0.071317151 0.033368573 0.68700004
-0.069906674 0.033320002 0.68600005
-0.068600006 0.033320002 0.68600005
-0.067293338 0.033320002 0.68600005
-0.065986671 0.033320002 0.68600005
-0.064680003 0.033320002 0.68600005
-0.063188575 0.033222858 0.68400002
-0.061885718 0.033222858 0.68400002
-0.060582861 0.033222858 0.68400002
-0.059280004 0.033222858 0.68400002
-0.057977147 0.033222858 0.68400002
-0.05667429 0.033222858 0.68400002
-0.055371433 0.033222858 0.68400002
-0.05422667 0.033320002 0.68600005
-0.052920002 0.033320002 0.68600005
-0.051613338 0.033320002 0.68600005
-0.050673336 0.033562858 0.69100004
-0.049357146 0.033562858 0.69100004
-0.048180003 0.033660002 0.69300002
-0.046724766 0.033562858 0.69100004
-0.045277145 0.033465717 0.68900001
-0.043964766 0.033465717 0.68900001
-0.042528573 0.033368573 0.68700004
-0.041160002 0.033320002 0.68600005
-0.039737146 0.033222858 0.68400002
-0.038378097 0.033174288 0.68300003
-0.037077144 0.033174288 0.68300003
-0.035723813 0.033125717 0.68200004
-0.034424763 0.033125717 0.68200004
-0.033125717 0.033125717 0.68200004
-0.031826667 0.033125717 0.68200004
-0.030438097 0.033028573 0.68000001
-0.029314287 0.033222858 0.68400002
-0.027970478 0.033174288 0.68300003
-0.026708573 0.033222858 0.68400002
-0.025405716 0.033222858 0.68400002
-0.024102859 0.033222858 0.68400002
-0.022800002 0.033222858 0.68400002
-0.021560002 0.033320002 0.68600005
-0.020194286 0.033222858 0.68400002
-0.018946668 0.033320002 0.68600005
-0.017640002 0.033320002 0.68600005
-0.016333334 0.033320002 0.68600005
-0.014982858 0.033222858 0.68400002
-0.013660001 0.033174288 0.68300003
-0.012340954 0.033125717 0.68200004
-0.011041906 0.033125717 0.68200004
-0.0097142868 0.033028573 0.68000001
-0.008419048 0.033028573 0.68000001
-0.0071447622 0.033125717 0.68200004
-0.0058542863 0.033174288 0.68300003
-0.0045533339 0.033174288 0.68300003
-0.0032523812 0.033174288 0.68300003
-0.0019514287 0.033174288 0.68300003
-0.00065047626 0.033174288 0.68300003
0.00065047626 0.033174288 0.68300003
0.0019514287 0.033174288 0.68300003
0.0032476194 0.033125717 0.68200004
0.0045266668 0.032980002 0.67900002
0.005828572 0.033028573 0.68000001
0.0071238098 0.033028573 0.68000001
0.008419048 0.033028573 0.68000001
0.0097571434 0.033174288 0.68300003
0.011074287 0.033222858 0.68400002
0.012359048 0.033174288 0.68300003
0.013660001 0.033174288 0.68300003
0.014960953 0.033174288 0.68300003
0.016261905 0.033174288 0.68300003
0.017562859 0.033174288 0.68300003
0.018836191 0.033125717 0.68200004
0.020135239 0.033125717 0.68200004
0.021465715 0.033174288 0.68300003
0.022800002 0.033222858 0.68400002
0.02406762 0.033174288 0.68300003
0.025368573 0.033174288 0.68300003
0.026669526 0.033174288 0.68300003
0.027970478 0.033174288 0.68300003
0.029271431 0.033174288 0.68300003
0.030572383 0.033174288 0.68300003
0.031826667 0.033125717 0.68200004
0.033125717 0.033125717 0.68200004
0.034323812 0.033028573 0.68000001
0.03561905 0.033028573 0.68000001
0.036914289 0.033028573 0.68000001
0.038209528 0.033028573 0.68000001
0.039620955 0.033125717 0.68200004
0.040920004 0.033125717 0.68200004
0.04209524 0.033028573 0.68000001
0.0435181 0.033125717 0.68200004
0.044817146 0.033125717 0.68200004
0.046116192 0.033125717 0.68200004
0.047415242 0.033125717 0.68200004
0.048714288 0.033125717 0.68200004
0.050013337 0.033125717 0.68200004
0.051312383 0.033125717 0.68200004
0.052457146 0.033028573 0.68000001
0.053752385 0.033028573 0.68000001
0.05496667 0.032980002 0.67900002
0.056342863 0.033028573 0.68000001
0.057638098 0.033028573 0.68000001
0.058933336 0.033028573 0.68000001
0.060228575 0.033028573 0.68000001
0.061795242 0.033174288 0.68300003
0.063096195 0.033174288 0.68300003
0.064397149 0.033174288 0.68300003
0.065601908 0.033125717 0.68200004
0.066900954 0.033125717 0.68200004
0.068000004 0.033028573 0.68000001
0.069295242 0.033028573 0.68000001
0.070590481 0.033028573 0.68000001
0.07188572 0.033028573 0.68000001
0.073396198 0.033125717 0.68200004
0.074695244 0.033125717 0.68200004
0.076105721 0.033174288 0.68300003
0.077406675 0.033174288 0.68300003
0.078707621 0.033174288 0.68300003
0.080125719 0.033222858 0.68400002
0.08142858 0.033222858 0.68400002
0.082731433 0.033222858 0.68400002
0.084402859 0.033368573 0.68700004
0.085711434 0.033368573 0.68700004
0.086893342 0.033320002 0.68600005
0.088200003 0.033320002 0.68600005
0.089506671 0.033320002 0.68600005
0.090813339 0.033320002 0.68600005
0.092120007 0.033320002 0.68600005
0.093426675 0.033320002 0.68600005
0.13055524 0.040848576 0.84100002
-0.10695905 0.034778096 0.68900001
-0.10564668 0.034778096 0.68900001
-0.10433429 0.034778096 0.68900001
-0.10317144 0.034828573 0.69000006
-0.10185715 0.034828573 0.69000006
-0.10054287 0.034828573 0.69000006
-0.098365724 0.034525715 0.68400002
-0.097062863 0.034525715 0.68400002
-0.096460007 0.034778096 0.68900001
-0.095147625 0.034778096 0.68900001
-0.093835242 0.034778096 0.68900001
-0.092120007 0.03462667 0.68600005
-0.091342866 0.034828573 0.69000006
-0.090028577 0.034828573 0.69000006
-0.088714294 0.034828573 0.69000006
-0.087273337 0.034778096 0.68900001
-0.086085722 0.034828573 0.69000006
-0.084402859 0.034677144 0.68700004
-0.083094291 0.034677144 0.68700004
-0.081785716 0.034677144 0.68700004
-0.080477148 0.034677144 0.68700004
-0.079168573 0.034677144 0.68700004
-0.077746674 0.03462667 0.68600005
-0.07655143 0.034677144 0.68700004
-0.075133339 0.03462667 0.68600005
-0.073826671 0.03462667 0.68600005
-0.072520003 0.03462667 0.68600005
-0.071005717 0.034525715 0.68400002
-0.069702864 0.034525715 0.68400002
-0.068400003 0.034525715 0.68400002
-0.06709715 0.034525715 0.68400002
-0.065794289 0.034525715 0.68400002
-0.064491436 0.034525715 0.68400002
-0.063096195 0.034475241 0.68300003
-0.061885718 0.034525715 0.68400002
-0.060582861 0.034525715 0.68400002
-0.059280004 0.034525715 0.68400002
-0.057977147 0.034525715 0.68400002
-0.05667429 0.034525715 0.68400002
-0.055290479 0.034475241 0.68300003
-0.054068577 0.034525715 0.68400002
-0.05276572 0.034525715 0.68400002
-0.050710481 0.034020953 0.67400002
-0.049426671 0.034020953 0.67400002
-0.048142862 0.034020953 0.67400002
-0.046859052 0.034020953 0.67400002
-0.04638667 0.03462667 0.68600005
-0.045080002 0.03462667 0.68600005
-0.043773334 0.03462667 0.68600005
-0.04234286 0.034525715 0.68400002
-0.040980004 0.034475241 0.68300003
-0.03967905 0.034475241 0.68300003
-0.038321909 0.034424763 0.68200004
-0.037022859 0.034424763 0.68200004
-0.03561905 0.034323812 0.68000001
-0.034323812 0.034323812 0.68000001
-0.033028573 0.034323812 0.68000001
-0.031686667 0.034273334 0.67900002
-0.030393336 0.034273334 0.67900002
-0.029100003 0.034273334 0.67900002
-0.027847622 0.034323812 0.68000001
-0.026630478 0.034424763 0.68200004
-0.025368573 0.034475241 0.68300003
-0.024102859 0.034525715 0.68400002
-0.022766668 0.034475241 0.68300003
-0.021497143 0.034525715 0.68400002
-0.020194286 0.034525715 0.68400002
-0.01889143 0.034525715 0.68400002
-0.017588573 0.034525715 0.68400002
-0.016261905 0.034475241 0.68300003
-0.014939048 0.034424763 0.68200004
-0.01364 0.034424763 0.68200004
-0.012304762 0.034323812 0.68000001
-0.010993334 0.034273334 0.67900002
-0.0097000003 0.034273334 0.67900002
-0.008406667 0.034273334 0.67900002
-0.0071238098 0.034323812 0.68000001
-0.005828572 0.034323812 0.68000001
-0.0045333337 0.034323812 0.68000001
-0.0032476194 0.034424763 0.68200004
-0.0019485715 0.034424763 0.68200004
-0.00064952386 0.034424763 0.68200004
0.00064952386 0.034424763 0.68200004
0.0019485715 0.034424763 0.68200004
0.0032285717 0.03422286 0.67800003
0.0045200004 0.03422286 0.67800003
0.0058114291 0.03422286 0.67800003
0.0071028578 0.03422286 0.67800003
0.008394286 0.03422286 0.67800003
0.0097428579 0.034424763 0.68200004
0.011058096 0.034475241 0.68300003
0.012340954 0.034424763 0.68200004
0.01364 0.034424763 0.68200004
0.014960953 0.034475241 0.68300003
0.016238097 0.034424763 0.68200004
0.017485715 0.034323812 0.68000001
0.018780954 0.034323812 0.68000001
0.020046668 0.034273334 0.67900002
0.02137143 0.034323812 0.68000001
0.022666669 0.034323812 0.68000001
0.023961907 0.034323812 0.68000001
0.025257144 0.034323812 0.68000001
0.026552383 0.034323812 0.68000001
0.027929526 0.034424763 0.68200004
0.029228574 0.034424763 0.68200004
0.030438097 0.034323812 0.68000001
0.031733334 0.034323812 0.68000001
0.032980002 0.034273334 0.67900002
0.034273334 0.034273334 0.67900002
0.035566669 0.034273334 0.67900002
0.036860004 0.034273334 0.67900002
0.038153335 0.034273334 0.67900002
0.039446671 0.034273334 0.67900002
0.040740002 0.034273334 0.67900002
0.042033337 0.034273334 0.67900002
0.043326668 0.034273334 0.67900002
0.044620004 0.034273334 0.67900002
0.045913335 0.034273334 0.67900002
0.04720667 0.034273334 0.67900002
0.048500001 0.034273334 0.67900002
0.049866669 0.034323812 0.68000001
0.051161908 0.034323812 0.68000001
0.052457146 0.034323812 0.68000001
0.053752385 0.034323812 0.68000001
0.055047624 0.034323812 0.68000001
0.056342863 0.034323812 0.68000001
0.057553336 0.034273334 0.67900002
0.058846671 0.034273334 0.67900002
0.060228575 0.034323812 0.68000001
0.061523814 0.034323812 0.68000001
0.063003816 0.034424763 0.68200004
0.064302862 0.034424763 0.68200004
0.065409526 0.034323812 0.68000001
0.066704765 0.034323812 0.68000001
0.068000004 0.034323812 0.68000001
0.069295242 0.034323812 0.68000001
0.070590481 0.034323812 0.68000001
0.07188572 0.034323812 0.68000001
0.073180959 0.034323812 0.68000001
0.074476197 0.034323812 0.68000001
0.07599429 0.034424763 0.68200004
0.077293336 0.034424763 0.68200004
0.078361914 0.034323812 0.68000001
0.080360003 0.03462667 0.68600005
0.081666671 0.03462667 0.68600005
0.083094291 0.034677144 0.68700004
0.084402859 0.034677144 0.68700004
0.085711434 0.034677144 0.68700004
0.086893342 0.03462667 0.68600005
0.088200003 0.03462667 0.68600005
0.089245722 0.034525715 0.68400002
0.090548575 0.034525715 0.68400002
0.091851436 0.034525715 0.68400002
0.093154289 0.034525715 0.68400002
0.09445715 0.034525715 0.68400002
0.096040003 0.03462667 0.68600005
-0.10664858 0.035985716 0.68700004
-0.10564668 0.036090478 0.68900001
-0.10433429 0.036090478 0.68900001
-0.10302191 0.036090478 0.68900001
-0.10170953 0.036090478 0.68900001
-0.10039715 0.036090478 0.68900001
-0.098365724 0.035828575 0.68400002
-0.097062863 0.035828575 0.68400002
-0.095760003 0.035828575 0.68400002
-0.094733343 0.035933334 0.68600005
-0.093426675 0.035933334 0.68600005
-0.092120007 0.035933334 0.68600005
-0.090945721 0.035985716 0.68700004
-0.089898102 0.036090478 0.68900001
-0.088585719 0.036090478 0.68900001
-0.087020002 0.035985716 0.68700004
-0.085960954 0.036090478 0.68900001
-0.084402859 0.035985716 0.68700004
-0.082973339 0.035933334 0.68600005
-0.081666671 0.035933334 0.68600005
-0.080360003 0.035933334 0.68600005
-0.078822859 0.035828575 0.68400002
-0.077520005 0.035828575 0.68400002
-0.076440006 0.035933334 0.68600005
-0.074914292 0.035828575 0.68400002
-0.073611431 0.035828575 0.68400002
-0.072308578 0.035828575 0.68400002
-0.071005717 0.035828575 0.68400002
-0.069600955 0.035776194 0.68300003
-0.068300001 0.035776194 0.68300003
-0.066999055 0.035776194 0.68300003
-0.065698102 0.035776194 0.68300003
-0.064397149 0.035776194 0.68300003
-0.063096195 0.035776194 0.68300003
-0.061795242 0.035776194 0.68300003
-0.060582861 0.035828575 0.68400002
-0.059193335 0.035776194 0.68300003
-0.057892386 0.035776194 0.68300003
-0.056591433 0.035776194 0.68300003
-0.055209529 0.035723813 0.68200004
-0.053910479 0.035723813 0.68200004
-0.052071434 0.035357144 0.67500001
-0.050710481 0.035304762 0.67400002
-0.049426671 0.035304762 0.67400002
-0.048142862 0.035304762 0.67400002
-0.046859052 0.035304762 0.67400002
-0.044948574 0.035828575 0.68400002
-0.043645717 0.035828575 0.68400002
-0.04221905 0.035723813 0.68200004
-0.040920004 0.035723813 0.68200004
-0.039620955 0.035723813 0.68200004
-0.038209528 0.03561905 0.68000001
-0.036914289 0.03561905 0.68000001
-0.035566669 0.035566669 0.67900002
-0.034273334 0.035566669 0.67900002
-0.032980002 0.035566669 0.67900002
-0.031686667 0.035566669 0.67900002
-0.030348573 0.035514288 0.67800003
-0.02897143 0.035409525 0.67600006
-0.027765715 0.035514288 0.67800003
-0.026474288 0.035514288 0.67800003
-0.025220001 0.035566669 0.67900002
-0.024032382 0.035723813 0.68200004
-0.022733334 0.035723813 0.68200004
-0.021465715 0.035776194 0.68300003
-0.020164764 0.035776194 0.68300003
-0.01886381 0.035776194 0.68300003
-0.017562859 0.035776194 0.68300003
-0.016190477 0.03561905 0.68000001
-0.014895239 0.03561905 0.68000001
-0.013600001 0.03561905 0.68000001
-0.012286668 0.035566669 0.67900002
-0.010993334 0.035566669 0.67900002
-0.0096857147 0.035514288 0.67800003
-0.008394286 0.035514288 0.67800003
-0.0071133338 0.035566669 0.67900002
-0.0058200005 0.035566669 0.67900002
-0.0045266668 0.035566669 0.67900002
-0.0032333336 0.035566669 0.67900002
-0.0019400001 0.035566669 0.67900002
-0.00064761908 0.03561905 0.68000001
0.00064761908 0.03561905 0.68000001
0.0019285716 0.035357144 0.67500001
0.0032142859 0.035357144 0.67500001
0.0045000003 0.035357144 0.67500001
0.0057942863 0.035409525 0.67600006
0.0070819054 0.035409525 0.67600006
0.008369524 0.035409525 0.67600006
0.0096857147 0.035514288 0.67800003
0.010993334 0.035566669 0.67900002
0.012286668 0.035566669 0.67900002
0.013580001 0.035566669 0.67900002
0.014895239 0.03561905 0.68000001
0.016166668 0.035566669 0.67900002
0.017460002 0.035566669 0.67900002
0.018753335 0.035566669 0.67900002
0.020046668 0.035566669 0.67900002
0.021340001 0.035566669 0.67900002
0.022633335 0.035566669 0.67900002
0.02389143 0.035514288 0.67800003
0.025182858 0.035514288 0.67800003
0.026474288 0.035514288 0.67800003
0.027806668 0.035566669 0.67900002
0.029100003 0.035566669 0.67900002
0.030348573 0.035514288 0.67800003
0.031686667 0.035566669 0.67900002
0.032980002 0.035566669 0.67900002
0.03422286 0.035514288 0.67800003
0.035514288 0.035514288 0.67800003
0.036642861 0.035357144 0.67500001
0.037928574 0.035357144 0.67500001
0.039388575 0.035514288 0.67800003
0.040560003 0.035409525 0.67600006
0.04184762 0.035409525 0.67600006
0.043135241 0.035409525 0.67600006
0.044554289 0.035514288 0.67800003
0.045845717 0.035514288 0.67800003
0.047137145 0.035514288 0.67800003
0.048428576 0.035514288 0.67800003
0.049793337 0.035566669 0.67900002
0.051086672 0.035566669 0.67900002
0.052380003 0.035566669 0.67900002
0.053673338 0.035566669 0.67900002
0.054885719 0.035514288 0.67800003
0.056260005 0.035566669 0.67900002
0.057468574 0.035514288 0.67800003
0.058760002 0.035514288 0.67800003
0.060051434 0.035514288 0.67800003
0.061433338 0.035566669 0.67900002
0.062726669 0.035566669 0.67900002
0.064114287 0.03561905 0.68000001
0.065409526 0.03561905 0.68000001
0.066704765 0.03561905 0.68000001
0.068000004 0.03561905 0.68000001
0.069295242 0.03561905 0.68000001
0.070590481 0.03561905 0.68000001
0.07188572 0.03561905 0.68000001
0.073180959 0.03561905 0.68000001
0.074366674 0.035566669 0.67900002
0.075660005 0.035566669 0.67900002
0.076953337 0.035566669 0.67900002
0.078246675 0.035566669 0.67900002
0.079071432 0.035357144 0.67500001
0.080357149 0.035357144 0.67500001
0.081763811 0.035409525 0.67600006
0.083297148 0.035514288 0.67800003
0.08471334 0.035566669 0.67900002
0.086640008 0.035828575 0.68400002
0.087942861 0.035828575 0.68400002
0.089115247 0.035776194 0.68300003
0.090548575 0.035828575 0.68400002
0.091717146 0.035776194 0.68300003
0.0930181 0.035776194 0.68300003
0.094319053 0.035776194 0.68300003
-0.10664858 0.037294287 0.68700004
-0.10534 0.037294287 0.68700004
-0.10403144 0.037294287 0.68700004
-0.10272286 0.037294287 0.68700004
-0.10126667 0.037240002 0.68600005
-0.099668577 0.037131432 0.68400002
-0.098365724 0.037131432 0.68400002
-0.097062863 0.037131432 0.68400002
-0.095760003 0.037131432 0.68400002
-0.09445715 0.037131432 0.68400002
-0.093154289 0.037131432 0.68400002
-0.091851436 0.037131432 0.68400002
-0.090548575 0.037131432 0.68400002
-0.089506671 0.037240002 0.68600005
-0.088328578 0.037294287 0.68700004
-0.086640008 0.037131432 0.68400002
-0.085337147 0.037131432 0.68400002
-0.084034294 0.037131432 0.68400002
-0.082731433 0.037131432 0.68400002
-0.08142858 0.037131432 0.68400002
-0.080008574 0.037077144 0.68300003
-0.078707621 0.037077144 0.68300003
-0.077406675 0.037077144 0.68300003
-0.076105721 0.037077144 0.68300003
-0.074804768 0.037077144 0.68300003
-0.073611431 0.037131432 0.68400002
-0.072202861 0.037077144 0.68300003
-0.070901908 0.037077144 0.68300003
-0.069499053 0.037022859 0.68200004
-0.068200007 0.037022859 0.68200004
-0.066900954 0.037022859 0.68200004
-0.065409526 0.036914289 0.68000001
-0.064114287 0.036914289 0.68000001
-0.062726669 0.036860004 0.67900002
-0.061704766 0.037022859 0.68200004
-0.06040572 0.037022859 0.68200004
-0.05910667 0.037022859 0.68200004
-0.057807624 0.037022859 0.68200004
-0.056260005 0.036860004 0.67900002
-0.054885719 0.036805715 0.67800003
-0.053357147 0.036642861 0.67500001
-0.052071434 0.036642861 0.67500001
-0.050710481 0.036588576 0.67400002
-0.049426671 0.036588576 0.67400002
-0.048142862 0.036588576 0.67400002
-0.046859052 0.036588576 0.67400002
-0.044817146 0.037022859 0.68200004
-0.0435181 0.037022859 0.68200004
-0.042033337 0.036860004 0.67900002
-0.040740002 0.036860004 0.67900002
-0.039446671 0.036860004 0.67900002
-0.038153335 0.036860004 0.67900002
-0.036805715 0.036805715 0.67800003
-0.035514288 0.036805715 0.67800003
-0.03422286 0.036805715 0.67800003
-0.032931432 0.036805715 0.67800003
-0.031546667 0.036697146 0.67600006
-0.030214287 0.036642861 0.67500001
-0.028928574 0.036642861 0.67500001
-0.027642859 0.036642861 0.67500001
-0.026357144 0.036642861 0.67500001
-0.025108574 0.036697146 0.67600006
-0.023820953 0.036697146 0.67600006
-0.022633335 0.036860004 0.67900002
-0.021434287 0.037022859 0.68200004
-0.020135239 0.037022859 0.68200004
-0.018780954 0.036914289 0.68000001
-0.017460002 0.036860004 0.67900002
-0.016166668 0.036860004 0.67900002
-0.014873334 0.036860004 0.67900002
-0.013560001 0.036805715 0.67800003
-0.012268572 0.036805715 0.67800003
-0.010977143 0.036805715 0.67800003
-0.0096857147 0.036805715 0.67800003
-0.008394286 0.036805715 0.67800003
-0.0070819054 0.036697146 0.67600006
-0.0058114291 0.036805715 0.67800003
-0.0045200004 0.036805715 0.67800003
-0.0032190478 0.036697146 0.67600006
-0.0019314287 0.036697146 0.67600006
-0.00064380956 0.036697146 0.67600006
0.00064571435 0.036805715 0.67800003
0.0019285716 0.036642861 0.67500001
0.0032095241 0.036588576 0.67400002
0.0044933334 0.036588576 0.67400002
0.0057771434 0.036588576 0.67400002
0.0070714289 0.036642861 0.67500001
0.008357143 0.036642861 0.67500001
0.0096571436 0.036697146 0.67600006
0.010944762 0.036697146 0.67600006
0.012268572 0.036805715 0.67800003
0.013560001 0.036805715 0.67800003
0.014851429 0.036805715 0.67800003
0.016142858 0.036805715 0.67800003
0.017434286 0.036805715 0.67800003
0.018725716 0.036805715 0.67800003
0.020017143 0.036805715 0.67800003
0.021308573 0.036805715 0.67800003
0.022533335 0.036697146 0.67600006
0.023820953 0.036697146 0.67600006
0.025108574 0.036697146 0.67600006
0.026396193 0.036697146 0.67600006
0.027683811 0.036697146 0.67600006
0.02897143 0.036697146 0.67600006
0.030214287 0.036642861 0.67500001
0.031546667 0.036697146 0.67600006
0.032834288 0.036697146 0.67600006
0.034121908 0.036697146 0.67600006
0.035409525 0.036697146 0.67600006
0.036642861 0.036642861 0.67500001
0.037928574 0.036642861 0.67500001
0.039272383 0.036697146 0.67600006
0.040560003 0.036697146 0.67600006
0.041785717 0.036642861 0.67500001
0.043135241 0.036697146 0.67600006
0.044422861 0.036697146 0.67600006
0.045710478 0.036697146 0.67600006
0.046998098 0.036697146 0.67600006
0.048285719 0.036697146 0.67600006
0.049720004 0.036805715 0.67800003
0.051011432 0.036805715 0.67800003
0.05230286 0.036805715 0.67800003
0.053594287 0.036805715 0.67800003
0.054723814 0.036697146 0.67600006
0.055928577 0.036642861 0.67500001
0.057553336 0.036860004 0.67900002
0.058760002 0.036805715 0.67800003
0.059874289 0.036697146 0.67600006
0.061433338 0.036860004 0.67900002
0.062726669 0.036860004 0.67900002
0.064020008 0.036860004 0.67900002
0.065313339 0.036860004 0.67900002
0.066606671 0.036860004 0.67900002
0.067900002 0.036860004 0.67900002
0.069295242 0.036914289 0.68000001
0.070590481 0.036914289 0.68000001
0.07188572 0.036914289 0.68000001
0.073180959 0.036914289 0.68000001
0.07425715 0.036805715 0.67800003
0.07532572 0.036697146 0.67600006
0.076613337 0.036697146 0.67600006
0.077900961 0.036697146 0.67600006
0.079071432 0.036642861 0.67500001
0.080357149 0.036642861 0.67500001
0.081763811 0.036697146 0.67600006
0.083051436 0.036697146 0.67600006
0.084339052 0.036697146 0.67600006
0.086006671 0.036860004 0.67900002
0.087814294 0.037077144 0.68300003
0.089115247 0.037077144 0.68300003
0.090416193 0.037077144 0.68300003
0.091717146 0.037077144 0.68300003
0.0930181 0.037077144 0.68300003
0.094319053 0.037077144 0.68300003
