# .PCD v0.7 - Point Cloud Data file format
VERSION 0.7
FIELDS x y z
SIZE 4 4 4
TYPE F F F
COUNT 1 1 1
WIDTH 1355
HEIGHT 1
VIEWPOINT 0 0 0 1 0 0 0
POINTS 1355
DATA ascii
0.042214289 -0.06810572 0.59100002
0.043340001 -0.06810572 0.59100002
0.045293335 -0.069373339 0.60200006
0.046440002 -0.069373339 0.60200006
0.047507621 -0.069258101 0.60100001
0.04857143 -0.069142863 0.60000002
0.04971429 -0.069142863 0.60000002
0.050772384 -0.069027625 0.59900004
0.052000005 -0.069142863 0.60000002
0.053142861 -0.069142863 0.60000002
0.054285716 -0.069142863 0.60000002
0.0096333344 -0.067433335 0.59500003
0.010766667 -0.067433335 0.59500003
0.011900001 -0.067433335 0.59500003
0.013033334 -0.067433335 0.59500003
0.014166668 -0.067433335 0.59500003
0.015325715 -0.067546673 0.59600002
0.016433334 -0.067433335 0.59500003
0.017566668 -0.067433335 0.59500003
0.01873143 -0.067546673 0.59600002
0.019866668 -0.067546673 0.59600002
0.021001907 -0.067546673 0.59600002
0.022137145 -0.067546673 0.59600002
0.023233335 -0.067433335 0.59500003
0.024366667 -0.067433335 0.59500003
0.025628572 -0.067773335 0.59800005
0.026543811 -0.067206673 0.59300005
0.027673336 -0.067206673 0.59300005
0.028851431 -0.067320004 0.59400004
0.029881908 -0.067093335 0.59200001
0.031114288 -0.067320004 0.59400004
0.032245718 -0.067320004 0.59400004
0.033320956 -0.067206673 0.59300005
0.034392383 -0.067093335 0.59200001
0.035520002 -0.067093335 0.59200001
0.036585718 -0.066980004 0.59100002
0.03764762 -0.066866674 0.59000003
0.038705718 -0.066753335 0.58900005
0.03989524 -0.066866674 0.59000003
0.041019049 -0.066866674 0.59000003
0.042142861 -0.066866674 0.59000003
0.043193337 -0.066753335 0.58900005
0.044240002 -0.066640005 0.588
0.045360003 -0.066640005 0.588
0.046480004 -0.066640005 0.588
0.04849048 -0.067886673 0.59900004
0.049631432 -0.067886673 0.59900004
0.050772384 -0.067886673 0.59900004
0.051913336 -0.067886673 0.59900004
0.053054288 -0.067886673 0.59900004
0.05419524 -0.067886673 0.59900004
0.0096171433 -0.066188574 0.59400004
0.010748572 -0.066188574 0.59400004
0.011880001 -0.066188574 0.59400004
0.012989525 -0.06607715 0.59300005
0.014119049 -0.06607715 0.59300005
0.015274286 -0.066188574 0.59400004
0.016378097 -0.06607715 0.59300005
0.01750762 -0.06607715 0.59300005
0.018637145 -0.06607715 0.59300005
0.019733334 -0.06596572 0.59200001
0.020860953 -0.06596572 0.59200001
0.021988573 -0.06596572 0.59200001
0.023077145 -0.065854289 0.59100002
0.024120955 -0.065631434 0.58900005
0.025200002 -0.065520003 0.588
0.026409525 -0.065742858 0.59000003
0.027533336 -0.065742858 0.59000003
0.028705716 -0.065854289 0.59100002
0.029730478 -0.065631434 0.58900005
0.030957146 -0.065854289 0.59100002
0.032137144 -0.06596572 0.59200001
0.033208575 -0.065854289 0.59100002
0.034334287 -0.065854289 0.59100002
0.035400003 -0.065742858 0.59000003
0.036461908 -0.065631434 0.58900005
0.03764762 -0.065742858 0.59000003
0.038705718 -0.065631434 0.58900005
0.039827622 -0.065631434 0.58900005
0.040949527 -0.065631434 0.58900005
0.042071432 -0.065631434 0.58900005
0.043193337 -0.065631434 0.58900005
0.044240002 -0.065520003 0.588
0.045360003 -0.065520003 0.588
0.046480004 -0.065520003 0.588
0.049548574 -0.06663429 0.59800005
0.050687622 -0.06663429 0.59800005
0.051913336 -0.066745721 0.59900004
0.053054288 -0.066745721 0.59900004
0.0084571438 -0.064838096 0.59200001
0.009568572 -0.064728573 0.59100002
0.010694287 -0.064728573 0.59100002
0.011840001 -0.064838096 0.59200001
0.012945715 -0.064728573 0.59100002
0.014071429 -0.064728573 0.59100002
0.015197144 -0.064728573 0.59100002
0.016322859 -0.064728573 0.59100002
0.017448572 -0.064728573 0.59100002
0.018511429 -0.064509526 0.58900005
0.019666668 -0.064619049 0.59000003
0.020755239 -0.064509526 0.58900005
0.021914287 -0.064619049 0.59000003
0.022999048 -0.064509526 0.58900005
0.024080001 -0.064400002 0.588
0.025200002 -0.064400002 0.588
0.026364764 -0.064509526 0.58900005
0.027440002 -0.064400002 0.588
0.028608574 -0.064509526 0.58900005
0.029680002 -0.064400002 0.588
0.030852383 -0.064509526 0.58900005
0.032082859 -0.064728573 0.59100002
0.033096194 -0.064509526 0.58900005
0.034218099 -0.064509526 0.58900005
0.035340004 -0.064509526 0.58900005
0.036461908 -0.064509526 0.58900005
0.03764762 -0.064619049 0.59000003
0.038640004 -0.064400002 0.588
0.039760001 -0.064400002 0.588
0.040880002 -0.064400002 0.588
0.042000003 -0.064400002 0.588
0.043046668 -0.064290479 0.58700001
0.044240002 -0.064400002 0.588
0.045360003 -0.064400002 0.588
0.046480004 -0.064400002 0.588
0.047680955 -0.064509526 0.58900005
0.048720002 -0.064400002 0.588
0.049840003 -0.064400002 0.588
0.050960004 -0.064400002 0.588
0.051814288 -0.064071432 0.58500004
0.0084428573 -0.063602865 0.59100002
0.0095523819 -0.063495241 0.59000003
0.010676191 -0.063495241 0.59000003
0.0118 -0.063495241 0.59000003
0.012901906 -0.063387625 0.58900005
0.013976191 -0.063172385 0.58700001
0.015094287 -0.063172385 0.58700001
0.016157145 -0.062957145 0.58500004
0.017271429 -0.062957145 0.58500004
0.018448573 -0.063172385 0.58700001
0.019566668 -0.063172385 0.58700001
0.020649524 -0.063064769 0.58600003
0.021802859 -0.063172385 0.58700001
0.022920953 -0.063172385 0.58700001
0.024039049 -0.063172385 0.58700001
0.025157144 -0.063172385 0.58700001
0.02627524 -0.063172385 0.58700001
0.027393335 -0.063172385 0.58700001
0.028511431 -0.063172385 0.58700001
0.029579049 -0.063064769 0.58600003
0.03074762 -0.063172385 0.58700001
0.031865716 -0.063172385 0.58700001
0.032983813 -0.063172385 0.58700001
0.034043811 -0.063064769 0.58600003
0.035220001 -0.063172385 0.58700001
0.036338098 -0.063172385 0.58700001
0.037520003 -0.063280001 0.588
0.03857429 -0.063172385 0.58700001
0.039624766 -0.063064769 0.58600003
0.040740956 -0.063064769 0.58600003
0.041500002 -0.062526673 0.58100003
0.042973336 -0.063064769 0.58600003
0.044089526 -0.063064769 0.58600003
0.045205716 -0.063064769 0.58600003
0.046321906 -0.063064769 0.58600003
0.0474381 -0.063064769 0.58600003
0.04855429 -0.063064769 0.58600003
0.049585719 -0.062957145 0.58500004
0.050700005 -0.062957145 0.58500004
0.051725719 -0.062849529 0.58400005
0.052838098 -0.062849529 0.58400005
0.053950481 -0.062849529 0.58400005
0.010567619 -0.061737146 0.58400005
0.01168 -0.061737146 0.58400005
0.012792381 -0.061737146 0.58400005
0.013904762 -0.061737146 0.58400005
0.015017143 -0.061737146 0.58400005
0.016101906 -0.061631434 0.583
0.017212382 -0.061631434 0.583
0.018322859 -0.061631434 0.583
0.019466668 -0.061737146 0.58400005
0.020579049 -0.061737146 0.58400005
0.02169143 -0.061737146 0.58400005
0.022920953 -0.062054291 0.58700001
0.024039049 -0.062054291 0.58700001
0.025114287 -0.061948575 0.58600003
0.02627524 -0.062054291 0.58700001
0.027346669 -0.061948575 0.58600003
0.028365716 -0.061737146 0.58400005
0.029478097 -0.061737146 0.58400005
0.03064286 -0.061842863 0.58500004
0.031811431 -0.061948575 0.58600003
0.032871429 -0.061842863 0.58500004
0.033985715 -0.061842863 0.58500004
0.035160001 -0.061948575 0.58600003
0.036338098 -0.062054291 0.58700001
0.037456192 -0.062054291 0.58700001
0.038508575 -0.061948575 0.58600003
0.039557144 -0.061842863 0.58500004
0.040323813 -0.061314289 0.58000004
0.041500002 -0.061420005 0.58100003
0.04260667 -0.061420005 0.58100003
0.043863811 -0.061631434 0.583
0.045128573 -0.061842863 0.58500004
0.046242859 -0.061842863 0.58500004
0.047357146 -0.061842863 0.58500004
0.048471432 -0.061842863 0.58500004
0.049500957 -0.061737146 0.58400005
0.050700005 -0.061842863 0.58500004
0.051725719 -0.061737146 0.58400005
0.052747622 -0.061631434 0.583
0.0093419058 -0.059898101 0.57700002
0.010440953 -0.059898101 0.57700002
0.011600001 -0.060209528 0.58000004
0.012704763 -0.060209528 0.58000004
0.013809524 -0.060209528 0.58000004
0.014940001 -0.060313337 0.58100003
0.016046667 -0.060313337 0.58100003
0.017153334 -0.060313337 0.58100003
0.01826 -0.060313337 0.58100003
0.019366669 -0.060313337 0.58100003
0.020473335 -0.060313337 0.58100003
0.021542858 -0.060209528 0.58000004
0.022647621 -0.060209528 0.58000004
0.023752382 -0.060209528 0.58000004
0.024942858 -0.060417145 0.58200002
0.02605143 -0.060417145 0.58200002
0.027160002 -0.060417145 0.58200002
0.028220002 -0.060313337 0.58100003
0.029326668 -0.060313337 0.58100003
0.030433334 -0.060313337 0.58100003
0.031485718 -0.060209528 0.58000004
0.032646667 -0.060313337 0.58100003
0.033753335 -0.060313337 0.58100003
0.034860004 -0.060313337 0.58100003
0.035657145 -0.059794288 0.57600003
0.036754288 -0.059794288 0.57600003
0.037917145 -0.059898101 0.57700002
0.039083812 -0.06000191 0.57800001
0.040115241 -0.059898101 0.57700002
0.041285716 -0.06000191 0.57800001
0.042533334 -0.060209528 0.58000004
0.043638099 -0.060209528 0.58000004
0.044897147 -0.060417145 0.58200002
0.046163812 -0.060624767 0.58400005
0.047357146 -0.060728576 0.58500004
0.048388574 -0.060624767 0.58400005
0.049416192 -0.060520958 0.583
0.050613336 -0.060624767 0.58400005
0.051725719 -0.060624767 0.58400005
0.052838098 -0.060624767 0.58400005
0.0071438099 -0.058799051 0.57700002
0.0082285721 -0.058697145 0.57600003
0.0093419058 -0.058799051 0.57700002
0.010440953 -0.058799051 0.57700002
0.011500001 -0.05859524 0.57500005
0.012639049 -0.058799051 0.57700002
0.013738096 -0.058799051 0.57700002
0.014914286 -0.059104767 0.58000004
0.016046667 -0.059206672 0.58100003
0.017123811 -0.059104767 0.58000004
0.018228572 -0.059104767 0.58000004
0.019333335 -0.059104767 0.58000004
0.020438097 -0.059104767 0.58000004
0.021542858 -0.059104767 0.58000004
0.022647621 -0.059104767 0.58000004
0.023588574 -0.058697145 0.57600003
0.024685716 -0.058697145 0.57600003
0.025961906 -0.059104767 0.58000004
0.027066668 -0.059104767 0.58000004
0.028171431 -0.059104767 0.58000004
0.029276192 -0.059104767 0.58000004
0.030328574 -0.059002861 0.57900006
0.031485718 -0.059104767 0.58000004
0.032590479 -0.059104767 0.58000004
0.03369524 -0.059104767 0.58000004
0.034500003 -0.05859524 0.57500005
0.035595242 -0.05859524 0.57500005
0.036690477 -0.05859524 0.57500005
0.037785716 -0.05859524 0.57500005
0.039016195 -0.058799051 0.57700002
0.040045716 -0.058697145 0.57600003
0.041214287 -0.058799051 0.57700002
0.04238667 -0.058900956 0.57800001
0.043562859 -0.059002861 0.57900006
0.044665717 -0.059002861 0.57900006
0.045689527 -0.058900956 0.57800001
0.046709526 -0.058799051 0.57700002
0.047891431 -0.058900956 0.57800001
0.048907623 -0.058799051 0.57700002
0.049920004 -0.058697145 0.57600003
0.051105719 -0.058799051 0.57700002
0.052204765 -0.058799051 0.57700002
0.0071314289 -0.057600003 0.57600003
0.0082285721 -0.057600003 0.57600003
0.0093095247 -0.057500005 0.57500005
0.010404763 -0.057500005 0.57500005
0.011480001 -0.057400003 0.574
0.012617144 -0.057600003 0.57600003
0.013690477 -0.057500005 0.57500005
0.014862858 -0.057800002 0.57800001
0.016019048 -0.058000002 0.58000004
0.017123811 -0.058000002 0.58000004
0.018197143 -0.057900004 0.57900006
0.019300001 -0.057900004 0.57900006
0.020402858 -0.057900004 0.57900006
0.021505715 -0.057900004 0.57900006
0.022530477 -0.057700004 0.57700002
0.023588574 -0.057600003 0.57600003
0.024685716 -0.057600003 0.57600003
0.025782859 -0.057600003 0.57600003
0.026973335 -0.057800002 0.57800001
0.028074287 -0.057800002 0.57800001
0.029175241 -0.057800002 0.57800001
0.030328574 -0.057900004 0.57900006
0.031431429 -0.057900004 0.57900006
0.032534286 -0.057900004 0.57900006
0.033637144 -0.057900004 0.57900006
0.034500003 -0.057500005 0.57500005
0.035595242 -0.057500005 0.57500005
0.036690477 -0.057500005 0.57500005
0.037785716 -0.057500005 0.57500005
0.038948573 -0.057600003 0.57600003
0.040045716 -0.057600003 0.57600003
0.041214287 -0.057700004 0.57700002
0.042313337 -0.057700004 0.57700002
0.043487623 -0.057800002 0.57800001
0.04451143 -0.057700004 0.57700002
0.04561048 -0.057700004 0.57700002
0.046628576 -0.057600003 0.57600003
0.047808576 -0.057700004 0.57700002
0.048822861 -0.057600003 0.57600003
0.049833335 -0.057500005 0.57500005
0.051017147 -0.057600003 0.57600003
0.0071314289 -0.05650286 0.57600003
0.0082142865 -0.056404766 0.57500005
0.0092933336 -0.056306671 0.574
0.010386667 -0.056306671 0.574
0.011460001 -0.056208573 0.57300001
0.012595239 -0.056404766 0.57500005
0.013666668 -0.056306671 0.574
0.014811429 -0.05650286 0.57600003
0.015908573 -0.05650286 0.57600003
0.016680954 -0.055423815 0.565
0.017757144 -0.055423815 0.565
0.019266669 -0.056699052 0.57800001
0.020367621 -0.056699052 0.57800001
0.021431429 -0.056600954 0.57700002
0.022491431 -0.05650286 0.57600003
0.023547621 -0.056404766 0.57500005
0.024642859 -0.056404766 0.57500005
0.025738098 -0.056404766 0.57500005
0.026880002 -0.05650286 0.57600003
0.027977144 -0.05650286 0.57600003
0.029074287 -0.05650286 0.57600003
0.029961906 -0.056110479 0.57200003
0.031377144 -0.056699052 0.57800001
0.032478098 -0.056699052 0.57800001
0.033579051 -0.056699052 0.57800001
0.034500003 -0.056404766 0.57500005
0.035595242 -0.056404766 0.57500005
0.036690477 -0.056404766 0.57500005
0.037785716 -0.056404766 0.57500005
0.038880955 -0.056404766 0.57500005
0.039976195 -0.056404766 0.57500005
0.04107143 -0.056404766 0.57500005
0.042166669 -0.056404766 0.57500005
0.043337144 -0.05650286 0.57600003
0.044357147 -0.056404766 0.57500005
0.045452382 -0.056404766 0.57500005
0.046466671 -0.056306671 0.574
0.047642861 -0.056404766 0.57500005
0.0487381 -0.056404766 0.57500005
0.04974667 -0.056306671 0.574
0.050928574 -0.056404766 0.57500005
0.0071190479 -0.055309527 0.57500005
0.008200001 -0.055213336 0.574
0.0092771435 -0.055117145 0.57300001
0.010368573 -0.055117145 0.57300001
0.011460001 -0.055117145 0.57300001
0.012573334 -0.055213336 0.574
0.013642858 -0.055117145 0.57300001
0.014734287 -0.055117145 0.57300001
0.015604763 -0.054347623 0.565
0.016680954 -0.054347623 0.565
0.017757144 -0.054347623 0.565
0.018833335 -0.054347623 0.565
0.019980002 -0.054540005 0.56700003
0.021097144 -0.054636195 0.56800002
0.022179049 -0.054636195 0.56800002
0.023301907 -0.054732386 0.56900001
0.024557145 -0.055117145 0.57300001
0.025648573 -0.055117145 0.57300001
0.026506668 -0.054636195 0.56800002
0.027685717 -0.054828577 0.57000005
0.02877143 -0.054828577 0.57000005
0.029909525 -0.054924764 0.57100004
0.030997144 -0.054924764 0.57100004
0.032365717 -0.055405717 0.57600003
0.033346668 -0.055213336 0.574
0.034380004 -0.055117145 0.57300001
0.035533335 -0.055213336 0.574
0.036626671 -0.055213336 0.574
0.037785716 -0.055309527 0.57500005
0.038813338 -0.055213336 0.574
0.039976195 -0.055309527 0.57500005
0.04107143 -0.055309527 0.57500005
0.042166669 -0.055309527 0.57500005
0.043261908 -0.055309527 0.57500005
0.044357147 -0.055309527 0.57500005
0.045294289 -0.055117145 0.57300001
0.046304766 -0.055020954 0.57200003
0.047725718 -0.055405717 0.57600003
0.048483811 -0.055020954 0.57200003
0.049573336 -0.055020954 0.57200003
0.0071190479 -0.054214288 0.57500005
0.0081857145 -0.054025717 0.57300001
0.0092609534 -0.053931434 0.57200003
0.010350477 -0.053931434 0.57200003
0.01144 -0.053931434 0.57200003
0.01255143 -0.054025717 0.57300001
0.013619049 -0.053931434 0.57200003
0.014708572 -0.053931434 0.57200003
0.015604763 -0.053271431 0.565
0.016680954 -0.053271431 0.565
0.017788572 -0.053365719 0.56600004
0.018900001 -0.053460002 0.56700003
0.019980002 -0.053460002 0.56700003
0.021097144 -0.053554289 0.56800002
0.022179049 -0.053554289 0.56800002
0.023301907 -0.053648576 0.56900001
0.024385717 -0.053648576 0.56900001
0.025424764 -0.053554289 0.56800002
0.026506668 -0.053554289 0.56800002
0.027637145 -0.053648576 0.56900001
0.028720954 -0.053648576 0.56900001
0.029857146 -0.05374286 0.57000005
0.030834287 -0.053554289 0.56800002
0.031972382 -0.053648576 0.56900001
0.033172384 -0.053837147 0.57100004
0.034320001 -0.053931434 0.57200003
0.035471432 -0.054025717 0.57300001
0.036626671 -0.054120004 0.574
0.037720002 -0.054120004 0.574
0.038813338 -0.054120004 0.574
0.039837144 -0.054025717 0.57300001
0.041000001 -0.054120004 0.574
0.042020004 -0.054025717 0.57300001
0.043036193 -0.053931434 0.57200003
0.043894287 -0.053648576 0.56900001
0.044978097 -0.053648576 0.56900001
0.046061907 -0.053648576 0.56900001
0.047228575 -0.05374286 0.57000005
0.048314288 -0.05374286 0.57000005
0.049400002 -0.05374286 0.57000005
0.050485719 -0.05374286 0.57000005
0.0071066669 -0.053026669 0.574
0.0081857145 -0.052934289 0.57300001
0.0092609534 -0.052841909 0.57200003
0.010350477 -0.052841909 0.57200003
0.01144 -0.052841909 0.57200003
0.012529525 -0.052841909 0.57200003
0.013595239 -0.052749526 0.57100004
0.014682858 -0.052749526 0.57100004
0.015632382 -0.052287623 0.56600004
0.016710477 -0.052287623 0.56600004
0.017788572 -0.052287623 0.56600004
0.018900001 -0.052380003 0.56700003
0.019980002 -0.052380003 0.56700003
0.021097144 -0.052472383 0.56800002
0.022179049 -0.052472383 0.56800002
0.023301907 -0.052564766 0.56900001
0.024428573 -0.052657146 0.57000005
0.025424764 -0.052472383 0.56800002
0.026506668 -0.052472383 0.56800002
0.027588572 -0.052472383 0.56800002
0.028670479 -0.052472383 0.56800002
0.029700002 -0.052380003 0.56700003
0.030725716 -0.052287623 0.56600004
0.031803813 -0.052287623 0.56600004
0.033056192 -0.052564766 0.56900001
0.034200002 -0.052657146 0.57000005
0.035223812 -0.052564766 0.56900001
0.036307622 -0.052564766 0.56900001
0.037588574 -0.052841909 0.57200003
0.038678098 -0.052841909 0.57200003
0.039767623 -0.052841909 0.57200003
0.040642861 -0.052564766 0.56900001
0.041726671 -0.052564766 0.56900001
0.042735241 -0.052472383 0.56800002
0.043817144 -0.052472383 0.56800002
0.044820003 -0.052380003 0.56700003
0.045900002 -0.052380003 0.56700003
0.047062859 -0.052472383 0.56800002
0.048060004 -0.052380003 0.56700003
0.049140003 -0.052380003 0.56700003
0.05004286 -0.05219524 0.565
0.0081142867 -0.05139048 0.56800002
0.0091961911 -0.05139048 0.56800002
0.010314287 -0.051571433 0.57000005
0.011400001 -0.051571433 0.57000005
0.012485716 -0.051571433 0.57000005
0.013476191 -0.051209528 0.56600004
0.014554286 -0.051209528 0.56600004
0.015632382 -0.051209528 0.56600004
0.016710477 -0.051209528 0.56600004
0.017788572 -0.051209528 0.56600004
0.018866668 -0.051209528 0.56600004
0.019980002 -0.051300004 0.56700003
0.021060001 -0.051300004 0.56700003
0.022179049 -0.05139048 0.56800002
0.023260955 -0.05139048 0.56800002
0.024300002 -0.051300004 0.56700003
0.025380002 -0.051300004 0.56700003
0.026460001 -0.051300004 0.56700003
0.027540002 -0.051300004 0.56700003
0.028569525 -0.051209528 0.56600004
0.02964762 -0.051209528 0.56600004
0.030671431 -0.051119052 0.565
0.031747621 -0.051119052 0.565
0.032823812 -0.051119052 0.565
0.034020003 -0.051300004 0.56700003
0.035100002 -0.051300004 0.56700003
0.036243811 -0.05139048 0.56800002
0.037325718 -0.05139048 0.56800002
0.038475242 -0.051480956 0.56900001
0.039489526 -0.05139048 0.56800002
0.040571433 -0.05139048 0.56800002
0.041580003 -0.051300004 0.56700003
0.042660002 -0.051300004 0.56700003
0.043740004 -0.051300004 0.56700003
0.044740956 -0.051209528 0.56600004
0.045819052 -0.051209528 0.56600004
0.046897147 -0.051209528 0.56600004
0.047890481 -0.051119052 0.565
0.048966669 -0.051119052 0.565
0.05004286 -0.051119052 0.565
0.051119052 -0.051119052 0.565
0.0059295241 -0.050131433 0.56600004
0.0069952384 -0.05004286 0.565
0.0080857147 -0.050131433 0.56600004
0.0091476198 -0.05004286 0.565
0.010241905 -0.050131433 0.56600004
0.0113 -0.05004286 0.565
0.012376191 -0.05004286 0.565
0.013452382 -0.05004286 0.565
0.014554286 -0.050131433 0.56600004
0.015632382 -0.050131433 0.56600004
0.016710477 -0.050131433 0.56600004
0.017788572 -0.050131433 0.56600004
0.018866668 -0.050131433 0.56600004
0.019980002 -0.050220001 0.56700003
0.021060001 -0.050220001 0.56700003
0.022140002 -0.050220001 0.56700003
0.023220001 -0.050220001 0.56700003
0.024257144 -0.050131433 0.56600004
0.025290478 -0.05004286 0.565
0.026366668 -0.05004286 0.565
0.027442859 -0.05004286 0.565
0.028519049 -0.05004286 0.565
0.029595241 -0.05004286 0.565
0.030671431 -0.05004286 0.565
0.031691432 -0.049954288 0.56400001
0.032823812 -0.05004286 0.565
0.033900004 -0.05004286 0.565
0.035038099 -0.050131433 0.56600004
0.036116194 -0.050131433 0.56600004
0.037260003 -0.050220001 0.56700003
0.038340002 -0.050220001 0.56700003
0.03935048 -0.050131433 0.56600004
0.040428575 -0.050131433 0.56600004
0.04150667 -0.050131433 0.56600004
0.042584766 -0.050131433 0.56600004
0.043585718 -0.05004286 0.565
0.044661909 -0.05004286 0.565
0.045738097 -0.05004286 0.565
0.046814289 -0.05004286 0.565
0.047890481 -0.05004286 0.565
0.048966669 -0.05004286 0.565
0.05004286 -0.05004286 0.565
0.051119052 -0.05004286 0.565
0.05219524 -0.05004286 0.565
0.0048514288 -0.049053337 0.56600004
0.0059295241 -0.049053337 0.56600004
0.0070076194 -0.049053337 0.56600004
0.0080857147 -0.049053337 0.56600004
0.0091638099 -0.049053337 0.56600004
0.010241905 -0.049053337 0.56600004
0.0113 -0.048966669 0.565
0.012376191 -0.048966669 0.565
0.013452382 -0.048966669 0.565
0.014528573 -0.048966669 0.565
0.015632382 -0.049053337 0.56600004
0.016680954 -0.048966669 0.565
0.017788572 -0.049053337 0.56600004
0.018866668 -0.049053337 0.56600004
0.019944763 -0.049053337 0.56600004
0.021060001 -0.049140003 0.56700003
0.022140002 -0.049140003 0.56700003
0.023220001 -0.049140003 0.56700003
0.024257144 -0.049053337 0.56600004
0.025290478 -0.048966669 0.565
0.026366668 -0.048966669 0.565
0.027442859 -0.048966669 0.565
0.028519049 -0.048966669 0.565
0.02954286 -0.048880003 0.56400001
0.030617144 -0.048880003 0.56400001
0.031691432 -0.048880003 0.56400001
0.032765716 -0.048880003 0.56400001
0.033900004 -0.048966669 0.565
0.035038099 -0.049053337 0.56600004
0.036116194 -0.049053337 0.56600004
0.037194289 -0.049053337 0.56600004
0.038272385 -0.049053337 0.56600004
0.03935048 -0.049053337 0.56600004
0.040428575 -0.049053337 0.56600004
0.04150667 -0.049053337 0.56600004
0.042584766 -0.049053337 0.56600004
0.043585718 -0.048966669 0.565
0.044661909 -0.048966669 0.565
0.045738097 -0.048966669 0.565
0.046814289 -0.048966669 0.565
0.047890481 -0.048966669 0.565
0.048966669 -0.048966669 0.565
0.05004286 -0.048966669 0.565
0.051119052 -0.048966669 0.565
0.05219524 -0.048966669 0.565
0.053271431 -0.048966669 0.565
0.0048514288 -0.047975242 0.56600004
0.0059295241 -0.047975242 0.56600004
0.0070076194 -0.047975242 0.56600004
0.0081000002 -0.048060004 0.56700003
0.0091638099 -0.047975242 0.56600004
0.010241905 -0.047975242 0.56600004
0.011320001 -0.047975242 0.56600004
0.012398096 -0.047975242 0.56600004
0.013476191 -0.047975242 0.56600004
0.014554286 -0.047975242 0.56600004
0.015632382 -0.047975242 0.56600004
0.016710477 -0.047975242 0.56600004
0.017788572 -0.047975242 0.56600004
0.018866668 -0.047975242 0.56600004
0.019944763 -0.047975242 0.56600004
0.021060001 -0.048060004 0.56700003
0.022100953 -0.047975242 0.56600004
0.023220001 -0.048060004 0.56700003
0.024257144 -0.047975242 0.56600004
0.025290478 -0.047890481 0.565
0.026366668 -0.047890481 0.565
0.027442859 -0.047890481 0.565
0.028519049 -0.047890481 0.565
0.02954286 -0.047805719 0.56400001
0.030617144 -0.047805719 0.56400001
0.031691432 -0.047805719 0.56400001
0.032765716 -0.047805719 0.56400001
0.033900004 -0.047890481 0.565
0.035038099 -0.047975242 0.56600004
0.036116194 -0.047975242 0.56600004
0.037194289 -0.047975242 0.56600004
0.038272385 -0.047975242 0.56600004
0.03935048 -0.047975242 0.56600004
0.040428575 -0.047975242 0.56600004
0.041433334 -0.047890481 0.565
0.042509526 -0.047890481 0.565
0.043508574 -0.047805719 0.56400001
0.044661909 -0.047890481 0.565
0.045738097 -0.047890481 0.565
0.046814289 -0.047890481 0.565
0.047890481 -0.047890481 0.565
0.048966669 -0.047890481 0.565
0.05004286 -0.047890481 0.565
0.051119052 -0.047890481 0.565
0.052287623 -0.047975242 0.56600004
0.053460002 -0.048060004 0.56700003
0.0048600002 -0.046980005 0.56700003
0.0059400005 -0.046980005 0.56700003
0.0070200004 -0.046980005 0.56700003
0.0081000002 -0.046980005 0.56700003
0.009180001 -0.046980005 0.56700003
0.010260001 -0.046980005 0.56700003
0.011340001 -0.046980005 0.56700003
0.012398096 -0.046897147 0.56600004
0.013476191 -0.046897147 0.56600004
0.014554286 -0.046897147 0.56600004
0.015632382 -0.046897147 0.56600004
0.016710477 -0.046897147 0.56600004
0.017788572 -0.046897147 0.56600004
0.018866668 -0.046897147 0.56600004
0.019980002 -0.046980005 0.56700003
0.021060001 -0.046980005 0.56700003
0.022140002 -0.046980005 0.56700003
0.023220001 -0.046980005 0.56700003
0.024300002 -0.046980005 0.56700003
0.025335239 -0.046897147 0.56600004
0.026366668 -0.046814289 0.565
0.027442859 -0.046814289 0.565
0.028519049 -0.046814289 0.565
0.02954286 -0.046731431 0.56400001
0.030617144 -0.046731431 0.56400001
0.031747621 -0.046814289 0.565
0.032823812 -0.046814289 0.565
0.033900004 -0.046814289 0.565
0.035038099 -0.046897147 0.56600004
0.036116194 -0.046897147 0.56600004
0.037260003 -0.046980005 0.56700003
0.038272385 -0.046897147 0.56600004
0.03935048 -0.046897147 0.56600004
0.040428575 -0.046897147 0.56600004
0.041433334 -0.046814289 0.565
0.042509526 -0.046814289 0.565
0.043585718 -0.046814289 0.565
0.044661909 -0.046814289 0.565
0.045738097 -0.046814289 0.565
0.046814289 -0.046814289 0.565
0.047890481 -0.046814289 0.565
0.048966669 -0.046814289 0.565
0.050131433 -0.046897147 0.56600004
0.051209528 -0.046897147 0.56600004
0.052380003 -0.046980005 0.56700003
0.053460002 -0.046980005 0.56700003
0.0048600002 -0.045900002 0.56700003
0.0059400005 -0.045900002 0.56700003
0.0070200004 -0.045900002 0.56700003
0.0081000002 -0.045900002 0.56700003
0.009180001 -0.045900002 0.56700003
0.010260001 -0.045900002 0.56700003
0.011340001 -0.045900002 0.56700003
0.012398096 -0.045819052 0.56600004
0.013476191 -0.045819052 0.56600004
0.014554286 -0.045819052 0.56600004
0.015632382 -0.045819052 0.56600004
0.016710477 -0.045819052 0.56600004
0.017820001 -0.045900002 0.56700003
0.018900001 -0.045900002 0.56700003
0.019980002 -0.045900002 0.56700003
0.021060001 -0.045900002 0.56700003
0.022140002 -0.045900002 0.56700003
0.023220001 -0.045900002 0.56700003
0.024300002 -0.045900002 0.56700003
0.025335239 -0.045819052 0.56600004
0.026366668 -0.045738097 0.565
0.027442859 -0.045738097 0.565
0.028519049 -0.045738097 0.565
0.02954286 -0.045657147 0.56400001
0.030671431 -0.045738097 0.565
0.031747621 -0.045738097 0.565
0.032823812 -0.045738097 0.565
0.033900004 -0.045738097 0.565
0.035038099 -0.045819052 0.56600004
0.036116194 -0.045819052 0.56600004
0.037194289 -0.045819052 0.56600004
0.038272385 -0.045819052 0.56600004
0.03935048 -0.045819052 0.56600004
0.040428575 -0.045819052 0.56600004
0.041433334 -0.045738097 0.565
0.042509526 -0.045738097 0.565
0.043585718 -0.045738097 0.565
0.044661909 -0.045738097 0.565
0.045738097 -0.045738097 0.565
0.046814289 -0.045738097 0.565
0.047975242 -0.045819052 0.56600004
0.049053337 -0.045819052 0.56600004
0.050131433 -0.045819052 0.56600004
0.051300004 -0.045900002 0.56700003
0.052380003 -0.045900002 0.56700003
0.053460002 -0.045900002 0.56700003
0.0048685716 -0.04489905 0.56800002
0.0059504765 -0.04489905 0.56800002
0.0070323814 -0.04489905 0.56800002
0.0081142867 -0.04489905 0.56800002
0.009180001 -0.044820003 0.56700003
0.010260001 -0.044820003 0.56700003
0.011340001 -0.044820003 0.56700003
0.012420001 -0.044820003 0.56700003
0.013500001 -0.044820003 0.56700003
0.014580001 -0.044820003 0.56700003
0.015632382 -0.044740956 0.56600004
0.016740002 -0.044820003 0.56700003
0.017820001 -0.044820003 0.56700003
0.018900001 -0.044820003 0.56700003
0.019980002 -0.044820003 0.56700003
0.021060001 -0.044820003 0.56700003
0.022140002 -0.044820003 0.56700003
0.023220001 -0.044820003 0.56700003
0.024300002 -0.044820003 0.56700003
0.025380002 -0.044820003 0.56700003
0.026413335 -0.044740956 0.56600004
0.02749143 -0.044740956 0.56600004
0.028519049 -0.044661909 0.565
0.029595241 -0.044661909 0.565
0.030725716 -0.044740956 0.56600004
0.031747621 -0.044661909 0.565
0.032881908 -0.044740956 0.56600004
0.033900004 -0.044661909 0.565
0.035038099 -0.044740956 0.56600004
0.036116194 -0.044740956 0.56600004
0.037194289 -0.044740956 0.56600004
0.038272385 -0.044740956 0.56600004
0.03935048 -0.044740956 0.56600004
0.040428575 -0.044740956 0.56600004
0.041433334 -0.044661909 0.565
0.042509526 -0.044661909 0.565
0.043585718 -0.044661909 0.565
0.044661909 -0.044661909 0.565
0.045738097 -0.044661909 0.565
0.046897147 -0.044740956 0.56600004
0.047975242 -0.044740956 0.56600004
0.049140003 -0.044820003 0.56700003
0.050220001 -0.044820003 0.56700003
0.051300004 -0.044820003 0.56700003
0.052380003 -0.044820003 0.56700003
0.053460002 -0.044820003 0.56700003
0.054540005 -0.044820003 0.56700003
0.0048685716 -0.043817144 0.56800002
0.0059504765 -0.043817144 0.56800002
0.0070323814 -0.043817144 0.56800002
0.0081142867 -0.043817144 0.56800002
0.0091961911 -0.043817144 0.56800002
0.010260001 -0.043740004 0.56700003
0.011340001 -0.043740004 0.56700003
0.012420001 -0.043740004 0.56700003
0.013500001 -0.043740004 0.56700003
0.014580001 -0.043740004 0.56700003
0.015660001 -0.043740004 0.56700003
0.016740002 -0.043740004 0.56700003
0.017820001 -0.043740004 0.56700003
0.018900001 -0.043740004 0.56700003
0.019980002 -0.043740004 0.56700003
0.021097144 -0.043817144 0.56800002
0.022140002 -0.043740004 0.56700003
0.023260955 -0.043817144 0.56800002
0.024300002 -0.043740004 0.56700003
0.025380002 -0.043740004 0.56700003
0.026460001 -0.043740004 0.56700003
0.027540002 -0.043740004 0.56700003
0.028569525 -0.043662861 0.56600004
0.02964762 -0.043662861 0.56600004
0.030780002 -0.043740004 0.56700003
0.031860001 -0.043740004 0.56700003
0.032940004 -0.043740004 0.56700003
0.033960003 -0.043662861 0.56600004
0.035038099 -0.043662861 0.56600004
0.036116194 -0.043662861 0.56600004
0.037260003 -0.043740004 0.56700003
0.038272385 -0.043662861 0.56600004
0.03935048 -0.043662861 0.56600004
0.040428575 -0.043662861 0.56600004
0.041433334 -0.043585718 0.565
0.042584766 -0.043662861 0.56600004
0.043585718 -0.043585718 0.565
0.044661909 -0.043585718 0.565
0.045819052 -0.043662861 0.56600004
0.046897147 -0.043662861 0.56600004
0.048060004 -0.043740004 0.56700003
0.049140003 -0.043740004 0.56700003
0.050220001 -0.043740004 0.56700003
0.051300004 -0.043740004 0.56700003
0.052380003 -0.043740004 0.56700003
0.053460002 -0.043740004 0.56700003
0.0037933337 -0.042810477 0.56900001
0.0048685716 -0.042735241 0.56800002
0.0059504765 -0.042735241 0.56800002
0.0070447624 -0.042810477 0.56900001
0.0081142867 -0.042735241 0.56800002
0.0091961911 -0.042735241 0.56800002
0.010278095 -0.042735241 0.56800002
0.011360001 -0.042735241 0.56800002
0.012420001 -0.042660002 0.56700003
0.013500001 -0.042660002 0.56700003
0.014580001 -0.042660002 0.56700003
0.015660001 -0.042660002 0.56700003
0.016740002 -0.042660002 0.56700003
0.017820001 -0.042660002 0.56700003
0.018933335 -0.042735241 0.56800002
0.02001524 -0.042735241 0.56800002
0.021097144 -0.042735241 0.56800002
0.022179049 -0.042735241 0.56800002
0.023260955 -0.042735241 0.56800002
0.024342859 -0.042735241 0.56800002
0.025424764 -0.042735241 0.56800002
0.026460001 -0.042660002 0.56700003
0.027588572 -0.042735241 0.56800002
0.028620003 -0.042660002 0.56700003
0.029700002 -0.042660002 0.56700003
0.030834287 -0.042735241 0.56800002
0.031916194 -0.042735241 0.56800002
0.032940004 -0.042660002 0.56700003
0.034020003 -0.042660002 0.56700003
0.035100002 -0.042660002 0.56700003
0.036180001 -0.042660002 0.56700003
0.037260003 -0.042660002 0.56700003
0.038340002 -0.042660002 0.56700003
0.039420001 -0.042660002 0.56700003
0.040500004 -0.042660002 0.56700003
0.041580003 -0.042660002 0.56700003
0.042660002 -0.042660002 0.56700003
0.043740004 -0.042660002 0.56700003
0.044820003 -0.042660002 0.56700003
0.045900002 -0.042660002 0.56700003
0.046980005 -0.042660002 0.56700003
0.048060004 -0.042660002 0.56700003
0.049140003 -0.042660002 0.56700003
0.050220001 -0.042660002 0.56700003
0.051300004 -0.042660002 0.56700003
0.052380003 -0.042660002 0.56700003
0.053460002 -0.042660002 0.56700003
0.0037933337 -0.041726671 0.56900001
0.0048685716 -0.041653335 0.56800002
0.0059504765 -0.041653335 0.56800002
0.0070447624 -0.041726671 0.56900001
0.0081285723 -0.041726671 0.56900001
0.0091961911 -0.041653335 0.56800002
0.010278095 -0.041653335 0.56800002
0.011360001 -0.041653335 0.56800002
0.012441905 -0.041653335 0.56800002
0.013523811 -0.041653335 0.56800002
0.014580001 -0.041580003 0.56700003
0.015660001 -0.041580003 0.56700003
0.016769525 -0.041653335 0.56800002
0.017851429 -0.041653335 0.56800002
0.018933335 -0.041653335 0.56800002
0.02001524 -0.041653335 0.56800002
0.021134287 -0.041726671 0.56900001
0.022218097 -0.041726671 0.56900001
0.023301907 -0.041726671 0.56900001
0.024342859 -0.041653335 0.56800002
0.025424764 -0.041653335 0.56800002
0.026506668 -0.041653335 0.56800002
0.027588572 -0.041653335 0.56800002
0.028670479 -0.041653335 0.56800002
0.029752383 -0.041653335 0.56800002
0.030834287 -0.041653335 0.56800002
0.031916194 -0.041653335 0.56800002
0.032998096 -0.041653335 0.56800002
0.034080002 -0.041653335 0.56800002
0.035100002 -0.041580003 0.56700003
0.036243811 -0.041653335 0.56800002
0.037325718 -0.041653335 0.56800002
0.038340002 -0.041580003 0.56700003
0.039420001 -0.041580003 0.56700003
0.040500004 -0.041580003 0.56700003
0.041580003 -0.041580003 0.56700003
0.042735241 -0.041653335 0.56800002
0.043740004 -0.041580003 0.56700003
0.044820003 -0.041580003 0.56700003
0.045900002 -0.041580003 0.56700003
0.047062859 -0.041653335 0.56800002
0.048144765 -0.041653335 0.56800002
0.049226671 -0.041653335 0.56800002
0.050220001 -0.041580003 0.56700003
0.051300004 -0.041580003 0.56700003
0.052380003 -0.041580003 0.56700003
0.053460002 -0.041580003 0.56700003
0.0037933337 -0.040642861 0.56900001
0.0048771431 -0.040642861 0.56900001
0.005960953 -0.040642861 0.56900001
0.0070447624 -0.040642861 0.56900001
0.0081285723 -0.040642861 0.56900001
0.0092123812 -0.040642861 0.56900001
0.010296191 -0.040642861 0.56900001
0.011380001 -0.040642861 0.56900001
0.012441905 -0.040571433 0.56800002
0.013523811 -0.040571433 0.56800002
0.014580001 -0.040500004 0.56700003
0.01568762 -0.040571433 0.56800002
0.016769525 -0.040571433 0.56800002
0.017851429 -0.040571433 0.56800002
0.018933335 -0.040571433 0.56800002
0.02001524 -0.040571433 0.56800002
0.021134287 -0.040642861 0.56900001
0.022218097 -0.040642861 0.56900001
0.023301907 -0.040642861 0.56900001
0.024342859 -0.040571433 0.56800002
0.025424764 -0.040571433 0.56800002
0.026506668 -0.040571433 0.56800002
0.027588572 -0.040571433 0.56800002
0.028670479 -0.040571433 0.56800002
0.029752383 -0.040571433 0.56800002
0.030834287 -0.040571433 0.56800002
0.031916194 -0.040571433 0.56800002
0.032998096 -0.040571433 0.56800002
0.034080002 -0.040571433 0.56800002
0.035161909 -0.040571433 0.56800002
0.036243811 -0.040571433 0.56800002
0.037325718 -0.040571433 0.56800002
0.03840762 -0.040571433 0.56800002
0.039489526 -0.040571433 0.56800002
0.040571433 -0.040571433 0.56800002
0.041653335 -0.040571433 0.56800002
0.042735241 -0.040571433 0.56800002
0.043817144 -0.040571433 0.56800002
0.04489905 -0.040571433 0.56800002
0.045980956 -0.040571433 0.56800002
0.047062859 -0.040571433 0.56800002
0.048144765 -0.040571433 0.56800002
0.049226671 -0.040571433 0.56800002
0.050308574 -0.040571433 0.56800002
0.05139048 -0.040571433 0.56800002
0.052380003 -0.040500004 0.56700003
0.053460002 -0.040500004 0.56700003
0.0027142859 -0.039628573 0.57000005
0.0037933337 -0.039559051 0.56900001
0.0048857145 -0.039628573 0.57000005
0.0059714289 -0.039628573 0.57000005
0.0070571434 -0.039628573 0.57000005
0.0081428578 -0.039628573 0.57000005
0.0092285722 -0.039628573 0.57000005
0.010296191 -0.039559051 0.56900001
0.011380001 -0.039559051 0.56900001
0.01246381 -0.039559051 0.56900001
0.013523811 -0.039489526 0.56800002
0.014605715 -0.039489526 0.56800002
0.01568762 -0.039489526 0.56800002
0.016769525 -0.039489526 0.56800002
0.017851429 -0.039489526 0.56800002
0.018966667 -0.039559051 0.56900001
0.020050477 -0.039559051 0.56900001
0.021134287 -0.039559051 0.56900001
0.022218097 -0.039559051 0.56900001
0.023301907 -0.039559051 0.56900001
0.024342859 -0.039489526 0.56800002
0.025469525 -0.039559051 0.56900001
0.026506668 -0.039489526 0.56800002
0.027637145 -0.039559051 0.56900001
0.028720954 -0.039559051 0.56900001
0.029804764 -0.039559051 0.56900001
0.030888574 -0.039559051 0.56900001
0.031972382 -0.039559051 0.56900001
0.033056192 -0.039559051 0.56900001
0.034080002 -0.039489526 0.56800002
0.035161909 -0.039489526 0.56800002
0.036243811 -0.039489526 0.56800002
0.037391432 -0.039559051 0.56900001
0.03840762 -0.039489526 0.56800002
0.039489526 -0.039489526 0.56800002
0.040571433 -0.039489526 0.56800002
0.041726671 -0.039559051 0.56900001
0.042885717 -0.039628573 0.57000005
0.043817144 -0.039489526 0.56800002
0.04489905 -0.039489526 0.56800002
0.045980956 -0.039489526 0.56800002
0.047062859 -0.039489526 0.56800002
0.048144765 -0.039489526 0.56800002
0.049226671 -0.039489526 0.56800002
0.050308574 -0.039489526 0.56800002
0.05139048 -0.039489526 0.56800002
0.052380003 -0.039420001 0.56700003
0.053460002 -0.039420001 0.56700003
0.0027190477 -0.038610477 0.57100004
0.0038066669 -0.038610477 0.57100004
0.0048942859 -0.038610477 0.57100004
0.0059819054 -0.038610477 0.57100004
0.0070695244 -0.038610477 0.57100004
0.0081571434 -0.038610477 0.57100004
0.0092447624 -0.038610477 0.57100004
0.010332381 -0.038610477 0.57100004
0.01142 -0.038610477 0.57100004
0.01250762 -0.038610477 0.57100004
0.013571429 -0.038542859 0.57000005
0.014657144 -0.038542859 0.57000005
0.015742859 -0.038542859 0.57000005
0.016858097 -0.038610477 0.57100004
0.017945716 -0.038610477 0.57100004
0.019033335 -0.038610477 0.57100004
0.020120954 -0.038610477 0.57100004
0.021208573 -0.038610477 0.57100004
0.022296192 -0.038610477 0.57100004
0.023342859 -0.038542859 0.57000005
0.024385717 -0.038475242 0.56900001
0.025514288 -0.038542859 0.57000005
0.026600001 -0.038542859 0.57000005
0.027685717 -0.038542859 0.57000005
0.02877143 -0.038542859 0.57000005
0.029857146 -0.038542859 0.57000005
0.030942859 -0.038542859 0.57000005
0.032028574 -0.038542859 0.57000005
0.033114288 -0.038542859 0.57000005
0.034140002 -0.038475242 0.56900001
0.035223812 -0.038475242 0.56900001
0.036371432 -0.038542859 0.57000005
0.037457146 -0.038542859 0.57000005
0.038542859 -0.038542859 0.57000005
0.039559051 -0.038475242 0.56900001
0.04071429 -0.038542859 0.57000005
0.041800003 -0.038542859 0.57000005
0.042885717 -0.038542859 0.57000005
0.043971431 -0.038542859 0.57000005
0.044978097 -0.038475242 0.56900001
0.046061907 -0.038475242 0.56900001
0.047145717 -0.038475242 0.56900001
0.048229527 -0.038475242 0.56900001
0.049313337 -0.038475242 0.56900001
0.050308574 -0.03840762 0.56800002
0.05139048 -0.03840762 0.56800002
0.052472383 -0.03840762 0.56800002
0.0038200002 -0.037654288 0.57300001
0.0049028574 -0.037588574 0.57200003
0.0059923814 -0.037588574 0.57200003
0.0070819054 -0.037588574 0.57200003
0.0081714289 -0.037588574 0.57200003
0.0092609534 -0.037588574 0.57200003
0.010332381 -0.03752286 0.57100004
0.01142 -0.03752286 0.57100004
0.01250762 -0.03752286 0.57100004
0.013595239 -0.03752286 0.57100004
0.014682858 -0.03752286 0.57100004
0.015770476 -0.03752286 0.57100004
0.016858097 -0.03752286 0.57100004
0.017945716 -0.03752286 0.57100004
0.019033335 -0.03752286 0.57100004
0.020120954 -0.03752286 0.57100004
0.021208573 -0.03752286 0.57100004
0.022296192 -0.03752286 0.57100004
0.023383811 -0.03752286 0.57100004
0.02447143 -0.03752286 0.57100004
0.025514288 -0.037457146 0.57000005
0.026646668 -0.03752286 0.57100004
0.027734287 -0.03752286 0.57100004
0.028821906 -0.03752286 0.57100004
0.029909525 -0.03752286 0.57100004
0.030997144 -0.03752286 0.57100004
0.032084763 -0.03752286 0.57100004
0.033172384 -0.03752286 0.57100004
0.034200002 -0.037457146 0.57000005
0.035285715 -0.037457146 0.57000005
0.036371432 -0.037457146 0.57000005
0.037457146 -0.037457146 0.57000005
0.038542859 -0.037457146 0.57000005
0.039628573 -0.037457146 0.57000005
0.04071429 -0.037457146 0.57000005
0.041800003 -0.037457146 0.57000005
0.042960957 -0.03752286 0.57100004
0.043971431 -0.037457146 0.57000005
0.045057144 -0.037457146 0.57000005
0.046061907 -0.037391432 0.56900001
0.047145717 -0.037391432 0.56900001
0.048229527 -0.037391432 0.56900001
0.049313337 -0.037391432 0.56900001
0.050308574 -0.037325718 0.56800002
0.05139048 -0.037325718 0.56800002
0.0038333335 -0.036690477 0.57500005
0.0049114288 -0.03656286 0.57300001
0.0060028573 -0.03656286 0.57300001
0.0070942864 -0.03656286 0.57300001
0.0081714289 -0.03649905 0.57200003
0.0092609534 -0.03649905 0.57200003
0.010350477 -0.03649905 0.57200003
0.01142 -0.036435239 0.57100004
0.01250762 -0.036435239 0.57100004
0.013595239 -0.036435239 0.57100004
0.014682858 -0.036435239 0.57100004
0.015770476 -0.036435239 0.57100004
0.016858097 -0.036435239 0.57100004
0.017945716 -0.036435239 0.57100004
0.019066667 -0.03649905 0.57200003
0.020156192 -0.03649905 0.57200003
0.021245716 -0.03649905 0.57200003
0.022335239 -0.03649905 0.57200003
0.023383811 -0.036435239 0.57100004
0.02447143 -0.036435239 0.57100004
0.025559049 -0.036435239 0.57100004
0.026646668 -0.036435239 0.57100004
0.027734287 -0.036435239 0.57100004
0.028821906 -0.036435239 0.57100004
0.029909525 -0.036435239 0.57100004
0.030997144 -0.036435239 0.57100004
0.032084763 -0.036435239 0.57100004
0.033172384 -0.036435239 0.57100004
0.034260001 -0.036435239 0.57100004
0.035347622 -0.036435239 0.57100004
0.036435239 -0.036435239 0.57100004
0.03752286 -0.036435239 0.57100004
0.038542859 -0.036371432 0.57000005
0.039628573 -0.036371432 0.57000005
0.04071429 -0.036371432 0.57000005
0.041873336 -0.036435239 0.57100004
0.042960957 -0.036435239 0.57100004
0.043971431 -0.036371432 0.57000005
0.045057144 -0.036371432 0.57000005
0.046061907 -0.036307622 0.56900001
0.047145717 -0.036307622 0.56900001
0.048229527 -0.036307622 0.56900001
0.049313337 -0.036307622 0.56900001
0.050308574 -0.036243811 0.56800002
0.05139048 -0.036243811 0.56800002
0.0027428572 -0.035657145 0.57600003
0.0038400004 -0.035657145 0.57600003
0.0049200002 -0.035533335 0.574
0.0060133338 -0.035533335 0.574
0.0071066669 -0.035533335 0.574
0.0081857145 -0.035471432 0.57300001
0.0092609534 -0.035409525 0.57200003
0.010350477 -0.035409525 0.57200003
0.01144 -0.035409525 0.57200003
0.012529525 -0.035409525 0.57200003
0.013619049 -0.035409525 0.57200003
0.014682858 -0.035347622 0.57100004
0.015770476 -0.035347622 0.57100004
0.01688762 -0.035409525 0.57200003
0.017977145 -0.035409525 0.57200003
0.019066667 -0.035409525 0.57200003
0.020156192 -0.035409525 0.57200003
0.021245716 -0.035409525 0.57200003
0.022335239 -0.035409525 0.57200003
0.023424763 -0.035409525 0.57200003
0.024514288 -0.035409525 0.57200003
0.025559049 -0.035347622 0.57100004
0.026646668 -0.035347622 0.57100004
0.027734287 -0.035347622 0.57100004
0.028872384 -0.035409525 0.57200003
0.029909525 -0.035347622 0.57100004
0.030997144 -0.035347622 0.57100004
0.032084763 -0.035347622 0.57100004
0.033172384 -0.035347622 0.57100004
0.034260001 -0.035347622 0.57100004
0.035347622 -0.035347622 0.57100004
0.036435239 -0.035347622 0.57100004
0.03752286 -0.035347622 0.57100004
0.038610477 -0.035347622 0.57100004
0.039698098 -0.035347622 0.57100004
0.040785719 -0.035347622 0.57100004
0.041873336 -0.035347622 0.57100004
0.042960957 -0.035347622 0.57100004
0.044048574 -0.035347622 0.57100004
0.045057144 -0.035285715 0.57000005
0.046142861 -0.035285715 0.57000005
0.047228575 -0.035285715 0.57000005
0.04839905 -0.035347622 0.57100004
0.049400002 -0.035285715 0.57000005
0.050397146 -0.035223812 0.56900001
0.051480956 -0.035223812 0.56900001
0.0038400004 -0.034560002 0.57600003
0.0049285716 -0.034500003 0.57500005
0.0060238098 -0.034500003 0.57500005
0.0071190479 -0.034500003 0.57500005
0.008200001 -0.034440003 0.574
0.0092771435 -0.034380004 0.57300001
0.010368573 -0.034380004 0.57300001
0.01144 -0.034320001 0.57200003
0.012529525 -0.034320001 0.57200003
0.013619049 -0.034320001 0.57200003
0.014708572 -0.034320001 0.57200003
0.015798096 -0.034320001 0.57200003
0.01688762 -0.034320001 0.57200003
0.017977145 -0.034320001 0.57200003
0.019066667 -0.034320001 0.57200003
0.020156192 -0.034320001 0.57200003
0.021245716 -0.034320001 0.57200003
0.022335239 -0.034320001 0.57200003
0.023424763 -0.034320001 0.57200003
0.024514288 -0.034320001 0.57200003
0.02560381 -0.034320001 0.57200003
0.026693335 -0.034320001 0.57200003
0.027782859 -0.034320001 0.57200003
0.028872384 -0.034320001 0.57200003
0.029961906 -0.034320001 0.57200003
0.031051431 -0.034320001 0.57200003
0.032140955 -0.034320001 0.57200003
0.03323048 -0.034320001 0.57200003
0.034320001 -0.034320001 0.57200003
0.035409525 -0.034320001 0.57200003
0.036435239 -0.034260001 0.57100004
0.03752286 -0.034260001 0.57100004
0.038610477 -0.034260001 0.57100004
0.039698098 -0.034260001 0.57100004
0.040785719 -0.034260001 0.57100004
0.041873336 -0.034260001 0.57100004
0.042960957 -0.034260001 0.57100004
0.044048574 -0.034260001 0.57100004
0.045136195 -0.034260001 0.57100004
0.046223812 -0.034260001 0.57100004
0.047311433 -0.034260001 0.57100004
0.04839905 -0.034260001 0.57100004
0.049400002 -0.034200002 0.57000005
0.050485719 -0.034200002 0.57000005
0.051571433 -0.034200002 0.57000005
0.052657146 -0.034200002 0.57000005
0.0038400004 -0.03346286 0.57600003
0.0049371431 -0.03346286 0.57600003
0.0060238098 -0.033404764 0.57500005
0.0071190479 -0.033404764 0.57500005
0.008200001 -0.033346668 0.574
0.0092933336 -0.033346668 0.574
0.010368573 -0.033288572 0.57300001
0.011460001 -0.033288572 0.57300001
0.01255143 -0.033288572 0.57300001
0.013619049 -0.03323048 0.57200003
0.014708572 -0.03323048 0.57200003
0.015798096 -0.03323048 0.57200003
0.01688762 -0.03323048 0.57200003
0.017977145 -0.03323048 0.57200003
0.019066667 -0.03323048 0.57200003
0.020156192 -0.03323048 0.57200003
0.021245716 -0.03323048 0.57200003
0.022374287 -0.033288572 0.57300001
0.023424763 -0.03323048 0.57200003
0.024514288 -0.03323048 0.57200003
0.02560381 -0.03323048 0.57200003
0.026693335 -0.03323048 0.57200003
0.027782859 -0.03323048 0.57200003
0.028872384 -0.03323048 0.57200003
0.029961906 -0.03323048 0.57200003
0.031051431 -0.03323048 0.57200003
0.032140955 -0.03323048 0.57200003
0.03323048 -0.03323048 0.57200003
0.034320001 -0.03323048 0.57200003
0.035409525 -0.03323048 0.57200003
0.036435239 -0.033172384 0.57100004
0.037588574 -0.03323048 0.57200003
0.038678098 -0.03323048 0.57200003
0.039767623 -0.03323048 0.57200003
0.040857144 -0.03323048 0.57200003
0.041946668 -0.03323048 0.57200003
0.042960957 -0.033172384 0.57100004
0.044048574 -0.033172384 0.57100004
0.045215242 -0.03323048 0.57200003
0.046223812 -0.033172384 0.57100004
0.047311433 -0.033172384 0.57100004
0.04839905 -0.033172384 0.57100004
0.049486671 -0.033172384 0.57100004
0.050574288 -0.033172384 0.57100004
0.051571433 -0.033114288 0.57000005
0.052749526 -0.033172384 0.57100004
0.003846667 -0.032421906 0.57700002
0.0049371431 -0.032365717 0.57600003
0.0060342862 -0.032365717 0.57600003
0.0071190479 -0.032309525 0.57500005
0.0082142865 -0.032309525 0.57500005
0.0092933336 -0.032253336 0.574
0.010386667 -0.032253336 0.574
0.011460001 -0.032197144 0.57300001
0.01255143 -0.032197144 0.57300001
0.013642858 -0.032197144 0.57300001
0.014708572 -0.032140955 0.57200003
0.015825715 -0.032197144 0.57300001
0.016917145 -0.032197144 0.57300001
0.018008573 -0.032197144 0.57300001
0.019100001 -0.032197144 0.57300001
0.020191429 -0.032197144 0.57300001
0.021282859 -0.032197144 0.57300001
0.022374287 -0.032197144 0.57300001
0.023424763 -0.032140955 0.57200003
0.024514288 -0.032140955 0.57200003
0.02560381 -0.032140955 0.57200003
0.026693335 -0.032140955 0.57200003
0.027782859 -0.032140955 0.57200003
0.028872384 -0.032140955 0.57200003
0.029961906 -0.032140955 0.57200003
0.031051431 -0.032140955 0.57200003
0.032140955 -0.032140955 0.57200003
0.03323048 -0.032140955 0.57200003
0.034320001 -0.032140955 0.57200003
0.035409525 -0.032140955 0.57200003
0.03649905 -0.032140955 0.57200003
0.037588574 -0.032140955 0.57200003
0.038678098 -0.032140955 0.57200003
