# .PCD v0.7 - Point Cloud Data file format
VERSION 0.7
FIELDS x y z
SIZE 4 4 4
TYPE F F F
COUNT 1 1 1
WIDTH 1353
HEIGHT 1
VIEWPOINT 0 0 0 1 0 0 0
POINTS 1353
DATA ascii
-0.050772384 0.037080955 0.59900004
-0.049631432 0.037080955 0.59900004
-0.04849048 0.037080955 0.59900004
-0.047349527 0.037080955 0.59900004
-0.046285719 0.037142858 0.60000002
-0.045142859 0.037142858 0.60000002
-0.044000003 0.037142858 0.60000002
-0.042857144 0.037142858 0.60000002
-0.041714288 0.037142858 0.60000002
-0.040571433 0.037142858 0.60000002
-0.039428573 0.037142858 0.60000002
-0.038285717 0.037142858 0.60000002
-0.037142858 0.037142858 0.60000002
-0.036000002 0.037142858 0.60000002
-0.034857146 0.037142858 0.60000002
-0.033770479 0.037204765 0.60100001
-0.032680001 0.037266668 0.60200006
-0.031533334 0.037266668 0.60200006
-0.03038667 0.037266668 0.60200006
-0.029288573 0.037328575 0.60300004
-0.028186668 0.037390478 0.60400003
-0.027036192 0.037390478 0.60400003
-0.025885716 0.037390478 0.60400003
-0.02473524 0.037390478 0.60400003
-0.023584763 0.037390478 0.60400003
-0.022434287 0.037390478 0.60400003
-0.021283811 0.037390478 0.60400003
-0.020166667 0.037452385 0.60500002
-0.019014288 0.037452385 0.60500002
-0.017861906 0.037452385 0.60500002
-0.016737144 0.037514288 0.60600001
-0.015582859 0.037514288 0.60600001
-0.014452382 0.037576191 0.60700005
-0.013296192 0.037576191 0.60700005
-0.012140001 0.037576191 0.60700005
-0.01098381 0.037576191 0.60700005
-0.0098438105 0.037638098 0.60800004
-0.0086857146 0.037638098 0.60800004
-0.0075276196 0.037638098 0.60800004
-0.0063695242 0.037638098 0.60800004
-0.0052114287 0.037638098 0.60800004
-0.0040533338 0.037638098 0.60800004
-0.0028952383 0.037638098 0.60800004
-0.0017400001 0.037700001 0.60900003
-0.00058000005 0.037700001 0.60900003
0.00058000005 0.037700001 0.60900003
0.0017485715 0.037885718 0.61200005
0.002914286 0.037885718 0.61200005
0.0040866667 0.037947621 0.61300004
0.0052542859 0.037947621 0.61300004
0.006421905 0.037947621 0.61300004
0.0075895241 0.037947621 0.61300004
0.0087571433 0.037947621 0.61300004
0.009940953 0.038009528 0.61400002
0.011092382 0.037947621 0.61300004
0.012260001 0.037947621 0.61300004
0.01342762 0.037947621 0.61300004
-0.062285718 0.038285717 0.60000002
-0.061142862 0.038285717 0.60000002
-0.059900004 0.038221907 0.59900004
-0.058759052 0.038221907 0.59900004
-0.0576181 0.038221907 0.59900004
-0.056477148 0.038221907 0.59900004
-0.055243813 0.038158096 0.59800005
-0.054104764 0.038158096 0.59800005
-0.052965719 0.038158096 0.59800005
-0.051913336 0.038221907 0.59900004
-0.050772384 0.038221907 0.59900004
-0.049631432 0.038221907 0.59900004
-0.04849048 0.038221907 0.59900004
-0.047428574 0.038285717 0.60000002
-0.046285719 0.038285717 0.60000002
-0.045142859 0.038285717 0.60000002
-0.044000003 0.038285717 0.60000002
-0.042857144 0.038285717 0.60000002
-0.041714288 0.038285717 0.60000002
-0.040571433 0.038285717 0.60000002
-0.039428573 0.038285717 0.60000002
-0.038285717 0.038285717 0.60000002
-0.037142858 0.038285717 0.60000002
-0.036060002 0.038349528 0.60100001
-0.034915239 0.038349528 0.60100001
-0.033770479 0.038349528 0.60100001
-0.032680001 0.038413335 0.60200006
-0.031585716 0.038477145 0.60300004
-0.030437145 0.038477145 0.60300004
-0.029337145 0.038540956 0.60400003
-0.028186668 0.038540956 0.60400003
-0.027036192 0.038540956 0.60400003
-0.025885716 0.038540956 0.60400003
-0.02473524 0.038540956 0.60400003
-0.023584763 0.038540956 0.60400003
-0.02247143 0.038604766 0.60500002
-0.021319048 0.038604766 0.60500002
-0.020166667 0.038604766 0.60500002
-0.019045716 0.038668573 0.60600001
-0.017891429 0.038668573 0.60600001
-0.016764764 0.038732383 0.60700005
-0.015608572 0.038732383 0.60700005
-0.014452382 0.038732383 0.60700005
-0.013296192 0.038732383 0.60700005
-0.012140001 0.038732383 0.60700005
-0.01098381 0.038732383 0.60700005
-0.0098438105 0.038796194 0.60800004
-0.0086857146 0.038796194 0.60800004
-0.0075276196 0.038796194 0.60800004
-0.0063695242 0.038796194 0.60800004
-0.0052200002 0.038860004 0.60900003
-0.0040600002 0.038860004 0.60900003
-0.0029000002 0.038860004 0.60900003
-0.0017400001 0.038860004 0.60900003
-0.00058190478 0.038987622 0.611
0.00058190478 0.038987622 0.611
0.0017485715 0.039051432 0.61200005
0.0029190478 0.039115239 0.61300004
0.0040866667 0.039115239 0.61300004
0.0052542859 0.039115239 0.61300004
0.0064323815 0.039179049 0.61400002
0.0076019051 0.039179049 0.61400002
0.0087714288 0.039179049 0.61400002
0.009940953 0.039179049 0.61400002
0.011110477 0.039179049 0.61400002
0.01228 0.039179049 0.61400002
0.013449525 0.039179049 0.61400002
0.014595239 0.039115239 0.61300004
-0.061142862 0.039428573 0.60000002
-0.059900004 0.039362859 0.59900004
-0.058759052 0.039362859 0.59900004
-0.0576181 0.039362859 0.59900004
-0.056477148 0.039362859 0.59900004
-0.055336192 0.039362859 0.59900004
-0.054104764 0.039297145 0.59800005
-0.053054288 0.039362859 0.59900004
-0.051913336 0.039362859 0.59900004
-0.050857145 0.039428573 0.60000002
-0.04971429 0.039428573 0.60000002
-0.04857143 0.039428573 0.60000002
-0.047428574 0.039428573 0.60000002
-0.046362862 0.039494287 0.60100001
-0.045218099 0.039494287 0.60100001
-0.044073336 0.039494287 0.60100001
-0.042928573 0.039494287 0.60100001
-0.041783813 0.039494287 0.60100001
-0.04063905 0.039494287 0.60100001
-0.039494287 0.039494287 0.60100001
-0.038349528 0.039494287 0.60100001
-0.037204765 0.039494287 0.60100001
-0.036060002 0.039494287 0.60100001
-0.034915239 0.039494287 0.60100001
-0.033826668 0.039560001 0.60200006
-0.032734286 0.039625715 0.60300004
-0.031638097 0.03969143 0.60400003
-0.030487621 0.03969143 0.60400003
-0.029385716 0.039757144 0.60500002
-0.028233334 0.039757144 0.60500002
-0.027080955 0.039757144 0.60500002
-0.025928574 0.039757144 0.60500002
-0.024776192 0.039757144 0.60500002
-0.023623811 0.039757144 0.60500002
-0.022508573 0.039822862 0.60600001
-0.021354288 0.039822862 0.60600001
-0.020200001 0.039822862 0.60600001
-0.019077145 0.039888576 0.60700005
-0.017920954 0.039888576 0.60700005
-0.016764764 0.039888576 0.60700005
-0.015608572 0.039888576 0.60700005
-0.014452382 0.039888576 0.60700005
-0.013318096 0.03995429 0.60800004
-0.01216 0.03995429 0.60800004
-0.011001905 0.03995429 0.60800004
-0.0098438105 0.03995429 0.60800004
-0.0087000001 0.040020004 0.60900003
-0.0075400006 0.040020004 0.60900003
-0.0063800006 0.040020004 0.60900003
-0.0052200002 0.040020004 0.60900003
-0.0040600002 0.040020004 0.60900003
-0.0029095239 0.040151432 0.611
-0.0017457145 0.040151432 0.611
-0.00058190478 0.040151432 0.611
0.00058285717 0.040217146 0.61200005
0.0017514287 0.04028286 0.61300004
0.0029190478 0.04028286 0.61300004
0.0040866667 0.04028286 0.61300004
0.0052628573 0.040348575 0.61400002
0.0064323815 0.040348575 0.61400002
0.0076019051 0.040348575 0.61400002
0.0087857153 0.040414289 0.61500001
0.0099571431 0.040414289 0.61500001
0.011128572 0.040414289 0.61500001
0.012300001 0.040414289 0.61500001
0.013449525 0.040348575 0.61400002
-0.061142862 0.040571433 0.60000002
-0.060000002 0.040571433 0.60000002
-0.058857147 0.040571433 0.60000002
-0.057714291 0.040571433 0.60000002
-0.056571431 0.040571433 0.60000002
-0.055336192 0.040503811 0.59900004
-0.05419524 0.040503811 0.59900004
-0.053142861 0.040571433 0.60000002
-0.052000005 0.040571433 0.60000002
-0.050857145 0.040571433 0.60000002
-0.04971429 0.040571433 0.60000002
-0.04857143 0.040571433 0.60000002
-0.047507621 0.04063905 0.60100001
-0.046362862 0.04063905 0.60100001
-0.045218099 0.04063905 0.60100001
-0.044146668 0.040706668 0.60200006
-0.043000001 0.040706668 0.60200006
-0.041853335 0.040706668 0.60200006
-0.040706668 0.040706668 0.60200006
-0.039494287 0.04063905 0.60100001
-0.038349528 0.04063905 0.60100001
-0.037266668 0.040706668 0.60200006
-0.036120001 0.040706668 0.60200006
-0.03503143 0.04077429 0.60300004
-0.03388286 0.04077429 0.60300004
-0.032788575 0.040841907 0.60400003
-0.031690478 0.040909525 0.60500002
-0.030538097 0.040909525 0.60500002
-0.029434288 0.040977146 0.60600001
-0.028280001 0.040977146 0.60600001
-0.027125716 0.040977146 0.60600001
-0.025928574 0.040909525 0.60500002
-0.024817144 0.040977146 0.60600001
-0.02366286 0.040977146 0.60600001
-0.022508573 0.040977146 0.60600001
-0.021354288 0.040977146 0.60600001
-0.020233335 0.041044764 0.60700005
-0.019077145 0.041044764 0.60700005
-0.017920954 0.041044764 0.60700005
-0.016764764 0.041044764 0.60700005
-0.015608572 0.041044764 0.60700005
-0.014476191 0.041112382 0.60800004
-0.013318096 0.041112382 0.60800004
-0.01216 0.041112382 0.60800004
-0.011020001 0.041180003 0.60900003
-0.0098600006 0.041180003 0.60900003
-0.0087000001 0.041180003 0.60900003
-0.0075647626 0.041315243 0.611
-0.0064009526 0.041315243 0.611
-0.005237143 0.041315243 0.611
-0.0040733335 0.041315243 0.611
-0.0029095239 0.041315243 0.611
-0.0017485715 0.04138286 0.61200005
-0.00058285717 0.04138286 0.61200005
0.00058380957 0.041450478 0.61300004
0.0017514287 0.041450478 0.61300004
0.0029238097 0.0415181 0.61400002
0.0040933336 0.0415181 0.61400002
0.0052714287 0.041585717 0.61500001
0.0064428574 0.041585717 0.61500001
0.0076142862 0.041585717 0.61500001
0.0087857153 0.041585717 0.61500001
0.0099571431 0.041585717 0.61500001
0.011128572 0.041585717 0.61500001
0.012300001 0.041585717 0.61500001
0.013493334 0.041653335 0.61600006
-0.060100004 0.041783813 0.60100001
-0.058955241 0.041783813 0.60100001
-0.057810482 0.041783813 0.60100001
-0.056665719 0.041783813 0.60100001
-0.055428576 0.041714288 0.60000002
-0.054285716 0.041714288 0.60000002
-0.053231433 0.041783813 0.60100001
-0.05208667 0.041783813 0.60100001
-0.050941907 0.041783813 0.60100001
-0.049797148 0.041783813 0.60100001
-0.048652384 0.041783813 0.60100001
-0.047586668 0.041853335 0.60200006
-0.046440002 0.041853335 0.60200006
-0.045293335 0.041853335 0.60200006
-0.044220004 0.04192286 0.60300004
-0.04307143 0.04192286 0.60300004
-0.04192286 0.04192286 0.60300004
-0.04077429 0.04192286 0.60300004
-0.039625715 0.04192286 0.60300004
-0.038477145 0.04192286 0.60300004
-0.037328575 0.04192286 0.60300004
-0.036180001 0.04192286 0.60300004
-0.035089526 0.041992385 0.60400003
-0.033995241 0.042061906 0.60500002
-0.032897145 0.042131431 0.60600001
-0.03174286 0.042131431 0.60600001
-0.030588573 0.042131431 0.60600001
-0.029434288 0.042131431 0.60600001
-0.028280001 0.042131431 0.60600001
-0.027125716 0.042131431 0.60600001
-0.025971429 0.042131431 0.60600001
-0.024817144 0.042131431 0.60600001
-0.02366286 0.042131431 0.60600001
-0.022545716 0.042200956 0.60700005
-0.021389525 0.042200956 0.60700005
-0.020233335 0.042200956 0.60700005
-0.019077145 0.042200956 0.60700005
-0.017920954 0.042200956 0.60700005
-0.016792381 0.042270478 0.60800004
-0.015634287 0.042270478 0.60800004
-0.014476191 0.042270478 0.60800004
-0.013318096 0.042270478 0.60800004
-0.012180001 0.042340003 0.60900003
-0.011020001 0.042340003 0.60900003
-0.0098600006 0.042340003 0.60900003
-0.0087000001 0.042340003 0.60900003
-0.0075647626 0.042479049 0.611
-0.0064009526 0.042479049 0.611
-0.005237143 0.042479049 0.611
-0.0040733335 0.042479049 0.611
-0.002914286 0.042548575 0.61200005
-0.0017485715 0.042548575 0.61200005
-0.00058380957 0.0426181 0.61300004
0.00058380957 0.0426181 0.61300004
0.0017542859 0.042687621 0.61400002
0.0029285715 0.042757146 0.61500001
0.0041000005 0.042757146 0.61500001
0.0052714287 0.042757146 0.61500001
0.0064533339 0.042826671 0.61600006
0.0076266672 0.042826671 0.61600006
0.0088000009 0.042826671 0.61600006
0.0099571431 0.042757146 0.61500001
0.011146667 0.042826671 0.61600006
0.012320001 0.042826671 0.61600006
0.013493334 0.042826671 0.61600006
-0.059151433 0.04307143 0.60300004
-0.057906669 0.043000001 0.60200006
-0.056760002 0.043000001 0.60200006
-0.055613335 0.043000001 0.60200006
-0.054466669 0.043000001 0.60200006
-0.053408574 0.04307143 0.60300004
-0.052260004 0.04307143 0.60300004
-0.051111434 0.04307143 0.60300004
-0.04996286 0.04307143 0.60300004
-0.048814289 0.04307143 0.60300004
-0.047665719 0.04307143 0.60300004
-0.046517145 0.04307143 0.60300004
-0.045368575 0.04307143 0.60300004
-0.044293337 0.043142859 0.60400003
-0.043142859 0.043142859 0.60400003
-0.041992385 0.043142859 0.60400003
-0.040841907 0.043142859 0.60400003
-0.03969143 0.043142859 0.60400003
-0.038540956 0.043142859 0.60400003
-0.037390478 0.043142859 0.60400003
-0.036240004 0.043142859 0.60400003
-0.035147622 0.043214288 0.60500002
-0.034051429 0.043285716 0.60600001
-0.032897145 0.043285716 0.60600001
-0.031795241 0.043357145 0.60700005
-0.030639051 0.043357145 0.60700005
-0.029482858 0.043357145 0.60700005
-0.028326668 0.043357145 0.60700005
-0.027170477 0.043357145 0.60700005
-0.026014287 0.043357145 0.60700005
-0.024858097 0.043357145 0.60700005
-0.023701906 0.043357145 0.60700005
-0.022545716 0.043357145 0.60700005
-0.021389525 0.043357145 0.60700005
-0.020266669 0.043428574 0.60800004
-0.019108573 0.043428574 0.60800004
-0.017950477 0.043428574 0.60800004
-0.016792381 0.043428574 0.60800004
-0.015660001 0.043500002 0.60900003
-0.014500001 0.043500002 0.60900003
-0.01338381 0.04364286 0.611
-0.012220001 0.04364286 0.611
-0.011056191 0.04364286 0.611
-0.0099085718 0.043714289 0.61200005
-0.0087428577 0.043714289 0.61200005
-0.0075771431 0.043714289 0.61200005
-0.006411429 0.043714289 0.61200005
-0.0052457144 0.043714289 0.61200005
-0.0040866667 0.043785717 0.61300004
-0.0029238097 0.043857146 0.61400002
-0.0017542859 0.043857146 0.61400002
-0.0005857143 0.043928575 0.61500001
0.0005857143 0.043928575 0.61500001
0.0017600001 0.044000003 0.61600006
0.0029333336 0.044000003 0.61600006
0.0041066669 0.044000003 0.61600006
0.0052800002 0.044000003 0.61600006
0.0064533339 0.044000003 0.61600006
0.0076266672 0.044000003 0.61600006
0.0088142864 0.044071432 0.61700004
0.0099733341 0.044000003 0.61600006
0.011164763 0.044071432 0.61700004
0.012340001 0.044071432 0.61700004
0.013537143 0.044142861 0.61800003
-0.059151433 0.044220004 0.60300004
-0.058002859 0.044220004 0.60300004
-0.056854289 0.044220004 0.60300004
-0.055613335 0.044146668 0.60200006
-0.054466669 0.044146668 0.60200006
-0.053408574 0.044220004 0.60300004
-0.052260004 0.044220004 0.60300004
-0.051111434 0.044220004 0.60300004
-0.04996286 0.044220004 0.60300004
-0.048814289 0.044220004 0.60300004
-0.047744766 0.044293337 0.60400003
-0.046594288 0.044293337 0.60400003
-0.045443814 0.044293337 0.60400003
-0.044293337 0.044293337 0.60400003
-0.043142859 0.044293337 0.60400003
-0.042061906 0.044366669 0.60500002
-0.040909525 0.044366669 0.60500002
-0.039757144 0.044366669 0.60500002
-0.038604766 0.044366669 0.60500002
-0.037452385 0.044366669 0.60500002
-0.036360003 0.044440001 0.60600001
-0.035205718 0.044440001 0.60600001
-0.034051429 0.044440001 0.60600001
-0.032951429 0.044513337 0.60700005
-0.031795241 0.044513337 0.60700005
-0.030639051 0.044513337 0.60700005
-0.029482858 0.044513337 0.60700005
-0.028326668 0.044513337 0.60700005
-0.027215241 0.04458667 0.60800004
-0.026014287 0.044513337 0.60700005
-0.024899049 0.04458667 0.60800004
-0.023740955 0.04458667 0.60800004
-0.022582859 0.04458667 0.60800004
-0.021424763 0.04458667 0.60800004
-0.020266669 0.04458667 0.60800004
-0.019108573 0.04458667 0.60800004
-0.017980002 0.044660002 0.60900003
-0.01682 0.044660002 0.60900003
-0.015660001 0.044660002 0.60900003
-0.01454762 0.04480667 0.611
-0.01338381 0.04480667 0.611
-0.012220001 0.04480667 0.611
-0.011074287 0.044880003 0.61200005
-0.0099085718 0.044880003 0.61200005
-0.0087428577 0.044880003 0.61200005
-0.0075895241 0.044953335 0.61300004
-0.006421905 0.044953335 0.61300004
-0.0052542859 0.044953335 0.61300004
-0.0040933336 0.045026671 0.61400002
-0.0029285715 0.045100003 0.61500001
-0.0017571429 0.045100003 0.61500001
-0.0005857143 0.045100003 0.61500001
0.00058666669 0.045173336 0.61600006
0.0017600001 0.045173336 0.61600006
0.0029333336 0.045173336 0.61600006
0.0041066669 0.045173336 0.61600006
0.0052800002 0.045173336 0.61600006
0.0064638099 0.045246668 0.61700004
0.0076390482 0.045246668 0.61700004
0.0088142864 0.045246668 0.61700004
0.0099895243 0.045246668 0.61700004
0.011164763 0.045246668 0.61700004
0.012360001 0.045320004 0.61800003
-0.058002859 0.045368575 0.60300004
-0.056854289 0.045368575 0.60300004
-0.055613335 0.045293335 0.60200006
-0.054466669 0.045293335 0.60200006
-0.053408574 0.045368575 0.60300004
-0.052260004 0.045368575 0.60300004
-0.051196195 0.045443814 0.60400003
-0.04996286 0.045368575 0.60300004
-0.048814289 0.045368575 0.60300004
-0.047744766 0.045443814 0.60400003
-0.046594288 0.045443814 0.60400003
-0.045443814 0.045443814 0.60400003
-0.044366669 0.04551905 0.60500002
-0.043214288 0.04551905 0.60500002
-0.042061906 0.04551905 0.60500002
-0.040909525 0.04551905 0.60500002
-0.039822862 0.04559429 0.60600001
-0.038668573 0.04559429 0.60600001
-0.037514288 0.04559429 0.60600001
-0.036360003 0.04559429 0.60600001
-0.03526381 0.045669526 0.60700005
-0.034107622 0.045669526 0.60700005
-0.032951429 0.045669526 0.60700005
-0.031795241 0.045669526 0.60700005
-0.030639051 0.045669526 0.60700005
-0.02953143 0.045744766 0.60800004
-0.028373335 0.045744766 0.60800004
-0.027215241 0.045744766 0.60800004
-0.026057145 0.045744766 0.60800004
-0.024899049 0.045744766 0.60800004
-0.023740955 0.045744766 0.60800004
-0.022582859 0.045744766 0.60800004
-0.021460002 0.045820002 0.60900003
-0.020366669 0.045970481 0.611
-0.019202858 0.045970481 0.611
-0.01803905 0.045970481 0.611
-0.016875239 0.045970481 0.611
-0.01571143 0.045970481 0.611
-0.014571429 0.046045717 0.61200005
-0.013405715 0.046045717 0.61200005
-0.012240001 0.046045717 0.61200005
-0.011074287 0.046045717 0.61200005
-0.0099247629 0.046120957 0.61300004
-0.0087571433 0.046120957 0.61300004
-0.0076019051 0.046196193 0.61400002
-0.0064428574 0.046271432 0.61500001
-0.0052714287 0.046271432 0.61500001
-0.0041000005 0.046271432 0.61500001
-0.0029285715 0.046271432 0.61500001
-0.0017600001 0.046346668 0.61600006
-0.00058666669 0.046346668 0.61600006
0.00058666669 0.046346668 0.61600006
0.0017600001 0.046346668 0.61600006
0.0029333336 0.046346668 0.61600006
0.0041133338 0.046421908 0.61700004
0.0052885716 0.046421908 0.61700004
0.0064638099 0.046421908 0.61700004
0.0076514292 0.046497148 0.61800003
0.008828572 0.046497148 0.61800003
0.010005715 0.046497148 0.61800003
0.011182858 0.046497148 0.61800003
0.012380001 0.046572383 0.61900002
-0.058195241 0.046671432 0.60500002
-0.056854289 0.046517145 0.60300004
-0.055705719 0.046517145 0.60300004
-0.054557145 0.046517145 0.60300004
-0.053408574 0.046517145 0.60300004
-0.052260004 0.046517145 0.60300004
-0.051196195 0.046594288 0.60400003
-0.050045718 0.046594288 0.60400003
-0.04889524 0.046594288 0.60400003
-0.047744766 0.046594288 0.60400003
-0.046594288 0.046594288 0.60400003
-0.04551905 0.046671432 0.60500002
-0.044366669 0.046671432 0.60500002
-0.043214288 0.046671432 0.60500002
-0.042131431 0.046748575 0.60600001
-0.040977146 0.046748575 0.60600001
-0.039822862 0.046748575 0.60600001
-0.038668573 0.046748575 0.60600001
-0.037576191 0.046825718 0.60700005
-0.036420003 0.046825718 0.60700005
-0.03526381 0.046825718 0.60700005
-0.034107622 0.046825718 0.60700005
-0.032951429 0.046825718 0.60700005
-0.031795241 0.046825718 0.60700005
-0.030689526 0.046902861 0.60800004
-0.02953143 0.046902861 0.60800004
-0.028373335 0.046902861 0.60800004
-0.027215241 0.046902861 0.60800004
-0.026057145 0.046902861 0.60800004
-0.024940001 0.046980005 0.60900003
-0.023780001 0.046980005 0.60900003
-0.022620002 0.046980005 0.60900003
-0.021530477 0.047134288 0.611
-0.020366669 0.047134288 0.611
-0.019234287 0.047211431 0.61200005
-0.018068573 0.047211431 0.61200005
-0.016902858 0.047211431 0.61200005
-0.015737144 0.047211431 0.61200005
-0.014571429 0.047211431 0.61200005
-0.013405715 0.047211431 0.61200005
-0.012240001 0.047211431 0.61200005
-0.011092382 0.047288574 0.61300004
-0.0099247629 0.047288574 0.61300004
-0.0087571433 0.047288574 0.61300004
-0.0076019051 0.047365718 0.61400002
-0.0064428574 0.047442861 0.61500001
-0.0052714287 0.047442861 0.61500001
-0.0041066669 0.047520004 0.61600006
-0.0029333336 0.047520004 0.61600006
-0.0017600001 0.047520004 0.61600006
-0.00058666669 0.047520004 0.61600006
0.00058666669 0.047520004 0.61600006
0.0017600001 0.047520004 0.61600006
0.0029380955 0.047597148 0.61700004
0.0041133338 0.047597148 0.61700004
0.005297143 0.047674287 0.61800003
0.0064742863 0.047674287 0.61800003
0.0076638102 0.04775143 0.61900002
0.0088428576 0.04775143 0.61900002
0.010021905 0.04775143 0.61900002
0.011200953 0.04775143 0.61900002
0.0124 0.047828574 0.62
-0.061856195 0.047981907 0.60700005
-0.060700003 0.047981907 0.60700005
-0.059445716 0.04790286 0.60600001
-0.058291432 0.04790286 0.60600001
-0.057042859 0.047823813 0.60500002
-0.055798098 0.047744766 0.60400003
-0.054647624 0.047744766 0.60400003
-0.053497147 0.047744766 0.60400003
-0.052346669 0.047744766 0.60400003
-0.051196195 0.047744766 0.60400003
-0.050045718 0.047744766 0.60400003
-0.04889524 0.047744766 0.60400003
-0.047823813 0.047823813 0.60500002
-0.046671432 0.047823813 0.60500002
-0.04551905 0.047823813 0.60500002
-0.044440001 0.04790286 0.60600001
-0.043285716 0.04790286 0.60600001
-0.042131431 0.04790286 0.60600001
-0.040977146 0.04790286 0.60600001
-0.039822862 0.04790286 0.60600001
-0.038668573 0.04790286 0.60600001
-0.037576191 0.047981907 0.60700005
-0.036420003 0.047981907 0.60700005
-0.03526381 0.047981907 0.60700005
-0.034107622 0.047981907 0.60700005
-0.032951429 0.047981907 0.60700005
-0.031847622 0.048060957 0.60800004
-0.030689526 0.048060957 0.60800004
-0.02953143 0.048060957 0.60800004
-0.028420001 0.048140004 0.60900003
-0.027260002 0.048140004 0.60900003
-0.026100002 0.048140004 0.60900003
-0.025021907 0.048298098 0.611
-0.023858096 0.048298098 0.611
-0.022694288 0.048298098 0.611
-0.021565715 0.048377145 0.61200005
-0.020400001 0.048377145 0.61200005
-0.019234287 0.048377145 0.61200005
-0.018068573 0.048377145 0.61200005
-0.016902858 0.048377145 0.61200005
-0.015762858 0.048456192 0.61300004
-0.014595239 0.048456192 0.61300004
-0.01342762 0.048456192 0.61300004
-0.012260001 0.048456192 0.61300004
-0.011092382 0.048456192 0.61300004
-0.009940953 0.048535243 0.61400002
-0.0087714288 0.048535243 0.61400002
-0.0076019051 0.048535243 0.61400002
-0.0064428574 0.04861429 0.61500001
-0.0052714287 0.04861429 0.61500001
-0.0041066669 0.048693337 0.61600006
-0.0029333336 0.048693337 0.61600006
-0.0017600001 0.048693337 0.61600006
-0.00058666669 0.048693337 0.61600006
0.00058761908 0.048772383 0.61700004
0.0017628573 0.048772383 0.61700004
0.0029380955 0.048772383 0.61700004
0.0041200002 0.04885143 0.61800003
0.005297143 0.04885143 0.61800003
0.0064847623 0.048930481 0.61900002
0.0076638102 0.048930481 0.61900002
0.0088428576 0.048930481 0.61900002
0.010038096 0.049009528 0.62
0.011219048 0.049009528 0.62
0.0124 0.049009528 0.62
0.013580954 0.049009528 0.62
-0.064380005 0.049300004 0.60900003
-0.063220002 0.049300004 0.60900003
-0.061958101 0.04921905 0.60800004
-0.060800005 0.04921905 0.60800004
-0.059740003 0.049300004 0.60900003
-0.058483813 0.04921905 0.60800004
-0.057137147 0.049057145 0.60600001
-0.055890478 0.048976194 0.60500002
-0.054738101 0.048976194 0.60500002
-0.053585719 0.048976194 0.60500002
-0.052433338 0.048976194 0.60500002
-0.051280957 0.048976194 0.60500002
-0.050128575 0.048976194 0.60500002
-0.048976194 0.048976194 0.60500002
-0.047823813 0.048976194 0.60500002
-0.046748575 0.049057145 0.60600001
-0.04559429 0.049057145 0.60600001
-0.044440001 0.049057145 0.60600001
-0.043285716 0.049057145 0.60600001
-0.042200956 0.049138099 0.60700005
-0.041044764 0.049138099 0.60700005
-0.039888576 0.049138099 0.60700005
-0.038732383 0.049138099 0.60700005
-0.037576191 0.049138099 0.60700005
-0.036420003 0.049138099 0.60700005
-0.03526381 0.049138099 0.60700005
-0.03416381 0.04921905 0.60800004
-0.033005718 0.04921905 0.60800004
-0.031847622 0.04921905 0.60800004
-0.030740002 0.049300004 0.60900003
-0.029580003 0.049300004 0.60900003
-0.028513335 0.049461909 0.611
-0.027349526 0.049461909 0.611
-0.026185716 0.049461909 0.611
-0.025021907 0.049461909 0.611
-0.023897145 0.049542859 0.61200005
-0.022731431 0.049542859 0.61200005
-0.021565715 0.049542859 0.61200005
-0.020400001 0.049542859 0.61200005
-0.019265715 0.049623813 0.61300004
-0.018098097 0.049623813 0.61300004
-0.016930478 0.049623813 0.61300004
-0.015762858 0.049623813 0.61300004
-0.014595239 0.049623813 0.61300004
-0.01342762 0.049623813 0.61300004
-0.012260001 0.049623813 0.61300004
-0.011110477 0.049704764 0.61400002
-0.0099571431 0.049785718 0.61500001
-0.0087857153 0.049785718 0.61500001
-0.0076142862 0.049785718 0.61500001
-0.0064533339 0.049866669 0.61600006
-0.0052800002 0.049866669 0.61600006
-0.0041066669 0.049866669 0.61600006
-0.0029333336 0.049866669 0.61600006
-0.0017628573 0.049947623 0.61700004
-0.00058761908 0.049947623 0.61700004
0.00058761908 0.049947623 0.61700004
0.0017628573 0.049947623 0.61700004
0.0029428573 0.050028574 0.61800003
0.004126667 0.050109528 0.61900002
0.0053057144 0.050109528 0.61900002
0.0064847623 0.050109528 0.61900002
0.0076761912 0.050190479 0.62
0.0088571431 0.050190479 0.62
0.010038096 0.050190479 0.62
0.011219048 0.050190479 0.62
0.012440001 0.050352383 0.62200004
0.013580954 0.050190479 0.62
-0.06459143 0.050625719 0.611
-0.063220002 0.050460003 0.60900003
-0.061958101 0.050377145 0.60800004
-0.060900003 0.050460003 0.60900003
-0.059936196 0.050625719 0.611
-0.058483813 0.050377145 0.60800004
-0.057231434 0.050294288 0.60700005
-0.055982862 0.050211433 0.60600001
-0.054738101 0.050128575 0.60500002
-0.053674288 0.050211433 0.60600001
-0.052520003 0.050211433 0.60600001
-0.051365718 0.050211433 0.60600001
-0.050211433 0.050211433 0.60600001
-0.049057145 0.050211433 0.60600001
-0.04790286 0.050211433 0.60600001
-0.046825718 0.050294288 0.60700005
-0.045669526 0.050294288 0.60700005
-0.044513337 0.050294288 0.60700005
-0.043357145 0.050294288 0.60700005
-0.042200956 0.050294288 0.60700005
-0.041044764 0.050294288 0.60700005
-0.039888576 0.050294288 0.60700005
-0.038732383 0.050294288 0.60700005
-0.037638098 0.050377145 0.60800004
-0.036480002 0.050377145 0.60800004
-0.035321906 0.050377145 0.60800004
-0.03416381 0.050377145 0.60800004
-0.033005718 0.050377145 0.60800004
-0.031847622 0.050377145 0.60800004
-0.030740002 0.050460003 0.60900003
-0.029580003 0.050460003 0.60900003
-0.028513335 0.050625719 0.611
-0.027349526 0.050625719 0.611
-0.026228573 0.050708573 0.61200005
-0.025062859 0.050708573 0.61200005
-0.023897145 0.050708573 0.61200005
-0.022731431 0.050708573 0.61200005
-0.021600954 0.050791431 0.61300004
-0.020433335 0.050791431 0.61300004
-0.019265715 0.050791431 0.61300004
-0.018098097 0.050791431 0.61300004
-0.016958097 0.050874289 0.61400002
-0.015788572 0.050874289 0.61400002
-0.014619049 0.050874289 0.61400002
-0.013449525 0.050874289 0.61400002
-0.012300001 0.050957147 0.61500001
-0.011128572 0.050957147 0.61500001
-0.0099733341 0.051040005 0.61600006
-0.0087857153 0.050957147 0.61500001
-0.0076266672 0.051040005 0.61600006
-0.0064533339 0.051040005 0.61600006
-0.0052800002 0.051040005 0.61600006
-0.0041133338 0.051122859 0.61700004
-0.0029380955 0.051122859 0.61700004
-0.0017628573 0.051122859 0.61700004
-0.00058761908 0.051122859 0.61700004
0.00058857148 0.051205717 0.61800003
0.0017657144 0.051205717 0.61800003
0.0029428573 0.051205717 0.61800003
0.0041333335 0.051371433 0.62
0.0053142859 0.051371433 0.62
0.0064952387 0.051371433 0.62
0.0076761912 0.051371433 0.62
0.0088571431 0.051371433 0.62
0.010070477 0.051537145 0.62200004
0.011255239 0.051537145 0.62200004
0.012440001 0.051537145 0.62200004
0.013624763 0.051537145 0.62200004
-0.065755241 0.051789526 0.611
-0.064697146 0.051874287 0.61200005
-0.063531436 0.051874287 0.61200005
-0.062365718 0.051874287 0.61200005
-0.061100002 0.051789526 0.611
-0.059936196 0.051789526 0.611
-0.058580004 0.051620003 0.60900003
-0.057231434 0.05145048 0.60700005
-0.056075241 0.05145048 0.60700005
-0.054828577 0.051365718 0.60600001
-0.053674288 0.051365718 0.60600001
-0.052606668 0.05145048 0.60700005
-0.05145048 0.05145048 0.60700005
-0.050294288 0.05145048 0.60700005
-0.049138099 0.05145048 0.60700005
-0.047981907 0.05145048 0.60700005
-0.046825718 0.05145048 0.60700005
-0.045669526 0.05145048 0.60700005
-0.044513337 0.05145048 0.60700005
-0.043428574 0.051535241 0.60800004
-0.042270478 0.051535241 0.60800004
-0.041112382 0.051535241 0.60800004
-0.03995429 0.051535241 0.60800004
-0.038796194 0.051535241 0.60800004
-0.037638098 0.051535241 0.60800004
-0.036540002 0.051620003 0.60900003
-0.035380002 0.051620003 0.60900003
-0.034220003 0.051620003 0.60900003
-0.033060003 0.051620003 0.60900003
-0.032004762 0.051789526 0.611
-0.030840954 0.051789526 0.611
-0.029677145 0.051789526 0.611
-0.028560001 0.051874287 0.61200005
-0.027394287 0.051874287 0.61200005
-0.026228573 0.051874287 0.61200005
-0.025062859 0.051874287 0.61200005
-0.023897145 0.051874287 0.61200005
-0.022768574 0.051959053 0.61300004
-0.021600954 0.051959053 0.61300004
-0.020433335 0.051959053 0.61300004
-0.019297143 0.052043814 0.61400002
-0.01812762 0.052043814 0.61400002
-0.016958097 0.052043814 0.61400002
-0.015814288 0.052128576 0.61500001
-0.014642858 0.052128576 0.61500001
-0.013471429 0.052128576 0.61500001
-0.012300001 0.052128576 0.61500001
-0.011146667 0.052213337 0.61600006
-0.0099733341 0.052213337 0.61600006
-0.0088000009 0.052213337 0.61600006
-0.0076266672 0.052213337 0.61600006
-0.0064638099 0.052298099 0.61700004
-0.0052885716 0.052298099 0.61700004
-0.0041133338 0.052298099 0.61700004
-0.0029380955 0.052298099 0.61700004
-0.0017657144 0.05238286 0.61800003
-0.00058857148 0.05238286 0.61800003
0.00058857148 0.05238286 0.61800003
0.0017657144 0.05238286 0.61800003
0.0029476192 0.052467622 0.61900002
0.0041333335 0.052552383 0.62
0.0053142859 0.052552383 0.62
0.0065161907 0.052721906 0.62200004
0.0077009527 0.052721906 0.62200004
0.0088857152 0.052721906 0.62200004
0.010070477 0.052721906 0.62200004
0.011255239 0.052721906 0.62200004
0.012460001 0.052806672 0.62300003
0.013624763 0.052721906 0.62200004
0.14274001 0.067216195 0.79300004
0.14425048 0.067216195 0.79300004
0.14576097 0.067216195 0.79300004
-0.065862864 0.053040005 0.61200005
-0.064697146 0.053040005 0.61200005
-0.063531436 0.053040005 0.61200005
-0.062365718 0.053040005 0.61200005
-0.061200004 0.053040005 0.61200005
-0.059936196 0.052953336 0.611
-0.058580004 0.052780002 0.60900003
-0.057325717 0.052693337 0.60800004
-0.056075241 0.052606668 0.60700005
-0.054919053 0.052606668 0.60700005
-0.053762861 0.052606668 0.60700005
-0.052606668 0.052606668 0.60700005
-0.05145048 0.052606668 0.60700005
-0.050294288 0.052606668 0.60700005
-0.049138099 0.052606668 0.60700005
-0.047981907 0.052606668 0.60700005
-0.046825718 0.052606668 0.60700005
-0.045669526 0.052606668 0.60700005
-0.04458667 0.052693337 0.60800004
-0.043428574 0.052693337 0.60800004
-0.042270478 0.052693337 0.60800004
-0.041112382 0.052693337 0.60800004
-0.03995429 0.052693337 0.60800004
-0.038796194 0.052693337 0.60800004
-0.037700001 0.052780002 0.60900003
-0.036540002 0.052780002 0.60900003
-0.035380002 0.052780002 0.60900003
-0.034332383 0.052953336 0.611
-0.033168573 0.052953336 0.611
-0.032004762 0.052953336 0.611
-0.030891431 0.053040005 0.61200005
-0.029725716 0.053040005 0.61200005
-0.028560001 0.053040005 0.61200005
-0.027394287 0.053040005 0.61200005
-0.026271431 0.05312667 0.61300004
-0.025103811 0.05312667 0.61300004
-0.023936192 0.05312667 0.61300004
-0.022768574 0.05312667 0.61300004
-0.021600954 0.05312667 0.61300004
-0.020466669 0.053213336 0.61400002
-0.019297143 0.053213336 0.61400002
-0.018157143 0.053300004 0.61500001
-0.016985716 0.053300004 0.61500001
-0.015840001 0.05338667 0.61600006
-0.014666667 0.05338667 0.61600006
-0.013493334 0.05338667 0.61600006
-0.012320001 0.05338667 0.61600006
-0.011146667 0.05338667 0.61600006
-0.0099895243 0.053473338 0.61700004
-0.0088142864 0.053473338 0.61700004
-0.0076390482 0.053473338 0.61700004
-0.0064638099 0.053473338 0.61700004
-0.005297143 0.053560004 0.61800003
-0.0041200002 0.053560004 0.61800003
-0.0029428573 0.053560004 0.61800003
-0.0017685716 0.053646669 0.61900002
-0.00058952387 0.053646669 0.61900002
0.00058952387 0.053646669 0.61900002
0.0017714287 0.053733338 0.62
0.002952381 0.053733338 0.62
0.0041466667 0.053906672 0.62200004
0.0053314287 0.053906672 0.62200004
0.0065161907 0.053906672 0.62200004
0.0077133337 0.053993337 0.62300003
0.0089000007 0.053993337 0.62300003
0.010086668 0.053993337 0.62300003
0.011291429 0.054080002 0.62400001
0.012480001 0.054080002 0.62400001
0.13786002 0.068553336 0.79100001
0.14238001 0.068553336 0.79100001
-0.064802863 0.054294288 0.61300004
-0.063635245 0.054294288 0.61300004
-0.062365718 0.054205719 0.61200005
-0.061200004 0.054205719 0.61200005
-0.06003429 0.054205719 0.61200005
-0.058772385 0.054117147 0.611
-0.057420004 0.053940002 0.60900003
-0.056167621 0.053851433 0.60800004
-0.054919053 0.053762861 0.60700005
-0.053851433 0.053851433 0.60800004
-0.052693337 0.053851433 0.60800004
-0.051535241 0.053851433 0.60800004
-0.050294288 0.053762861 0.60700005
-0.04921905 0.053851433 0.60800004
-0.048060957 0.053851433 0.60800004
-0.046902861 0.053851433 0.60800004
-0.045744766 0.053851433 0.60800004
-0.04458667 0.053851433 0.60800004
-0.043428574 0.053851433 0.60800004
-0.042270478 0.053851433 0.60800004
-0.041112382 0.053851433 0.60800004
-0.040020004 0.053940002 0.60900003
-0.038860004 0.053940002 0.60900003
-0.037823811 0.054117147 0.611
-0.036660001 0.054117147 0.611
-0.035496194 0.054117147 0.611
-0.034332383 0.054117147 0.611
-0.033222858 0.054205719 0.61200005
-0.032057144 0.054205719 0.61200005
-0.030891431 0.054205719 0.61200005
-0.029725716 0.054205719 0.61200005
-0.028606668 0.054294288 0.61300004
-0.027394287 0.054205719 0.61200005
-0.026271431 0.054294288 0.61300004
-0.025103811 0.054294288 0.61300004
-0.023936192 0.054294288 0.61300004
-0.022768574 0.054294288 0.61300004
-0.021600954 0.054294288 0.61300004
-0.020466669 0.054382861 0.61400002
-0.019328572 0.054471433 0.61500001
-0.018157143 0.054471433 0.61500001
-0.016985716 0.054471433 0.61500001
-0.015840001 0.054560002 0.61600006
-0.014666667 0.054560002 0.61600006
-0.013493334 0.054560002 0.61600006
-0.012320001 0.054560002 0.61600006
-0.011164763 0.054648574 0.61700004
-0.0099895243 0.054648574 0.61700004
-0.008828572 0.054737147 0.61800003
-0.0076514292 0.054737147 0.61800003
-0.0064742863 0.054737147 0.61800003
-0.0053057144 0.054825719 0.61900002
-0.004126667 0.054825719 0.61900002
-0.0029476192 0.054825719 0.61900002
-0.0017714287 0.054914288 0.62
-0.00059047621 0.054914288 0.62
0.00059047621 0.054914288 0.62
0.0017714287 0.054914288 0.62
0.002961905 0.055091433 0.62200004
0.0041466667 0.055091433 0.62200004
0.0053400001 0.055180002 0.62300003
0.0065266672 0.055180002 0.62300003
0.0077133337 0.055180002 0.62300003
0.0089142863 0.055268575 0.62400001
0.010102858 0.055268575 0.62400001
0.011291429 0.055268575 0.62400001
0.012500001 0.055357147 0.625
-0.06003429 0.055371433 0.61200005
-0.058868576 0.055371433 0.61200005
-0.057608575 0.055280957 0.611
-0.056260005 0.055100005 0.60900003
-0.055100005 0.055100005 0.60900003
-0.053940002 0.055100005 0.60900003
-0.052780002 0.055100005 0.60900003
-0.051620003 0.055100005 0.60900003
-0.050460003 0.055100005 0.60900003
-0.049300004 0.055100005 0.60900003
-0.048140004 0.055100005 0.60900003
-0.046980005 0.055100005 0.60900003
-0.045820002 0.055100005 0.60900003
-0.044660002 0.055100005 0.60900003
-0.04364286 0.055280957 0.611
-0.042479049 0.055280957 0.611
-0.041315243 0.055280957 0.611
-0.040217146 0.055371433 0.61200005
-0.039051432 0.055371433 0.61200005
-0.037885718 0.055371433 0.61200005
-0.036720004 0.055371433 0.61200005
-0.035612382 0.05546191 0.61300004
-0.034444764 0.05546191 0.61300004
-0.033277147 0.05546191 0.61300004
-0.032109525 0.05546191 0.61300004
-0.030992383 0.055552386 0.61400002
-0.02982286 0.055552386 0.61400002
-0.028653335 0.055552386 0.61400002
-0.027439049 0.05546191 0.61300004
-0.026314287 0.055552386 0.61400002
-0.025144763 0.055552386 0.61400002
-0.02397524 0.055552386 0.61400002
-0.022842858 0.055642862 0.61500001
-0.021671429 0.055642862 0.61500001
-0.020500001 0.055642862 0.61500001
-0.019360002 0.055733338 0.61600006
-0.018186668 0.055733338 0.61600006
-0.017013334 0.055733338 0.61600006
-0.015865715 0.055823814 0.61700004
-0.014690477 0.055823814 0.61700004
-0.013515239 0.055823814 0.61700004
-0.012340001 0.055823814 0.61700004
-0.011182858 0.05591429 0.61800003
-0.010005715 0.05591429 0.61800003
-0.0088428576 0.056004766 0.61900002
-0.0076761912 0.056095243 0.62
-0.0064952387 0.056095243 0.62
-0.0053142859 0.056095243 0.62
-0.0041333335 0.056095243 0.62
-0.002952381 0.056095243 0.62
-0.001777143 0.056276195 0.62200004
-0.00059238099 0.056276195 0.62200004
0.00059238099 0.056276195 0.62200004
0.001777143 0.056276195 0.62200004
0.002961905 0.056276195 0.62200004
0.0041533336 0.056366671 0.62300003
0.0053400001 0.056366671 0.62300003
0.0065371431 0.056457147 0.62400001
0.0077257147 0.056457147 0.62400001
0.0089285718 0.056547623 0.625
0.010119048 0.056547623 0.625
0.011309525 0.056547623 0.625
-0.06003429 0.056537148 0.61200005
-0.058868576 0.056537148 0.61200005
-0.057608575 0.056444764 0.611
-0.056444764 0.056444764 0.611
-0.055100005 0.056260005 0.60900003
-0.054117147 0.056444764 0.611
-0.052953336 0.056444764 0.611
-0.051620003 0.056260005 0.60900003
-0.050460003 0.056260005 0.60900003
-0.049300004 0.056260005 0.60900003
-0.048140004 0.056260005 0.60900003
-0.046980005 0.056260005 0.60900003
-0.045970481 0.056444764 0.611
-0.04480667 0.056444764 0.611
-0.04364286 0.056444764 0.611
-0.042548575 0.056537148 0.61200005
-0.04138286 0.056537148 0.61200005
-0.040217146 0.056537148 0.61200005
-0.039051432 0.056537148 0.61200005
-0.037947621 0.056629527 0.61300004
-0.036780003 0.056629527 0.61300004
-0.035612382 0.056629527 0.61300004
-0.034444764 0.056629527 0.61300004
-0.033331431 0.056721907 0.61400002
-0.032161906 0.056721907 0.61400002
-0.031042859 0.056814291 0.61500001
-0.02987143 0.056814291 0.61500001
-0.028700002 0.056814291 0.61500001
-0.027483812 0.056721907 0.61400002
-0.026314287 0.056721907 0.61400002
-0.025185715 0.056814291 0.61500001
-0.024014287 0.056814291 0.61500001
-0.022842858 0.056814291 0.61500001
-0.021706669 0.05690667 0.61600006
-0.020533334 0.05690667 0.61600006
-0.019360002 0.05690667 0.61600006
-0.018186668 0.05690667 0.61600006
-0.017013334 0.05690667 0.61600006
-0.015865715 0.05699905 0.61700004
-0.014690477 0.05699905 0.61700004
-0.013515239 0.05699905 0.61700004
-0.012340001 0.05699905 0.61700004
-0.011182858 0.057091434 0.61800003
-0.010021905 0.057183813 0.61900002
-0.0088571431 0.057276193 0.62
-0.0076761912 0.057276193 0.62
-0.0064952387 0.057276193 0.62
-0.0053142859 0.057276193 0.62
-0.0041333335 0.057276193 0.62
-0.002961905 0.057460956 0.62200004
-0.001777143 0.057460956 0.62200004
-0.00059238099 0.057460956 0.62200004
0.00059238099 0.057460956 0.62200004
0.001777143 0.057460956 0.62200004
0.0029666668 0.057553336 0.62300003
0.0041533336 0.057553336 0.62300003
0.0053485716 0.057645719 0.62400001
0.0065371431 0.057645719 0.62400001
0.0077380957 0.057738099 0.625
0.0089285718 0.057738099 0.625
0.010119048 0.057738099 0.625
0.01132762 0.057830479 0.62600005
-0.06003429 0.057702862 0.61200005
-0.058868576 0.057702862 0.61200005
-0.057702862 0.057702862 0.61200005
-0.056444764 0.057608575 0.611
-0.055280957 0.057608575 0.611
-0.054205719 0.057702862 0.61200005
-0.052953336 0.057608575 0.611
-0.051789526 0.057608575 0.611
-0.050625719 0.057608575 0.611
-0.049461909 0.057608575 0.611
-0.048298098 0.057608575 0.611
-0.047134288 0.057608575 0.611
-0.045970481 0.057608575 0.611
-0.044880003 0.057702862 0.61200005
-0.043714289 0.057702862 0.61200005
-0.042548575 0.057702862 0.61200005
-0.04138286 0.057702862 0.61200005
-0.04028286 0.057797145 0.61300004
-0.039115239 0.057797145 0.61300004
-0.037947621 0.057797145 0.61300004
-0.036780003 0.057797145 0.61300004
-0.035612382 0.057797145 0.61300004
-0.034500953 0.057891432 0.61400002
-0.033331431 0.057891432 0.61400002
-0.032214288 0.057985719 0.61500001
-0.031042859 0.057985719 0.61500001
-0.02987143 0.057985719 0.61500001
-0.028700002 0.057985719 0.61500001
-0.027528573 0.057985719 0.61500001
-0.026357144 0.057985719 0.61500001
-0.025226668 0.058080003 0.61600006
-0.024053335 0.058080003 0.61600006
-0.022880001 0.058080003 0.61600006
-0.021706669 0.058080003 0.61600006
-0.020533334 0.058080003 0.61600006
-0.019391431 0.05817429 0.61700004
-0.018186668 0.058080003 0.61600006
-0.017040953 0.05817429 0.61700004
-0.015865715 0.05817429 0.61700004
-0.014690477 0.05817429 0.61700004
-0.013537143 0.058268577 0.61800003
-0.012380001 0.05836286 0.61900002
-0.011200953 0.05836286 0.61900002
-0.010038096 0.058457147 0.62
-0.0088571431 0.058457147 0.62
-0.0076761912 0.058457147 0.62
-0.0064952387 0.058457147 0.62
-0.0053142859 0.058457147 0.62
-0.0041466667 0.058645718 0.62200004
-0.002961905 0.058645718 0.62200004
-0.001777143 0.058645718 0.62200004
-0.00059238099 0.058645718 0.62200004
0.00059333339 0.058740005 0.62300003
0.0017800002 0.058740005 0.62300003
0.0029666668 0.058740005 0.62300003
0.0041600005 0.058834288 0.62400001
0.0053485716 0.058834288 0.62400001
0.0065476196 0.058928575 0.625
0.0077380957 0.058928575 0.625
0.0089428574 0.059022862 0.62600005
0.010135239 0.059022862 0.62600005
0.01132762 0.059022862 0.62600005
-0.06003429 0.058868576 0.61200005
-0.058868576 0.058868576 0.61200005
-0.057702862 0.058868576 0.61200005
-0.056444764 0.058772385 0.611
-0.055280957 0.058772385 0.611
-0.054205719 0.058868576 0.61200005
-0.053040005 0.058868576 0.61200005
-0.051874287 0.058868576 0.61200005
-0.050708573 0.058868576 0.61200005
-0.049542859 0.058868576 0.61200005
-0.048298098 0.058772385 0.611
-0.047211431 0.058868576 0.61200005
-0.046045717 0.058868576 0.61200005
-0.044880003 0.058868576 0.61200005
-0.043714289 0.058868576 0.61200005
-0.0426181 0.058964767 0.61300004
-0.041450478 0.058964767 0.61300004
-0.04028286 0.058964767 0.61300004
-0.039115239 0.058964767 0.61300004
-0.037947621 0.058964767 0.61300004
-0.036840003 0.059060957 0.61400002
-0.035670478 0.059060957 0.61400002
-0.034500953 0.059060957 0.61400002
-0.033385716 0.059157148 0.61500001
-0.032214288 0.059157148 0.61500001
-0.031093335 0.059253339 0.61600006
-0.029920002 0.059253339 0.61600006
-0.028746668 0.059253339 0.61600006
-0.027573336 0.059253339 0.61600006
-0.026400002 0.059253339 0.61600006
-0.025226668 0.059253339 0.61600006
-0.024053335 0.059253339 0.61600006
-0.022880001 0.059253339 0.61600006
-0.021706669 0.059253339 0.61600006
-0.020566668 0.059349529 0.61700004
-0.019391431 0.059349529 0.61700004
-0.018216191 0.059349529 0.61700004
-0.017040953 0.059349529 0.61700004
-0.015891429 0.059445716 0.61800003
-0.014714287 0.059445716 0.61800003
-0.013559048 0.059541907 0.61900002
-0.0124 0.059638098 0.62
-0.011219048 0.059638098 0.62
-0.010038096 0.059638098 0.62
-0.0088857152 0.059830479 0.62200004
-0.0077009527 0.059830479 0.62200004
-0.0065161907 0.059830479 0.62200004
-0.0053314287 0.059830479 0.62200004
-0.0041466667 0.059830479 0.62200004
-0.002961905 0.059830479 0.62200004
-0.0017800002 0.05992667 0.62300003
-0.00059333339 0.05992667 0.62300003
0.00059333339 0.05992667 0.62300003
0.0017828572 0.060022861 0.62400001
0.0029761908 0.060119051 0.625
0.0041666669 0.060119051 0.625
0.005357143 0.060119051 0.625
0.0065476196 0.060119051 0.625
0.0077504767 0.060215242 0.62600005
0.0089571439 0.060311433 0.62700003
0.010151429 0.060311433 0.62700003
0.011345715 0.060311433 0.62700003
-0.058868576 0.06003429 0.61200005
-0.057702862 0.06003429 0.61200005
-0.056537148 0.06003429 0.61200005
-0.055280957 0.059936196 0.611
-0.054205719 0.06003429 0.61200005
-0.053040005 0.06003429 0.61200005
-0.051874287 0.06003429 0.61200005
-0.050708573 0.06003429 0.61200005
-0.049542859 0.06003429 0.61200005
-0.048377145 0.06003429 0.61200005
-0.047211431 0.06003429 0.61200005
-0.046045717 0.06003429 0.61200005
-0.044953335 0.060132384 0.61300004
-0.043785717 0.060132384 0.61300004
-0.0426181 0.060132384 0.61300004
-0.041450478 0.060132384 0.61300004
-0.04028286 0.060132384 0.61300004
-0.039179049 0.060230479 0.61400002
-0.038009528 0.060230479 0.61400002
-0.036840003 0.060230479 0.61400002
-0.035670478 0.060230479 0.61400002
-0.034557145 0.060328577 0.61500001
-0.033385716 0.060328577 0.61500001
-0.032266669 0.060426671 0.61600006
-0.031093335 0.060426671 0.61600006
-0.029920002 0.060426671 0.61600006
-0.028746668 0.060426671 0.61600006
-0.027618097 0.060524765 0.61700004
-0.026442859 0.060524765 0.61700004
-0.025267622 0.060524765 0.61700004
-0.024092382 0.060524765 0.61700004
-0.022917144 0.060524765 0.61700004
-0.021741906 0.060524765 0.61700004
-0.020566668 0.060524765 0.61700004
-0.019391431 0.060524765 0.61700004
-0.018216191 0.060524765 0.61700004
-0.017068572 0.06062286 0.61800003
-0.015891429 0.06062286 0.61800003
-0.014738096 0.060720958 0.61900002
-0.013559048 0.060720958 0.61900002
-0.0124 0.060819052 0.62
-0.011255239 0.061015241 0.62200004
-0.010070477 0.061015241 0.62200004
-0.0088857152 0.061015241 0.62200004
-0.0077009527 0.061015241 0.62200004
-0.0065161907 0.061015241 0.62200004
-0.0053314287 0.061015241 0.62200004
-0.0041533336 0.061113339 0.62300003
-0.0029666668 0.061113339 0.62300003
-0.0017800002 0.061113339 0.62300003
-0.00059428578 0.061211433 0.62400001
0.00059428578 0.061211433 0.62400001
0.0017857144 0.061309528 0.625
0.0029761908 0.061309528 0.625
0.0041666669 0.061309528 0.625
0.005357143 0.061309528 0.625
0.0065580956 0.061407622 0.62600005
0.0077628577 0.06150572 0.62700003
0.0089571439 0.06150572 0.62700003
0.010151429 0.06150572 0.62700003
0.01136381 0.061603814 0.62800002
0.012560001 0.061603814 0.62800002
0.013778096 0.061701909 0.62900001
-0.058868576 0.061200004 0.61200005
-0.057702862 0.061200004 0.61200005
-0.056537148 0.061200004 0.61200005
-0.055371433 0.061200004 0.61200005
-0.054294288 0.061300006 0.61300004
-0.05312667 0.061300006 0.61300004
-0.051874287 0.061200004 0.61200005
-0.050791431 0.061300006 0.61300004
-0.049623813 0.061300006 0.61300004
-0.048456192 0.061300006 0.61300004
-0.047288574 0.061300006 0.61300004
-0.046120957 0.061300006 0.61300004
-0.044953335 0.061300006 0.61300004
-0.043785717 0.061300006 0.61300004
-0.042687621 0.061400004 0.61400002
-0.0415181 0.061400004 0.61400002
-0.040348575 0.061400004 0.61400002
-0.039179049 0.061400004 0.61400002
-0.038009528 0.061400004 0.61400002
-0.036840003 0.061400004 0.61400002
-0.035670478 0.061400004 0.61400002
-0.034557145 0.061500005 0.61500001
-0.033385716 0.061500005 0.61500001
-0.032266669 0.061600003 0.61600006
-0.031093335 0.061600003 0.61600006
-0.029920002 0.061600003 0.61600006
-0.028793335 0.061700005 0.61700004
-0.027618097 0.061700005 0.61700004
-0.026442859 0.061700005 0.61700004
-0.025267622 0.061700005 0.61700004
-0.024092382 0.061700005 0.61700004
-0.022917144 0.061700005 0.61700004
-0.021741906 0.061700005 0.61700004
-0.020566668 0.061700005 0.61700004
-0.019422859 0.061800003 0.61800003
-0.018245716 0.061800003 0.61800003
-0.017096192 0.061900005 0.61900002
-0.015917145 0.061900005 0.61900002
-0.014738096 0.061900005 0.61900002
-0.013580954 0.062000003 0.62
-0.0124 0.062000003 0.62
-0.011255239 0.062200002 0.62200004
-0.010070477 0.062200002 0.62200004
-0.0088857152 0.062200002 0.62200004
-0.0077009527 0.062200002 0.62200004
-0.0065161907 0.062200002 0.62200004
-0.0053400001 0.062300004 0.62300003
-0.0041533336 0.062300004 0.62300003
-0.0029666668 0.062300004 0.62300003
-0.0017828572 0.062400006 0.62400001
-0.00059523812 0.062500007 0.625
0.00059523812 0.062500007 0.625
0.0017857144 0.062500007 0.625
0.0029809526 0.062600002 0.62600005
0.0041733338 0.062600002 0.62600005
0.0053657144 0.062600002 0.62600005
0.0065580956 0.062600002 0.62600005
0.0077752387 0.062800005 0.62800002
