# .PCD v0.7 - Point Cloud Data file format
VERSION 0.7
FIELDS x y z
SIZE 4 4 4
TYPE F F F
COUNT 1 1 1
WIDTH 1376
HEIGHT 1
VIEWPOINT 0 0 0 1 0 0 0
POINTS 1376
DATA ascii
-0.0039933338 0.087282866 0.59900004
-0.0028523812 0.087282866 0.59900004
-0.0017142858 0.087428577 0.60000002
-0.00057238102 0.087574288 0.60100001
0.00057238102 0.087574288 0.60100001
0.001717143 0.087574288 0.60100001
0.0028666668 0.087720007 0.60200006
0.0040266667 0.088011436 0.60400003
0.005177143 0.088011436 0.60400003
0.0063276193 0.088011436 0.60400003
0.0075028576 0.088302866 0.60600001
0.008671429 0.088448577 0.60700005
0.0098438105 0.088594295 0.60800004
0.011020001 0.088740006 0.60900003
0.012220001 0.089031436 0.611
0.013405715 0.089177147 0.61200005
0.014571429 0.089177147 0.61200005
0.015762858 0.089322865 0.61300004
0.016958097 0.089468576 0.61400002
0.018186668 0.089760005 0.61600006
0.019391431 0.089905716 0.61700004
0.020733334 0.090634294 0.62200004
0.021953335 0.090780005 0.62300003
0.023177145 0.090925723 0.62400001
0.024404764 0.091071434 0.625
0.025636192 0.091217145 0.62600005
0.02687143 0.091362864 0.62700003
0.028155239 0.091654293 0.62900001
0.029353335 0.091654293 0.62900001
0.030648574 0.091945723 0.63100004
0.031900954 0.092091434 0.63200003
0.033157144 0.092237152 0.63300002
0.03436286 0.092237152 0.63300002
0.035624765 0.092382863 0.634
0.038760003 0.094131432 0.64600003
0.039990477 0.094131432 0.64600003
0.041284766 0.094277151 0.64700001
0.04271429 0.094714291 0.65000004
0.044087622 0.095005721 0.65200001
0.045329526 0.095005721 0.65200001
0.046642859 0.095151432 0.65300006
0.048033338 0.095442861 0.65500003
0.049356192 0.09558858 0.65600002
0.050914288 0.096171431 0.66000003
0.052329529 0.096462861 0.66200006
0.05359048 0.096462861 0.66200006
0.055100005 0.096900009 0.66500002
0.056451432 0.09704572 0.66600001
0.057806671 0.097191438 0.66700006
0.059342861 0.097628579 0.67000002
0.060709529 0.09777429 0.671
0.062264767 0.098211437 0.67400002
0.063642859 0.098357148 0.67500001
0.065024763 0.098502867 0.67600006
0.066606671 0.098940007 0.67900002
0.068000004 0.099085718 0.68000001
0.069499053 0.099377148 0.68200004
0.070901908 0.099522866 0.68300003
0.072308578 0.099668577 0.68400002
0.073826671 0.099960007 0.68600005
-0.076589532 0.086652383 0.58700001
-0.075471431 0.086652383 0.58700001
-0.07422667 0.086504765 0.58600003
-0.073235244 0.086652383 0.58700001
-0.07199429 0.086504765 0.58600003
-0.070999049 0.086652383 0.58700001
-0.06976191 0.086504765 0.58600003
-0.068762861 0.086652383 0.58700001
-0.067760006 0.086800009 0.588
-0.066640005 0.086800009 0.588
-0.065408573 0.086652383 0.58700001
-0.064509526 0.086947627 0.58900005
-0.063387625 0.086947627 0.58900005
-0.06226572 0.086947627 0.58900005
-0.061247624 0.087095246 0.59000003
-0.060123812 0.087095246 0.59000003
-0.059000004 0.087095246 0.59000003
-0.057876196 0.087095246 0.59000003
-0.056752384 0.087095246 0.59000003
-0.055628575 0.087095246 0.59000003
-0.054504767 0.087095246 0.59000003
-0.053380955 0.087095246 0.59000003
-0.052345719 0.087242864 0.59100002
-0.051220004 0.087242864 0.59100002
-0.050094288 0.087242864 0.59100002
-0.048968576 0.087242864 0.59100002
-0.04784286 0.087242864 0.59100002
-0.046717145 0.087242864 0.59100002
-0.045514289 0.087095246 0.59000003
-0.044390481 0.087095246 0.59000003
-0.043266669 0.087095246 0.59000003
-0.042071432 0.086947627 0.58900005
-0.040949527 0.086947627 0.58900005
-0.03989524 0.087095246 0.59000003
-0.038771432 0.087095246 0.59000003
-0.03771143 0.087242864 0.59100002
-0.036585718 0.087242864 0.59100002
-0.035460003 0.087242864 0.59100002
-0.034276191 0.087095246 0.59000003
-0.033152383 0.087095246 0.59000003
-0.032028574 0.087095246 0.59000003
-0.030904764 0.087095246 0.59000003
-0.029780954 0.087095246 0.59000003
-0.028657144 0.087095246 0.59000003
-0.027533336 0.087095246 0.59000003
-0.026409525 0.087095246 0.59000003
-0.025328573 0.087242864 0.59100002
-0.024202859 0.087242864 0.59100002
-0.023077145 0.087242864 0.59100002
-0.02195143 0.087242864 0.59100002
-0.020825716 0.087242864 0.59100002
-0.019700002 0.087242864 0.59100002
-0.018574286 0.087242864 0.59100002
-0.017448572 0.087242864 0.59100002
-0.016322859 0.087242864 0.59100002
-0.015197144 0.087242864 0.59100002
-0.014095239 0.087390482 0.59200001
-0.01296762 0.087390482 0.59200001
-0.011860001 0.087538101 0.59300005
-0.010730477 0.087538101 0.59300005
-0.0096009532 0.087538101 0.59300005
-0.0084857149 0.087685719 0.59400004
-0.007341905 0.087538101 0.59300005
-0.0062333336 0.087833337 0.59500003
-0.0051085716 0.087980956 0.59600002
-0.0039733336 0.087980956 0.59600002
-0.0028523812 0.088423818 0.59900004
-0.0017114286 0.088423818 0.59900004
-0.00057238102 0.088719055 0.60100001
0.00057142862 0.088571437 0.60000002
0.001717143 0.088719055 0.60100001
0.0028666668 0.088866673 0.60200006
0.0040200003 0.089014292 0.60300004
0.0051685716 0.089014292 0.60300004
0.0063276193 0.08916191 0.60400003
0.0075028576 0.089457147 0.60600001
0.008671429 0.089604765 0.60700005
0.0098438105 0.089752384 0.60800004
0.011020001 0.089900009 0.60900003
0.012220001 0.090195246 0.611
0.013405715 0.090342864 0.61200005
0.014595239 0.090490483 0.61300004
0.015788572 0.090638101 0.61400002
0.017013334 0.090933338 0.61600006
0.018275239 0.091376193 0.61900002
0.019548573 0.091819055 0.62200004
0.020800002 0.092114292 0.62400001
0.021988573 0.092114292 0.62400001
0.023214288 0.09226191 0.625
0.024443811 0.092409529 0.62600005
0.025636192 0.092409529 0.62600005
0.026914287 0.092704765 0.62800002
0.028110478 0.092704765 0.62800002
0.029353335 0.092852384 0.62900001
0.030648574 0.093147628 0.63100004
0.03185048 0.093147628 0.63100004
0.032947622 0.092852384 0.62900001
0.034145717 0.092852384 0.62900001
0.037645716 0.095657147 0.648
0.038820002 0.095509529 0.64700001
0.040052384 0.095509529 0.64700001
0.041348573 0.095657147 0.648
0.04271429 0.095952384 0.65000004
0.044087622 0.096247628 0.65200001
0.045399051 0.096395247 0.65300006
0.046642859 0.096395247 0.65300006
0.04810667 0.096838102 0.65600002
0.049732383 0.097576194 0.66100001
0.051068574 0.097723819 0.66200006
0.052408576 0.097871438 0.66300005
0.053671431 0.097871438 0.66300005
0.055100005 0.098166674 0.66500002
0.056366671 0.098166674 0.66500002
0.057720006 0.098314293 0.66600001
0.059342861 0.098904766 0.67000002
0.060800005 0.099200003 0.67200005
0.062357146 0.099642865 0.67500001
0.063737147 0.099790484 0.67600006
0.065313339 0.10023334 0.67900002
0.066900954 0.10067619 0.68200004
0.068300001 0.10082382 0.68300003
0.069600955 0.10082382 0.68300003
0.071005717 0.10097144 0.68400002
0.072520003 0.10126667 0.68600005
0.073826671 0.10126667 0.68600005
-0.077707626 0.087770484 0.58700001
-0.07645905 0.087620959 0.58600003
-0.075342864 0.087620959 0.58600003
-0.074100003 0.087471433 0.58500004
-0.073110484 0.087620959 0.58600003
-0.07187143 0.087471433 0.58500004
-0.070757151 0.087471433 0.58500004
-0.069642864 0.087471433 0.58500004
-0.068645716 0.087620959 0.58600003
-0.067529529 0.087620959 0.58600003
-0.066413336 0.087620959 0.58600003
-0.065297149 0.087620959 0.58600003
-0.064290479 0.087770484 0.58700001
-0.063172385 0.087770484 0.58700001
-0.062160004 0.087920003 0.588
-0.061040003 0.087920003 0.588
-0.060021907 0.088069528 0.58900005
-0.058800004 0.087920003 0.588
-0.057680003 0.087920003 0.588
-0.056656193 0.088069528 0.58900005
-0.055534288 0.088069528 0.58900005
-0.054412384 0.088069528 0.58900005
-0.053290479 0.088069528 0.58900005
-0.052257147 0.088219054 0.59000003
-0.051133338 0.088219054 0.59000003
-0.050009526 0.088219054 0.59000003
-0.048885718 0.088219054 0.59000003
-0.04776191 0.088219054 0.59000003
-0.046638098 0.088219054 0.59000003
-0.045360003 0.087920003 0.588
-0.044240002 0.087920003 0.588
-0.043120004 0.087920003 0.588
-0.042000003 0.087920003 0.588
-0.040880002 0.087920003 0.588
-0.039760001 0.087920003 0.588
-0.038705718 0.088069528 0.58900005
-0.037583813 0.088069528 0.58900005
-0.036523812 0.088219054 0.59000003
-0.035400003 0.088219054 0.59000003
-0.034218099 0.088069528 0.58900005
-0.033096194 0.088069528 0.58900005
-0.03197429 0.088069528 0.58900005
-0.030852383 0.088069528 0.58900005
-0.029730478 0.088069528 0.58900005
-0.028608574 0.088069528 0.58900005
-0.027440002 0.087920003 0.588
-0.026364764 0.088069528 0.58900005
-0.025285715 0.088219054 0.59000003
-0.024161907 0.088219054 0.59000003
-0.023038097 0.088219054 0.59000003
-0.021914287 0.088219054 0.59000003
-0.020790478 0.088219054 0.59000003
-0.019666668 0.088219054 0.59000003
-0.018542858 0.088219054 0.59000003
-0.01741905 0.088219054 0.59000003
-0.016322859 0.08836858 0.59100002
-0.015197144 0.08836858 0.59100002
-0.014071429 0.08836858 0.59100002
-0.01296762 0.088518098 0.59200001
-0.011840001 0.088518098 0.59200001
-0.010712381 0.088518098 0.59200001
-0.0095847622 0.088518098 0.59200001
-0.0084714293 0.088667624 0.59300005
-0.007341905 0.088667624 0.59300005
-0.0062228576 0.088817149 0.59400004
-0.0051000002 0.088966675 0.59500003
-0.00398 0.089265719 0.597
-0.0028476191 0.089415245 0.59800005
-0.0017114286 0.08956477 0.59900004
-0.00057142862 0.089714289 0.60000002
0.00057142862 0.089714289 0.60000002
0.001717143 0.089863814 0.60100001
0.0028714288 0.090162866 0.60300004
0.0040266667 0.090312384 0.60400003
0.005177143 0.090312384 0.60400003
0.0063380958 0.09046191 0.60500002
0.0075028576 0.090611435 0.60600001
0.008671429 0.090760961 0.60700005
0.0098438105 0.090910479 0.60800004
0.011056191 0.091359057 0.611
0.012240001 0.091508575 0.61200005
0.01342762 0.0916581 0.61300004
0.014642858 0.091957152 0.61500001
0.015891429 0.092405722 0.61800003
0.017123811 0.092704765 0.62
0.018393334 0.093153343 0.62300003
0.019611429 0.093302861 0.62400001
0.020833334 0.093452387 0.625
0.02202381 0.093452387 0.625
0.023214288 0.093452387 0.625
0.024443811 0.093601912 0.62600005
0.025677145 0.093751438 0.62700003
0.026957145 0.094050482 0.62900001
0.028155239 0.094050482 0.62900001
0.029446669 0.094349533 0.63100004
0.030648574 0.094349533 0.63100004
0.03185048 0.094349533 0.63100004
0.032947622 0.094050482 0.62900001
0.034145717 0.094050482 0.62900001
0.037761908 0.097190484 0.65000004
0.039000001 0.097190484 0.65000004
0.040238097 0.097190484 0.65000004
0.041540004 0.09734001 0.65100002
0.042845719 0.097489528 0.65200001
0.04415524 0.097639054 0.65300006
0.045538098 0.097938098 0.65500003
0.046857145 0.098087624 0.65600002
0.048473336 0.098835245 0.66100001
0.049807623 0.09898477 0.66200006
0.051145718 0.099134289 0.66300005
0.05256667 0.09943334 0.66500002
0.053833336 0.09943334 0.66500002
0.055100005 0.09943334 0.66500002
0.056451432 0.099582866 0.66600001
0.05806667 0.10018096 0.67000002
0.059697147 0.10077906 0.67400002
0.061161909 0.1010781 0.67600006
0.062726669 0.10152667 0.67900002
0.064114287 0.1016762 0.68000001
0.065601908 0.10197525 0.68200004
0.066900954 0.10197525 0.68200004
0.068400003 0.10227429 0.68400002
0.069702864 0.10227429 0.68400002
0.071628578 0.10317144 0.69000006
0.07294286 0.10317144 0.69000006
0.07425715 0.10317144 0.69000006
-0.077575244 0.088737145 0.58600003
-0.07645905 0.088737145 0.58600003
-0.075342864 0.088737145 0.58600003
-0.074100003 0.088585719 0.58500004
-0.072985716 0.088585719 0.58500004
-0.07187143 0.088585719 0.58500004
-0.070757151 0.088585719 0.58500004
-0.069523811 0.088434294 0.58400005
-0.068528578 0.088585719 0.58500004
-0.067414291 0.088585719 0.58500004
-0.066300005 0.088585719 0.58500004
-0.065185718 0.088585719 0.58500004
-0.064180955 0.088737145 0.58600003
-0.063064769 0.088737145 0.58600003
-0.062054291 0.088888578 0.58700001
-0.060936194 0.088888578 0.58700001
-0.0598181 0.088888578 0.58700001
-0.058800004 0.089040004 0.588
-0.057581909 0.088888578 0.58700001
-0.056560002 0.089040004 0.588
-0.055440005 0.089040004 0.588
-0.054320004 0.089040004 0.588
-0.053200003 0.089040004 0.588
-0.052168574 0.089191437 0.58900005
-0.051046669 0.089191437 0.58900005
-0.049924765 0.089191437 0.58900005
-0.04880286 0.089191437 0.58900005
-0.047600005 0.089040004 0.588
-0.046400957 0.088888578 0.58700001
-0.045282859 0.088888578 0.58700001
-0.044164766 0.088888578 0.58700001
-0.043046668 0.088888578 0.58700001
-0.041928574 0.088888578 0.58700001
-0.040810481 0.088888578 0.58700001
-0.039760001 0.089040004 0.588
-0.038640004 0.089040004 0.588
-0.037520003 0.089040004 0.588
-0.036461908 0.089191437 0.58900005
-0.035280004 0.089040004 0.588
-0.034160003 0.089040004 0.588
-0.033040002 0.089040004 0.588
-0.031920001 0.089040004 0.588
-0.030800002 0.089040004 0.588
-0.029680002 0.089040004 0.588
-0.028560001 0.089040004 0.588
-0.027440002 0.089040004 0.588
-0.026320001 0.089040004 0.588
-0.025200002 0.089040004 0.588
-0.024080001 0.089040004 0.588
-0.022960002 0.089040004 0.588
-0.021877144 0.089191437 0.58900005
-0.020755239 0.089191437 0.58900005
-0.019633334 0.089191437 0.58900005
-0.018511429 0.089191437 0.58900005
-0.01741905 0.089342862 0.59000003
-0.016295239 0.089342862 0.59000003
-0.015171429 0.089342862 0.59000003
-0.014071429 0.089494288 0.59100002
-0.012945715 0.089494288 0.59100002
-0.011820001 0.089494288 0.59100002
-0.010694287 0.089494288 0.59100002
-0.009568572 0.089494288 0.59100002
-0.0084714293 0.089797147 0.59300005
-0.007341905 0.089797147 0.59300005
-0.0062228576 0.08994858 0.59400004
-0.0051000002 0.090100005 0.59500003
-0.00398 0.090402864 0.597
-0.0028476191 0.09055429 0.59800005
-0.0017114286 0.090705723 0.59900004
-0.00057142862 0.090857148 0.60000002
0.00057238102 0.091008574 0.60100001
0.0017200001 0.091160007 0.60200006
0.0028714288 0.091311432 0.60300004
0.0040266667 0.091462865 0.60400003
0.005177143 0.091462865 0.60400003
0.0063380958 0.091614291 0.60500002
0.0075028576 0.091765717 0.60600001
0.008671429 0.09191715 0.60700005
0.0098438105 0.092068575 0.60800004
0.012240001 0.092674293 0.61200005
0.013471429 0.093128577 0.61500001
0.014666667 0.093280002 0.61600006
0.015917145 0.093734294 0.61900002
0.017123811 0.09388572 0.62
0.018393334 0.094340004 0.62300003
0.019580001 0.094340004 0.62300003
0.020833334 0.094642863 0.625
0.02202381 0.094642863 0.625
0.023251429 0.094794288 0.62600005
0.024482859 0.094945721 0.62700003
0.025718097 0.095097147 0.62800002
0.026957145 0.09524858 0.62900001
0.028244764 0.095551431 0.63100004
0.029446669 0.095551431 0.63100004
0.030648574 0.095551431 0.63100004
0.03185048 0.095551431 0.63100004
0.032947622 0.09524858 0.62900001
0.036523812 0.098428577 0.65000004
0.037761908 0.098428577 0.65000004
0.039000001 0.098428577 0.65000004
0.040300004 0.098580003 0.65100002
0.041603811 0.098731436 0.65200001
0.042911433 0.098882861 0.65300006
0.04415524 0.098882861 0.65300006
0.045538098 0.09918572 0.65500003
0.046928573 0.099488579 0.65700001
0.048546668 0.10024572 0.66200006
0.049882859 0.10039715 0.66300005
0.051145718 0.10039715 0.66300005
0.05256667 0.10070001 0.66500002
0.05391429 0.10085143 0.66600001
0.055182859 0.10085143 0.66600001
0.056536194 0.10100286 0.66700006
0.058240004 0.10176001 0.67200005
0.05978572 0.10221429 0.67500001
0.061342862 0.10266858 0.67800003
0.062726669 0.10282001 0.67900002
0.064114287 0.10297143 0.68000001
0.065601908 0.10327429 0.68200004
0.06709715 0.10357715 0.68400002
0.068900004 0.10433429 0.68900001
0.070314288 0.10448572 0.69000006
0.071732387 0.10463715 0.69100004
0.073260002 0.10494 0.69300002
-0.082588576 0.089240007 0.58200002
-0.081620008 0.08939334 0.583
-0.080647625 0.089546673 0.58400005
-0.079535246 0.089546673 0.58400005
-0.078288577 0.08939334 0.583
-0.07731048 0.089546673 0.58400005
-0.076328576 0.089700006 0.58500004
-0.075214289 0.089700006 0.58500004
-0.074100003 0.089700006 0.58500004
-0.072860956 0.089546673 0.58400005
-0.071748577 0.089546673 0.58400005
-0.070636198 0.089546673 0.58400005
-0.069523811 0.089546673 0.58400005
-0.068411432 0.089546673 0.58400005
-0.067299053 0.089546673 0.58400005
-0.066186674 0.089546673 0.58400005
-0.065074287 0.089546673 0.58400005
-0.063961908 0.089546673 0.58400005
-0.062957145 0.089700006 0.58500004
-0.061948575 0.089853339 0.58600003
-0.060832385 0.089853339 0.58600003
-0.059716195 0.089853339 0.58600003
-0.058700003 0.090006672 0.58700001
-0.057581909 0.090006672 0.58700001
-0.056463812 0.090006672 0.58700001
-0.055345718 0.090006672 0.58700001
-0.054227624 0.090006672 0.58700001
-0.053109527 0.090006672 0.58700001
-0.051991433 0.090006672 0.58700001
-0.050873335 0.090006672 0.58700001
-0.049755242 0.090006672 0.58700001
-0.048637144 0.090006672 0.58700001
-0.047357146 0.089700006 0.58500004
-0.046242859 0.089700006 0.58500004
-0.045205716 0.089853339 0.58600003
-0.044089526 0.089853339 0.58600003
-0.042973336 0.089853339 0.58600003
-0.041857146 0.089853339 0.58600003
-0.040740956 0.089853339 0.58600003
-0.039692383 0.090006672 0.58700001
-0.03857429 0.090006672 0.58700001
-0.037456192 0.090006672 0.58700001
-0.036338098 0.090006672 0.58700001
-0.035220001 0.090006672 0.58700001
-0.034101907 0.090006672 0.58700001
-0.032983813 0.090006672 0.58700001
-0.031865716 0.090006672 0.58700001
-0.03074762 0.090006672 0.58700001
-0.029629527 0.090006672 0.58700001
-0.028511431 0.090006672 0.58700001
-0.027393335 0.090006672 0.58700001
-0.02627524 0.090006672 0.58700001
-0.025157144 0.090006672 0.58700001
-0.024039049 0.090006672 0.58700001
-0.022960002 0.090160005 0.588
-0.021840001 0.090160005 0.588
-0.020720001 0.090160005 0.588
-0.019633334 0.090313338 0.58900005
-0.018480001 0.090160005 0.588
-0.017389525 0.090313338 0.58900005
-0.01626762 0.090313338 0.58900005
-0.015145715 0.090313338 0.58900005
-0.01404762 0.090466671 0.59000003
-0.012923811 0.090466671 0.59000003
-0.0118 0.090466671 0.59000003
-0.010676191 0.090466671 0.59000003
-0.009568572 0.090620004 0.59100002
-0.0084571438 0.090773337 0.59200001
-0.0073295245 0.090773337 0.59200001
-0.0062228576 0.091080002 0.59400004
-0.0051085716 0.091386676 0.59600002
-0.00398 0.091540009 0.597
-0.0028476191 0.091693342 0.59800005
-0.0017114286 0.091846675 0.59900004
-0.00057142862 0.092000008 0.60000002
0.00057238102 0.092153341 0.60100001
0.0017200001 0.092306674 0.60200006
0.0028714288 0.092460006 0.60300004
0.0040266667 0.092613339 0.60400003
0.0051857145 0.092766672 0.60500002
0.0063485717 0.092920005 0.60600001
0.0075028576 0.092920005 0.60600001
0.0086857146 0.093226671 0.60800004
0.0098438105 0.093226671 0.60800004
0.011056191 0.09368667 0.611
0.012260001 0.093993336 0.61300004
0.013471429 0.094300009 0.61500001
0.014690477 0.094606675 0.61700004
0.015917145 0.094913341 0.61900002
0.01717905 0.09537334 0.62200004
0.018393334 0.095526673 0.62300003
0.019580001 0.095526673 0.62300003
0.020833334 0.095833339 0.625
0.02202381 0.095833339 0.625
0.023251429 0.095986672 0.62600005
0.024482859 0.096140005 0.62700003
0.025759049 0.096446671 0.62900001
0.026957145 0.096446671 0.62900001
0.028244764 0.096753336 0.63100004
0.029493336 0.096906669 0.63200003
0.030648574 0.096753336 0.63100004
0.03185048 0.096753336 0.63100004
0.033052385 0.096753336 0.63100004
0.037761908 0.09966667 0.65000004
0.039060004 0.099820003 0.65100002
0.040361907 0.099973343 0.65200001
0.041603811 0.099973343 0.65200001
0.042911433 0.10012668 0.65300006
0.044290479 0.10043334 0.65500003
0.045607623 0.10058668 0.65600002
0.047000002 0.10089334 0.65800005
0.048546668 0.10150667 0.66200006
0.049882859 0.10166001 0.66300005
0.051300004 0.10196667 0.66500002
0.052645717 0.10212 0.66600001
0.05399524 0.10227334 0.66700006
0.055265717 0.10227334 0.66700006
0.056790479 0.10273334 0.67000002
0.058413338 0.10334668 0.67400002
0.05978572 0.10350001 0.67500001
0.061433338 0.10411334 0.67900002
0.062726669 0.10411334 0.67900002
0.064114287 0.10426667 0.68000001
0.065601908 0.10457334 0.68200004
0.06709715 0.10488001 0.68400002
0.068900004 0.10564668 0.68900001
0.070416197 0.10595334 0.69100004
0.071940005 0.10626001 0.69300002
0.073260002 0.10626001 0.69300002
-0.08480572 0.090348579 0.58200002
-0.083553337 0.090193339 0.58100003
-0.082588576 0.090348579 0.58200002
-0.081480004 0.090348579 0.58200002
-0.080371432 0.090348579 0.58200002
-0.07926286 0.090348579 0.58200002
-0.078154288 0.090348579 0.58200002
-0.077045716 0.090348579 0.58200002
-0.075937144 0.090348579 0.58200002
-0.075085722 0.090659052 0.58400005
-0.073846668 0.090503812 0.583
-0.072736196 0.090503812 0.583
-0.071748577 0.090659052 0.58400005
-0.070636198 0.090659052 0.58400005
-0.069523811 0.090659052 0.58400005
-0.068411432 0.090659052 0.58400005
-0.067183815 0.090503812 0.583
-0.066073336 0.090503812 0.583
-0.064962864 0.090503812 0.583
-0.063852385 0.090503812 0.583
-0.062849529 0.090659052 0.58400005
-0.061737146 0.090659052 0.58400005
-0.060624767 0.090659052 0.58400005
-0.05961429 0.090814292 0.58500004
-0.058500003 0.090814292 0.58500004
-0.057385717 0.090814292 0.58500004
-0.056271434 0.090814292 0.58500004
-0.055157147 0.090814292 0.58500004
-0.054042861 0.090814292 0.58500004
-0.052838098 0.090659052 0.58400005
-0.051814288 0.090814292 0.58500004
-0.050700005 0.090814292 0.58500004
-0.049500957 0.090659052 0.58400005
-0.048388574 0.090659052 0.58400005
-0.047276195 0.090659052 0.58400005
-0.046163812 0.090659052 0.58400005
-0.045051433 0.090659052 0.58400005
-0.04393905 0.090659052 0.58400005
-0.042826671 0.090659052 0.58400005
-0.041714288 0.090659052 0.58400005
-0.040601909 0.090659052 0.58400005
-0.039557144 0.090814292 0.58500004
-0.038508575 0.090969533 0.58600003
-0.037328575 0.090814292 0.58500004
-0.036214288 0.090814292 0.58500004
-0.035100002 0.090814292 0.58500004
-0.034043811 0.090969533 0.58600003
-0.032927621 0.090969533 0.58600003
-0.031757146 0.090814292 0.58500004
-0.030695241 0.090969533 0.58600003
-0.029579049 0.090969533 0.58600003
-0.028462859 0.090969533 0.58600003
-0.027346669 0.090969533 0.58600003
-0.026230479 0.090969533 0.58600003
-0.025114287 0.090969533 0.58600003
-0.023998097 0.090969533 0.58600003
-0.022920953 0.091124766 0.58700001
-0.021840001 0.091280006 0.588
-0.020720001 0.091280006 0.588
-0.019600002 0.091280006 0.588
-0.018480001 0.091280006 0.588
-0.017360002 0.091280006 0.588
-0.01626762 0.091435246 0.58900005
-0.015145715 0.091435246 0.58900005
-0.01404762 0.091590479 0.59000003
-0.012923811 0.091590479 0.59000003
-0.0118 0.091590479 0.59000003
-0.010676191 0.091590479 0.59000003
-0.0095523819 0.091590479 0.59000003
-0.0084571438 0.09190096 0.59200001
-0.007341905 0.0920562 0.59300005
-0.0062228576 0.092211433 0.59400004
-0.0051085716 0.092521913 0.59600002
-0.00398 0.092677146 0.597
-0.0028476191 0.092832386 0.59800005
-0.0017114286 0.092987627 0.59900004
-0.00057142862 0.09314286 0.60000002
0.00057333335 0.09345334 0.60200006
0.0017228572 0.093608581 0.60300004
0.0028761907 0.093763813 0.60400003
0.0040266667 0.093763813 0.60400003
0.0051857145 0.093919054 0.60500002
0.0063485717 0.094074294 0.60600001
0.0075152386 0.094229527 0.60700005
0.0086857146 0.094384767 0.60800004
0.0098600006 0.094540007 0.60900003
0.011056191 0.094850481 0.611
0.012300001 0.095471434 0.61500001
0.013493334 0.095626675 0.61600006
0.014690477 0.095781907 0.61700004
0.015942859 0.096247628 0.62
0.01717905 0.096558101 0.62200004
0.018393334 0.096713342 0.62300003
0.019611429 0.096868575 0.62400001
0.020866668 0.097179055 0.62600005
0.022059049 0.097179055 0.62600005
0.023325715 0.097489528 0.62800002
0.024560954 0.097644769 0.62900001
0.025840955 0.097955242 0.63100004
0.027042858 0.097955242 0.63100004
0.028244764 0.097955242 0.63100004
0.029493336 0.098110482 0.63200003
0.030697145 0.098110482 0.63200003
0.031900954 0.098110482 0.63200003
0.034047622 0.10090477 0.65000004
0.035285715 0.10090477 0.65000004
0.036523812 0.10090477 0.65000004
0.037761908 0.10090477 0.65000004
0.039060004 0.10106 0.65100002
0.040361907 0.10121524 0.65200001
0.041667622 0.10137048 0.65300006
0.043042861 0.10168096 0.65500003
0.044358097 0.1018362 0.65600002
0.045677144 0.10199144 0.65700001
0.046928573 0.10199144 0.65700001
0.048473336 0.10261239 0.66100001
0.049882859 0.10292286 0.66300005
0.051300004 0.10323334 0.66500002
0.052724764 0.10354382 0.66700006
0.054157145 0.10385429 0.66900003
0.055514291 0.10400953 0.67000002
0.056960005 0.10432 0.67200005
0.058760002 0.10525144 0.67800003
0.060140003 0.10540667 0.67900002
0.061523814 0.10556191 0.68000001
0.062819049 0.10556191 0.68000001
0.064302862 0.10587239 0.68200004
0.065698102 0.10602763 0.68300003
0.066999055 0.10602763 0.68300003
0.068300001 0.10602763 0.68300003
0.069600955 0.10602763 0.68300003
-0.08451429 0.091142863 0.58000004
-0.083409533 0.091142863 0.58000004
-0.082588576 0.091457151 0.58200002
-0.081340007 0.091300003 0.58100003
-0.080233335 0.091300003 0.58100003
-0.079126671 0.091300003 0.58100003
-0.078020006 0.091300003 0.58100003
-0.07678096 0.091142863 0.58000004
-0.07580667 0.091300003 0.58100003
-0.07482858 0.091457151 0.58200002
-0.073720008 0.091457151 0.58200002
-0.072611436 0.091457151 0.58200002
-0.071625717 0.091614291 0.583
-0.070515245 0.091614291 0.583
-0.069404766 0.091614291 0.583
-0.068294287 0.091614291 0.583
-0.067183815 0.091614291 0.583
-0.066073336 0.091614291 0.583
-0.064851433 0.091457151 0.58200002
-0.063742861 0.091457151 0.58200002
-0.062741905 0.091614291 0.583
-0.061631434 0.091614291 0.583
-0.060520958 0.091614291 0.583
-0.059410479 0.091614291 0.583
-0.058400005 0.091771431 0.58400005
-0.057287622 0.091771431 0.58400005
-0.056175243 0.091771431 0.58400005
-0.05506286 0.091771431 0.58400005
-0.053950481 0.091771431 0.58400005
-0.052747622 0.091614291 0.583
-0.051725719 0.091771431 0.58400005
-0.050526671 0.091614291 0.583
-0.04933143 0.091457151 0.58200002
-0.048222858 0.091457151 0.58200002
-0.04711429 0.091457151 0.58200002
-0.046005718 0.091457151 0.58200002
-0.044897147 0.091457151 0.58200002
-0.043863811 0.091614291 0.583
-0.042753335 0.091614291 0.583
-0.04164286 0.091614291 0.583
-0.040532384 0.091614291 0.583
-0.039489526 0.091771431 0.58400005
-0.038377147 0.091771431 0.58400005
-0.037264764 0.091771431 0.58400005
-0.036152385 0.091771431 0.58400005
-0.035100002 0.091928579 0.58500004
-0.033985715 0.091928579 0.58500004
-0.032871429 0.091928579 0.58500004
-0.031757146 0.091928579 0.58500004
-0.03064286 0.091928579 0.58500004
-0.029528573 0.091928579 0.58500004
-0.028414287 0.091928579 0.58500004
-0.027300002 0.091928579 0.58500004
-0.026185716 0.091928579 0.58500004
-0.025071431 0.091928579 0.58500004
-0.024039049 0.092242867 0.58700001
-0.022920953 0.092242867 0.58700001
-0.021802859 0.092242867 0.58700001
-0.020684764 0.092242867 0.58700001
-0.019566668 0.092242867 0.58700001
-0.018448573 0.092242867 0.58700001
-0.017330477 0.092242867 0.58700001
-0.016240001 0.092400007 0.588
-0.015120001 0.092400007 0.588
-0.014023811 0.092557147 0.58900005
-0.012901906 0.092557147 0.58900005
-0.011780001 0.092557147 0.58900005
-0.010658096 0.092557147 0.58900005
-0.0095361909 0.092557147 0.58900005
-0.0084428573 0.092871435 0.59100002
-0.007341905 0.093185723 0.59300005
-0.0062333336 0.093500003 0.59500003
-0.0051085716 0.093657151 0.59600002
-0.0039866669 0.093971431 0.59800005
-0.0028523812 0.094128579 0.59900004
-0.0017142858 0.094285719 0.60000002
-0.00057238102 0.094442867 0.60100001
0.00057333335 0.094600007 0.60200006
0.0017228572 0.094757147 0.60300004
0.0028761907 0.094914295 0.60400003
0.0040333336 0.095071435 0.60500002
0.0051942859 0.095228575 0.60600001
0.0063590482 0.095385723 0.60700005
0.0075152386 0.095385723 0.60700005
0.0087000001 0.095700003 0.60900003
0.0099247629 0.096328579 0.61300004
0.011128572 0.096642867 0.61500001
0.012320001 0.096800007 0.61600006
0.013515239 0.096957147 0.61700004
0.014714287 0.097114295 0.61800003
0.015942859 0.097428575 0.62
0.01717905 0.097742863 0.62200004
0.018422859 0.098057151 0.62400001
0.019642858 0.098214291 0.625
0.020933334 0.098685719 0.62800002
0.022129524 0.098685719 0.62800002
0.023362858 0.098842867 0.62900001
0.02463905 0.099157147 0.63100004
0.025881907 0.099314295 0.63200003
0.027085716 0.099314295 0.63200003
0.028334288 0.099471435 0.63300002
0.029540002 0.099471435 0.63300002
0.030745717 0.099471435 0.63300002
0.035285715 0.10214286 0.65000004
0.036523812 0.10214286 0.65000004
0.037761908 0.10214286 0.65000004
0.039060004 0.1023 0.65100002
0.04042381 0.10261429 0.65300006
0.041667622 0.10261429 0.65300006
0.043042861 0.10292858 0.65500003
0.044358097 0.10308572 0.65600002
0.045677144 0.10324287 0.65700001
0.047000002 0.10340001 0.65800005
0.048400003 0.10371429 0.66000003
0.049882859 0.10418572 0.66300005
0.051377147 0.10465715 0.66600001
0.052882861 0.10512858 0.66900003
0.0542381 0.10528572 0.67000002
0.055680003 0.10560001 0.67200005
0.057129528 0.10591429 0.67400002
0.058846671 0.10670001 0.67900002
0.060228575 0.10685715 0.68000001
0.061523814 0.10685715 0.68000001
0.063003816 0.10717144 0.68200004
0.064302862 0.10717144 0.68200004
0.065698102 0.10732858 0.68300003
0.066999055 0.10732858 0.68300003
0.068300001 0.10732858 0.68300003
-0.086723812 0.092247628 0.58000004
-0.085471436 0.09208858 0.57900006
-0.08451429 0.092247628 0.58000004
-0.083409533 0.092247628 0.58000004
-0.082446672 0.092406675 0.58100003
-0.081200004 0.092247628 0.58000004
-0.080095246 0.092247628 0.58000004
-0.078990482 0.092247628 0.58000004
-0.077885717 0.092247628 0.58000004
-0.07678096 0.092247628 0.58000004
-0.075676195 0.092247628 0.58000004
-0.074571431 0.092247628 0.58000004
-0.073466673 0.092247628 0.58000004
-0.072486669 0.092406675 0.58100003
-0.071502864 0.092565723 0.58200002
-0.070394292 0.092565723 0.58200002
-0.069404766 0.09272477 0.583
-0.068177149 0.092565723 0.58200002
-0.067068577 0.092565723 0.58200002
-0.065960005 0.092565723 0.58200002
-0.064851433 0.092565723 0.58200002
-0.063633338 0.092406675 0.58100003
-0.062526673 0.092406675 0.58100003
-0.061420005 0.092406675 0.58100003
-0.060313337 0.092406675 0.58100003
-0.059308574 0.092565723 0.58200002
-0.058200005 0.092565723 0.58200002
-0.057189528 0.09272477 0.583
-0.055982862 0.092565723 0.58200002
-0.05487429 0.092565723 0.58200002
-0.053765718 0.092565723 0.58200002
-0.052657146 0.092565723 0.58200002
-0.051548574 0.092565723 0.58200002
-0.050440002 0.092565723 0.58200002
-0.049246669 0.092406675 0.58100003
-0.048140004 0.092406675 0.58100003
-0.047033336 0.092406675 0.58100003
-0.045926671 0.092406675 0.58100003
-0.044820003 0.092406675 0.58100003
-0.043713335 0.092406675 0.58100003
-0.04260667 0.092406675 0.58100003
-0.041500002 0.092406675 0.58100003
-0.040393338 0.092406675 0.58100003
-0.039286669 0.092406675 0.58100003
-0.038180001 0.092406675 0.58100003
-0.037073337 0.092406675 0.58100003
-0.036090478 0.09272477 0.583
-0.034980003 0.09272477 0.583
-0.033869527 0.09272477 0.583
-0.03281524 0.092883818 0.58400005
-0.031702857 0.092883818 0.58400005
-0.030590478 0.092883818 0.58400005
-0.029427622 0.09272477 0.583
-0.028365716 0.092883818 0.58400005
-0.027206669 0.09272477 0.583
-0.026096193 0.09272477 0.583
-0.024985716 0.09272477 0.583
-0.022881906 0.093201913 0.58600003
-0.021765716 0.093201913 0.58600003
-0.020649524 0.093201913 0.58600003
-0.019533334 0.093201913 0.58600003
-0.018417144 0.093201913 0.58600003
-0.017330477 0.09336096 0.58700001
-0.016212381 0.09336096 0.58700001
-0.015094287 0.09336096 0.58700001
-0.014000001 0.093520008 0.588
-0.012880001 0.093520008 0.588
-0.011780001 0.093679056 0.58900005
-0.010658096 0.093679056 0.58900005
-0.0095361909 0.093679056 0.58900005
-0.0084857149 0.094474293 0.59400004
-0.007366667 0.094633341 0.59500003
-0.0062438101 0.094792388 0.59600002
-0.005117143 0.094951436 0.597
-0.0039866669 0.095110483 0.59800005
-0.0028523812 0.095269531 0.59900004
-0.0017142858 0.095428579 0.60000002
-0.00057238102 0.095587626 0.60100001
0.00057428575 0.095905721 0.60300004
0.0017228572 0.095905721 0.60300004
0.0028761907 0.096064769 0.60400003
0.0040333336 0.096223816 0.60500002
0.0051942859 0.096382864 0.60600001
0.0063590482 0.096541911 0.60700005
0.0075276196 0.096700959 0.60800004
0.0087857153 0.097814292 0.61500001
0.009940953 0.097655244 0.61400002
0.011128572 0.097814292 0.61500001
0.012340001 0.098132387 0.61700004
0.013515239 0.098132387 0.61700004
0.014738096 0.098450482 0.61900002
0.015942859 0.098609529 0.62
0.01717905 0.098927625 0.62200004
0.018452382 0.099404767 0.625
0.019705715 0.099722862 0.62700003
0.020966668 0.10004096 0.62900001
0.022164764 0.10004096 0.62900001
0.023437144 0.10035905 0.63100004
0.024756191 0.1008362 0.634
0.025963811 0.1008362 0.634
0.027128574 0.10067715 0.63300002
0.028334288 0.10067715 0.63300002
0.029586669 0.1008362 0.634
0.030794287 0.1008362 0.634
0.034047622 0.10338096 0.65000004
0.035285715 0.10338096 0.65000004
0.036523812 0.10338096 0.65000004
0.037820004 0.10354 0.65100002
0.039120004 0.10369905 0.65200001
0.04042381 0.1038581 0.65300006
0.041795243 0.1041762 0.65500003
0.043108575 0.10433525 0.65600002
0.044493336 0.10465334 0.65800005
0.045746669 0.10465334 0.65800005
0.04714286 0.10497144 0.66000003
0.048546668 0.10528953 0.66200006
0.049882859 0.10544858 0.66300005
0.051377147 0.10592572 0.66600001
0.052961908 0.10656191 0.67000002
0.054400004 0.10688001 0.67200005
0.055845719 0.1071981 0.67400002
0.057129528 0.1071981 0.67400002
0.058846671 0.10799334 0.67900002
0.060228575 0.10815239 0.68000001
0.061704766 0.10847048 0.68200004
0.063096195 0.10862953 0.68300003
0.064491436 0.10878858 0.68400002
0.065794289 0.10878858 0.68400002
0.06709715 0.10878858 0.68400002
0.068400003 0.10878858 0.68400002
-0.087677151 0.093191437 0.57900006
-0.086574294 0.093191437 0.57900006
-0.085471436 0.093191437 0.57900006
-0.084368579 0.093191437 0.57900006
-0.083265722 0.093191437 0.57900006
-0.082162865 0.093191437 0.57900006
-0.081060007 0.093191437 0.57900006
-0.07995715 0.093191437 0.57900006
-0.078854293 0.093191437 0.57900006
-0.077751435 0.093191437 0.57900006
-0.076648578 0.093191437 0.57900006
-0.075545721 0.093191437 0.57900006
-0.074442863 0.093191437 0.57900006
-0.073340006 0.093191437 0.57900006
-0.072237149 0.093191437 0.57900006
-0.071380004 0.09351334 0.58100003
-0.07027334 0.09351334 0.58100003
-0.069285721 0.093674295 0.58200002
-0.068177149 0.093674295 0.58200002
-0.067068577 0.093674295 0.58200002
-0.065846674 0.09351334 0.58100003
-0.064740002 0.09351334 0.58100003
-0.063523814 0.093352385 0.58000004
-0.062419053 0.093352385 0.58000004
-0.061314289 0.093352385 0.58000004
-0.060209528 0.093352385 0.58000004
-0.059104767 0.093352385 0.58000004
-0.058000002 0.093352385 0.58000004
-0.056993335 0.09351334 0.58100003
-0.055886671 0.09351334 0.58100003
-0.054780003 0.09351334 0.58100003
-0.053673338 0.09351334 0.58100003
-0.052476194 0.093352385 0.58000004
-0.051460002 0.09351334 0.58100003
-0.050353337 0.09351334 0.58100003
-0.049161907 0.093352385 0.58000004
-0.048057146 0.093352385 0.58000004
-0.046952385 0.093352385 0.58000004
-0.045847621 0.093352385 0.58000004
-0.04474286 0.093352385 0.58000004
-0.043638099 0.093352385 0.58000004
-0.042533334 0.093352385 0.58000004
-0.041500002 0.09351334 0.58100003
-0.040323813 0.093352385 0.58000004
-0.039219052 0.093352385 0.58000004
-0.038114287 0.093352385 0.58000004
-0.037073337 0.09351334 0.58100003
-0.035966668 0.09351334 0.58100003
-0.034920003 0.093674295 0.58200002
-0.033811431 0.093674295 0.58200002
-0.032702859 0.093674295 0.58200002
-0.031648573 0.093835242 0.583
-0.030485716 0.093674295 0.58200002
-0.029377146 0.093674295 0.58200002
-0.028268574 0.093674295 0.58200002
-0.027160002 0.093674295 0.58200002
-0.02605143 0.093674295 0.58200002
-0.024942858 0.093674295 0.58200002
-0.02387524 0.093835242 0.583
-0.022803811 0.093996197 0.58400005
-0.021728573 0.094157152 0.58500004
-0.020614287 0.094157152 0.58500004
-0.0195 0.094157152 0.58500004
-0.018417144 0.094318099 0.58600003
-0.017330477 0.094479054 0.58700001
-0.016212381 0.094479054 0.58700001
-0.015094287 0.094479054 0.58700001
-0.014000001 0.094640009 0.588
-0.012880001 0.094640009 0.588
-0.011780001 0.094800957 0.58900005
-0.010658096 0.094800957 0.58900005
-0.009568572 0.095122866 0.59100002
-0.0084857149 0.095605724 0.59400004
-0.007379048 0.095927626 0.59600002
-0.0062438101 0.095927626 0.59600002
-0.0051257145 0.096249528 0.59800005
-0.0039866669 0.096249528 0.59800005
-0.0028571431 0.096571438 0.60000002
-0.001717143 0.096732385 0.60100001
-0.00057333335 0.09689334 0.60200006
0.00057428575 0.097054295 0.60300004
0.0017257144 0.097215243 0.60400003
0.0028809526 0.097376198 0.60500002
0.0040400005 0.097537152 0.60600001
0.0052028573 0.0976981 0.60700005
0.0063695242 0.097859055 0.60800004
0.0075400006 0.09802001 0.60900003
0.0087857153 0.098985724 0.61500001
0.0099571431 0.098985724 0.61500001
0.011146667 0.099146672 0.61600006
0.012340001 0.099307626 0.61700004
0.013537143 0.099468581 0.61800003
0.014761906 0.099790484 0.62
0.015994286 0.10011239 0.62200004
0.017206667 0.10027334 0.62300003
0.018452382 0.10059524 0.625
0.019768573 0.10123906 0.62900001
0.021033335 0.10156096 0.63100004
0.022235239 0.10156096 0.63100004
0.023548573 0.10204381 0.634
0.024756191 0.10204381 0.634
0.026004763 0.10220477 0.63500005
0.027171431 0.10204381 0.634
0.028423812 0.10220477 0.63500005
0.029633336 0.10220477 0.63500005
0.031134287 0.10317048 0.64100003
0.032405715 0.10333143 0.64200002
0.034047622 0.10461906 0.65000004
0.035285715 0.10461906 0.65000004
0.036523812 0.10461906 0.65000004
0.037820004 0.10478 0.65100002
0.039120004 0.10494096 0.65200001
0.040547621 0.10542382 0.65500003
0.041859049 0.10558477 0.65600002
0.043174289 0.10574572 0.65700001
0.044493336 0.10590667 0.65800005
0.045885716 0.10622858 0.66000003
0.047214288 0.10638953 0.66100001
0.048620004 0.10671143 0.66300005
0.050033338 0.10703334 0.66500002
0.051454291 0.10735524 0.66700006
0.053120002 0.10816 0.67200005
0.054400004 0.10816 0.67200005
0.055928577 0.10864286 0.67500001
0.057553336 0.10928667 0.67900002
0.058933336 0.10944763 0.68000001
0.06040572 0.10976953 0.68200004
0.061795242 0.10993049 0.68300003
0.063188575 0.11009143 0.68400002
0.064680003 0.11041334 0.68600005
0.065986671 0.11041334 0.68600005
0.067391433 0.11057429 0.68700004
0.068700008 0.11057429 0.68700004
-0.090514295 0.093805723 0.57600003
-0.089417152 0.093805723 0.57600003
-0.088626675 0.094131432 0.57800001
-0.087525718 0.094131432 0.57800001
-0.086424768 0.094131432 0.57800001
-0.085323818 0.094131432 0.57800001
-0.084222861 0.094131432 0.57800001
-0.083265722 0.094294295 0.57900006
-0.082020961 0.094131432 0.57800001
-0.080920003 0.094131432 0.57800001
-0.079819053 0.094131432 0.57800001
-0.078718103 0.094131432 0.57800001
-0.077617146 0.094131432 0.57800001
-0.076516196 0.094131432 0.57800001
-0.075415246 0.094131432 0.57800001
-0.074314289 0.094131432 0.57800001
-0.073213339 0.094131432 0.57800001
-0.072112389 0.094131432 0.57800001
-0.071134292 0.094294295 0.57900006
-0.070152387 0.09445715 0.58000004
-0.069047622 0.09445715 0.58000004
-0.067942865 0.09445715 0.58000004
-0.066838101 0.09445715 0.58000004
-0.065733336 0.09445715 0.58000004
-0.064517148 0.094294295 0.57900006
-0.063414291 0.094294295 0.57900006
-0.062311433 0.094294295 0.57900006
-0.061208576 0.094294295 0.57900006
-0.060105719 0.094294295 0.57900006
-0.059002861 0.094294295 0.57900006
-0.057900004 0.094294295 0.57900006
-0.056895241 0.09445715 0.58000004
-0.05579048 0.09445715 0.58000004
-0.054685719 0.09445715 0.58000004
-0.053580955 0.09445715 0.58000004
-0.052476194 0.09445715 0.58000004
-0.051460002 0.094620004 0.58100003
-0.050266668 0.09445715 0.58000004
-0.049161907 0.09445715 0.58000004
-0.048057146 0.09445715 0.58000004
-0.046952385 0.09445715 0.58000004
-0.045847621 0.09445715 0.58000004
-0.044665717 0.094294295 0.57900006
-0.043562859 0.094294295 0.57900006
-0.042533334 0.09445715 0.58000004
-0.041428573 0.09445715 0.58000004
-0.040323813 0.09445715 0.58000004
-0.039219052 0.09445715 0.58000004
-0.038048573 0.094294295 0.57900006
-0.037009526 0.09445715 0.58000004
-0.035904765 0.09445715 0.58000004
-0.0348 0.09445715 0.58000004
-0.033753335 0.094620004 0.58100003
-0.032646667 0.094620004 0.58100003
-0.031594288 0.094782867 0.58200002
-0.030485716 0.094782867 0.58200002
-0.029326668 0.094620004 0.58100003
-0.028268574 0.094782867 0.58200002
-0.027113335 0.094620004 0.58100003
-0.026006669 0.094620004 0.58100003
-0.024942858 0.094782867 0.58200002
-0.023793334 0.094620004 0.58100003
-0.022725716 0.094782867 0.58200002
-0.02169143 0.095108576 0.58400005
-0.020579049 0.095108576 0.58400005
-0.019466668 0.095108576 0.58400005
-0.018417144 0.095434293 0.58600003
-0.017300954 0.095434293 0.58600003
-0.016212381 0.095597148 0.58700001
-0.015094287 0.095597148 0.58700001
-0.014000001 0.095760003 0.588
-0.012901906 0.095922865 0.58900005
-0.0118 0.09608572 0.59000003
-0.010676191 0.09608572 0.59000003
-0.0095847622 0.096411437 0.59200001
-0.0085000005 0.096900009 0.59500003
-0.007379048 0.097062863 0.59600002
-0.006254286 0.097225718 0.597
-0.0051257145 0.09738858 0.59800005
-0.0039933338 0.097551435 0.59900004
-0.0028571431 0.09771429 0.60000002
-0.001717143 0.097877152 0.60100001
-0.00057333335 0.098040007 0.60200006
0.00057428575 0.098202862 0.60300004
0.0017257144 0.098365724 0.60400003
0.0028857144 0.098691434 0.60600001
0.0040400005 0.098691434 0.60600001
0.0052028573 0.098854296 0.60700005
0.0063695242 0.099017151 0.60800004
0.0075647626 0.099505723 0.611
0.0088000009 0.10032 0.61600006
0.0099733341 0.10032 0.61600006
0.011164763 0.10048287 0.61700004
0.012360001 0.10064572 0.61800003
0.013559048 0.10080858 0.61900002
0.014761906 0.10097144 0.62
0.015994286 0.10129715 0.62200004
0.017206667 0.10146001 0.62300003
0.018481907 0.10194858 0.62600005
0.021033335 0.10276286 0.63100004
0.022340953 0.10325143 0.634
0.023548573 0.10325143 0.634
0.02479524 0.10341429 0.63500005
0.026004763 0.10341429 0.63500005
0.027257144 0.10357715 0.63600004
0.028423812 0.10341429 0.63500005
0.029773336 0.10390286 0.63800001
0.031134287 0.10439143 0.64100003
0.032405715 0.1045543 0.64200002
0.033628572 0.1045543 0.64200002
0.035340004 0.10602 0.65100002
0.036580004 0.10602 0.65100002
0.037878096 0.10618287 0.65200001
0.039180003 0.10634572 0.65300006
0.040547621 0.10667144 0.65500003
0.041859049 0.10683429 0.65600002
0.043174289 0.10699715 0.65700001
0.044628575 0.10748572 0.66000003
0.045955241 0.10764858 0.66100001
0.047357146 0.10797429 0.66300005
0.048840005 0.10846286 0.66600001
0.050108574 0.10846286 0.66600001
0.051685717 0.10911429 0.67000002
0.053120002 0.10944001 0.67200005
0.054561909 0.10976572 0.67400002
0.056011431 0.11009143 0.67600006
0.057553336 0.11058 0.67900002
0.058933336 0.11074287 0.68000001
0.06040572 0.11106858 0.68200004
0.061704766 0.11106858 0.68200004
0.063742861 0.11237144 0.69000006
0.065057144 0.11237144 0.69000006
0.066275239 0.11220858 0.68900001
0.067685716 0.11237144 0.69000006
0.069100007 0.11253429 0.69100004
-0.091611437 0.094902866 0.57600003
-0.090514295 0.094902866 0.57600003
-0.089417152 0.094902866 0.57600003
-0.088473342 0.095067628 0.57700002
-0.087374292 0.095067628 0.57700002
-0.086424768 0.09523239 0.57800001
-0.085323818 0.09523239 0.57800001
-0.084222861 0.09523239 0.57800001
-0.083121911 0.09523239 0.57800001
-0.082020961 0.09523239 0.57800001
-0.080780007 0.095067628 0.57700002
-0.079680957 0.095067628 0.57700002
-0.078581907 0.095067628 0.57700002
-0.077482864 0.095067628 0.57700002
-0.076383814 0.095067628 0.57700002
-0.075284764 0.095067628 0.57700002
-0.074057147 0.094902866 0.57600003
-0.073086672 0.095067628 0.57700002
-0.071987621 0.095067628 0.57700002
-0.070888579 0.095067628 0.57700002
-0.069789529 0.095067628 0.57700002
-0.068690479 0.095067628 0.57700002
-0.067708574 0.09523239 0.57800001
-0.066607624 0.09523239 0.57800001
-0.065506674 0.09523239 0.57800001
-0.064294294 0.095067628 0.57700002
-0.063304767 0.09523239 0.57800001
-0.062096193 0.095067628 0.57700002
-0.06110286 0.09523239 0.57800001
-0.06000191 0.09523239 0.57800001
-0.058900956 0.09523239 0.57800001
-0.057800002 0.09523239 0.57800001
-0.056699052 0.09523239 0.57800001
-0.055598099 0.09523239 0.57800001
-0.054591432 0.095397152 0.57900006
-0.053488575 0.095397152 0.57900006
-0.052385718 0.095397152 0.57900006
-0.051371433 0.095561914 0.58000004
-0.050180003 0.095397152 0.57900006
-0.049077146 0.095397152 0.57900006
-0.047974288 0.095397152 0.57900006
-0.046871431 0.095397152 0.57900006
-0.045768574 0.095397152 0.57900006
-0.044665717 0.095397152 0.57900006
-0.043487623 0.09523239 0.57800001
-0.04238667 0.09523239 0.57800001
-0.041357145 0.095397152 0.57900006
-0.040184766 0.09523239 0.57800001
-0.039083812 0.09523239 0.57800001
-0.037982859 0.09523239 0.57800001
-0.036945716 0.095397152 0.57900006
-0.035842858 0.095397152 0.57900006
-0.034740001 0.095397152 0.57900006
-0.033637144 0.095397152 0.57900006
-0.032590479 0.095561914 0.58000004
-0.031540003 0.095726676 0.58100003
-0.030433334 0.095726676 0.58100003
-0.029326668 0.095726676 0.58100003
-0.028171431 0.095561914 0.58000004
-0.027066668 0.095561914 0.58000004
-0.025961906 0.095561914 0.58000004
-0.024900002 0.095726676 0.58100003
-0.023793334 0.095726676 0.58100003
-0.022686668 0.095726676 0.58100003
-0.021617144 0.095891438 0.58200002
-0.02054381 0.096056193 0.583
-0.019433334 0.096056193 0.583
-0.018385716 0.096385717 0.58500004
-0.017300954 0.09655048 0.58600003
-0.016212381 0.096715242 0.58700001
-0.015120001 0.096880004 0.588
-0.01404762 0.097209528 0.59000003
-0.012923811 0.097209528 0.59000003
-0.011820001 0.09737429 0.59100002
-0.010694287 0.09737429 0.59100002
-0.0096009532 0.097703815 0.59300005
-0.0085000005 0.098033339 0.59500003
-0.007379048 0.098198101 0.59600002
-0.0062647625 0.098527625 0.59800005
-0.0051342859 0.098692387 0.59900004
-0.0039933338 0.098692387 0.59900004
-0.0028571431 0.098857149 0.60000002
-0.001717143 0.099021912 0.60100001
-0.00057428575 0.099351436 0.60300004
0.00057523814 0.099516198 0.60400003
0.0017285715 0.09968096 0.60500002
0.0028904765 0.10001048 0.60700005
0.0040466669 0.10001048 0.60700005
0.0052114287 0.10017525 0.60800004
0.0064009526 0.10066953 0.611
0.0076142862 0.10132858 0.61500001
0.0088000009 0.10149334 0.61600006
0.0099895243 0.1016581 0.61700004
0.011164763 0.1016581 0.61700004
0.012360001 0.10182286 0.61800003
0.013580954 0.10215238 0.62
0.014809525 0.10248191 0.62200004
0.016020002 0.10264667 0.62300003
0.017234286 0.10281143 0.62400001
0.018511429 0.10330572 0.62700003
0.019768573 0.10363524 0.62900001
0.021066668 0.10412953 0.63200003
0.022305716 0.10429429 0.63300002
0.023585716 0.10462382 0.63500005
0.02479524 0.10462382 0.63500005
0.026045715 0.10478858 0.63600004
0.027257144 0.10478858 0.63600004
0.028468573 0.10478858 0.63600004
0.029866669 0.10544763 0.64000005
0.031280003 0.10610668 0.64400005
0.032557145 0.10627144 0.64500004
0.033890478 0.10660096 0.64700001
0.035340004 0.10726 0.65100002
0.036580004 0.10726 0.65100002
0.037878096 0.10742477 0.65200001
0.039180003 0.10758953 0.65300006
0.040547621 0.10791905 0.65500003
0.041859049 0.10808381 0.65600002
0.043371432 0.10874286 0.66000003
0.044763811 0.10907239 0.66200006
0.046094287 0.10923715 0.66300005
0.047571432 0.10973144 0.66600001
0.048913337 0.1098962 0.66700006
0.05033429 0.11022572 0.66900003
0.05176286 0.11055525 0.671
0.0532781 0.11104953 0.67400002
0.054561909 0.11104953 0.67400002
0.055928577 0.1112143 0.67500001
0.057638098 0.11203811 0.68000001
0.060582861 0.11269715 0.68400002
0.062066671 0.11302667 0.68600005
0.063650481 0.11352096 0.68900001
-0.094573341 0.095666669 0.574
-0.093480006 0.095666669 0.574
-0.09238667 0.095666669 0.574
-0.091293342 0.095666669 0.574
-0.090357147 0.095833339 0.57500005
-0.089261912 0.095833339 0.57500005
-0.088166669 0.095833339 0.57500005
-0.087222859 0.096000008 0.57600003
-0.086125717 0.096000008 0.57600003
-0.084880956 0.095833339 0.57500005
-0.083931431 0.096000008 0.57600003
-0.082834288 0.096000008 0.57600003
-0.081595242 0.095833339 0.57500005
-0.080500007 0.095833339 0.57500005
-0.079404764 0.095833339 0.57500005
-0.078309529 0.095833339 0.57500005
-0.077214293 0.095833339 0.57500005
-0.07611905 0.095833339 0.57500005
-0.075023815 0.095833339 0.57500005
-0.07392858 0.095833339 0.57500005
-0.072833337 0.095833339 0.57500005
-0.071738102 0.095833339 0.57500005
-0.070642859 0.095833339 0.57500005
