# .PCD v0.7 - Point Cloud Data file format
VERSION 0.7
FIELDS x y z
SIZE 4 4 4
TYPE F F F
COUNT 1 1 1
WIDTH 1336
HEIGHT 1
VIEWPOINT 0 0 0 1 0 0 0
POINTS 1336
DATA ascii
-0.071780004 0.05496667 0.67900002
-0.070486672 0.05496667 0.67900002
-0.069193341 0.05496667 0.67900002
-0.067900002 0.05496667 0.67900002
-0.066606671 0.05496667 0.67900002
-0.065313339 0.05496667 0.67900002
-0.064020008 0.05496667 0.67900002
-0.062634289 0.054885719 0.67800003
-0.061342862 0.054885719 0.67800003
-0.060140003 0.05496667 0.67900002
-0.058846671 0.05496667 0.67900002
-0.057553336 0.05496667 0.67900002
-0.056342863 0.055047624 0.68000001
-0.055047624 0.055047624 0.68000001
-0.053752385 0.055047624 0.68000001
-0.052457146 0.055047624 0.68000001
-0.051161908 0.055047624 0.68000001
-0.049793337 0.05496667 0.67900002
-0.048500001 0.05496667 0.67900002
-0.047276195 0.055047624 0.68000001
-0.045980956 0.055047624 0.68000001
-0.044685718 0.055047624 0.68000001
-0.0435181 0.055209529 0.68200004
-0.04221905 0.055209529 0.68200004
-0.040920004 0.055209529 0.68200004
-0.039620955 0.055209529 0.68200004
-0.038321909 0.055209529 0.68200004
-0.036914289 0.055047624 0.68000001
-0.035723813 0.055209529 0.68200004
-0.034424763 0.055209529 0.68200004
-0.033125717 0.055209529 0.68200004
-0.031826667 0.055209529 0.68200004
-0.030527622 0.055209529 0.68200004
-0.029271431 0.055290479 0.68300003
-0.02801143 0.055371433 0.68400002
-0.026708573 0.055371433 0.68400002
-0.025405716 0.055371433 0.68400002
-0.024102859 0.055371433 0.68400002
-0.022800002 0.055371433 0.68400002
-0.021497143 0.055371433 0.68400002
-0.020194286 0.055371433 0.68400002
-0.01889143 0.055371433 0.68400002
-0.075660005 0.056260005 0.67900002
-0.074366674 0.056260005 0.67900002
-0.073073335 0.056260005 0.67900002
-0.071780004 0.056260005 0.67900002
-0.070486672 0.056260005 0.67900002
-0.069193341 0.056260005 0.67900002
-0.067900002 0.056260005 0.67900002
-0.066606671 0.056260005 0.67900002
-0.065313339 0.056260005 0.67900002
-0.064020008 0.056260005 0.67900002
-0.06244953 0.056011431 0.67600006
-0.061342862 0.056177147 0.67800003
-0.060140003 0.056260005 0.67900002
-0.058846671 0.056260005 0.67900002
-0.057553336 0.056260005 0.67900002
-0.056342863 0.056342863 0.68000001
-0.055047624 0.056342863 0.68000001
-0.053752385 0.056342863 0.68000001
-0.052457146 0.056342863 0.68000001
-0.051161908 0.056342863 0.68000001
-0.049866669 0.056342863 0.68000001
-0.04857143 0.056342863 0.68000001
-0.047276195 0.056342863 0.68000001
-0.045980956 0.056342863 0.68000001
-0.042780004 0.053940002 0.65100002
-0.041540004 0.053940002 0.65100002
-0.040238097 0.053857148 0.65000004
-0.039000001 0.053857148 0.65000004
-0.037761908 0.053857148 0.65000004
-0.036523812 0.053857148 0.65000004
-0.035285715 0.053857148 0.65000004
-0.034424763 0.056508575 0.68200004
-0.033125717 0.056508575 0.68200004
-0.031826667 0.056508575 0.68200004
-0.030572383 0.056591433 0.68300003
-0.029314287 0.05667429 0.68400002
-0.028093334 0.056840003 0.68600005
-0.026708573 0.05667429 0.68400002
-0.025480002 0.056840003 0.68600005
-0.024173334 0.056840003 0.68600005
-0.022866668 0.056840003 0.68600005
-0.021560002 0.056840003 0.68600005
-0.019220002 0.053940002 0.65100002
-0.016765716 0.05402286 0.65200001
-0.073440008 0.054925717 0.648
-0.075660005 0.057553336 0.67900002
-0.074366674 0.057553336 0.67900002
-0.073073335 0.057553336 0.67900002
-0.071780004 0.057553336 0.67900002
-0.070486672 0.057553336 0.67900002
-0.069193341 0.057553336 0.67900002
-0.067900002 0.057553336 0.67900002
-0.066606671 0.057553336 0.67900002
-0.065313339 0.057553336 0.67900002
-0.063925721 0.057468574 0.67800003
-0.062634289 0.057468574 0.67800003
-0.061342862 0.057468574 0.67800003
-0.057660002 0.055180002 0.65100002
-0.056420002 0.055180002 0.65100002
-0.05509524 0.05509524 0.65000004
-0.053857148 0.05509524 0.65000004
-0.053752385 0.057638098 0.68000001
-0.049988575 0.054925717 0.648
-0.049793337 0.057553336 0.67900002
-0.046285719 0.054925717 0.648
-0.04519048 0.05509524 0.65000004
-0.044020005 0.055180002 0.65100002
-0.042780004 0.055180002 0.65100002
-0.041540004 0.055180002 0.65100002
-0.040238097 0.05509524 0.65000004
-0.039060004 0.055180002 0.65100002
-0.037820004 0.055180002 0.65100002
-0.036692385 0.055349529 0.65300006
-0.035448574 0.055349529 0.65300006
-0.034204762 0.055349529 0.65300006
-0.032960955 0.055349529 0.65300006
-0.031668574 0.055264767 0.65200001
-0.030426668 0.055264767 0.65200001
-0.029229525 0.055349529 0.65300006
-0.027942859 0.055264767 0.65200001
-0.026660001 0.055180002 0.65100002
-0.025420001 0.055180002 0.65100002
-0.02414286 0.05509524 0.65000004
-0.022904763 0.05509524 0.65000004
-0.020460002 0.055180002 0.65100002
-0.019220002 0.055180002 0.65100002
-0.018007619 0.055264767 0.65200001
-0.016740002 0.055180002 0.65100002
-0.073440008 0.056160003 0.648
-0.072428577 0.056333337 0.65000004
-0.074366674 0.058846671 0.67900002
-0.069952384 0.056333337 0.65000004
-0.068714291 0.056333337 0.65000004
-0.069193341 0.058846671 0.67900002
-0.067900002 0.058846671 0.67900002
-0.066606671 0.058846671 0.67900002
-0.065313339 0.058846671 0.67900002
-0.064020008 0.058846671 0.67900002
-0.062726669 0.058846671 0.67900002
-0.058990479 0.056506671 0.65200001
-0.057748575 0.056506671 0.65200001
-0.056506671 0.056506671 0.65200001
-0.055180002 0.056420002 0.65100002
-0.053940002 0.056420002 0.65100002
-0.052619051 0.056333337 0.65000004
-0.051380955 0.056333337 0.65000004
-0.050142862 0.056333337 0.65000004
-0.048904765 0.056333337 0.65000004
-0.047520004 0.056160003 0.648
-0.046428576 0.056333337 0.65000004
-0.045260005 0.056420002 0.65100002
-0.044020005 0.056420002 0.65100002
-0.042780004 0.056420002 0.65100002
-0.041540004 0.056420002 0.65100002
-0.040238097 0.056333337 0.65000004
-0.039060004 0.056420002 0.65100002
-0.037820004 0.056420002 0.65100002
-0.036636192 0.056506671 0.65200001
-0.035394289 0.056506671 0.65200001
-0.034204762 0.056593336 0.65300006
-0.032910477 0.056506671 0.65200001
-0.031668574 0.056506671 0.65200001
-0.030426668 0.056506671 0.65200001
-0.029184764 0.056506671 0.65200001
-0.027942859 0.056506671 0.65200001
-0.026660001 0.056420002 0.65100002
-0.025420001 0.056420002 0.65100002
-0.024180003 0.056420002 0.65100002
-0.022904763 0.056333337 0.65000004
-0.021700002 0.056420002 0.65100002
-0.020460002 0.056420002 0.65100002
-0.019220002 0.056420002 0.65100002
-0.018007619 0.056506671 0.65200001
-0.016714286 0.056333337 0.65000004
-0.073440008 0.057394288 0.648
-0.072540008 0.057660002 0.65100002
-0.071300007 0.057660002 0.65100002
-0.069952384 0.057571433 0.65000004
-0.068820007 0.057660002 0.65100002
-0.067580007 0.057660002 0.65100002
-0.066340007 0.057660002 0.65100002
-0.065100007 0.057660002 0.65100002
-0.063958101 0.057748575 0.65200001
-0.062620007 0.057660002 0.65100002
-0.06147429 0.057748575 0.65200001
-0.060324766 0.057837147 0.65300006
-0.058990479 0.057748575 0.65200001
-0.057837147 0.057837147 0.65300006
-0.056506671 0.057748575 0.65200001
-0.055180002 0.057660002 0.65100002
-0.053940002 0.057660002 0.65100002
-0.052700002 0.057660002 0.65100002
-0.051460002 0.057660002 0.65100002
-0.050220001 0.057660002 0.65100002
-0.048904765 0.057571433 0.65000004
-0.047666669 0.057571433 0.65000004
-0.046428576 0.057571433 0.65000004
-0.045260005 0.057660002 0.65100002
-0.044020005 0.057660002 0.65100002
-0.042780004 0.057660002 0.65100002
-0.041540004 0.057660002 0.65100002
-0.040238097 0.057571433 0.65000004
-0.039060004 0.057660002 0.65100002
-0.037820004 0.057660002 0.65100002
-0.036636192 0.057748575 0.65200001
-0.035394289 0.057748575 0.65200001
-0.034204762 0.057837147 0.65300006
-0.032910477 0.057748575 0.65200001
-0.031668574 0.057748575 0.65200001
-0.030426668 0.057748575 0.65200001
-0.029229525 0.057837147 0.65300006
-0.027985716 0.057837147 0.65300006
-0.026741907 0.057837147 0.65300006
-0.025420001 0.057660002 0.65100002
-0.024180003 0.057660002 0.65100002
-0.022940002 0.057660002 0.65100002
-0.021733334 0.057748575 0.65200001
-0.020460002 0.057660002 0.65100002
-0.019220002 0.057660002 0.65100002
-0.017980002 0.057660002 0.65100002
-0.016714286 0.057571433 0.65000004
-0.015523811 0.057748575 0.65200001
-0.073893338 0.058990479 0.65200001
-0.072762862 0.059080955 0.65300006
-0.071409531 0.058990479 0.65200001
-0.070167623 0.058990479 0.65200001
-0.068925716 0.058990479 0.65200001
-0.067683816 0.058990479 0.65200001
-0.066543818 0.059080955 0.65300006
-0.065300003 0.059080955 0.65300006
-0.064056195 0.059080955 0.65300006
-0.062812388 0.059080955 0.65300006
-0.061568577 0.059080955 0.65300006
-0.060324766 0.059080955 0.65300006
-0.059080955 0.059080955 0.65300006
-0.057837147 0.059080955 0.65300006
-0.056593336 0.059080955 0.65300006
-0.055264767 0.058990479 0.65200001
-0.05402286 0.058990479 0.65200001
-0.052780956 0.058990479 0.65200001
-0.051539052 0.058990479 0.65200001
-0.050297145 0.058990479 0.65200001
-0.049055241 0.058990479 0.65200001
-0.047740005 0.058900002 0.65100002
-0.04657143 0.058990479 0.65200001
-0.045329526 0.058990479 0.65200001
-0.044087622 0.058990479 0.65200001
-0.042845719 0.058990479 0.65200001
-0.041603811 0.058990479 0.65200001
-0.040361907 0.058990479 0.65200001
-0.039120004 0.058990479 0.65200001
-0.037878096 0.058990479 0.65200001
-0.036692385 0.059080955 0.65300006
-0.035448574 0.059080955 0.65300006
-0.034204762 0.059080955 0.65300006
-0.032960955 0.059080955 0.65300006
-0.031717144 0.059080955 0.65300006
-0.030473335 0.059080955 0.65300006
-0.029229525 0.059080955 0.65300006
-0.027985716 0.059080955 0.65300006
-0.026700955 0.058990479 0.65200001
-0.025498098 0.059080955 0.65300006
-0.024254287 0.059080955 0.65300006
-0.023010477 0.059080955 0.65300006
-0.021733334 0.058990479 0.65200001
-0.020491431 0.058990479 0.65200001
-0.019249525 0.058990479 0.65200001
-0.018007619 0.058990479 0.65200001
-0.016740002 0.058900002 0.65100002
-0.015500001 0.058900002 0.65100002
-0.074006669 0.060324766 0.65300006
-0.072985716 0.060509529 0.65500003
-0.071519054 0.060324766 0.65300006
-0.07027524 0.060324766 0.65300006
-0.069031432 0.060324766 0.65300006
-0.067787625 0.060324766 0.65300006
-0.066543818 0.060324766 0.65300006
-0.065300003 0.060324766 0.65300006
-0.064056195 0.060324766 0.65300006
-0.062812388 0.060324766 0.65300006
-0.061757147 0.060509529 0.65500003
-0.060509529 0.060509529 0.65500003
-0.059080955 0.060324766 0.65300006
-0.057837147 0.060324766 0.65300006
-0.056593336 0.060324766 0.65300006
-0.055264767 0.060232386 0.65200001
-0.05402286 0.060232386 0.65200001
-0.052780956 0.060232386 0.65200001
-0.051539052 0.060232386 0.65200001
-0.050297145 0.060232386 0.65200001
-0.049055241 0.060232386 0.65200001
-0.047813337 0.060232386 0.65200001
-0.046642859 0.060324766 0.65300006
-0.045399051 0.060324766 0.65300006
-0.04415524 0.060324766 0.65300006
-0.042911433 0.060324766 0.65300006
-0.041667622 0.060324766 0.65300006
-0.04042381 0.060324766 0.65300006
-0.039180003 0.060324766 0.65300006
-0.037936192 0.060324766 0.65300006
-0.036804765 0.060509529 0.65500003
-0.035557143 0.060509529 0.65500003
-0.034309525 0.060509529 0.65500003
-0.032960955 0.060324766 0.65300006
-0.031717144 0.060324766 0.65300006
-0.030473335 0.060324766 0.65300006
-0.029229525 0.060324766 0.65300006
-0.02807143 0.060509529 0.65500003
-0.026823811 0.060509529 0.65500003
-0.025576193 0.060509529 0.65500003
-0.024254287 0.060324766 0.65300006
-0.023010477 0.060324766 0.65300006
-0.021766668 0.060324766 0.65300006
-0.020491431 0.060232386 0.65200001
-0.019249525 0.060232386 0.65200001
-0.018007619 0.060232386 0.65200001
-0.016765716 0.060232386 0.65200001
-0.015523811 0.060232386 0.65200001
-0.012466667 0.071133338 0.77000004
-0.074233338 0.061757147 0.65500003
-0.072985716 0.061757147 0.65500003
-0.071519054 0.061568577 0.65300006
-0.07027524 0.061568577 0.65300006
-0.069031432 0.061568577 0.65300006
-0.067787625 0.061568577 0.65300006
-0.066543818 0.061568577 0.65300006
-0.065300003 0.061568577 0.65300006
-0.064252384 0.061757147 0.65500003
-0.063004769 0.061757147 0.65500003
-0.061757147 0.061757147 0.65500003
-0.060509529 0.061757147 0.65500003
-0.059261907 0.061757147 0.65500003
-0.057837147 0.061568577 0.65300006
-0.056593336 0.061568577 0.65300006
-0.055349529 0.061568577 0.65300006
-0.054105718 0.061568577 0.65300006
-0.052861907 0.061568577 0.65300006
-0.051618099 0.061568577 0.65300006
-0.050374288 0.061568577 0.65300006
-0.049130481 0.061568577 0.65300006
-0.04788667 0.061568577 0.65300006
-0.046785716 0.061757147 0.65500003
-0.045399051 0.061568577 0.65300006
-0.044290479 0.061757147 0.65500003
-0.043042861 0.061757147 0.65500003
-0.041795243 0.061757147 0.65500003
-0.040547621 0.061757147 0.65500003
-0.039300002 0.061757147 0.65500003
-0.038052384 0.061757147 0.65500003
-0.036860954 0.061851434 0.65600002
-0.035611432 0.061851434 0.65600002
-0.034309525 0.061757147 0.65500003
-0.033061907 0.061757147 0.65500003
-0.031814288 0.061757147 0.65500003
-0.030473335 0.061568577 0.65300006
-0.029229525 0.061568577 0.65300006
-0.02807143 0.061757147 0.65500003
-0.026741907 0.061568577 0.65300006
-0.025576193 0.061757147 0.65500003
-0.024254287 0.061568577 0.65300006
-0.023010477 0.061568577 0.65300006
-0.021766668 0.061568577 0.65300006
-0.020491431 0.06147429 0.65200001
-0.01927905 0.061568577 0.65300006
-0.018035239 0.061568577 0.65300006
-0.016791429 0.061568577 0.65300006
-0.015619049 0.061851434 0.65600002
-0.074233338 0.063004769 0.65500003
-0.072985716 0.063004769 0.65500003
-0.071738102 0.063004769 0.65500003
-0.07027524 0.062812388 0.65300006
-0.069031432 0.062812388 0.65300006
-0.067787625 0.062812388 0.65300006
-0.066543818 0.062812388 0.65300006
-0.065500006 0.063004769 0.65500003
-0.064252384 0.063004769 0.65500003
-0.063004769 0.063004769 0.65500003
-0.061757147 0.063004769 0.65500003
-0.060509529 0.063004769 0.65500003
-0.059261907 0.063004769 0.65500003
-0.058014289 0.063004769 0.65500003
-0.056593336 0.062812388 0.65300006
-0.055349529 0.062812388 0.65300006
-0.054105718 0.062812388 0.65300006
-0.052861907 0.062812388 0.65300006
-0.051618099 0.062812388 0.65300006
-0.050374288 0.062812388 0.65300006
-0.049130481 0.062812388 0.65300006
-0.04788667 0.062812388 0.65300006
-0.046785716 0.063004769 0.65500003
-0.045538098 0.063004769 0.65500003
-0.044290479 0.063004769 0.65500003
-0.043042861 0.063004769 0.65500003
-0.041795243 0.063004769 0.65500003
-0.040547621 0.063004769 0.65500003
-0.039300002 0.063004769 0.65500003
-0.03811048 0.063100956 0.65600002
-0.036860954 0.063100956 0.65600002
-0.035611432 0.063100956 0.65600002
-0.034361906 0.063100956 0.65600002
-0.033061907 0.063004769 0.65500003
-0.031814288 0.063004769 0.65500003
-0.030566668 0.063004769 0.65500003
-0.02931905 0.063004769 0.65500003
-0.02807143 0.063004769 0.65500003
-0.026741907 0.062812388 0.65300006
-0.025576193 0.063004769 0.65500003
-0.024328573 0.063004769 0.65500003
-0.023080954 0.063004769 0.65500003
-0.021833334 0.063004769 0.65500003
-0.020585716 0.063004769 0.65500003
-0.01927905 0.062812388 0.65300006
-0.018145716 0.063197143 0.65700001
-0.016868573 0.063100956 0.65600002
-0.015619049 0.063100956 0.65600002
-0.07548096 0.064252384 0.65500003
-0.074233338 0.064252384 0.65500003
-0.073097147 0.064350478 0.65600002
-0.071738102 0.064252384 0.65500003
-0.070490479 0.064252384 0.65500003
-0.069242865 0.064252384 0.65500003
-0.067995243 0.064252384 0.65500003
-0.066747621 0.064252384 0.65500003
-0.065500006 0.064252384 0.65500003
-0.064252384 0.064252384 0.65500003
-0.063004769 0.064252384 0.65500003
-0.061757147 0.064252384 0.65500003
-0.060509529 0.064252384 0.65500003
-0.059261907 0.064252384 0.65500003
-0.058014289 0.064252384 0.65500003
-0.05676667 0.064252384 0.65500003
-0.055349529 0.064056195 0.65300006
-0.054105718 0.064056195 0.65300006
-0.052861907 0.064056195 0.65300006
-0.051618099 0.064056195 0.65300006
-0.050374288 0.064056195 0.65300006
-0.049280956 0.064252384 0.65500003
-0.048033338 0.064252384 0.65500003
-0.046785716 0.064252384 0.65500003
-0.045538098 0.064252384 0.65500003
-0.044358097 0.064350478 0.65600002
-0.043108575 0.064350478 0.65600002
-0.041859049 0.064350478 0.65600002
-0.040609527 0.064350478 0.65600002
-0.039360002 0.064350478 0.65600002
-0.03811048 0.064350478 0.65600002
-0.036917146 0.064448573 0.65700001
-0.035665717 0.064448573 0.65700001
-0.034414288 0.064448573 0.65700001
-0.033112384 0.064350478 0.65600002
-0.031862859 0.064350478 0.65600002
-0.030613335 0.064350478 0.65600002
-0.029363811 0.064350478 0.65600002
-0.028114287 0.064350478 0.65600002
-0.026823811 0.064252384 0.65500003
-0.025654288 0.064448573 0.65700001
-0.024365716 0.064350478 0.65600002
-0.023116192 0.064350478 0.65600002
-0.021866668 0.064350478 0.65600002
-0.020617144 0.064350478 0.65600002
-0.019397143 0.064448573 0.65700001
-0.018145716 0.064448573 0.65700001
-0.016868573 0.064350478 0.65600002
-0.015619049 0.064350478 0.65600002
-0.074346669 0.065600008 0.65600002
-0.073097147 0.065600008 0.65600002
-0.071847625 0.065600008 0.65600002
-0.070490479 0.065500006 0.65500003
-0.069242865 0.065500006 0.65500003
-0.067995243 0.065500006 0.65500003
-0.066747621 0.065500006 0.65500003
-0.065500006 0.065500006 0.65500003
-0.064252384 0.065500006 0.65500003
-0.063004769 0.065500006 0.65500003
-0.061757147 0.065500006 0.65500003
-0.060509529 0.065500006 0.65500003
-0.059261907 0.065500006 0.65500003
-0.058014289 0.065500006 0.65500003
-0.05676667 0.065500006 0.65500003
-0.055519052 0.065500006 0.65500003
-0.054271434 0.065500006 0.65500003
-0.053023811 0.065500006 0.65500003
-0.051776193 0.065500006 0.65500003
-0.050528575 0.065500006 0.65500003
-0.049280956 0.065500006 0.65500003
-0.048033338 0.065500006 0.65500003
-0.046857145 0.065600008 0.65600002
-0.045607623 0.065600008 0.65600002
-0.044358097 0.065600008 0.65600002
-0.043174289 0.065700002 0.65700001
-0.04192286 0.065700002 0.65700001
-0.040671431 0.065700002 0.65700001
-0.039420001 0.065700002 0.65700001
-0.038168576 0.065700002 0.65700001
-0.036917146 0.065700002 0.65700001
-0.035665717 0.065700002 0.65700001
-0.034414288 0.065700002 0.65700001
-0.033162858 0.065700002 0.65700001
-0.031862859 0.065600008 0.65600002
-0.030660002 0.065700002 0.65700001
-0.029363811 0.065600008 0.65600002
-0.028114287 0.065600008 0.65600002
-0.026864763 0.065600008 0.65600002
-0.025654288 0.065700002 0.65700001
-0.024402859 0.065700002 0.65700001
-0.023151429 0.065700002 0.65700001
-0.021900002 0.065700002 0.65700001
-0.020648573 0.065700002 0.65700001
-0.019397143 0.065700002 0.65700001
-0.018145716 0.065700002 0.65700001
-0.016842859 0.065500006 0.65500003
-0.015619049 0.065600008 0.65600002
-0.074233338 0.066747621 0.65500003
-0.073097147 0.06684953 0.65600002
-0.071847625 0.06684953 0.65600002
-0.070598103 0.06684953 0.65600002
-0.069348574 0.06684953 0.65600002
-0.068099052 0.06684953 0.65600002
-0.06684953 0.06684953 0.65600002
-0.065700002 0.066951431 0.65700001
-0.064350478 0.06684953 0.65600002
-0.063100956 0.06684953 0.65600002
-0.061851434 0.06684953 0.65600002
-0.060601909 0.06684953 0.65600002
-0.059352383 0.06684953 0.65600002
-0.058102861 0.06684953 0.65600002
-0.05676667 0.066747621 0.65500003
-0.055519052 0.066747621 0.65500003
-0.054271434 0.066747621 0.65500003
-0.053023811 0.066747621 0.65500003
-0.051776193 0.066747621 0.65500003
-0.050528575 0.066747621 0.65500003
-0.049356192 0.06684953 0.65600002
-0.04810667 0.06684953 0.65600002
-0.046857145 0.06684953 0.65600002
-0.045607623 0.06684953 0.65600002
-0.044425718 0.066951431 0.65700001
-0.043174289 0.066951431 0.65700001
-0.04192286 0.066951431 0.65700001
-0.040671431 0.066951431 0.65700001
-0.039420001 0.066951431 0.65700001
-0.038168576 0.066951431 0.65700001
-0.036917146 0.066951431 0.65700001
-0.035720002 0.06705334 0.65800005
-0.034466669 0.06705334 0.65800005
-0.033162858 0.066951431 0.65700001
-0.031911429 0.066951431 0.65700001
-0.030660002 0.066951431 0.65700001
-0.029408574 0.066951431 0.65700001
-0.028157145 0.066951431 0.65700001
-0.026905715 0.066951431 0.65700001
-0.025654288 0.066951431 0.65700001
-0.024402859 0.066951431 0.65700001
-0.023151429 0.066951431 0.65700001
-0.021900002 0.066951431 0.65700001
-0.020680001 0.06705334 0.65800005
-0.019426668 0.06705334 0.65800005
-0.018173335 0.06705334 0.65800005
-0.016868573 0.06684953 0.65600002
-0.015666667 0.06705334 0.65800005
-0.014413334 0.06705334 0.65800005
-0.074346669 0.068099052 0.65600002
-0.073097147 0.068099052 0.65600002
-0.071957149 0.068202861 0.65700001
-0.070705719 0.068202861 0.65700001
-0.06945429 0.068202861 0.65700001
-0.068202861 0.068202861 0.65700001
-0.066951431 0.068202861 0.65700001
-0.065700002 0.068202861 0.65700001
-0.064448573 0.068202861 0.65700001
-0.063100956 0.068099052 0.65600002
-0.061945718 0.068202861 0.65700001
-0.060601909 0.068099052 0.65600002
-0.059352383 0.068099052 0.65600002
-0.058102861 0.068099052 0.65600002
-0.056853335 0.068099052 0.65600002
-0.055603813 0.068099052 0.65600002
-0.054354288 0.068099052 0.65600002
-0.053104766 0.068099052 0.65600002
-0.05185524 0.068099052 0.65600002
-0.050605718 0.068099052 0.65600002
-0.049431432 0.068202861 0.65700001
-0.048180003 0.068202861 0.65700001
-0.046928573 0.068202861 0.65700001
-0.045677144 0.068202861 0.65700001
-0.044425718 0.068202861 0.65700001
-0.043174289 0.068202861 0.65700001
-0.04198667 0.06830667 0.65800005
-0.040733337 0.06830667 0.65800005
-0.039480001 0.06830667 0.65800005
-0.038226668 0.06830667 0.65800005
-0.036973335 0.06830667 0.65800005
-0.035720002 0.06830667 0.65800005
-0.034466669 0.06830667 0.65800005
-0.033162858 0.068202861 0.65700001
-0.031911429 0.068202861 0.65700001
-0.030660002 0.068202861 0.65700001
-0.029408574 0.068202861 0.65700001
-0.028157145 0.068202861 0.65700001
-0.026905715 0.068202861 0.65700001
-0.025654288 0.068202861 0.65700001
-0.024440002 0.06830667 0.65800005
-0.023186669 0.06830667 0.65800005
-0.021933334 0.06830667 0.65800005
-0.020680001 0.06830667 0.65800005
-0.019426668 0.06830667 0.65800005
-0.018173335 0.06830667 0.65800005
-0.016894286 0.068202861 0.65700001
-0.015666667 0.06830667 0.65800005
-0.014413334 0.06830667 0.65800005
-0.075711437 0.06945429 0.65700001
-0.074460007 0.06945429 0.65700001
-0.073208578 0.06945429 0.65700001
-0.071957149 0.06945429 0.65700001
-0.070705719 0.06945429 0.65700001
-0.06945429 0.06945429 0.65700001
-0.068202861 0.06945429 0.65700001
-0.066951431 0.06945429 0.65700001
-0.065700002 0.06945429 0.65700001
-0.064448573 0.06945429 0.65700001
-0.063197143 0.06945429 0.65700001
-0.061945718 0.06945429 0.65700001
-0.060694288 0.06945429 0.65700001
-0.059352383 0.069348574 0.65600002
-0.058102861 0.069348574 0.65600002
-0.056853335 0.069348574 0.65600002
-0.055603813 0.069348574 0.65600002
-0.054354288 0.069348574 0.65600002
-0.053104766 0.069348574 0.65600002
-0.051934291 0.06945429 0.65700001
-0.050682861 0.06945429 0.65700001
-0.049431432 0.06945429 0.65700001
-0.048180003 0.06945429 0.65700001
-0.046928573 0.06945429 0.65700001
-0.045677144 0.06945429 0.65700001
-0.044425718 0.06945429 0.65700001
-0.043240003 0.069560006 0.65800005
-0.04198667 0.069560006 0.65800005
-0.040733337 0.069560006 0.65800005
-0.039480001 0.069560006 0.65800005
-0.038226668 0.069560006 0.65800005
-0.036973335 0.069560006 0.65800005
-0.035720002 0.069560006 0.65800005
-0.034466669 0.069560006 0.65800005
-0.033213336 0.069560006 0.65800005
-0.031960003 0.069560006 0.65800005
-0.030706668 0.069560006 0.65800005
-0.029408574 0.06945429 0.65700001
-0.028157145 0.06945429 0.65700001
-0.026905715 0.06945429 0.65700001
-0.025693335 0.069560006 0.65800005
-0.024440002 0.069560006 0.65800005
-0.023186669 0.069560006 0.65800005
-0.021933334 0.069560006 0.65800005
-0.020742858 0.069771431 0.66000003
-0.019485716 0.069771431 0.66000003
-0.018228572 0.069771431 0.66000003
-0.016894286 0.06945429 0.65700001
-0.015714286 0.069771431 0.66000003
-0.014457144 0.069771431 0.66000003
-0.075596198 0.070598103 0.65600002
-0.074346669 0.070598103 0.65600002
-0.073320001 0.070813335 0.65800005
-0.072066672 0.070813335 0.65800005
-0.070705719 0.070705719 0.65700001
-0.069560006 0.070813335 0.65800005
-0.06830667 0.070813335 0.65800005
-0.06705334 0.070813335 0.65800005
-0.065800004 0.070813335 0.65800005
-0.064546674 0.070813335 0.65800005
-0.063197143 0.070705719 0.65700001
-0.061945718 0.070705719 0.65700001
-0.060694288 0.070705719 0.65700001
-0.059442863 0.070705719 0.65700001
-0.058191434 0.070705719 0.65700001
-0.056940004 0.070705719 0.65700001
-0.055773336 0.070813335 0.65800005
-0.054437146 0.070705719 0.65700001
-0.053185716 0.070705719 0.65700001
-0.051934291 0.070705719 0.65700001
-0.050682861 0.070705719 0.65700001
-0.049431432 0.070705719 0.65700001
-0.048180003 0.070705719 0.65700001
-0.046928573 0.070705719 0.65700001
-0.045677144 0.070705719 0.65700001
-0.044425718 0.070705719 0.65700001
-0.043240003 0.070813335 0.65800005
-0.04198667 0.070813335 0.65800005
-0.040733337 0.070813335 0.65800005
-0.039600004 0.071028575 0.66000003
-0.03834286 0.071028575 0.66000003
-0.037085716 0.071028575 0.66000003
-0.035828575 0.071028575 0.66000003
-0.034571432 0.071028575 0.66000003
-0.033314288 0.071028575 0.66000003
-0.031960003 0.070813335 0.65800005
-0.030706668 0.070813335 0.65800005
-0.029453335 0.070813335 0.65800005
-0.028200002 0.070813335 0.65800005
-0.026946668 0.070813335 0.65800005
-0.025693335 0.070813335 0.65800005
-0.024440002 0.070813335 0.65800005
-0.023186669 0.070813335 0.65800005
-0.022000002 0.071028575 0.66000003
-0.020742858 0.071028575 0.66000003
-0.019515239 0.071136191 0.66100001
-0.018228572 0.071028575 0.66000003
-0.01697143 0.071028575 0.66000003
-0.015714286 0.071028575 0.66000003
-0.014413334 0.070813335 0.65800005
-0.075596198 0.071847625 0.65600002
-0.074346669 0.071847625 0.65600002
-0.073320001 0.072066672 0.65800005
-0.072066672 0.072066672 0.65800005
-0.070813335 0.072066672 0.65800005
-0.069560006 0.072066672 0.65800005
-0.06830667 0.072066672 0.65800005
-0.06705334 0.072066672 0.65800005
-0.065800004 0.072066672 0.65800005
-0.064546674 0.072066672 0.65800005
-0.063293338 0.072066672 0.65800005
-0.062040005 0.072066672 0.65800005
-0.060786672 0.072066672 0.65800005
-0.059533339 0.072066672 0.65800005
-0.058280002 0.072066672 0.65800005
-0.057026669 0.072066672 0.65800005
-0.05594286 0.072285719 0.66000003
-0.054520003 0.072066672 0.65800005
-0.053266671 0.072066672 0.65800005
-0.052013338 0.072066672 0.65800005
-0.050760005 0.072066672 0.65800005
-0.049506672 0.072066672 0.65800005
-0.048253335 0.072066672 0.65800005
-0.047000002 0.072066672 0.65800005
-0.045746669 0.072066672 0.65800005
-0.044493336 0.072066672 0.65800005
-0.043371432 0.072285719 0.66000003
-0.042114288 0.072285719 0.66000003
-0.040857144 0.072285719 0.66000003
-0.039600004 0.072285719 0.66000003
-0.038400955 0.072395243 0.66100001
-0.037085716 0.072285719 0.66000003
-0.03588286 0.072395243 0.66100001
-0.034571432 0.072285719 0.66000003
-0.033314288 0.072285719 0.66000003
-0.032057144 0.072285719 0.66000003
-0.030706668 0.072066672 0.65800005
-0.029453335 0.072066672 0.65800005
-0.028200002 0.072066672 0.65800005
-0.026946668 0.072066672 0.65800005
-0.025693335 0.072066672 0.65800005
-0.024440002 0.072066672 0.65800005
-0.023257144 0.072285719 0.66000003
-0.022000002 0.072285719 0.66000003
-0.020774286 0.072395243 0.66100001
-0.019544763 0.072504766 0.66200006
-0.018256191 0.072395243 0.66100001
-0.016997144 0.072395243 0.66100001
-0.015761906 0.072504766 0.66200006
-0.014479049 0.072395243 0.66100001
-0.075711437 0.073208578 0.65700001
-0.074460007 0.073208578 0.65700001
-0.073320001 0.073320001 0.65800005
-0.072066672 0.073320001 0.65800005
-0.070813335 0.073320001 0.65800005
-0.069560006 0.073320001 0.65800005
-0.068514287 0.073542863 0.66000003
-0.067257144 0.073542863 0.66000003
-0.066000007 0.073542863 0.66000003
-0.064742863 0.073542863 0.66000003
-0.063485719 0.073542863 0.66000003
-0.062228575 0.073542863 0.66000003
-0.060971431 0.073542863 0.66000003
-0.059714291 0.073542863 0.66000003
-0.058457147 0.073542863 0.66000003
-0.057200003 0.073542863 0.66000003
-0.05594286 0.073542863 0.66000003
-0.054685719 0.073542863 0.66000003
-0.053428575 0.073542863 0.66000003
-0.052013338 0.073320001 0.65800005
-0.050914288 0.073542863 0.66000003
-0.049506672 0.073320001 0.65800005
-0.048253335 0.073320001 0.65800005
-0.047000002 0.073320001 0.65800005
-0.045746669 0.073320001 0.65800005
-0.044493336 0.073320001 0.65800005
-0.043371432 0.073542863 0.66000003
-0.042178098 0.073654294 0.66100001
-0.040919051 0.073654294 0.66100001
-0.039660003 0.073654294 0.66100001
-0.038400955 0.073654294 0.66100001
-0.037141908 0.073654294 0.66100001
-0.03588286 0.073654294 0.66100001
-0.034571432 0.073542863 0.66000003
-0.033314288 0.073542863 0.66000003
-0.032057144 0.073542863 0.66000003
-0.030800002 0.073542863 0.66000003
-0.029453335 0.073320001 0.65800005
-0.028200002 0.073320001 0.65800005
-0.026946668 0.073320001 0.65800005
-0.025693335 0.073320001 0.65800005
-0.024514288 0.073542863 0.66000003
-0.023257144 0.073542863 0.66000003
-0.022033336 0.073654294 0.66100001
-0.020774286 0.073654294 0.66100001
-0.019544763 0.073765717 0.66200006
-0.01828381 0.073765717 0.66200006
-0.017048573 0.073877148 0.66300005
-0.015761906 0.073765717 0.66200006
-0.014500953 0.073765717 0.66200006
-0.074573338 0.074573338 0.65800005
-0.073320001 0.074573338 0.65800005
-0.072285719 0.074800007 0.66000003
-0.071028575 0.074800007 0.66000003
-0.069771431 0.074800007 0.66000003
-0.068514287 0.074800007 0.66000003
-0.067257144 0.074800007 0.66000003
-0.066000007 0.074800007 0.66000003
-0.064840958 0.074913338 0.66100001
-0.063485719 0.074800007 0.66000003
-0.062228575 0.074800007 0.66000003
-0.061063815 0.074913338 0.66100001
-0.059714291 0.074800007 0.66000003
-0.058457147 0.074800007 0.66000003
-0.057200003 0.074800007 0.66000003
-0.05594286 0.074800007 0.66000003
-0.054685719 0.074800007 0.66000003
-0.053428575 0.074800007 0.66000003
-0.052013338 0.074573338 0.65800005
-0.050914288 0.074800007 0.66000003
-0.049657147 0.074800007 0.66000003
-0.048400003 0.074800007 0.66000003
-0.04714286 0.074800007 0.66000003
-0.045885716 0.074800007 0.66000003
-0.044696193 0.074913338 0.66100001
-0.04350286 0.075026669 0.66200006
-0.042241909 0.075026669 0.66200006
-0.040980954 0.075026669 0.66200006
-0.039660003 0.074913338 0.66100001
-0.038459051 0.075026669 0.66200006
-0.037198097 0.075026669 0.66200006
-0.03588286 0.074913338 0.66100001
-0.034623813 0.074913338 0.66100001
-0.033314288 0.074800007 0.66000003
-0.032057144 0.074800007 0.66000003
-0.030800002 0.074800007 0.66000003
-0.02954286 0.074800007 0.66000003
-0.028285716 0.074800007 0.66000003
-0.027028574 0.074800007 0.66000003
-0.02577143 0.074800007 0.66000003
-0.024551431 0.074913338 0.66100001
-0.023292383 0.074913338 0.66100001
-0.022033336 0.074913338 0.66100001
-0.020805717 0.075026669 0.66200006
-0.019574286 0.075140007 0.66300005
-0.01828381 0.075026669 0.66200006
-0.017048573 0.075140007 0.66300005
-0.015761906 0.075026669 0.66200006
-0.014500953 0.075026669 0.66200006
-0.075711437 0.075711437 0.65700001
-0.074573338 0.075826675 0.65800005
-0.073320001 0.075826675 0.65800005
-0.072285719 0.076057151 0.66000003
-0.071028575 0.076057151 0.66000003
-0.069771431 0.076057151 0.66000003
-0.068618096 0.076172389 0.66100001
-0.067359053 0.076172389 0.66100001
-0.066100001 0.076172389 0.66100001
-0.064840958 0.076172389 0.66100001
-0.063581906 0.076172389 0.66100001
-0.062322862 0.076172389 0.66100001
-0.061156195 0.076287627 0.66200006
-0.059895243 0.076287627 0.66200006
-0.05854572 0.076172389 0.66100001
-0.057286669 0.076172389 0.66100001
-0.056027621 0.076172389 0.66100001
-0.054768573 0.076172389 0.66100001
-0.053509526 0.076172389 0.66100001
-0.052171431 0.076057151 0.66000003
-0.050991431 0.076172389 0.66100001
-0.049732383 0.076172389 0.66100001
-0.048473336 0.076172389 0.66100001
-0.04714286 0.076057151 0.66000003
-0.045885716 0.076057151 0.66000003
-0.044831432 0.076402865 0.66300005
-0.043568574 0.076402865 0.66300005
-0.042305715 0.076402865 0.66300005
-0.040980954 0.076287627 0.66200006
-0.039720003 0.076287627 0.66200006
-0.038517144 0.076402865 0.66300005
-0.037198097 0.076287627 0.66200006
-0.03588286 0.076172389 0.66100001
-0.034623813 0.076172389 0.66100001
-0.033364765 0.076172389 0.66100001
-0.032105718 0.076172389 0.66100001
-0.030846668 0.076172389 0.66100001
-0.029587621 0.076172389 0.66100001
-0.028371431 0.076287627 0.66200006
-0.027069526 0.076172389 0.66100001
-0.025810478 0.076172389 0.66100001
-0.024588574 0.076287627 0.66200006
-0.023327621 0.076287627 0.66200006
-0.022066668 0.076287627 0.66200006
-0.020805717 0.076287627 0.66200006
-0.019574286 0.076402865 0.66300005
-0.01831143 0.076402865 0.66300005
-0.017100001 0.076633342 0.66500002
-0.015785715 0.076402865 0.66300005
-0.014522858 0.076402865 0.66300005
-0.075711437 0.076962866 0.65700001
-0.074460007 0.076962866 0.65700001
-0.073320001 0.077080004 0.65800005
-0.072285719 0.077314287 0.66000003
-0.071028575 0.077314287 0.66000003
-0.069771431 0.077314287 0.66000003
-0.068618096 0.077431433 0.66100001
-0.067460954 0.077548578 0.66200006
-0.066200003 0.077548578 0.66200006
-0.064939052 0.077548578 0.66200006
-0.063678101 0.077548578 0.66200006
-0.062417146 0.077548578 0.66200006
-0.061248574 0.077665716 0.66300005
-0.05998572 0.077665716 0.66300005
-0.058634289 0.077548578 0.66200006
-0.057373337 0.077548578 0.66200006
-0.056112386 0.077548578 0.66200006
-0.054851431 0.077548578 0.66200006
-0.053509526 0.077431433 0.66100001
-0.052171431 0.077314287 0.66000003
-0.050991431 0.077431433 0.66100001
-0.049732383 0.077431433 0.66100001
-0.048546668 0.077548578 0.66200006
-0.04714286 0.077314287 0.66000003
-0.046024766 0.077548578 0.66200006
-0.044831432 0.077665716 0.66300005
-0.043568574 0.077665716 0.66300005
-0.042305715 0.077665716 0.66300005
-0.041042861 0.077665716 0.66300005
-0.039720003 0.077548578 0.66200006
-0.038517144 0.077665716 0.66300005
-0.037198097 0.077548578 0.66200006
-0.035937145 0.077548578 0.66200006
-0.034676194 0.077548578 0.66200006
-0.033465717 0.077665716 0.66300005
-0.032154288 0.077548578 0.66200006
-0.030940002 0.077665716 0.66300005
-0.029632382 0.077548578 0.66200006
-0.028414287 0.077665716 0.66300005
-0.027110478 0.077548578 0.66200006
-0.025849525 0.077548578 0.66200006
-0.024588574 0.077548578 0.66200006
-0.023362858 0.077665716 0.66300005
-0.022100002 0.077665716 0.66300005
-0.020805717 0.077548578 0.66200006
-0.019574286 0.077665716 0.66300005
-0.018366668 0.077900007 0.66500002
-0.017100001 0.077900007 0.66500002
-0.015785715 0.077665716 0.66300005
-0.014522858 0.077665716 0.66300005
-0.075711437 0.078214288 0.65700001
-0.074460007 0.078214288 0.65700001
-0.073320001 0.078333341 0.65800005
-0.072285719 0.078571431 0.66000003
-0.071028575 0.078571431 0.66000003
-0.069877148 0.078690484 0.66100001
-0.068721913 0.07880953 0.66200006
-0.067562863 0.078928575 0.66300005
-0.066300005 0.078928575 0.66300005
-0.065037146 0.078928575 0.66300005
-0.063774288 0.078928575 0.66300005
-0.062511429 0.078928575 0.66300005
-0.061248574 0.078928575 0.66300005
-0.05998572 0.078928575 0.66300005
-0.058722861 0.078928575 0.66300005
-0.057460003 0.078928575 0.66300005
-0.056112386 0.07880953 0.66200006
-0.054851431 0.07880953 0.66200006
-0.05359048 0.07880953 0.66200006
-0.052329529 0.07880953 0.66200006
-0.051145718 0.078928575 0.66300005
-0.049882859 0.078928575 0.66300005
-0.048620004 0.078928575 0.66300005
-0.047357146 0.078928575 0.66300005
-0.046094287 0.078928575 0.66300005
-0.044831432 0.078928575 0.66300005
-0.043568574 0.078928575 0.66300005
-0.042305715 0.078928575 0.66300005
-0.041042861 0.078928575 0.66300005
-0.039780002 0.078928575 0.66300005
-0.038517144 0.078928575 0.66300005
-0.037254289 0.078928575 0.66300005
-0.03599143 0.078928575 0.66300005
-0.034728575 0.078928575 0.66300005
-0.033465717 0.078928575 0.66300005
-0.032202858 0.078928575 0.66300005
-0.030940002 0.078928575 0.66300005
-0.029677145 0.078928575 0.66300005
-0.028414287 0.078928575 0.66300005
-0.02715143 0.078928575 0.66300005
-0.025888573 0.078928575 0.66300005
-0.024625717 0.078928575 0.66300005
-0.023362858 0.078928575 0.66300005
-0.022100002 0.078928575 0.66300005
-0.020837145 0.078928575 0.66300005
-0.019574286 0.078928575 0.66300005
-0.01831143 0.078928575 0.66300005
-0.017100001 0.079166673 0.66500002
-0.015785715 0.078928575 0.66300005
-0.014566667 0.079166673 0.66500002
-0.075596198 0.079344764 0.65600002
-0.074460007 0.079465717 0.65700001
-0.073542863 0.079828575 0.66000003
-0.072395243 0.079949528 0.66100001
-0.071243815 0.080070481 0.66200006
-0.069982864 0.080070481 0.66200006
-0.068825722 0.080191433 0.66300005
-0.067562863 0.080191433 0.66300005
-0.066300005 0.080191433 0.66300005
-0.065037146 0.080191433 0.66300005
-0.063774288 0.080191433 0.66300005
-0.062511429 0.080191433 0.66300005
-0.061248574 0.080191433 0.66300005
-0.05998572 0.080191433 0.66300005
-0.058722861 0.080191433 0.66300005
-0.057460003 0.080191433 0.66300005
-0.056197148 0.080191433 0.66300005
-0.054934289 0.080191433 0.66300005
-0.053671431 0.080191433 0.66300005
-0.052408576 0.080191433 0.66300005
-0.051145718 0.080191433 0.66300005
-0.049882859 0.080191433 0.66300005
-0.048620004 0.080191433 0.66300005
-0.047357146 0.080191433 0.66300005
-0.046094287 0.080191433 0.66300005
-0.044966668 0.080433339 0.66500002
-0.043700002 0.080433339 0.66500002
-0.042305715 0.080191433 0.66300005
-0.041042861 0.080191433 0.66300005
-0.039780002 0.080191433 0.66300005
-0.038517144 0.080191433 0.66300005
-0.037254289 0.080191433 0.66300005
-0.03599143 0.080191433 0.66300005
-0.034833334 0.080433339 0.66500002
-0.033566669 0.080433339 0.66500002
-0.032300003 0.080433339 0.66500002
-0.031033335 0.080433339 0.66500002
-0.029766669 0.080433339 0.66500002
-0.028500002 0.080433339 0.66500002
-0.027233334 0.080433339 0.66500002
-0.025966669 0.080433339 0.66500002
-0.024700001 0.080433339 0.66500002
-0.023433335 0.080433339 0.66500002
-0.022166668 0.080433339 0.66500002
-0.020900002 0.080433339 0.66500002
-0.019633334 0.080433339 0.66500002
-0.018366668 0.080433339 0.66500002
-0.017100001 0.080433339 0.66500002
-0.015785715 0.080191433 0.66300005
-0.075026669 0.081331432 0.66200006
-0.073765717 0.081331432 0.66200006
-0.072504766 0.081331432 0.66200006
-0.071351431 0.081454292 0.66300005
-0.070300005 0.081700005 0.66500002
-0.06903334 0.081700005 0.66500002
-0.067562863 0.081454292 0.66300005
-0.066500001 0.081700005 0.66500002
-0.065037146 0.081454292 0.66300005
-0.063774288 0.081454292 0.66300005
-0.062511429 0.081454292 0.66300005
-0.061433338 0.081700005 0.66500002
-0.060166672 0.081700005 0.66500002
-0.058722861 0.081454292 0.66300005
-0.057460003 0.081454292 0.66300005
-0.056197148 0.081454292 0.66300005
-0.054934289 0.081454292 0.66300005
-0.053671431 0.081454292 0.66300005
-0.052408576 0.081454292 0.66300005
-0.051300004 0.081700005 0.66500002
-0.050033338 0.081700005 0.66500002
-0.048766669 0.081700005 0.66500002
-0.047357146 0.081454292 0.66300005
-0.046233337 0.081700005 0.66500002
-0.044966668 0.081700005 0.66500002
-0.043700002 0.081700005 0.66500002
-0.042433336 0.081700005 0.66500002
-0.041166671 0.081700005 0.66500002
-0.039900001 0.081700005 0.66500002
-0.038633335 0.081700005 0.66500002
-0.03736667 0.081700005 0.66500002
-0.036100004 0.081700005 0.66500002
-0.034833334 0.081700005 0.66500002
-0.033566669 0.081700005 0.66500002
-0.032300003 0.081700005 0.66500002
-0.031033335 0.081700005 0.66500002
-0.029766669 0.081700005 0.66500002
-0.028500002 0.081700005 0.66500002
-0.027233334 0.081700005 0.66500002
-0.025966669 0.081700005 0.66500002
-0.024700001 0.081700005 0.66500002
-0.023433335 0.081700005 0.66500002
-0.022166668 0.081700005 0.66500002
-0.020900002 0.081700005 0.66500002
-0.019633334 0.081700005 0.66500002
-0.018366668 0.081700005 0.66500002
-0.017100001 0.081700005 0.66500002
-0.015833335 0.081700005 0.66500002
-0.073877148 0.08271715 0.66300005
-0.07261429 0.08271715 0.66300005
-0.071566671 0.08296667 0.66500002
-0.070405722 0.08309143 0.66600001
-0.06903334 0.08296667 0.66500002
-0.067766674 0.08296667 0.66500002
-0.066500001 0.08296667 0.66500002
-0.065233335 0.08296667 0.66500002
-0.063966669 0.08296667 0.66500002
-0.062700003 0.08296667 0.66500002
-0.061433338 0.08296667 0.66500002
-0.060166672 0.08296667 0.66500002
-0.058900002 0.08296667 0.66500002
-0.057633337 0.08296667 0.66500002
-0.056366671 0.08296667 0.66500002
-0.055100005 0.08296667 0.66500002
-0.053833336 0.08296667 0.66500002
-0.052408576 0.08271715 0.66300005
-0.051300004 0.08296667 0.66500002
-0.050033338 0.08296667 0.66500002
-0.048766669 0.08296667 0.66500002
-0.047500003 0.08296667 0.66500002
-0.046233337 0.08296667 0.66500002
-0.044966668 0.08296667 0.66500002
-0.043700002 0.08296667 0.66500002
-0.042433336 0.08296667 0.66500002
-0.041166671 0.08296667 0.66500002
-0.039960004 0.08309143 0.66600001
-0.038633335 0.08296667 0.66500002
-0.03736667 0.08296667 0.66500002
-0.036100004 0.08296667 0.66500002
-0.034885716 0.08309143 0.66600001
-0.033566669 0.08296667 0.66500002
-0.032300003 0.08296667 0.66500002
-0.031080002 0.08309143 0.66600001
-0.029766669 0.08296667 0.66500002
-0.028542859 0.08309143 0.66600001
-0.027274288 0.08309143 0.66600001
-0.026005715 0.08309143 0.66600001
-0.024737144 0.08309143 0.66600001
-0.023468573 0.08309143 0.66600001
-0.022200001 0.08309143 0.66600001
-0.02093143 0.08309143 0.66600001
-0.019662859 0.08309143 0.66600001
-0.018366668 0.08296667 0.66500002
-0.017100001 0.08296667 0.66500002
-0.015833335 0.08296667 0.66500002
-0.07294286 0.084360003 0.66600001
-0.071674287 0.084360003 0.66600001
-0.070511431 0.084486671 0.66700006
-0.069137149 0.084360003 0.66600001
-0.067868575 0.084360003 0.66600001
-0.066600002 0.084360003 0.66600001
-0.065233335 0.084233336 0.66500002
-0.063966669 0.084233336 0.66500002
-0.062700003 0.084233336 0.66500002
-0.061433338 0.084233336 0.66500002
-0.060166672 0.084233336 0.66500002
-0.058900002 0.084233336 0.66500002
-0.057633337 0.084233336 0.66500002
-0.056366671 0.084233336 0.66500002
-0.055100005 0.084233336 0.66500002
-0.053833336 0.084233336 0.66500002
-0.05256667 0.084233336 0.66500002
-0.051300004 0.084233336 0.66500002
-0.050033338 0.084233336 0.66500002
-0.048766669 0.084233336 0.66500002
-0.047500003 0.084233336 0.66500002
-0.046302859 0.084360003 0.66600001
-0.045034289 0.084360003 0.66600001
-0.043700002 0.084233336 0.66500002
-0.042497147 0.084360003 0.66600001
-0.041166671 0.084233336 0.66500002
-0.039960004 0.084360003 0.66600001
-0.038691431 0.084360003 0.66600001
-0.03736667 0.084233336 0.66500002
-0.036154289 0.084360003 0.66600001
-0.034885716 0.084360003 0.66600001
-0.033617146 0.084360003 0.66600001
-0.032348573 0.084360003 0.66600001
-0.031126669 0.084486671 0.66700006
-0.029811431 0.084360003 0.66600001
-0.028585717 0.084486671 0.66700006
-0.02731524 0.084486671 0.66700006
-0.026044764 0.084486671 0.66700006
-0.024848573 0.084740005 0.66900003
-0.023574287 0.084740005 0.66900003
-0.022200001 0.084360003 0.66600001
-0.021025715 0.084740005 0.66900003
-0.01975143 0.084740005 0.66900003
-0.018477144 0.084740005 0.66900003
-0.017202858 0.084740005 0.66900003
-0.015928572 0.084740005 0.66900003
-0.075820006 0.086014293 0.66900003
-0.074211434 0.085628577 0.66600001
-0.07294286 0.085628577 0.66600001
-0.071997151 0.086014293 0.66900003
-0.070722863 0.086014293 0.66900003
-0.069240957 0.085757151 0.66700006
-0.067970477 0.085757151 0.66700006
-0.066600002 0.085628577 0.66600001
-0.065331429 0.085628577 0.66600001
-0.064062864 0.085628577 0.66600001
-0.06279429 0.085628577 0.66600001
-0.061433338 0.085500002 0.66500002
-0.060166672 0.085500002 0.66500002
-0.058900002 0.085500002 0.66500002
-0.057633337 0.085500002 0.66500002
-0.056366671 0.085500002 0.66500002
-0.055100005 0.085500002 0.66500002
-0.053833336 0.085500002 0.66500002
-0.05256667 0.085500002 0.66500002
-0.051300004 0.085500002 0.66500002
-0.050033338 0.085500002 0.66500002
-0.048766669 0.085500002 0.66500002
-0.047500003 0.085500002 0.66500002
-0.046302859 0.085628577 0.66600001
-0.045034289 0.085628577 0.66600001
-0.043765716 0.085628577 0.66600001
-0.042497147 0.085628577 0.66600001
-0.041228574 0.085628577 0.66600001
-0.040020004 0.085757151 0.66700006
-0.038691431 0.085628577 0.66600001
-0.037422858 0.085628577 0.66600001
-0.036154289 0.085628577 0.66600001
-0.034938097 0.085757151 0.66700006
-0.03366762 0.085757151 0.66700006
-0.032397144 0.085757151 0.66700006
-0.031126669 0.085757151 0.66700006
-0.029856192 0.085757151 0.66700006
-0.02867143 0.086014293 0.66900003
-0.027397145 0.086014293 0.66900003
-0.026122859 0.086014293 0.66900003
-0.024848573 0.086014293 0.66900003
-0.023574287 0.086014293 0.66900003
-0.022300001 0.086014293 0.66900003
-0.021025715 0.086014293 0.66900003
-0.01975143 0.086014293 0.66900003
-0.018421905 0.085757151 0.66700006
-0.01715143 0.085757151 0.66700006
-0.015952382 0.08614286 0.67000002
-0.074545719 0.087288581 0.66900003
-0.073271431 0.087288581 0.66900003
-0.071997151 0.087288581 0.66900003
-0.070722863 0.087288581 0.66900003
-0.069448575 0.087288581 0.66900003
-0.067970477 0.087027624 0.66700006
-0.066700004 0.087027624 0.66700006
-0.065429531 0.087027624 0.66700006
-0.064159051 0.087027624 0.66700006
-0.062888578 0.087027624 0.66700006
-0.061618101 0.087027624 0.66700006
-0.060347624 0.087027624 0.66700006
-0.059077147 0.087027624 0.66700006
-0.057806671 0.087027624 0.66700006
-0.056536194 0.087027624 0.66700006
-0.055265717 0.087027624 0.66700006
-0.05399524 0.087027624 0.66700006
-0.052724764 0.087027624 0.66700006
-0.051454291 0.087027624 0.66700006
-0.050108574 0.08689715 0.66600001
-0.048913337 0.087027624 0.66700006
-0.047642861 0.087027624 0.66700006
-0.046372384 0.087027624 0.66700006
-0.045101907 0.087027624 0.66700006
-0.04383143 0.087027624 0.66700006
-0.042560954 0.087027624 0.66700006
-0.041290481 0.087027624 0.66700006
-0.040020004 0.087027624 0.66700006
-0.038749527 0.087027624 0.66700006
-0.03747905 0.087027624 0.66700006
-0.036208574 0.087027624 0.66700006
-0.03504286 0.087288581 0.66900003
-0.03366762 0.087027624 0.66700006
-0.032494288 0.087288581 0.66900003
-0.031220002 0.087288581 0.66900003
-0.029945716 0.087288581 0.66900003
-0.028714288 0.087419055 0.67000002
-0.027397145 0.087288581 0.66900003
-0.026122859 0.087288581 0.66900003
-0.024885716 0.087419055 0.67000002
-0.023609525 0.087419055 0.67000002
-0.022300001 0.087288581 0.66900003
-0.021057144 0.087419055 0.67000002
-0.019780954 0.087419055 0.67000002
-0.018477144 0.087288581 0.66900003
-0.017202858 0.087288581 0.66900003
-0.074545719 0.088562861 0.66900003
-0.073271431 0.088562861 0.66900003
-0.071997151 0.088562861 0.66900003
-0.070722863 0.088562861 0.66900003
-0.069448575 0.088562861 0.66900003
-0.068174288 0.088562861 0.66900003
-0.066900007 0.088562861 0.66900003
-0.06562572 0.088562861 0.66900003
-0.064159051 0.088298105 0.66700006
-0.062888578 0.088298105 0.66700006
-0.061618101 0.088298105 0.66700006
-0.060347624 0.088298105 0.66700006
-0.059077147 0.088298105 0.66700006
-0.057806671 0.088298105 0.66700006
-0.056705717 0.088562861 0.66900003
-0.055265717 0.088298105 0.66700006
-0.05399524 0.088298105 0.66700006
-0.052882861 0.088562861 0.66900003
-0.051608574 0.088562861 0.66900003
-0.050183814 0.088298105 0.66700006
-0.049060002 0.088562861 0.66900003
-0.047785718 0.088562861 0.66900003
-0.04651143 0.088562861 0.66900003
-0.045237146 0.088562861 0.66900003
-0.043962859 0.088562861 0.66900003
-0.042688575 0.088562861 0.66900003
-0.041414287 0.088562861 0.66900003
-0.040140003 0.088562861 0.66900003
-0.038865715 0.088562861 0.66900003
-0.037591431 0.088562861 0.66900003
-0.036317144 0.088562861 0.66900003
-0.03504286 0.088562861 0.66900003
-0.033768572 0.088562861 0.66900003
-0.032494288 0.088562861 0.66900003
-0.031220002 0.088562861 0.66900003
-0.029990477 0.088695243 0.67000002
-0.028714288 0.088695243 0.67000002
-0.027438097 0.088695243 0.67000002
-0.026161907 0.088695243 0.67000002
-0.024885716 0.088695243 0.67000002
-0.023609525 0.088695243 0.67000002
