# .PCD v0.7 - Point Cloud Data file format
VERSION 0.7
FIELDS x y z
SIZE 4 4 4
TYPE F F F
COUNT 1 1 1
WIDTH 1341
HEIGHT 1
VIEWPOINT 0 0 0 1 0 0 0
POINTS 1341
DATA ascii
-0.042293336 0.064480007 0.72800004
-0.040906668 0.064480007 0.72800004
-0.039574288 0.064568579 0.72900003
-0.038185716 0.064568579 0.72900003
-0.036797144 0.064568579 0.72900003
-0.035360001 0.064480007 0.72800004
-0.033973336 0.064480007 0.72800004
-0.032586668 0.064480007 0.72800004
-0.031200003 0.064480007 0.72800004
-0.02973143 0.064302862 0.72600001
-0.028348573 0.064302862 0.72600001
-0.026965717 0.064302862 0.72600001
-0.025582859 0.064302862 0.72600001
-0.024200002 0.064302862 0.72600001
-0.022817144 0.064302862 0.72600001
-0.021434287 0.064302862 0.72600001
-0.020051429 0.064302862 0.72600001
-0.018642858 0.064214289 0.72500002
-0.017261906 0.064214289 0.72500002
-0.015902858 0.064302862 0.72600001
-0.014520001 0.064302862 0.72600001
-0.013137144 0.064302862 0.72600001
-0.011738096 0.064214289 0.72500002
-0.010357143 0.064214289 0.72500002
-0.0089761913 0.064214289 0.72500002
-0.0075952387 0.064214289 0.72500002
-0.0062142862 0.064214289 0.72500002
-0.0048333337 0.064214289 0.72500002
-0.0034523811 0.064214289 0.72500002
-0.0020742859 0.064302862 0.72600001
-0.00069047621 0.064214289 0.72500002
0.00069047621 0.064214289 0.72500002
0.0020714288 0.064214289 0.72500002
0.0034523811 0.064214289 0.72500002
0.0048333337 0.064214289 0.72500002
0.0062142862 0.064214289 0.72500002
0.0075952387 0.064214289 0.72500002
0.0089514293 0.064037144 0.72300005
0.010357143 0.064214289 0.72500002
0.011705715 0.064037144 0.72300005
0.013082858 0.064037144 0.72300005
0.014500001 0.064214289 0.72500002
0.015902858 0.064302862 0.72600001
0.017285716 0.064302862 0.72600001
0.018668573 0.064302862 0.72600001
0.020134287 0.064568579 0.72900003
0.021522859 0.064568579 0.72900003
0.023068573 0.065011434 0.73400003
-0.059014291 0.065957144 0.72900003
-0.057546671 0.065866672 0.72800004
-0.056005716 0.065685719 0.72600001
-0.054622862 0.065685719 0.72600001
-0.053240005 0.065685719 0.72600001
-0.051857147 0.065685719 0.72600001
-0.05047429 0.065685719 0.72600001
-0.049023814 0.065595239 0.72500002
-0.047708575 0.065685719 0.72600001
-0.046325717 0.065685719 0.72600001
-0.04494286 0.065685719 0.72600001
-0.043560002 0.065685719 0.72600001
-0.042177144 0.065685719 0.72600001
-0.040906668 0.065866672 0.72800004
-0.039520003 0.065866672 0.72800004
-0.038133334 0.065866672 0.72800004
-0.03674667 0.065866672 0.72800004
-0.03526286 0.065685719 0.72600001
-0.033880003 0.065685719 0.72600001
-0.032497145 0.065685719 0.72600001
-0.031114288 0.065685719 0.72600001
-0.02973143 0.065685719 0.72600001
-0.028348573 0.065685719 0.72600001
-0.026965717 0.065685719 0.72600001
-0.025582859 0.065685719 0.72600001
-0.024200002 0.065685719 0.72600001
-0.022817144 0.065685719 0.72600001
-0.021434287 0.065685719 0.72600001
-0.020023812 0.065595239 0.72500002
-0.01859143 0.065414287 0.72300005
-0.017214287 0.065414287 0.72300005
-0.015880954 0.065595239 0.72500002
-0.014500001 0.065595239 0.72500002
-0.013119048 0.065595239 0.72500002
-0.011738096 0.065595239 0.72500002
-0.010357143 0.065595239 0.72500002
-0.0089761913 0.065595239 0.72500002
-0.0075952387 0.065595239 0.72500002
-0.0061971433 0.065414287 0.72300005
-0.0048200004 0.065414287 0.72300005
-0.0034428574 0.065414287 0.72300005
-0.0020714288 0.065595239 0.72500002
-0.00068857148 0.065414287 0.72300005
0.00069047621 0.065595239 0.72500002
0.0020714288 0.065595239 0.72500002
0.0034523811 0.065595239 0.72500002
0.0048333337 0.065595239 0.72500002
0.0061971433 0.065414287 0.72300005
0.0075638099 0.065323815 0.72200006
0.0089142863 0.065142862 0.72000003
0.010357143 0.065595239 0.72500002
0.011738096 0.065595239 0.72500002
0.013119048 0.065595239 0.72500002
0.014500001 0.065595239 0.72500002
0.015880954 0.065595239 0.72500002
0.017261906 0.065595239 0.72500002
0.018642858 0.065595239 0.72500002
0.020106668 0.065866672 0.72800004
0.021434287 0.065685719 0.72600001
-0.057388574 0.067068577 0.72600001
-0.056005716 0.067068577 0.72600001
-0.054547623 0.066976197 0.72500002
-0.053166669 0.066976197 0.72500002
-0.051785719 0.066976197 0.72500002
-0.050265718 0.06679143 0.72300005
-0.048888575 0.06679143 0.72300005
-0.047511432 0.06679143 0.72300005
-0.046134289 0.06679143 0.72300005
-0.044757146 0.06679143 0.72300005
-0.043380003 0.06679143 0.72300005
-0.04200286 0.06679143 0.72300005
-0.040738098 0.066976197 0.72500002
-0.039357144 0.066976197 0.72500002
-0.037976194 0.066976197 0.72500002
-0.03659524 0.066976197 0.72500002
-0.035214286 0.066976197 0.72500002
-0.033693336 0.06669905 0.72200006
-0.032318097 0.06669905 0.72200006
-0.030942859 0.06669905 0.72200006
-0.029567622 0.06669905 0.72200006
-0.028309526 0.066976197 0.72500002
-0.026928574 0.066976197 0.72500002
-0.02554762 0.066976197 0.72500002
-0.024166668 0.066976197 0.72500002
-0.022785716 0.066976197 0.72500002
-0.021404764 0.066976197 0.72500002
-0.019968573 0.06679143 0.72300005
-0.018565716 0.06669905 0.72200006
-0.017190477 0.06669905 0.72200006
-0.015837144 0.06679143 0.72300005
-0.014460001 0.06679143 0.72300005
-0.013082858 0.06679143 0.72300005
-0.011705715 0.06679143 0.72300005
-0.010357143 0.066976197 0.72500002
-0.0089761913 0.066976197 0.72500002
-0.0075952387 0.066976197 0.72500002
-0.0061971433 0.06679143 0.72300005
-0.0048200004 0.06679143 0.72300005
-0.0034428574 0.06679143 0.72300005
-0.0020657144 0.06679143 0.72300005
-0.00068761909 0.06669905 0.72200006
0.00068857148 0.06679143 0.72300005
0.0020628574 0.06669905 0.72200006
0.0034428574 0.06679143 0.72300005
0.0048200004 0.06679143 0.72300005
0.0061885719 0.06669905 0.72200006
0.0075428574 0.066514291 0.72000003
0.0089142863 0.066514291 0.72000003
0.010271429 0.066421911 0.71900004
0.011657144 0.066514291 0.72000003
0.013082858 0.06679143 0.72300005
0.014460001 0.06679143 0.72300005
0.015837144 0.06679143 0.72300005
0.017214287 0.06679143 0.72300005
0.01859143 0.06679143 0.72300005
0.019968573 0.06679143 0.72300005
-0.057151433 0.068168573 0.72300005
-0.05577429 0.068168573 0.72300005
-0.054397147 0.068168573 0.72300005
-0.053020004 0.068168573 0.72300005
-0.051642861 0.068168573 0.72300005
-0.050196193 0.068074293 0.72200006
-0.048820954 0.068074293 0.72200006
-0.047445718 0.068074293 0.72200006
-0.046070479 0.068074293 0.72200006
-0.04469524 0.068074293 0.72200006
-0.043320004 0.068074293 0.72200006
-0.041944765 0.068074293 0.72200006
-0.040625717 0.068168573 0.72300005
-0.039248575 0.068168573 0.72300005
-0.037871432 0.068168573 0.72300005
-0.036494289 0.068168573 0.72300005
-0.035068575 0.068074293 0.72200006
-0.033600003 0.067885719 0.72000003
-0.032228574 0.067885719 0.72000003
-0.030857146 0.067885719 0.72000003
-0.029485716 0.067885719 0.72000003
-0.028114287 0.067885719 0.72000003
-0.026854288 0.068168573 0.72300005
-0.025477145 0.068168573 0.72300005
-0.024166668 0.068357147 0.72500002
-0.022722859 0.068168573 0.72300005
-0.021345716 0.068168573 0.72300005
-0.019940954 0.068074293 0.72200006
-0.018514287 0.067885719 0.72000003
-0.017142858 0.067885719 0.72000003
-0.015815239 0.068074293 0.72200006
-0.014440001 0.068074293 0.72200006
-0.013064763 0.068074293 0.72200006
-0.011705715 0.068168573 0.72300005
-0.010328572 0.068168573 0.72300005
-0.0089514293 0.068168573 0.72300005
-0.0075742863 0.068168573 0.72300005
-0.0061885719 0.068074293 0.72200006
-0.0048133335 0.068074293 0.72200006
-0.0034380956 0.068074293 0.72200006
-0.002057143 0.067885719 0.72000003
-0.0006857143 0.067885719 0.72000003
0.0006857143 0.067885719 0.72000003
0.002057143 0.067885719 0.72000003
0.0034285716 0.067885719 0.72000003
0.0048000002 0.067885719 0.72000003
0.0061628576 0.067791432 0.71900004
0.0075323815 0.067791432 0.71900004
0.0089019053 0.067791432 0.71900004
0.010271429 0.067791432 0.71900004
0.011640953 0.067791432 0.71900004
0.013010477 0.067791432 0.71900004
0.014380001 0.067791432 0.71900004
0.015749525 0.067791432 0.71900004
0.017119048 0.067791432 0.71900004
0.018565716 0.068074293 0.72200006
0.019940954 0.068074293 0.72200006
-0.057072386 0.069449529 0.72200006
-0.05554286 0.069257148 0.72000003
-0.054171432 0.069257148 0.72000003
-0.052800003 0.069257148 0.72000003
-0.051428575 0.069257148 0.72000003
-0.050057147 0.069257148 0.72000003
-0.048685718 0.069257148 0.72000003
-0.04731429 0.069257148 0.72000003
-0.045942862 0.069257148 0.72000003
-0.044571433 0.069257148 0.72000003
-0.043200001 0.069257148 0.72000003
-0.041770481 0.069160961 0.71900004
-0.040457144 0.069257148 0.72000003
-0.039085716 0.069257148 0.72000003
-0.037714288 0.069257148 0.72000003
-0.036342859 0.069257148 0.72000003
-0.034971431 0.069257148 0.72000003
-0.033600003 0.069257148 0.72000003
-0.032228574 0.069257148 0.72000003
-0.030857146 0.069257148 0.72000003
-0.029485716 0.069257148 0.72000003
-0.028114287 0.069257148 0.72000003
-0.026817145 0.069449529 0.72200006
-0.025441907 0.069449529 0.72200006
-0.024066668 0.069449529 0.72200006
-0.022691431 0.069449529 0.72200006
-0.021316191 0.069449529 0.72200006
-0.019885715 0.069257148 0.72000003
-0.018488573 0.069160961 0.71900004
-0.01707143 0.068968579 0.71700001
-0.015749525 0.069160961 0.71900004
-0.014380001 0.069160961 0.71900004
-0.013028572 0.069257148 0.72000003
-0.011689524 0.069449529 0.72200006
-0.010314287 0.069449529 0.72200006
-0.0089390483 0.069449529 0.72200006
-0.0075638099 0.069449529 0.72200006
-0.0061714291 0.069257148 0.72000003
-0.0048000002 0.069257148 0.72000003
-0.0034285716 0.069257148 0.72000003
-0.002054286 0.069160961 0.71900004
-0.00068476197 0.069160961 0.71900004
0.00068476197 0.069160961 0.71900004
0.0020485716 0.068968579 0.71700001
0.0034238098 0.069160961 0.71900004
0.0047800005 0.068968579 0.71700001
0.0061457148 0.068968579 0.71700001
0.007511429 0.068968579 0.71700001
0.0088771433 0.068968579 0.71700001
0.010242858 0.068968579 0.71700001
0.011608572 0.068968579 0.71700001
0.012974286 0.068968579 0.71700001
0.014340001 0.068968579 0.71700001
0.015705716 0.068968579 0.71700001
0.01707143 0.068968579 0.71700001
0.018437143 0.068968579 0.71700001
0.019940954 0.069449529 0.72200006
-0.059574291 0.070530482 0.71900004
-0.058204766 0.070530482 0.71900004
-0.056835242 0.070530482 0.71900004
-0.055465717 0.070530482 0.71900004
-0.054096196 0.070530482 0.71900004
-0.052726671 0.070530482 0.71900004
-0.051357146 0.070530482 0.71900004
-0.049987622 0.070530482 0.71900004
-0.048618097 0.070530482 0.71900004
-0.047248576 0.070530482 0.71900004
-0.045879051 0.070530482 0.71900004
-0.044509526 0.070530482 0.71900004
-0.043140002 0.070530482 0.71900004
-0.041770481 0.070530482 0.71900004
-0.040288575 0.070334293 0.71700001
-0.038922861 0.070334293 0.71700001
-0.037557144 0.070334293 0.71700001
-0.03619143 0.070334293 0.71700001
-0.034922861 0.070530482 0.71900004
-0.033553336 0.070530482 0.71900004
-0.032183811 0.070530482 0.71900004
-0.030814288 0.070530482 0.71900004
-0.029444763 0.070530482 0.71900004
-0.028075241 0.070530482 0.71900004
-0.026705716 0.070530482 0.71900004
-0.025336193 0.070530482 0.71900004
-0.023966668 0.070530482 0.71900004
-0.022597143 0.070530482 0.71900004
-0.021227621 0.070530482 0.71900004
-0.019802859 0.070334293 0.71700001
-0.01841143 0.070236199 0.71600002
-0.017000001 0.070040002 0.71400005
-0.015705716 0.070334293 0.71700001
-0.014320001 0.070236199 0.71600002
-0.012974286 0.070334293 0.71700001
-0.011608572 0.070334293 0.71700001
-0.010271429 0.070530482 0.71900004
-0.0089019053 0.070530482 0.71900004
-0.0075323815 0.070530482 0.71900004
-0.0061457148 0.070334293 0.71700001
-0.0047800005 0.070334293 0.71700001
-0.0034142858 0.070334293 0.71700001
-0.0020485716 0.070334293 0.71700001
-0.00068190478 0.070236199 0.71600002
0.00068190478 0.070236199 0.71600002
0.0020457145 0.070236199 0.71600002
0.0034142858 0.070334293 0.71700001
0.0047800005 0.070334293 0.71700001
0.0061371434 0.070236199 0.71600002
0.007511429 0.070334293 0.71700001
0.0088647623 0.070236199 0.71600002
0.010228572 0.070236199 0.71600002
0.011592382 0.070236199 0.71600002
0.012956192 0.070236199 0.71600002
0.014320001 0.070236199 0.71600002
0.015683811 0.070236199 0.71600002
0.017047619 0.070236199 0.71600002
0.01841143 0.070236199 0.71600002
0.01977524 0.070236199 0.71600002
-0.059325717 0.071600005 0.71600002
-0.057961907 0.071600005 0.71600002
-0.056598101 0.071600005 0.71600002
-0.055234291 0.071600005 0.71600002
-0.053945716 0.071700007 0.71700001
-0.052580003 0.071700007 0.71700001
-0.051214289 0.071700007 0.71700001
-0.049848575 0.071700007 0.71700001
-0.048482861 0.071700007 0.71700001
-0.047117148 0.071700007 0.71700001
-0.04575143 0.071700007 0.71700001
-0.044385716 0.071700007 0.71700001
-0.043020003 0.071700007 0.71700001
-0.041654289 0.071700007 0.71700001
-0.040232383 0.071600005 0.71600002
-0.038868573 0.071600005 0.71600002
-0.037504766 0.071600005 0.71600002
-0.036040001 0.071400002 0.71400005
-0.034680001 0.071400002 0.71400005
-0.033460002 0.071700007 0.71700001
-0.032094289 0.071700007 0.71700001
-0.030728573 0.071700007 0.71700001
-0.029362859 0.071700007 0.71700001
-0.027997145 0.071700007 0.71700001
-0.02663143 0.071700007 0.71700001
-0.025265716 0.071700007 0.71700001
-0.023866668 0.071600005 0.71600002
-0.022502858 0.071600005 0.71600002
-0.02113905 0.071600005 0.71600002
-0.01977524 0.071600005 0.71600002
-0.018360002 0.071400002 0.71400005
-0.016976191 0.071300007 0.71300006
-0.015618096 0.071300007 0.71300006
-0.014260001 0.071300007 0.71300006
-0.012920001 0.071400002 0.71400005
-0.01154381 0.071300007 0.71300006
-0.0102 0.071400002 0.71400005
-0.0088400003 0.071400002 0.71400005
-0.007500953 0.071600005 0.71600002
-0.0061200005 0.071400002 0.71400005
-0.0047600004 0.071400002 0.71400005
-0.0034000003 0.071400002 0.71400005
-0.0020400002 0.071400002 0.71400005
-0.00067904766 0.071300007 0.71300006
0.00067904766 0.071300007 0.71300006
0.0020371431 0.071300007 0.71300006
0.0034000003 0.071400002 0.71400005
0.0047600004 0.071400002 0.71400005
0.0061371434 0.071600005 0.71600002
0.007500953 0.071600005 0.71600002
0.0088647623 0.071600005 0.71600002
0.010228572 0.071600005 0.71600002
0.011592382 0.071600005 0.71600002
0.012920001 0.071400002 0.71400005
0.014280001 0.071400002 0.71400005
0.015640002 0.071400002 0.71400005
0.017000001 0.071400002 0.71400005
0.018334286 0.071300007 0.71300006
0.019692382 0.071300007 0.71300006
-0.059325717 0.072963811 0.71600002
-0.057961907 0.072963811 0.71600002
-0.056440003 0.072760008 0.71400005
-0.055080004 0.072760008 0.71400005
-0.053870481 0.072963811 0.71600002
-0.05250667 0.072963811 0.71600002
-0.05114286 0.072963811 0.71600002
-0.049848575 0.07306572 0.71700001
-0.048482861 0.07306572 0.71700001
-0.047117148 0.07306572 0.71700001
-0.04575143 0.07306572 0.71700001
-0.044323813 0.072963811 0.71600002
-0.042960003 0.072963811 0.71600002
-0.041596193 0.072963811 0.71600002
-0.040232383 0.072963811 0.71600002
-0.038760003 0.072760008 0.71400005
-0.037400004 0.072760008 0.71400005
-0.035989527 0.072658099 0.71300006
-0.034631431 0.072658099 0.71300006
-0.033273336 0.072658099 0.71300006
-0.031960003 0.072760008 0.71400005
-0.030600002 0.072760008 0.71400005
-0.029240001 0.072760008 0.71400005
-0.027880002 0.072760008 0.71400005
-0.026520003 0.072760008 0.71400005
-0.025160002 0.072760008 0.71400005
-0.023800002 0.072760008 0.71400005
-0.022440001 0.072760008 0.71400005
-0.021080002 0.072760008 0.71400005
-0.019720001 0.072760008 0.71400005
-0.018334286 0.072658099 0.71300006
-0.016928572 0.072454289 0.71100003
-0.015574287 0.072454289 0.71100003
-0.014220001 0.072454289 0.71100003
-0.012865715 0.072454289 0.71100003
-0.011511429 0.072454289 0.71100003
-0.010185715 0.072658099 0.71300006
-0.0088276193 0.072658099 0.71300006
-0.0074695242 0.072658099 0.71300006
-0.0061114291 0.072658099 0.71300006
-0.0047533335 0.072658099 0.71300006
-0.0033952384 0.072658099 0.71300006
-0.0020371431 0.072658099 0.71300006
-0.00067904766 0.072658099 0.71300006
0.00067904766 0.072658099 0.71300006
0.0020371431 0.072658099 0.71300006
0.0033952384 0.072658099 0.71300006
0.0047533335 0.072658099 0.71300006
0.0061200005 0.072760008 0.71400005
0.0074800006 0.072760008 0.71400005
0.0088400003 0.072760008 0.71400005
0.0102 0.072760008 0.71400005
0.01154381 0.072658099 0.71300006
0.012901906 0.072658099 0.71300006
0.014260001 0.072658099 0.71300006
0.015618096 0.072658099 0.71300006
0.016976191 0.072658099 0.71300006
0.018282859 0.072454289 0.71100003
-0.059077147 0.074016199 0.71300006
-0.057800002 0.074120007 0.71400005
-0.056440003 0.074120007 0.71400005
-0.055080004 0.074120007 0.71400005
-0.053720005 0.074120007 0.71400005
-0.052360002 0.074120007 0.71400005
-0.051000003 0.074120007 0.71400005
-0.049640004 0.074120007 0.71400005
-0.048280004 0.074120007 0.71400005
-0.047051433 0.074327625 0.71600002
-0.045687623 0.074327625 0.71600002
-0.044323813 0.074327625 0.71600002
-0.042840004 0.074120007 0.71400005
-0.041480001 0.074120007 0.71400005
-0.040120002 0.074120007 0.71400005
-0.038760003 0.074120007 0.71400005
-0.037347622 0.074016199 0.71300006
-0.035888575 0.073808573 0.71100003
-0.034534287 0.073808573 0.71100003
-0.033133335 0.073704764 0.71000004
-0.031780954 0.073704764 0.71000004
-0.030471431 0.073808573 0.71100003
-0.029117145 0.073808573 0.71100003
-0.027762858 0.073808573 0.71100003
-0.026408574 0.073808573 0.71100003
-0.025124764 0.074016199 0.71300006
-0.023766669 0.074016199 0.71300006
-0.022408573 0.074016199 0.71300006
-0.021050477 0.074016199 0.71300006
-0.019692382 0.074016199 0.71300006
-0.018282859 0.073808573 0.71100003
-0.016904764 0.073704764 0.71000004
-0.015552382 0.073704764 0.71000004
-0.014160001 0.073497146 0.708
-0.01284762 0.073704764 0.71000004
-0.011495239 0.073704764 0.71000004
-0.010157144 0.073808573 0.71100003
-0.0088028582 0.073808573 0.71100003
-0.0074485717 0.073808573 0.71100003
-0.0060942862 0.073808573 0.71100003
-0.0047400002 0.073808573 0.71100003
-0.0033857145 0.073808573 0.71100003
-0.0020314287 0.073808573 0.71100003
-0.00067714287 0.073808573 0.71100003
0.00067714287 0.073808573 0.71100003
0.0020314287 0.073808573 0.71100003
0.0033952384 0.074016199 0.71300006
0.0047400002 0.073808573 0.71100003
0.0060942862 0.073808573 0.71100003
0.0074695242 0.074016199 0.71300006
0.0088028582 0.073808573 0.71100003
0.010157144 0.073808573 0.71100003
0.011511429 0.073808573 0.71100003
0.012865715 0.073808573 0.71100003
0.014220001 0.073808573 0.71100003
0.015574287 0.073808573 0.71100003
0.016928572 0.073808573 0.71100003
-0.058911432 0.075162865 0.71100003
-0.057719052 0.07537429 0.71300006
-0.056360956 0.07537429 0.71300006
-0.055002861 0.07537429 0.71300006
-0.053644765 0.07537429 0.71300006
-0.05228667 0.07537429 0.71300006
-0.050928574 0.07537429 0.71300006
-0.049570478 0.07537429 0.71300006
-0.048212383 0.07537429 0.71300006
-0.046854287 0.07537429 0.71300006
-0.045560002 0.075480007 0.71400005
-0.044200003 0.075480007 0.71400005
-0.042780004 0.07537429 0.71300006
-0.041421909 0.07537429 0.71300006
-0.040063813 0.07537429 0.71300006
-0.038705718 0.07537429 0.71300006
-0.03724286 0.075162865 0.71100003
-0.035888575 0.075162865 0.71100003
-0.034485716 0.075057149 0.71000004
-0.033133335 0.075057149 0.71000004
-0.031691432 0.074845716 0.708
-0.030342858 0.074845716 0.708
-0.029076193 0.075057149 0.71000004
-0.027723812 0.075057149 0.71000004
-0.026371431 0.075057149 0.71000004
-0.02501905 0.075057149 0.71000004
-0.023700001 0.075162865 0.71100003
-0.022345716 0.075162865 0.71100003
-0.02099143 0.075162865 0.71100003
-0.019637143 0.075162865 0.71100003
-0.018257145 0.075057149 0.71000004
-0.016904764 0.075057149 0.71000004
-0.015552382 0.075057149 0.71000004
-0.014160001 0.074845716 0.708
-0.01284762 0.075057149 0.71000004
-0.011495239 0.075057149 0.71000004
-0.010142858 0.075057149 0.71000004
-0.0087904772 0.075057149 0.71000004
-0.0074380958 0.075057149 0.71000004
-0.0060857148 0.075057149 0.71000004
-0.0047400002 0.075162865 0.71100003
-0.0033809526 0.075057149 0.71000004
-0.0020314287 0.075162865 0.71100003
-0.00067714287 0.075162865 0.71100003
0.00067714287 0.075162865 0.71100003
0.0020285717 0.075057149 0.71000004
0.0033857145 0.075162865 0.71100003
0.0047400002 0.075162865 0.71100003
0.0060942862 0.075162865 0.71100003
0.0074485717 0.075162865 0.71100003
0.0088028582 0.075162865 0.71100003
0.010157144 0.075162865 0.71100003
0.011495239 0.075057149 0.71000004
0.01284762 0.075057149 0.71000004
0.014200001 0.075057149 0.71000004
0.015552382 0.075057149 0.71000004
0.016904764 0.075057149 0.71000004
-0.061533336 0.076409526 0.71000004
-0.060180955 0.076409526 0.71000004
-0.058662862 0.076194294 0.708
-0.057476193 0.076409526 0.71000004
-0.056123812 0.076409526 0.71000004
-0.054771431 0.076409526 0.71000004
-0.05341905 0.076409526 0.71000004
-0.052066669 0.076409526 0.71000004
-0.05057143 0.076194294 0.708
-0.04922286 0.076194294 0.708
-0.04787429 0.076194294 0.708
-0.046525717 0.076194294 0.708
-0.045304764 0.076409526 0.71000004
-0.043952383 0.076409526 0.71000004
-0.042600002 0.076409526 0.71000004
-0.041247621 0.076409526 0.71000004
-0.039951432 0.07651715 0.71100003
-0.038542859 0.076409526 0.71000004
-0.037085716 0.076194294 0.708
-0.035737146 0.076194294 0.708
-0.034340002 0.07608667 0.70700002
-0.032993335 0.07608667 0.70700002
-0.031646669 0.07608667 0.70700002
-0.030300003 0.07608667 0.70700002
-0.028953334 0.07608667 0.70700002
-0.027606668 0.07608667 0.70700002
-0.026260002 0.07608667 0.70700002
-0.024948573 0.076194294 0.708
-0.023600001 0.076194294 0.708
-0.022251431 0.076194294 0.708
-0.020902859 0.076194294 0.708
-0.019554287 0.076194294 0.708
-0.018180002 0.07608667 0.70700002
-0.016833335 0.07608667 0.70700002
-0.015486668 0.07608667 0.70700002
-0.014140001 0.07608667 0.70700002
-0.012793334 0.07608667 0.70700002
-0.011446668 0.07608667 0.70700002
-0.010100001 0.07608667 0.70700002
-0.0087533342 0.07608667 0.70700002
-0.0074066673 0.07608667 0.70700002
-0.0060600005 0.07608667 0.70700002
-0.0047200001 0.076194294 0.708
-0.0033666668 0.07608667 0.70700002
-0.0020228573 0.076194294 0.708
-0.00067428575 0.076194294 0.708
0.00067428575 0.076194294 0.708
0.0020200002 0.07608667 0.70700002
0.0033666668 0.07608667 0.70700002
0.0047133337 0.07608667 0.70700002
0.0060600005 0.07608667 0.70700002
0.0074066673 0.07608667 0.70700002
0.0087533342 0.07608667 0.70700002
0.010100001 0.07608667 0.70700002
0.011446668 0.07608667 0.70700002
0.01281143 0.076194294 0.708
0.014140001 0.07608667 0.70700002
0.015508573 0.076194294 0.708
0.016857143 0.076194294 0.708
-0.062885717 0.077761911 0.71000004
-0.061360005 0.077542864 0.708
-0.060011432 0.077542864 0.708
-0.058662862 0.077542864 0.708
-0.057314288 0.077542864 0.708
-0.055965718 0.077542864 0.708
-0.054617148 0.077542864 0.708
-0.053268574 0.077542864 0.708
-0.051846672 0.07743334 0.70700002
-0.050500002 0.07743334 0.70700002
-0.049153335 0.07743334 0.70700002
-0.047806669 0.07743334 0.70700002
-0.046460003 0.07743334 0.70700002
-0.045113336 0.07743334 0.70700002
-0.04376667 0.07743334 0.70700002
-0.042420004 0.07743334 0.70700002
-0.041131433 0.077542864 0.708
-0.039782859 0.077542864 0.708
-0.038434289 0.077542864 0.708
-0.037033334 0.07743334 0.70700002
-0.035686668 0.07743334 0.70700002
-0.034242861 0.077214293 0.70500004
-0.032900002 0.077214293 0.70500004
-0.031557146 0.077214293 0.70500004
-0.030214287 0.077214293 0.70500004
-0.02887143 0.077214293 0.70500004
-0.027528573 0.077214293 0.70500004
-0.026260002 0.07743334 0.70700002
-0.024913335 0.07743334 0.70700002
-0.023600001 0.077542864 0.708
-0.022220001 0.07743334 0.70700002
-0.020902859 0.077542864 0.708
-0.019554287 0.077542864 0.708
-0.018180002 0.07743334 0.70700002
-0.016833335 0.07743334 0.70700002
-0.015486668 0.07743334 0.70700002
-0.014140001 0.07743334 0.70700002
-0.012793334 0.07743334 0.70700002
-0.011414287 0.077214293 0.70500004
-0.010071429 0.077214293 0.70500004
-0.0087285722 0.077214293 0.70500004
-0.0073857149 0.077214293 0.70500004
-0.0060428577 0.077214293 0.70500004
-0.0047000004 0.077214293 0.70500004
-0.0033571431 0.077214293 0.70500004
-0.0020200002 0.07743334 0.70700002
-0.00067333336 0.07743334 0.70700002
0.00067333336 0.07743334 0.70700002
0.0020200002 0.07743334 0.70700002
0.0033571431 0.077214293 0.70500004
0.0047000004 0.077214293 0.70500004
0.0060600005 0.07743334 0.70700002
0.0074066673 0.07743334 0.70700002
0.0087533342 0.07743334 0.70700002
0.010071429 0.077214293 0.70500004
0.011446668 0.07743334 0.70700002
0.012793334 0.07743334 0.70700002
0.014140001 0.07743334 0.70700002
0.015486668 0.07743334 0.70700002
0.016833335 0.07743334 0.70700002
-0.064238101 0.079114288 0.71000004
-0.062885717 0.079114288 0.71000004
-0.061360005 0.078891434 0.708
-0.060011432 0.078891434 0.708
-0.058580004 0.078780003 0.70700002
-0.057314288 0.078891434 0.708
-0.055965718 0.078891434 0.708
-0.054617148 0.078891434 0.708
-0.053193338 0.078780003 0.70700002
-0.051700003 0.078557149 0.70500004
-0.050357144 0.078557149 0.70500004
-0.049014289 0.078557149 0.70500004
-0.047671434 0.078557149 0.70500004
-0.046328574 0.078557149 0.70500004
-0.044985719 0.078557149 0.70500004
-0.04364286 0.078557149 0.70500004
-0.042300005 0.078557149 0.70500004
-0.041073337 0.078780003 0.70700002
-0.039726671 0.078780003 0.70700002
-0.038271431 0.078557149 0.70500004
-0.037033334 0.078780003 0.70700002
-0.035585716 0.078557149 0.70500004
-0.034242861 0.078557149 0.70500004
-0.032900002 0.078557149 0.70500004
-0.031512383 0.078445718 0.70400006
-0.030214287 0.078557149 0.70500004
-0.02887143 0.078557149 0.70500004
-0.027528573 0.078557149 0.70500004
-0.026185716 0.078557149 0.70500004
-0.024913335 0.078780003 0.70700002
-0.023566669 0.078780003 0.70700002
-0.022220001 0.078780003 0.70700002
-0.020873334 0.078780003 0.70700002
-0.019526668 0.078780003 0.70700002
-0.018128572 0.078557149 0.70500004
-0.016785715 0.078557149 0.70500004
-0.015442858 0.078557149 0.70500004
-0.014100001 0.078557149 0.70500004
-0.012757144 0.078557149 0.70500004
-0.011398096 0.078445718 0.70400006
-0.010057144 0.078445718 0.70400006
-0.0087038102 0.078334294 0.70300001
-0.0073752385 0.078445718 0.70400006
-0.0060257148 0.078334294 0.70300001
-0.0046866671 0.078334294 0.70300001
-0.0033571431 0.078557149 0.70500004
-0.0020142859 0.078557149 0.70500004
-0.00067142863 0.078557149 0.70500004
0.00067142863 0.078557149 0.70500004
0.0020142859 0.078557149 0.70500004
0.0033571431 0.078557149 0.70500004
0.0047000004 0.078557149 0.70500004
0.0060342862 0.078445718 0.70400006
0.0073752385 0.078445718 0.70400006
0.0087285722 0.078557149 0.70500004
0.010057144 0.078445718 0.70400006
0.011414287 0.078557149 0.70500004
0.012757144 0.078557149 0.70500004
0.014100001 0.078557149 0.70500004
0.015442858 0.078557149 0.70500004
0.016833335 0.078780003 0.70700002
-0.064238101 0.080466673 0.71000004
-0.062708579 0.080240004 0.708
-0.061360005 0.080240004 0.708
-0.060011432 0.080240004 0.708
-0.058580004 0.080126673 0.70700002
-0.057314288 0.080240004 0.708
-0.055886671 0.080126673 0.70700002
-0.054540005 0.080126673 0.70700002
-0.053042859 0.079900004 0.70500004
-0.051700003 0.079900004 0.70500004
-0.050285719 0.079786673 0.70400006
-0.048944764 0.079786673 0.70400006
-0.047603812 0.079786673 0.70400006
-0.04626286 0.079786673 0.70400006
-0.044921909 0.079786673 0.70400006
-0.043580957 0.079786673 0.70400006
-0.042180002 0.079673335 0.70300001
-0.040840954 0.079673335 0.70300001
-0.039501909 0.079673335 0.70300001
-0.038217146 0.079786673 0.70400006
-0.036876194 0.079786673 0.70400006
-0.035535239 0.079786673 0.70400006
-0.034145717 0.079673335 0.70300001
-0.032806668 0.079673335 0.70300001
-0.03146762 0.079673335 0.70300001
-0.03017143 0.079786673 0.70400006
-0.028830478 0.079786673 0.70400006
-0.027489526 0.079786673 0.70400006
-0.026148573 0.079786673 0.70400006
-0.024842858 0.079900004 0.70500004
-0.023500001 0.079900004 0.70500004
-0.022157144 0.079900004 0.70500004
-0.020814287 0.079900004 0.70500004
-0.019471429 0.079900004 0.70500004
-0.018102858 0.079786673 0.70400006
-0.016761906 0.079786673 0.70400006
-0.015420954 0.079786673 0.70400006
-0.014080001 0.079786673 0.70400006
-0.012720954 0.079673335 0.70300001
-0.011381906 0.079673335 0.70300001
-0.010014286 0.079446673 0.70100003
-0.0087038102 0.079673335 0.70300001
-0.0073438101 0.079446673 0.70100003
-0.0060085719 0.079446673 0.70100003
-0.0046733338 0.079446673 0.70100003
-0.0033476192 0.079673335 0.70300001
-0.0020114286 0.079786673 0.70400006
-0.00067047623 0.079786673 0.70400006
0.00067047623 0.079786673 0.70400006
0.0020114286 0.079786673 0.70400006
0.0033476192 0.079673335 0.70300001
0.0046866671 0.079673335 0.70300001
0.0060257148 0.079673335 0.70300001
0.0073647625 0.079673335 0.70300001
0.0087038102 0.079673335 0.70300001
0.010042857 0.079673335 0.70300001
0.011398096 0.079786673 0.70400006
0.012739048 0.079786673 0.70400006
0.014080001 0.079786673 0.70400006
0.015442858 0.079900004 0.70500004
0.016785715 0.079900004 0.70500004
0.018128572 0.079900004 0.70500004
-0.064057149 0.081588574 0.708
-0.062708579 0.081588574 0.708
-0.061273336 0.081473336 0.70700002
-0.05992667 0.081473336 0.70700002
-0.058580004 0.081473336 0.70700002
-0.057233337 0.081473336 0.70700002
-0.055886671 0.081473336 0.70700002
-0.054385718 0.081242859 0.70500004
-0.053042859 0.081242859 0.70500004
-0.051626671 0.081127621 0.70400006
-0.050285719 0.081127621 0.70400006
-0.048875242 0.081012383 0.70300001
-0.047536194 0.081012383 0.70300001
-0.046197146 0.081012383 0.70300001
-0.044858098 0.081012383 0.70300001
-0.04351905 0.081012383 0.70300001
-0.042180002 0.081012383 0.70300001
-0.040724766 0.080781907 0.70100003
-0.039389525 0.080781907 0.70100003
-0.038054287 0.080781907 0.70100003
-0.036823813 0.081012383 0.70300001
-0.035484765 0.081012383 0.70300001
-0.034048572 0.080781907 0.70100003
-0.032713335 0.080781907 0.70100003
-0.031378098 0.080781907 0.70100003
-0.030042859 0.080781907 0.70100003
-0.028789526 0.081012383 0.70300001
-0.027450478 0.081012383 0.70300001
-0.02611143 0.081012383 0.70300001
-0.024807621 0.081127621 0.70400006
-0.023466669 0.081127621 0.70400006
-0.022157144 0.081242859 0.70500004
-0.020814287 0.081242859 0.70500004
-0.01944381 0.081127621 0.70400006
-0.018077144 0.081012383 0.70300001
-0.016738096 0.081012383 0.70300001
-0.015399049 0.081012383 0.70300001
-0.014020001 0.080781907 0.70100003
-0.012684762 0.080781907 0.70100003
-0.011333334 0.080666669 0.70000005
-0.010000001 0.080666669 0.70000005
-0.0086790482 0.080781907 0.70100003
-0.0073438101 0.080781907 0.70100003
-0.0060000005 0.080666669 0.70000005
-0.004666667 0.080666669 0.70000005
-0.0033476192 0.081012383 0.70300001
-0.0020085715 0.081012383 0.70300001
-0.00066761911 0.080781907 0.70100003
0.00066761911 0.080781907 0.70100003
0.0020028572 0.080781907 0.70100003
0.0033380955 0.080781907 0.70100003
0.0046733338 0.080781907 0.70100003
0.0060085719 0.080781907 0.70100003
0.0073438101 0.080781907 0.70100003
0.0086790482 0.080781907 0.70100003
0.010014286 0.080781907 0.70100003
0.011381906 0.081012383 0.70300001
0.012720954 0.081012383 0.70300001
0.014060001 0.081012383 0.70300001
0.015399049 0.081012383 0.70300001
0.016761906 0.081127621 0.70400006
-0.063966669 0.082820006 0.70700002
-0.062620007 0.082820006 0.70700002
-0.061100002 0.082585722 0.70500004
-0.059757147 0.082585722 0.70500004
-0.058414288 0.082585722 0.70500004
-0.057071432 0.082585722 0.70500004
-0.055728573 0.082585722 0.70500004
-0.054231431 0.082351431 0.70300001
-0.052892383 0.082351431 0.70300001
-0.051553335 0.082351431 0.70300001
-0.050214291 0.082351431 0.70300001
-0.048875242 0.082351431 0.70300001
-0.047536194 0.082351431 0.70300001
-0.046197146 0.082351431 0.70300001
-0.044730481 0.082117148 0.70100003
-0.04351905 0.082351431 0.70300001
-0.042060003 0.082117148 0.70100003
-0.04066667 0.082000002 0.70000005
-0.039220955 0.081765719 0.69800001
-0.038000003 0.082000002 0.70000005
-0.036666669 0.082000002 0.70000005
-0.035383813 0.082117148 0.70100003
-0.034000002 0.082000002 0.70000005
-0.032666668 0.082000002 0.70000005
-0.031378098 0.082117148 0.70100003
-0.030042859 0.082117148 0.70100003
-0.028707622 0.082117148 0.70100003
-0.027372383 0.082117148 0.70100003
-0.026037145 0.082117148 0.70100003
-0.024772383 0.082351431 0.70300001
-0.023433335 0.082351431 0.70300001
-0.022094287 0.082351431 0.70300001
-0.020755239 0.082351431 0.70300001
-0.019416193 0.082351431 0.70300001
-0.018025715 0.082117148 0.70100003
-0.016690478 0.082117148 0.70100003
-0.015333334 0.082000002 0.70000005
-0.014000001 0.082000002 0.70000005
-0.012666668 0.082000002 0.70000005
-0.011300953 0.081765719 0.69800001
-0.0099714296 0.081765719 0.69800001
-0.0086666672 0.082000002 0.70000005
-0.0073333336 0.082000002 0.70000005
-0.0059828577 0.081765719 0.69800001
-0.0046533337 0.081765719 0.69800001
-0.0033333336 0.082000002 0.70000005
-0.0020028572 0.082117148 0.70100003
-0.00066761911 0.082117148 0.70100003
0.00066761911 0.082117148 0.70100003
0.0020028572 0.082117148 0.70100003
0.0033333336 0.082000002 0.70000005
0.004666667 0.082000002 0.70000005
0.0060000005 0.082000002 0.70000005
0.0073333336 0.082000002 0.70000005
0.0086790482 0.082117148 0.70100003
0.010000001 0.082000002 0.70000005
0.011349524 0.082117148 0.70100003
0.012684762 0.082117148 0.70100003
0.014020001 0.082117148 0.70100003
0.015399049 0.082351431 0.70300001
0.016738096 0.082351431 0.70300001
-0.060926672 0.083690479 0.70300001
-0.059587624 0.083690479 0.70300001
-0.05808286 0.083452389 0.70100003
-0.056747623 0.083452389 0.70100003
-0.055412386 0.083452389 0.70100003
-0.054077145 0.083452389 0.70100003
-0.052741908 0.083452389 0.70100003
-0.05140667 0.083452389 0.70100003
-0.050071433 0.083452389 0.70100003
-0.048736192 0.083452389 0.70100003
-0.047400955 0.083452389 0.70100003
-0.046065718 0.083452389 0.70100003
-0.04466667 0.083333336 0.70000005
-0.04339524 0.083452389 0.70100003
-0.042000003 0.083333336 0.70000005
-0.040550478 0.083095245 0.69800001
-0.039220955 0.083095245 0.69800001
-0.037891433 0.083095245 0.69800001
-0.036561906 0.083095245 0.69800001
-0.035333335 0.083333336 0.70000005
-0.033902861 0.083095245 0.69800001
-0.032573335 0.083095245 0.69800001
-0.031333335 0.083333336 0.70000005
-0.030000001 0.083333336 0.70000005
-0.028707622 0.083452389 0.70100003
-0.027372383 0.083452389 0.70100003
-0.026037145 0.083452389 0.70100003
-0.024701906 0.083452389 0.70100003
-0.023366667 0.083452389 0.70100003
-0.022094287 0.083690479 0.70300001
-0.020755239 0.083690479 0.70300001
-0.019360954 0.083452389 0.70100003
-0.018000001 0.083333336 0.70000005
-0.016666668 0.083333336 0.70000005
-0.015289525 0.083095245 0.69800001
-0.013940001 0.082976192 0.69700003
-0.012630477 0.083095245 0.69800001
-0.011284763 0.082976192 0.69700003
-0.0099571431 0.082976192 0.69700003
-0.0086295241 0.082976192 0.69700003
-0.0073019052 0.082976192 0.69700003
-0.0059742862 0.082976192 0.69700003
-0.0046466668 0.082976192 0.69700003
-0.0033190479 0.082976192 0.69700003
-0.0019914287 0.082976192 0.69700003
-0.00066476193 0.083095245 0.69800001
0.00066476193 0.083095245 0.69800001
0.0020000001 0.083333336 0.70000005
0.0033238097 0.083095245 0.69800001
0.004666667 0.083333336 0.70000005
0.0059828577 0.083095245 0.69800001
0.0073333336 0.083333336 0.70000005
0.0086666672 0.083333336 0.70000005
0.0099714296 0.083095245 0.69800001
0.011300953 0.083095245 0.69800001
0.012666668 0.083333336 0.70000005
0.014020001 0.083452389 0.70100003
0.015333334 0.083333336 0.70000005
0.016690478 0.083452389 0.70100003
-0.059163813 0.084424764 0.69800001
-0.05783429 0.084424764 0.69800001
-0.056504767 0.084424764 0.69800001
-0.055333339 0.084666669 0.70000005
-0.054000005 0.084666669 0.70000005
-0.052666672 0.084666669 0.70000005
-0.051333338 0.084666669 0.70000005
-0.050071433 0.084787622 0.70100003
-0.048736192 0.084787622 0.70100003
-0.047333337 0.084666669 0.70000005
-0.045868576 0.084424764 0.69800001
-0.044539049 0.084424764 0.69800001
-0.043209527 0.084424764 0.69800001
-0.041880004 0.084424764 0.69800001
-0.040550478 0.084424764 0.69800001
-0.039164763 0.084303819 0.69700003
-0.037837144 0.084303819 0.69700003
-0.036509525 0.084303819 0.69700003
-0.035232384 0.084424764 0.69800001
-0.033854287 0.084303819 0.69700003
-0.032526668 0.084303819 0.69700003
-0.031199049 0.084303819 0.69700003
-0.029914288 0.084424764 0.69800001
-0.028584763 0.084424764 0.69800001
-0.027333336 0.084666669 0.70000005
-0.026000002 0.084666669 0.70000005
-0.024701906 0.084787622 0.70100003
-0.023333335 0.084666669 0.70000005
-0.02203143 0.084787622 0.70100003
-0.020696191 0.084787622 0.70100003
-0.019360954 0.084787622 0.70100003
-0.017948573 0.084424764 0.69800001
-0.016619049 0.084424764 0.69800001
-0.01526762 0.084303819 0.69700003
-0.013900001 0.084061913 0.69500005
-0.012612382 0.084303819 0.69700003
-0.011252382 0.084061913 0.69500005
-0.009928572 0.084061913 0.69500005
-0.0086047621 0.084061913 0.69500005
-0.0072809528 0.084061913 0.69500005
-0.0059571434 0.084061913 0.69500005
-0.0046333335 0.084061913 0.69500005
-0.0033095239 0.084061913 0.69500005
-0.0019857143 0.084061913 0.69500005
-0.00066190481 0.084061913 0.69500005
0.00066190481 0.084061913 0.69500005
0.0019857143 0.084061913 0.69500005
0.0033190479 0.084303819 0.69700003
0.0046466668 0.084303819 0.69700003
0.0059742862 0.084303819 0.69700003
0.0073123816 0.084424764 0.69800001
0.0086419052 0.084424764 0.69800001
0.0099571431 0.084303819 0.69700003
0.011284763 0.084303819 0.69700003
0.012630477 0.084424764 0.69800001
0.013960001 0.084424764 0.69800001
0.015289525 0.084424764 0.69800001
-0.059079051 0.085631438 0.69700003
-0.057751432 0.085631438 0.69700003
-0.056423813 0.085631438 0.69700003
-0.055175241 0.08575429 0.69800001
-0.053845719 0.08575429 0.69800001
-0.052516192 0.08575429 0.69800001
-0.05118667 0.08575429 0.69800001
-0.049857147 0.08575429 0.69800001
-0.048527621 0.08575429 0.69800001
-0.047198098 0.08575429 0.69800001
-0.045868576 0.08575429 0.69800001
-0.044475242 0.085631438 0.69700003
-0.043147624 0.085631438 0.69700003
-0.041820005 0.085631438 0.69700003
-0.040492382 0.085631438 0.69700003
-0.039164763 0.085631438 0.69700003
-0.037837144 0.085631438 0.69700003
-0.036509525 0.085631438 0.69700003
-0.035080954 0.085385717 0.69500005
-0.033757146 0.085385717 0.69500005
-0.032526668 0.085631438 0.69700003
-0.031199049 0.085631438 0.69700003
-0.029785717 0.085385717 0.69500005
-0.028543811 0.085631438 0.69700003
-0.027255239 0.08575429 0.69800001
-0.025925716 0.08575429 0.69800001
-0.024596192 0.08575429 0.69800001
-0.023333335 0.086000003 0.70000005
-0.021937145 0.08575429 0.69800001
-0.02060762 0.08575429 0.69800001
-0.019278096 0.08575429 0.69800001
-0.01787143 0.085385717 0.69500005
-0.01654762 0.085385717 0.69500005
-0.01522381 0.085385717 0.69500005
-0.01388 0.085262865 0.69400001
-0.012576192 0.085385717 0.69500005
-0.011236191 0.085262865 0.69400001
-0.009928572 0.085385717 0.69500005
-0.0086047621 0.085385717 0.69500005
-0.0072809528 0.085385717 0.69500005
-0.0059571434 0.085385717 0.69500005
-0.0046266671 0.085262865 0.69400001
-0.0033047621 0.085262865 0.69400001
-0.0019828572 0.085262865 0.69400001
-0.00066095241 0.085262865 0.69400001
0.00066190481 0.085385717 0.69500005
0.0019857143 0.085385717 0.69500005
0.0033095239 0.085385717 0.69500005
0.0046333335 0.085385717 0.69500005
0.0059571434 0.085385717 0.69500005
0.0073019052 0.085631438 0.69700003
0.0086295241 0.085631438 0.69700003
0.0099571431 0.085631438 0.69700003
0.011284763 0.085631438 0.69700003
0.012612382 0.085631438 0.69700003
0.013940001 0.085631438 0.69700003
0.01526762 0.085631438 0.69700003
-0.058824766 0.086584769 0.69400001
-0.057585716 0.086709529 0.69500005
-0.056423813 0.086959057 0.69700003
-0.055096194 0.086959057 0.69700003
-0.053768575 0.086959057 0.69700003
-0.052440956 0.086959057 0.69700003
-0.051113337 0.086959057 0.69700003
-0.049857147 0.087083817 0.69800001
-0.048527621 0.087083817 0.69800001
-0.047198098 0.087083817 0.69800001
-0.045802861 0.086959057 0.69700003
-0.044347622 0.086709529 0.69500005
-0.043023814 0.086709529 0.69500005
-0.041820005 0.086959057 0.69700003
-0.040492382 0.086959057 0.69700003
-0.039052382 0.086709529 0.69500005
-0.037728574 0.086709529 0.69500005
-0.036404766 0.086709529 0.69500005
-0.035080954 0.086709529 0.69500005
-0.033757146 0.086709529 0.69500005
-0.032433335 0.086709529 0.69500005
-0.031109527 0.086709529 0.69500005
-0.029785717 0.086709529 0.69500005
-0.028461907 0.086709529 0.69500005
-0.027138097 0.086709529 0.69500005
-0.025888573 0.086959057 0.69700003
-0.024560954 0.086959057 0.69700003
-0.023233335 0.086959057 0.69700003
-0.021842858 0.086709529 0.69500005
-0.020578096 0.086959057 0.69700003
-0.019250477 0.086959057 0.69700003
-0.01787143 0.086709529 0.69500005
-0.01652381 0.086584769 0.69400001
-0.015201906 0.086584769 0.69400001
-0.01388 0.086584769 0.69400001
-0.012558096 0.086584769 0.69400001
-0.011236191 0.086584769 0.69400001
-0.0099142864 0.086584769 0.69400001
-0.0085923811 0.086584769 0.69400001
-0.0072704768 0.086584769 0.69400001
-0.005948572 0.086584769 0.69400001
-0.0046266671 0.086584769 0.69400001
-0.0033047621 0.086584769 0.69400001
-0.0019828572 0.086584769 0.69400001
-0.00066095241 0.086584769 0.69400001
0.00066095241 0.086584769 0.69400001
0.0019828572 0.086584769 0.69400001
0.0033047621 0.086584769 0.69400001
0.0046266671 0.086584769 0.69400001
0.0059571434 0.086709529 0.69500005
0.0072809528 0.086709529 0.69500005
0.0086047621 0.086709529 0.69500005
0.009928572 0.086709529 0.69500005
0.011252382 0.086709529 0.69500005
0.012576192 0.086709529 0.69500005
0.013900001 0.086709529 0.69500005
0.01522381 0.086709529 0.69500005
-0.057502862 0.087906674 0.69400001
-0.056261908 0.088033341 0.69500005
-0.0549381 0.088033341 0.69500005
-0.053614289 0.088033341 0.69500005
-0.052440956 0.088286676 0.69700003
-0.051113337 0.088286676 0.69700003
-0.049785718 0.088286676 0.69700003
-0.048458099 0.088286676 0.69700003
-0.04713048 0.088286676 0.69700003
-0.045802861 0.088286676 0.69700003
-0.044347622 0.088033341 0.69500005
-0.043023814 0.088033341 0.69500005
-0.041700002 0.088033341 0.69500005
-0.040376194 0.088033341 0.69500005
-0.039052382 0.088033341 0.69500005
-0.037674289 0.087906674 0.69400001
-0.036352385 0.087906674 0.69400001
-0.035030477 0.087906674 0.69400001
-0.033708572 0.087906674 0.69400001
-0.032386668 0.087906674 0.69400001
-0.031064764 0.087906674 0.69400001
-0.029742859 0.087906674 0.69400001
-0.028461907 0.088033341 0.69500005
-0.027138097 0.088033341 0.69500005
-0.025888573 0.088286676 0.69700003
-0.024560954 0.088286676 0.69700003
-0.023233335 0.088286676 0.69700003
-0.021842858 0.088033341 0.69500005
-0.02051905 0.088033341 0.69500005
-0.01919524 0.088033341 0.69500005
-0.017820001 0.087780006 0.69300002
-0.016500002 0.087780006 0.69300002
-0.015180001 0.087780006 0.69300002
-0.013860001 0.087780006 0.69300002
-0.01254 0.087780006 0.69300002
-0.011220001 0.087780006 0.69300002
-0.0099000009 0.087780006 0.69300002
-0.0085923811 0.087906674 0.69400001
-0.0072704768 0.087906674 0.69400001
-0.005948572 0.087906674 0.69400001
-0.0046200003 0.087780006 0.69300002
-0.0033000002 0.087780006 0.69300002
-0.0019800002 0.087780006 0.69300002
-0.00066000002 0.087780006 0.69300002
0.00066000002 0.087780006 0.69300002
0.0019800002 0.087780006 0.69300002
0.0033000002 0.087780006 0.69300002
0.0046266671 0.087906674 0.69400001
0.005948572 0.087906674 0.69400001
0.0072704768 0.087906674 0.69400001
0.0085923811 0.087906674 0.69400001
0.0099142864 0.087906674 0.69400001
0.011236191 0.087906674 0.69400001
0.012558096 0.087906674 0.69400001
0.01388 0.087906674 0.69400001
0.01522381 0.088033341 0.69500005
-0.057502862 0.089228578 0.69400001
-0.056180958 0.089228578 0.69400001
-0.0549381 0.089357145 0.69500005
-0.053614289 0.089357145 0.69500005
-0.052290481 0.089357145 0.69500005
-0.050966669 0.089357145 0.69500005
-0.049642861 0.089357145 0.69500005
-0.048319049 0.089357145 0.69500005
-0.04713048 0.089614294 0.69700003
-0.045671433 0.089357145 0.69500005
-0.040376194 0.089357145 0.69500005
-0.039052382 0.089357145 0.69500005
-0.037728574 0.089357145 0.69500005
-0.036352385 0.089228578 0.69400001
-0.035030477 0.089228578 0.69400001
-0.027077144 0.09372858 0.72900003
-0.023166668 0.089357145 0.69500005
-0.022911429 0.09372858 0.72900003
-0.02051905 0.089357145 0.69500005
-0.019167621 0.089228578 0.69400001
-0.017768573 0.088842861 0.69100004
-0.016452381 0.088842861 0.69100004
-0.015114287 0.088714294 0.69000006
-0.013800001 0.088714294 0.69000006
-0.012485716 0.088714294 0.69000006
-0.01118762 0.088842861 0.69100004
-0.0098714288 0.088842861 0.69100004
-0.0085800001 0.089100003 0.69300002
-0.0072704768 0.089228578 0.69400001
-0.0059400005 0.089100003 0.69300002
-0.0046200003 0.089100003 0.69300002
-0.0033000002 0.089100003 0.69300002
-0.0019800002 0.089100003 0.69300002
-0.00065809529 0.088842861 0.69100004
0.00065809529 0.088842861 0.69100004
0.0019742858 0.088842861 0.69100004
0.0032904765 0.088842861 0.69100004
0.004606667 0.088842861 0.69100004
0.0059228577 0.088842861 0.69100004
0.0072600003 0.089100003 0.69300002
0.0085800001 0.089100003 0.69300002
0.0099000009 0.089100003 0.69300002
0.011220001 0.089100003 0.69300002
0.01254 0.089100003 0.69300002
0.013820001 0.088842861 0.69100004
0.015201906 0.089228578 0.69400001
-0.017742859 0.090028577 0.69000006
-0.016428573 0.090028577 0.69000006
-0.015114287 0.090028577 0.69000006
-0.013800001 0.090028577 0.69000006
-0.01246762 0.089898102 0.68900001
-0.011155238 0.089898102 0.68900001
-0.0098571433 0.090028577 0.69000006
-0.0085428581 0.090028577 0.69000006
-0.0072285719 0.090028577 0.69000006
-0.0059400005 0.090420008 0.69300002
-0.0046200003 0.090420008 0.69300002
-0.0033000002 0.090420008 0.69300002
-0.0019800002 0.090420008 0.69300002
-0.00065809529 0.090159051 0.69100004
0.00065809529 0.090159051 0.69100004
0.0019742858 0.090159051 0.69100004
0.0032904765 0.090159051 0.69100004
0.004606667 0.090159051 0.69100004
0.0059228577 0.090159051 0.69100004
0.0072390479 0.090159051 0.69100004
0.0085552391 0.090159051 0.69100004
0.0099000009 0.090420008 0.69300002
0.011220001 0.090420008 0.69300002
0.01250381 0.090159051 0.69100004
0.015902858 0.094725721 0.72600001
0.017285716 0.094725721 0.72600001
-0.016404763 0.091210485 0.68900001
-0.015114287 0.091342866 0.69000006
-0.013780001 0.091210485 0.68900001
-0.011738096 0.095976196 0.72500002
0.0020657144 0.095711432 0.72300005
0.0032904765 0.091475241 0.69100004
0.004606667 0.091475241 0.69100004
0.0059142862 0.091342866 0.69000006
0.0072390479 0.091475241 0.69100004
0.0085552391 0.091475241 0.69100004
0.0098714288 0.091475241 0.69100004
0.01118762 0.091475241 0.69100004
-0.015837144 0.097088575 0.72300005
-0.014440001 0.096954294 0.72200006
-0.013064763 0.096954294 0.72200006
0.0034380956 0.096954294 0.72200006
0.004606667 0.092791438 0.69100004
0.0059142862 0.092657149 0.69000006
0.0072285719 0.092657149 0.69000006
0.0089019053 0.096551433 0.71900004
0.010271429 0.096551433 0.71900004
0.011689524 0.096954294 0.72200006
-0.014400001 0.098057151 0.72000003
-0.013028572 0.098057151 0.72000003
-0.0089142863 0.098057151 0.72000003
0.0048000002 0.098057151 0.72000003
0.0061628576 0.097920962 0.71900004
0.0075323815 0.097920962 0.71900004
0.0089019053 0.097920962 0.71900004
0.010271429 0.097920962 0.71900004
0.011657144 0.098057151 0.72000003
0.013028572 0.098057151 0.72000003
-0.014380001 0.099290483 0.71900004
-0.013010477 0.099290483 0.71900004
-0.014340001 0.10038 0.71700001
-0.012974286 0.10038 0.71700001
-0.016857143 0.10451429 0.708
-0.016833335 0.10571334 0.70700002
-0.015486668 0.10571334 0.70700002
-0.012793334 0.10571334 0.70700002
-0.011446668 0.10571334 0.70700002
-0.010100001 0.10571334 0.70700002
-0.0087533342 0.10571334 0.70700002
-0.0060600005 0.10571334 0.70700002
-0.016785715 0.10675715 0.70500004
-0.015442858 0.10675715 0.70500004
-0.012757144 0.10675715 0.70500004
-0.011414287 0.10675715 0.70500004
-0.010071429 0.10675715 0.70500004
0.0073857149 0.10675715 0.70500004
0.011349524 0.10882191 0.70100003
