# .PCD v0.7 - Point Cloud Data file format
VERSION 0.7
FIELDS x y z
SIZE 4 4 4
TYPE F F F
COUNT 1 1 1
WIDTH 1361
HEIGHT 1
VIEWPOINT 0 0 0 1 0 0 0
POINTS 1361
DATA ascii
-0.0085304771 0.085960954 0.68900001
-0.0072285719 0.086085722 0.69000006
-0.0059142862 0.086085722 0.69000006
-0.0046000001 0.086085722 0.69000006
-0.0032857144 0.086085722 0.69000006
-0.0019714287 0.086085722 0.69000006
-0.0006571429 0.086085722 0.69000006
0.0006561905 0.085960954 0.68900001
0.0019742858 0.086210482 0.69100004
0.0032714289 0.085711434 0.68700004
0.0046200003 0.086460009 0.69300002
0.0059400005 0.086460009 0.69300002
0.0072600003 0.086460009 0.69300002
0.0085800001 0.086460009 0.69300002
0.0098714288 0.086210482 0.69100004
0.01118762 0.086210482 0.69100004
0.01250381 0.086210482 0.69100004
0.013820001 0.086210482 0.69100004
0.015136192 0.086210482 0.69100004
0.016428573 0.086085722 0.69000006
0.017742859 0.086085722 0.69000006
0.019057143 0.086085722 0.69000006
0.020341907 0.085960954 0.68900001
0.021654287 0.085960954 0.68900001
0.022900002 0.085711434 0.68700004
0.024208574 0.085711434 0.68700004
0.025591429 0.085960954 0.68900001
0.026825717 0.085711434 0.68700004
0.028216192 0.085960954 0.68900001
0.029571431 0.086085722 0.69000006
0.030930478 0.086210482 0.69100004
0.032200001 0.086085722 0.69000006
0.033514287 0.086085722 0.69000006
0.034828573 0.086085722 0.69000006
-0.041640002 0.087906674 0.69400001
-0.040318098 0.087906674 0.69400001
-0.038996194 0.087906674 0.69400001
-0.037674289 0.087906674 0.69400001
-0.036352385 0.087906674 0.69400001
-0.035030477 0.087906674 0.69400001
-0.033708572 0.087906674 0.69400001
-0.032386668 0.087906674 0.69400001
-0.031064764 0.087906674 0.69400001
-0.029742859 0.087906674 0.69400001
-0.028380001 0.087780006 0.69300002
-0.027060002 0.087780006 0.69300002
-0.025740001 0.087780006 0.69300002
-0.024420002 0.087780006 0.69300002
-0.023100002 0.087780006 0.69300002
-0.021780001 0.087780006 0.69300002
-0.020460002 0.087780006 0.69300002
-0.019140001 0.087780006 0.69300002
-0.017742859 0.087400004 0.69000006
-0.016428573 0.087400004 0.69000006
-0.015114287 0.087400004 0.69000006
-0.013780001 0.087273337 0.68900001
-0.01246762 0.087273337 0.68900001
-0.011155238 0.087273337 0.68900001
-0.0098142866 0.087020002 0.68700004
-0.0085057151 0.087020002 0.68700004
-0.0072180959 0.087273337 0.68900001
-0.005888572 0.087020002 0.68700004
-0.0045933337 0.087273337 0.68900001
-0.0032714289 0.087020002 0.68700004
-0.0019628573 0.087020002 0.68700004
-0.00065428577 0.087020002 0.68700004
0.00065428577 0.087020002 0.68700004
0.00196 0.086893342 0.68600005
0.0032571431 0.086640008 0.68400002
0.004606667 0.087526672 0.69100004
0.0059228577 0.087526672 0.69100004
0.0072390479 0.087526672 0.69100004
0.0085552391 0.087526672 0.69100004
0.0098714288 0.087526672 0.69100004
0.011171429 0.087400004 0.69000006
0.012485716 0.087400004 0.69000006
0.013800001 0.087400004 0.69000006
0.015114287 0.087400004 0.69000006
0.016404763 0.087273337 0.68900001
0.017717144 0.087273337 0.68900001
0.019029524 0.087273337 0.68900001
0.020282859 0.087020002 0.68700004
0.021560002 0.086893342 0.68600005
0.022866668 0.086893342 0.68600005
0.024173334 0.086893342 0.68600005
0.025480002 0.086893342 0.68600005
0.026786668 0.086893342 0.68600005
0.02801143 0.086640008 0.68400002
0.029400002 0.086893342 0.68600005
0.030840954 0.087273337 0.68900001
0.032153334 0.087273337 0.68900001
0.033368573 0.087020002 0.68700004
0.034677144 0.087020002 0.68700004
-0.041580003 0.089100003 0.69300002
-0.040085718 0.088714294 0.69000006
-0.038771432 0.088714294 0.69000006
-0.037457146 0.088714294 0.69000006
-0.03614286 0.088714294 0.69000006
-0.034828573 0.088714294 0.69000006
-0.033320002 0.088200003 0.68600005
-0.032060001 0.088328578 0.68700004
-0.030751431 0.088328578 0.68700004
-0.02944286 0.088328578 0.68700004
-0.028134288 0.088328578 0.68700004
-0.026825717 0.088328578 0.68700004
-0.025591429 0.088585719 0.68900001
-0.024279049 0.088585719 0.68900001
-0.022966668 0.088585719 0.68900001
-0.021591431 0.088328578 0.68700004
-0.020282859 0.088328578 0.68700004
-0.018974287 0.088328578 0.68700004
-0.017640002 0.088200003 0.68600005
-0.016333334 0.088200003 0.68600005
-0.015026668 0.088200003 0.68600005
-0.013680001 0.087942861 0.68400002
-0.012377144 0.087942861 0.68400002
-0.011106667 0.088200003 0.68600005
-0.009800001 0.088200003 0.68600005
-0.0084933341 0.088200003 0.68600005
-0.0071657146 0.087942861 0.68400002
-0.0058800005 0.088200003 0.68600005
-0.0045733335 0.088200003 0.68600005
-0.0032666668 0.088200003 0.68600005
-0.0019542859 0.087942861 0.68400002
-0.00065142859 0.087942861 0.68400002
0.00065142859 0.087942861 0.68400002
0.0019514287 0.087814294 0.68300003
0.0032476194 0.087685719 0.68200004
0.004546667 0.087685719 0.68200004
0.0058457148 0.087685719 0.68200004
0.0071552387 0.087814294 0.68300003
0.0084685721 0.087942861 0.68400002
0.009771429 0.087942861 0.68400002
0.011106667 0.088200003 0.68600005
0.01243143 0.088328578 0.68700004
0.013740001 0.088328578 0.68700004
0.015026668 0.088200003 0.68600005
0.016261905 0.087814294 0.68300003
0.017537143 0.087685719 0.68200004
0.018836191 0.087685719 0.68200004
0.020164764 0.087814294 0.68300003
0.021434287 0.087685719 0.68200004
0.022766668 0.087814294 0.68300003
0.02406762 0.087814294 0.68300003
0.025368573 0.087814294 0.68300003
0.026669526 0.087814294 0.68300003
0.027929526 0.087685719 0.68200004
0.029228574 0.087685719 0.68200004
0.030438097 0.087428577 0.68000001
0.031733334 0.087428577 0.68000001
0.032980002 0.087300003 0.67900002
-0.03991143 0.089637145 0.68700004
-0.038602859 0.089637145 0.68700004
-0.037131432 0.089245722 0.68400002
-0.035828575 0.089245722 0.68400002
-0.034525715 0.089245722 0.68400002
-0.033320002 0.089506671 0.68600005
-0.032013334 0.089506671 0.68600005
-0.030706668 0.089506671 0.68600005
-0.029400002 0.089506671 0.68600005
-0.028093334 0.089506671 0.68600005
-0.026786668 0.089506671 0.68600005
-0.025480002 0.089506671 0.68600005
-0.024173334 0.089506671 0.68600005
-0.022866668 0.089506671 0.68600005
-0.021497143 0.089245722 0.68400002
-0.020194286 0.089245722 0.68400002
-0.01889143 0.089245722 0.68400002
-0.017562859 0.089115247 0.68300003
-0.016261905 0.089115247 0.68300003
-0.014960953 0.089115247 0.68300003
-0.013660001 0.089115247 0.68300003
-0.012359048 0.089115247 0.68300003
-0.011058096 0.089115247 0.68300003
-0.0097571434 0.089115247 0.68300003
-0.00844381 0.088984765 0.68200004
-0.0071552387 0.089115247 0.68300003
-0.0058542863 0.089115247 0.68300003
-0.0045533339 0.089115247 0.68300003
-0.0032523812 0.089115247 0.68300003
-0.0019514287 0.089115247 0.68300003
-0.00064952386 0.088984765 0.68200004
0.00064952386 0.088984765 0.68200004
0.0019485715 0.088984765 0.68200004
0.0032380954 0.088723816 0.68000001
0.0045333337 0.088723816 0.68000001
0.005828572 0.088723816 0.68000001
0.0071238098 0.088723816 0.68000001
0.00844381 0.088984765 0.68200004
0.0097142868 0.088723816 0.68000001
0.011041906 0.088984765 0.68200004
0.012359048 0.089115247 0.68300003
0.013660001 0.089115247 0.68300003
0.014895239 0.088723816 0.68000001
0.016190477 0.088723816 0.68000001
0.017460002 0.088593341 0.67900002
0.018753335 0.088593341 0.67900002
0.020076191 0.088723816 0.68000001
0.02137143 0.088723816 0.68000001
0.022666669 0.088723816 0.68000001
0.023961907 0.088723816 0.68000001
0.025257144 0.088723816 0.68000001
0.026630478 0.088984765 0.68200004
0.027847622 0.088723816 0.68000001
0.029142858 0.088723816 0.68000001
0.030393336 0.088593341 0.67900002
0.031686667 0.088593341 0.67900002
0.032980002 0.088593341 0.67900002
-0.039737146 0.090548575 0.68400002
-0.038434289 0.090548575 0.68400002
-0.037131432 0.090548575 0.68400002
-0.035828575 0.090548575 0.68400002
-0.034475241 0.090416193 0.68300003
-0.033222858 0.090548575 0.68400002
-0.031920001 0.090548575 0.68400002
-0.030617144 0.090548575 0.68400002
-0.029314287 0.090548575 0.68400002
-0.027970478 0.090416193 0.68300003
-0.026708573 0.090548575 0.68400002
-0.025405716 0.090548575 0.68400002
-0.024102859 0.090548575 0.68400002
-0.022800002 0.090548575 0.68400002
-0.021434287 0.090283819 0.68200004
-0.020164764 0.090416193 0.68300003
-0.01886381 0.090416193 0.68300003
-0.017537143 0.090283819 0.68200004
-0.016238097 0.090283819 0.68200004
-0.014960953 0.090416193 0.68300003
-0.01364 0.090283819 0.68200004
-0.012340954 0.090283819 0.68200004
-0.011041906 0.090283819 0.68200004
-0.0097428579 0.090283819 0.68200004
-0.008406667 0.089886673 0.67900002
-0.0071133338 0.089886673 0.67900002
-0.0058200005 0.089886673 0.67900002
-0.0045266668 0.089886673 0.67900002
-0.0032333336 0.089886673 0.67900002
-0.0019428573 0.090019055 0.68000001
-0.00064666668 0.089886673 0.67900002
0.00064761908 0.090019055 0.68000001
0.0019428573 0.090019055 0.68000001
0.0032333336 0.089886673 0.67900002
0.0045200004 0.089754291 0.67800003
0.0058114291 0.089754291 0.67800003
0.0071028578 0.089754291 0.67800003
0.008394286 0.089754291 0.67800003
0.0096571436 0.089489527 0.67600006
0.010944762 0.089489527 0.67600006
0.012268572 0.089754291 0.67800003
0.013560001 0.089754291 0.67800003
0.014873334 0.089886673 0.67900002
0.016166668 0.089886673 0.67900002
0.017460002 0.089886673 0.67900002
0.018753335 0.089886673 0.67900002
0.020046668 0.089886673 0.67900002
0.021340001 0.089886673 0.67900002
0.022633335 0.089886673 0.67900002
0.023926668 0.089886673 0.67900002
0.025220001 0.089886673 0.67900002
0.026552383 0.090019055 0.68000001
0.027806668 0.089886673 0.67900002
0.029100003 0.089886673 0.67900002
0.030348573 0.089754291 0.67800003
0.031640001 0.089754291 0.67800003
0.032931432 0.089754291 0.67800003
-0.04209524 0.091314293 0.68000001
-0.040800001 0.091314293 0.68000001
-0.039504763 0.091314293 0.68000001
-0.038209528 0.091314293 0.68000001
-0.037022859 0.091582865 0.68200004
-0.035723813 0.091582865 0.68200004
-0.034424763 0.091582865 0.68200004
-0.033125717 0.091582865 0.68200004
-0.031873334 0.091717146 0.68300003
-0.030572383 0.091717146 0.68300003
-0.029228574 0.091582865 0.68200004
-0.027929526 0.091582865 0.68200004
-0.026630478 0.091582865 0.68200004
-0.02533143 0.091582865 0.68200004
-0.023961907 0.091314293 0.68000001
-0.022666669 0.091314293 0.68000001
-0.021340001 0.091180004 0.67900002
-0.020076191 0.091314293 0.68000001
-0.018780954 0.091314293 0.68000001
-0.017485715 0.091314293 0.68000001
-0.016166668 0.091180004 0.67900002
-0.014895239 0.091314293 0.68000001
-0.013580001 0.091180004 0.67900002
-0.012286668 0.091180004 0.67900002
-0.010993334 0.091180004 0.67900002
-0.0097000003 0.091180004 0.67900002
-0.008394286 0.091045722 0.67800003
-0.0071028578 0.091045722 0.67800003
-0.0058114291 0.091045722 0.67800003
-0.0045200004 0.091045722 0.67800003
-0.0032285717 0.091045722 0.67800003
-0.0019400001 0.091180004 0.67900002
-0.00064571435 0.091045722 0.67800003
0.00064666668 0.091180004 0.67900002
0.0019400001 0.091180004 0.67900002
0.0032285717 0.091045722 0.67800003
0.0045066671 0.090777151 0.67600006
0.0057942863 0.090777151 0.67600006
0.0070714289 0.090642862 0.67500001
0.008357143 0.090642862 0.67500001
0.0096428581 0.090642862 0.67500001
0.010928572 0.090642862 0.67500001
0.012214286 0.090642862 0.67500001
0.013500001 0.090642862 0.67500001
0.01480762 0.090777151 0.67600006
0.016142858 0.091045722 0.67800003
0.017382858 0.090777151 0.67600006
0.018725716 0.091045722 0.67800003
0.020017143 0.091045722 0.67800003
0.021308573 0.091045722 0.67800003
0.022600001 0.091045722 0.67800003
0.02389143 0.091045722 0.67800003
0.025182858 0.091045722 0.67800003
0.026474288 0.091045722 0.67800003
0.027765715 0.091045722 0.67800003
0.029057145 0.091045722 0.67800003
0.030348573 0.091045722 0.67800003
0.031546667 0.090777151 0.67600006
0.032785717 0.090642862 0.67500001
-0.042033337 0.092473343 0.67900002
-0.040740002 0.092473343 0.67900002
-0.039446671 0.092473343 0.67900002
-0.038153335 0.092473343 0.67900002
-0.036860004 0.092473343 0.67900002
-0.035566669 0.092473343 0.67900002
-0.034323812 0.092609532 0.68000001
-0.033028573 0.092609532 0.68000001
-0.031733334 0.092609532 0.68000001
-0.030438097 0.092609532 0.68000001
-0.029142858 0.092609532 0.68000001
-0.027806668 0.092473343 0.67900002
-0.026552383 0.092609532 0.68000001
-0.025257144 0.092609532 0.68000001
-0.023926668 0.092473343 0.67900002
-0.022633335 0.092473343 0.67900002
-0.021308573 0.092337146 0.67800003
-0.020046668 0.092473343 0.67900002
-0.018753335 0.092473343 0.67900002
-0.017434286 0.092337146 0.67800003
-0.01609524 0.092064768 0.67600006
-0.014851429 0.092337146 0.67800003
-0.013520001 0.092064768 0.67600006
-0.012268572 0.092337146 0.67800003
-0.010944762 0.092064768 0.67600006
-0.0096571436 0.092064768 0.67600006
-0.008369524 0.092064768 0.67600006
-0.0070819054 0.092064768 0.67600006
-0.0057857148 0.091928579 0.67500001
-0.0045000003 0.091928579 0.67500001
-0.0032190478 0.092064768 0.67600006
-0.0019314287 0.092064768 0.67600006
-0.00064380956 0.092064768 0.67600006
0.00064571435 0.092337146 0.67800003
0.001937143 0.092337146 0.67800003
0.0032190478 0.092064768 0.67600006
0.0045000003 0.091928579 0.67500001
0.0057857148 0.091928579 0.67500001
0.007060953 0.09179239 0.67400002
0.008344762 0.09179239 0.67400002
0.0096285725 0.09179239 0.67400002
0.010880001 0.091520004 0.67200005
0.01216 0.091520004 0.67200005
0.013440001 0.091520004 0.67200005
0.014763811 0.09179239 0.67400002
0.016071429 0.091928579 0.67500001
0.017357145 0.091928579 0.67500001
0.018670477 0.092064768 0.67600006
0.019928573 0.091928579 0.67500001
0.021245716 0.092064768 0.67600006
0.022533335 0.092064768 0.67600006
0.023820953 0.092064768 0.67600006
0.025071431 0.091928579 0.67500001
0.026357144 0.091928579 0.67500001
0.027683811 0.092064768 0.67600006
0.028928574 0.091928579 0.67500001
0.03025905 0.092064768 0.67600006
0.031500001 0.091928579 0.67500001
0.032785717 0.091928579 0.67500001
-0.044291433 0.093076199 0.67400002
-0.043007623 0.093076199 0.67400002
-0.041785717 0.093214288 0.67500001
-0.040500004 0.093214288 0.67500001
-0.039272383 0.093352385 0.67600006
-0.037984766 0.093352385 0.67600006
-0.036697146 0.093352385 0.67600006
-0.035514288 0.093628578 0.67800003
-0.03422286 0.093628578 0.67800003
-0.032931432 0.093628578 0.67800003
-0.031686667 0.093766674 0.67900002
-0.030393336 0.093766674 0.67900002
-0.029100003 0.093766674 0.67900002
-0.027806668 0.093766674 0.67900002
-0.026513334 0.093766674 0.67900002
-0.025220001 0.093766674 0.67900002
-0.02389143 0.093628578 0.67800003
-0.022600001 0.093628578 0.67800003
-0.021245716 0.093352385 0.67600006
-0.020046668 0.093766674 0.67900002
-0.018725716 0.093628578 0.67800003
-0.017382858 0.093352385 0.67600006
-0.016071429 0.093214288 0.67500001
-0.014785715 0.093214288 0.67500001
-0.013500001 0.093214288 0.67500001
-0.012214286 0.093214288 0.67500001
-0.010912382 0.093076199 0.67400002
-0.0096000005 0.092800006 0.67200005
-0.008344762 0.093076199 0.67400002
-0.0070714289 0.093214288 0.67500001
-0.0057857148 0.093214288 0.67500001
-0.0045000003 0.093214288 0.67500001
-0.0032142859 0.093214288 0.67500001
-0.0019285716 0.093214288 0.67500001
-0.00064285717 0.093214288 0.67500001
0.00064380956 0.093352385 0.67600006
0.0019285716 0.093214288 0.67500001
0.0032142859 0.093214288 0.67500001
0.0044933334 0.093076199 0.67400002
0.0057771434 0.093076199 0.67400002
0.0070400005 0.092800006 0.67200005
0.008320001 0.092800006 0.67200005
0.0096000005 0.092800006 0.67200005
0.010880001 0.092800006 0.67200005
0.01216 0.092800006 0.67200005
0.013420001 0.09266191 0.671
0.014720001 0.092800006 0.67200005
0.016000001 0.092800006 0.67200005
0.017280001 0.092800006 0.67200005
0.01861524 0.093076199 0.67400002
0.01989905 0.093076199 0.67400002
0.021182859 0.093076199 0.67400002
0.022466669 0.093076199 0.67400002
0.023750478 0.093076199 0.67400002
0.025034288 0.093076199 0.67400002
0.026318097 0.093076199 0.67400002
0.027601907 0.093076199 0.67400002
0.028885717 0.093076199 0.67400002
0.030214287 0.093214288 0.67500001
0.031453334 0.093076199 0.67400002
0.032737143 0.093076199 0.67400002
-0.041723814 0.094360009 0.67400002
-0.040440004 0.094360009 0.67400002
-0.039156195 0.094360009 0.67400002
-0.037872385 0.094360009 0.67400002
-0.036642861 0.094500005 0.67500001
-0.035357144 0.094500005 0.67500001
-0.034121908 0.094640009 0.67600006
-0.032834288 0.094640009 0.67600006
-0.031640001 0.094920009 0.67800003
-0.030348573 0.094920009 0.67800003
-0.029057145 0.094920009 0.67800003
-0.027683811 0.094640009 0.67600006
-0.026396193 0.094640009 0.67600006
-0.025108574 0.094640009 0.67600006
-0.023820953 0.094640009 0.67600006
-0.022500001 0.094500005 0.67500001
-0.021182859 0.094360009 0.67400002
-0.019928573 0.094500005 0.67500001
-0.018670477 0.094640009 0.67600006
-0.017331429 0.094360009 0.67400002
-0.016047619 0.094360009 0.67400002
-0.014763811 0.094360009 0.67400002
-0.013480001 0.094360009 0.67400002
-0.012196192 0.094360009 0.67400002
-0.010880001 0.094080009 0.67200005
-0.0095857149 0.093940005 0.671
-0.008344762 0.094360009 0.67400002
-0.007060953 0.094360009 0.67400002
-0.0057771434 0.094360009 0.67400002
-0.0044800001 0.094080009 0.67200005
-0.0032095241 0.094360009 0.67400002
-0.0019257144 0.094360009 0.67400002
-0.00064190483 0.094360009 0.67400002
0.00064285717 0.094500005 0.67500001
0.0019257144 0.094360009 0.67400002
0.0032095241 0.094360009 0.67400002
0.0044800001 0.094080009 0.67200005
0.0057600006 0.094080009 0.67200005
0.0070295241 0.093940005 0.671
0.00830762 0.093940005 0.671
0.0095857149 0.093940005 0.671
0.01086381 0.093940005 0.671
0.012141906 0.093940005 0.671
0.013400001 0.093800008 0.67000002
0.014676192 0.093800008 0.67000002
0.015952382 0.093800008 0.67000002
0.017254287 0.093940005 0.671
0.018532382 0.093940005 0.671
0.019810477 0.093940005 0.671
0.021057144 0.093800008 0.67000002
0.022366669 0.093940005 0.671
0.023644764 0.093940005 0.671
0.024922859 0.093940005 0.671
0.026200954 0.093940005 0.671
0.027479049 0.093940005 0.671
0.028757146 0.093940005 0.671
0.030080002 0.094080009 0.67200005
0.03136 0.094080009 0.67200005
0.032640003 0.094080009 0.67200005
-0.044160005 0.095360003 0.67200005
-0.043007623 0.095643818 0.67400002
-0.041723814 0.095643818 0.67400002
-0.040440004 0.095643818 0.67400002
-0.039156195 0.095643818 0.67400002
-0.037872385 0.095643818 0.67400002
-0.036588576 0.095643818 0.67400002
-0.035304762 0.095643818 0.67400002
-0.034020953 0.095643818 0.67400002
-0.032737143 0.095643818 0.67400002
-0.031453334 0.095643818 0.67400002
-0.030169526 0.095643818 0.67400002
-0.028885717 0.095643818 0.67400002
-0.027601907 0.095643818 0.67400002
-0.026318097 0.095643818 0.67400002
-0.025034288 0.095643818 0.67400002
-0.023750478 0.095643818 0.67400002
-0.022400001 0.095360003 0.67200005
-0.021120001 0.095360003 0.67200005
-0.019840002 0.095360003 0.67200005
-0.018642858 0.095785722 0.67500001
-0.017280001 0.095360003 0.67200005
-0.016000001 0.095360003 0.67200005
-0.014720001 0.095360003 0.67200005
-0.013440001 0.095360003 0.67200005
-0.01216 0.095360003 0.67200005
-0.01086381 0.0952181 0.671
-0.0095714293 0.095076196 0.67000002
-0.00830762 0.0952181 0.671
-0.0070295241 0.0952181 0.671
-0.0057600006 0.095360003 0.67200005
-0.0044733337 0.0952181 0.671
-0.0031952383 0.0952181 0.671
-0.0019200002 0.095360003 0.67200005
-0.00064000004 0.095360003 0.67200005
0.00063904765 0.0952181 0.671
0.001917143 0.0952181 0.671
0.0031952383 0.0952181 0.671
0.0044733337 0.0952181 0.671
0.0057428577 0.095076196 0.67000002
0.0070190481 0.095076196 0.67000002
0.0082828579 0.094934292 0.66900003
0.0095571438 0.094934292 0.66900003
0.01084762 0.095076196 0.67000002
0.01212381 0.095076196 0.67000002
0.013380001 0.094934292 0.66900003
0.014654287 0.094934292 0.66900003
0.015928572 0.094934292 0.66900003
0.017202858 0.094934292 0.66900003
0.018504763 0.095076196 0.67000002
0.019780954 0.095076196 0.67000002
0.021025715 0.094934292 0.66900003
0.022300001 0.094934292 0.66900003
0.023609525 0.095076196 0.67000002
0.024885716 0.095076196 0.67000002
0.026122859 0.094934292 0.66900003
0.027397145 0.094934292 0.66900003
0.02867143 0.094934292 0.66900003
0.029990477 0.095076196 0.67000002
0.031313334 0.0952181 0.671
-0.042880002 0.096640006 0.67200005
-0.041600004 0.096640006 0.67200005
-0.040320002 0.096640006 0.67200005
-0.039040003 0.096640006 0.67200005
-0.037760001 0.096640006 0.67200005
-0.036480002 0.096640006 0.67200005
-0.035200004 0.096640006 0.67200005
-0.033920001 0.096640006 0.67200005
-0.032591432 0.096496195 0.671
-0.03136 0.096640006 0.67200005
-0.030035241 0.096496195 0.671
-0.028757146 0.096496195 0.671
-0.027479049 0.096496195 0.671
-0.026200954 0.096496195 0.671
-0.024922859 0.096496195 0.671
-0.023644764 0.096496195 0.671
-0.022333335 0.096352391 0.67000002
-0.021057144 0.096352391 0.67000002
-0.019780954 0.096352391 0.67000002
-0.018504763 0.096352391 0.67000002
-0.017202858 0.09620858 0.66900003
-0.015928572 0.09620858 0.66900003
-0.014610477 0.095920958 0.66700006
-0.013380001 0.09620858 0.66900003
-0.012141906 0.096496195 0.671
-0.01084762 0.096352391 0.67000002
-0.0095571438 0.09620858 0.66900003
-0.0082828579 0.09620858 0.66900003
-0.0070190481 0.096352391 0.67000002
-0.0057428577 0.096352391 0.67000002
-0.0044666668 0.096352391 0.67000002
-0.0031904764 0.096352391 0.67000002
-0.001917143 0.096496195 0.671
-0.00063904765 0.096496195 0.671
0.00063714292 0.09620858 0.66900003
0.0019057144 0.095920958 0.66700006
0.0031857146 0.09620858 0.66900003
0.0044600004 0.09620858 0.66900003
0.0057171434 0.095920958 0.66700006
0.0069876197 0.095920958 0.66700006
0.0082580959 0.095920958 0.66700006
0.0095285717 0.095920958 0.66700006
0.01083143 0.09620858 0.66900003
0.012069524 0.095920958 0.66700006
0.013340001 0.095920958 0.66700006
0.014610477 0.095920958 0.66700006
0.015880954 0.095920958 0.66700006
0.01715143 0.095920958 0.66700006
0.018421905 0.095920958 0.66700006
0.019692382 0.095920958 0.66700006
0.020962859 0.095920958 0.66700006
0.022233335 0.095920958 0.66700006
0.02350381 0.095920958 0.66700006
0.024774287 0.095920958 0.66700006
0.026044764 0.095920958 0.66700006
0.02731524 0.095920958 0.66700006
0.028585717 0.095920958 0.66700006
0.029945716 0.09620858 0.66900003
0.031220002 0.09620858 0.66900003
-0.042880002 0.097920008 0.67200005
-0.041600004 0.097920008 0.67200005
-0.040320002 0.097920008 0.67200005
-0.038923811 0.097628579 0.67000002
-0.037703812 0.09777429 0.671
-0.036371432 0.097628579 0.67000002
-0.035095241 0.097628579 0.67000002
-0.033869527 0.09777429 0.671
-0.032591432 0.09777429 0.671
-0.031313334 0.09777429 0.671
-0.029990477 0.097628579 0.67000002
-0.028714288 0.097628579 0.67000002
-0.027438097 0.097628579 0.67000002
-0.026161907 0.097628579 0.67000002
-0.024885716 0.097628579 0.67000002
-0.023574287 0.09748286 0.66900003
-0.022233335 0.097191438 0.66700006
-0.020962859 0.097191438 0.66700006
-0.01975143 0.09748286 0.66900003
-0.018421905 0.097191438 0.66700006
-0.017125715 0.09704572 0.66600001
-0.015857143 0.09704572 0.66600001
-0.014588572 0.09704572 0.66600001
-0.013340001 0.097191438 0.66700006
-0.011997144 0.096608579 0.66300005
-0.010782857 0.09704572 0.66600001
-0.0095142862 0.09704572 0.66600001
-0.0082457149 0.09704572 0.66600001
-0.0069771432 0.09704572 0.66600001
-0.0057171434 0.097191438 0.66700006
-0.0044466672 0.097191438 0.66700006
-0.0031761907 0.097191438 0.66700006
-0.0019057144 0.097191438 0.66700006
-0.00063428574 0.09704572 0.66600001
0.00063428574 0.09704572 0.66600001
0.0019000001 0.096900009 0.66500002
0.003166667 0.096900009 0.66500002
0.0044333334 0.096900009 0.66500002
0.0057000006 0.096900009 0.66500002
0.0069666672 0.096900009 0.66500002
0.0082457149 0.09704572 0.66600001
0.0095142862 0.09704572 0.66600001
0.010782857 0.09704572 0.66600001
0.01205143 0.09704572 0.66600001
0.013320001 0.09704572 0.66600001
0.014588572 0.09704572 0.66600001
0.015857143 0.09704572 0.66600001
0.017100001 0.096900009 0.66500002
0.018366668 0.096900009 0.66500002
0.019633334 0.096900009 0.66500002
0.02093143 0.09704572 0.66600001
0.022200001 0.09704572 0.66600001
0.023468573 0.09704572 0.66600001
0.024737144 0.09704572 0.66600001
0.026005715 0.09704572 0.66600001
0.027274288 0.09704572 0.66600001
0.028542859 0.09704572 0.66600001
0.029856192 0.097191438 0.66700006
0.031126669 0.097191438 0.66700006
-0.045304764 0.098904766 0.67000002
-0.044028573 0.098904766 0.67000002
-0.042752385 0.098904766 0.67000002
-0.041414287 0.098757148 0.66900003
-0.040020004 0.098461911 0.66700006
-0.038749527 0.098461911 0.66700006
-0.03747905 0.098461911 0.66700006
-0.036208574 0.098461911 0.66700006
-0.034938097 0.098461911 0.66700006
-0.033617146 0.098314293 0.66600001
-0.032348573 0.098314293 0.66600001
-0.031080002 0.098314293 0.66600001
-0.029811431 0.098314293 0.66600001
-0.028500002 0.098166674 0.66500002
-0.027233334 0.098166674 0.66500002
-0.025966669 0.098166674 0.66500002
-0.024737144 0.098314293 0.66600001
-0.023433335 0.098166674 0.66500002
-0.022166668 0.098166674 0.66500002
-0.020900002 0.098166674 0.66500002
-0.019633334 0.098166674 0.66500002
-0.01831143 0.097871438 0.66300005
-0.017048573 0.097871438 0.66300005
-0.015761906 0.097723819 0.66200006
-0.014500953 0.097723819 0.66200006
-0.013260001 0.097871438 0.66300005
-0.011997144 0.097871438 0.66300005
-0.010734286 0.097871438 0.66300005
-0.0094714295 0.097871438 0.66300005
-0.0082085719 0.097871438 0.66300005
-0.0069457148 0.097871438 0.66300005
-0.0056742863 0.097723819 0.66200006
-0.0044133337 0.097723819 0.66200006
-0.0031476193 0.097576194 0.66100001
-0.0018885715 0.097576194 0.66100001
-0.00062952383 0.097576194 0.66100001
0.00063047622 0.097723819 0.66200006
0.0018914287 0.097723819 0.66200006
0.0031476193 0.097576194 0.66100001
0.0044066668 0.097576194 0.66100001
0.0056742863 0.097723819 0.66200006
0.0069247624 0.097576194 0.66100001
0.0081838099 0.097576194 0.66100001
0.0094428575 0.097576194 0.66100001
0.010701905 0.097576194 0.66100001
0.011979048 0.097723819 0.66200006
0.013240001 0.097723819 0.66200006
0.014500953 0.097723819 0.66200006
0.015761906 0.097723819 0.66200006
0.017022857 0.097723819 0.66200006
0.01828381 0.097723819 0.66200006
0.019515239 0.097576194 0.66100001
0.020805717 0.097723819 0.66200006
0.022066668 0.097723819 0.66200006
0.023327621 0.097723819 0.66200006
0.024588574 0.097723819 0.66200006
0.025888573 0.097871438 0.66300005
0.02715143 0.097871438 0.66300005
0.028414287 0.097871438 0.66300005
0.029677145 0.097871438 0.66300005
-0.045237146 0.10003144 0.66900003
-0.043962859 0.10003144 0.66900003
-0.042688575 0.10003144 0.66900003
-0.041290481 0.099732384 0.66700006
-0.039960004 0.099582866 0.66600001
-0.038691431 0.099582866 0.66600001
-0.037422858 0.099582866 0.66600001
-0.036154289 0.099582866 0.66600001
-0.034885716 0.099582866 0.66600001
-0.033566669 0.09943334 0.66500002
-0.032300003 0.09943334 0.66500002
-0.031033335 0.09943334 0.66500002
-0.029766669 0.09943334 0.66500002
-0.028500002 0.09943334 0.66500002
-0.02715143 0.099134289 0.66300005
-0.025888573 0.099134289 0.66300005
-0.024625717 0.099134289 0.66300005
-0.023362858 0.099134289 0.66300005
-0.022100002 0.099134289 0.66300005
-0.020837145 0.099134289 0.66300005
-0.019574286 0.099134289 0.66300005
-0.01828381 0.09898477 0.66200006
-0.017022857 0.09898477 0.66200006
-0.015761906 0.09898477 0.66200006
-0.014500953 0.09898477 0.66200006
-0.013240001 0.09898477 0.66200006
-0.011979048 0.09898477 0.66200006
-0.010718096 0.09898477 0.66200006
-0.0094714295 0.099134289 0.66300005
-0.0081961909 0.09898477 0.66200006
-0.0069352384 0.09898477 0.66200006
-0.0056742863 0.09898477 0.66200006
-0.0044133337 0.09898477 0.66200006
-0.0031428575 0.098685719 0.66000003
-0.0018857144 0.098685719 0.66000003
-0.00062952383 0.098835245 0.66100001
0.00062952383 0.098835245 0.66100001
0.0018885715 0.098835245 0.66100001
0.0031428575 0.098685719 0.66000003
0.0044000004 0.098685719 0.66000003
0.0056657149 0.098835245 0.66100001
0.0069142859 0.098685719 0.66000003
0.0081714289 0.098685719 0.66000003
0.0094285719 0.098685719 0.66000003
0.010653334 0.098386675 0.65800005
0.011942858 0.098685719 0.66000003
0.013200001 0.098685719 0.66000003
0.014479049 0.098835245 0.66100001
0.015738096 0.098835245 0.66100001
0.016997144 0.098835245 0.66100001
0.018228572 0.098685719 0.66000003
0.019485716 0.098685719 0.66000003
0.020774286 0.098835245 0.66100001
0.022033336 0.098835245 0.66100001
0.023292383 0.098835245 0.66100001
0.024551431 0.098835245 0.66100001
0.025810478 0.098835245 0.66100001
0.027110478 0.09898477 0.66200006
0.028371431 0.09898477 0.66200006
0.029632382 0.09898477 0.66200006
0.030893335 0.09898477 0.66200006
-0.046372384 0.10100286 0.66700006
-0.045101907 0.10100286 0.66700006
-0.04383143 0.10100286 0.66700006
-0.042560954 0.10100286 0.66700006
-0.041228574 0.10085143 0.66600001
-0.039960004 0.10085143 0.66600001
-0.038691431 0.10085143 0.66600001
-0.03736667 0.10070001 0.66500002
-0.036100004 0.10070001 0.66500002
-0.034833334 0.10070001 0.66500002
-0.033566669 0.10070001 0.66500002
-0.032300003 0.10070001 0.66500002
-0.031033335 0.10070001 0.66500002
-0.029766669 0.10070001 0.66500002
-0.028414287 0.10039715 0.66300005
-0.02715143 0.10039715 0.66300005
-0.025888573 0.10039715 0.66300005
-0.024625717 0.10039715 0.66300005
-0.023362858 0.10039715 0.66300005
-0.022100002 0.10039715 0.66300005
-0.020837145 0.10039715 0.66300005
-0.019574286 0.10039715 0.66300005
-0.01828381 0.10024572 0.66200006
-0.016997144 0.10009429 0.66100001
-0.015738096 0.10009429 0.66100001
-0.014479049 0.10009429 0.66100001
-0.013240001 0.10024572 0.66200006
-0.011979048 0.10024572 0.66200006
-0.010718096 0.10024572 0.66200006
-0.009457143 0.10024572 0.66200006
-0.0081961909 0.10024572 0.66200006
-0.0069352384 0.10024572 0.66200006
-0.0056657149 0.10009429 0.66100001
-0.0044000004 0.099942863 0.66000003
-0.0031428575 0.099942863 0.66000003
-0.0018857144 0.099942863 0.66000003
-0.00062857149 0.099942863 0.66000003
0.00062857149 0.099942863 0.66000003
0.0018857144 0.099942863 0.66000003
0.0031333335 0.099640004 0.65800005
0.0043866672 0.099640004 0.65800005
0.0056400006 0.099640004 0.65800005
0.006893334 0.099640004 0.65800005
0.0081466669 0.099640004 0.65800005
0.0094000008 0.099640004 0.65800005
0.010653334 0.099640004 0.65800005
0.011906668 0.099640004 0.65800005
0.013160001 0.099640004 0.65800005
0.014413334 0.099640004 0.65800005
0.015714286 0.099942863 0.66000003
0.01697143 0.099942863 0.66000003
0.018173335 0.099640004 0.65800005
0.019426668 0.099640004 0.65800005
0.020742858 0.099942863 0.66000003
0.022000002 0.099942863 0.66000003
0.023257144 0.099942863 0.66000003
0.024514288 0.099942863 0.66000003
0.02577143 0.099942863 0.66000003
0.027069526 0.10009429 0.66100001
0.028328573 0.10009429 0.66100001
0.029587621 0.10009429 0.66100001
0.030846668 0.10009429 0.66100001
-0.046372384 0.10227334 0.66700006
-0.045101907 0.10227334 0.66700006
-0.04383143 0.10227334 0.66700006
-0.042560954 0.10227334 0.66700006
-0.041228574 0.10212 0.66600001
-0.039900001 0.10196667 0.66500002
-0.038633335 0.10196667 0.66500002
-0.03736667 0.10196667 0.66500002
-0.036100004 0.10196667 0.66500002
-0.034833334 0.10196667 0.66500002
-0.033566669 0.10196667 0.66500002
-0.032300003 0.10196667 0.66500002
-0.031033335 0.10196667 0.66500002
-0.029766669 0.10196667 0.66500002
-0.028414287 0.10166001 0.66300005
-0.02715143 0.10166001 0.66300005
-0.025849525 0.10150667 0.66200006
-0.024588574 0.10150667 0.66200006
-0.023327621 0.10150667 0.66200006
-0.022066668 0.10150667 0.66200006
-0.020805717 0.10150667 0.66200006
-0.019544763 0.10150667 0.66200006
-0.01828381 0.10150667 0.66200006
-0.016997144 0.10135334 0.66100001
-0.015738096 0.10135334 0.66100001
-0.014479049 0.10135334 0.66100001
-0.013220001 0.10135334 0.66100001
-0.011960953 0.10135334 0.66100001
-0.010718096 0.10150667 0.66200006
-0.009457143 0.10150667 0.66200006
-0.0081838099 0.10135334 0.66100001
-0.0069247624 0.10135334 0.66100001
-0.0056657149 0.10135334 0.66100001
-0.0044000004 0.10120001 0.66000003
-0.0031428575 0.10120001 0.66000003
-0.0018800001 0.10089334 0.65800005
-0.0006266667 0.10089334 0.65800005
0.00062857149 0.10120001 0.66000003
0.0018800001 0.10089334 0.65800005
0.0031333335 0.10089334 0.65800005
0.0043866672 0.10089334 0.65800005
0.0056400006 0.10089334 0.65800005
0.006893334 0.10089334 0.65800005
0.0081466669 0.10089334 0.65800005
0.0094000008 0.10089334 0.65800005
0.010653334 0.10089334 0.65800005
0.011906668 0.10089334 0.65800005
0.013160001 0.10089334 0.65800005
0.014413334 0.10089334 0.65800005
0.015714286 0.10120001 0.66000003
0.01697143 0.10120001 0.66000003
0.018173335 0.10089334 0.65800005
0.019426668 0.10089334 0.65800005
0.020742858 0.10120001 0.66000003
0.022000002 0.10120001 0.66000003
0.023257144 0.10120001 0.66000003
0.024440002 0.10089334 0.65800005
0.025693335 0.10089334 0.65800005
0.027028574 0.10120001 0.66000003
0.028285716 0.10120001 0.66000003
0.02954286 0.10120001 0.66000003
0.030706668 0.10089334 0.65800005
0.031960003 0.10089334 0.65800005
-0.046372384 0.10354382 0.66700006
-0.045101907 0.10354382 0.66700006
-0.04383143 0.10354382 0.66700006
-0.042560954 0.10354382 0.66700006
-0.041228574 0.10338858 0.66600001
-0.039900001 0.10323334 0.66500002
-0.038633335 0.10323334 0.66500002
-0.03736667 0.10323334 0.66500002
-0.036100004 0.10323334 0.66500002
-0.034833334 0.10323334 0.66500002
-0.033566669 0.10323334 0.66500002
-0.032300003 0.10323334 0.66500002
-0.031033335 0.10323334 0.66500002
-0.029677145 0.10292286 0.66300005
-0.028414287 0.10292286 0.66300005
-0.02715143 0.10292286 0.66300005
-0.025849525 0.10276762 0.66200006
-0.024588574 0.10276762 0.66200006
-0.023327621 0.10276762 0.66200006
-0.022033336 0.10261239 0.66100001
-0.020805717 0.10276762 0.66200006
-0.019515239 0.10261239 0.66100001
-0.018256191 0.10261239 0.66100001
-0.016997144 0.10261239 0.66100001
-0.015738096 0.10261239 0.66100001
-0.014479049 0.10261239 0.66100001
-0.013220001 0.10261239 0.66100001
-0.011960953 0.10261239 0.66100001
-0.010701905 0.10261239 0.66100001
-0.0094428575 0.10261239 0.66100001
-0.0081838099 0.10261239 0.66100001
-0.0069247624 0.10261239 0.66100001
-0.0056657149 0.10261239 0.66100001
-0.0044000004 0.10245715 0.66000003
-0.0031428575 0.10245715 0.66000003
-0.0018857144 0.10245715 0.66000003
-0.00062857149 0.10245715 0.66000003
0.00062857149 0.10245715 0.66000003
0.0018800001 0.10214667 0.65800005
0.0031333335 0.10214667 0.65800005
0.0043866672 0.10214667 0.65800005
0.0056400006 0.10214667 0.65800005
0.006893334 0.10214667 0.65800005
0.0081466669 0.10214667 0.65800005
0.0094000008 0.10214667 0.65800005
0.010653334 0.10214667 0.65800005
0.011906668 0.10214667 0.65800005
0.013160001 0.10214667 0.65800005
0.014413334 0.10214667 0.65800005
0.015666667 0.10214667 0.65800005
0.01692 0.10214667 0.65800005
0.018173335 0.10214667 0.65800005
0.019426668 0.10214667 0.65800005
0.020680001 0.10214667 0.65800005
0.021933334 0.10214667 0.65800005
0.023186669 0.10214667 0.65800005
0.024440002 0.10214667 0.65800005
0.025693335 0.10214667 0.65800005
0.026946668 0.10214667 0.65800005
0.028200002 0.10214667 0.65800005
0.029453335 0.10214667 0.65800005
0.030706668 0.10214667 0.65800005
0.031960003 0.10214667 0.65800005
-0.045101907 0.10481429 0.66700006
-0.04383143 0.10481429 0.66700006
-0.042497147 0.10465715 0.66600001
-0.041166671 0.1045 0.66500002
-0.039900001 0.1045 0.66500002
-0.038633335 0.1045 0.66500002
-0.03736667 0.1045 0.66500002
-0.03599143 0.10418572 0.66300005
-0.034833334 0.1045 0.66500002
-0.033465717 0.10418572 0.66300005
-0.032202858 0.10418572 0.66300005
-0.030940002 0.10418572 0.66300005
-0.029677145 0.10418572 0.66300005
-0.028371431 0.10402858 0.66200006
-0.027110478 0.10402858 0.66200006
-0.025849525 0.10402858 0.66200006
-0.024551431 0.10387143 0.66100001
-0.023292383 0.10387143 0.66100001
-0.022033336 0.10387143 0.66100001
-0.020774286 0.10387143 0.66100001
-0.019515239 0.10387143 0.66100001
-0.01828381 0.10402858 0.66200006
-0.016997144 0.10387143 0.66100001
-0.015738096 0.10387143 0.66100001
-0.014479049 0.10387143 0.66100001
-0.013240001 0.10402858 0.66200006
-0.011960953 0.10387143 0.66100001
-0.010718096 0.10402858 0.66200006
-0.0094428575 0.10387143 0.66100001
-0.0081838099 0.10387143 0.66100001
-0.0069247624 0.10387143 0.66100001
-0.0056657149 0.10387143 0.66100001
-0.0044000004 0.10371429 0.66000003
-0.0031428575 0.10371429 0.66000003
-0.0018800001 0.10340001 0.65800005
-0.0006266667 0.10340001 0.65800005
0.0006266667 0.10340001 0.65800005
0.0018800001 0.10340001 0.65800005
0.0031333335 0.10340001 0.65800005
0.0043866672 0.10340001 0.65800005
0.0056400006 0.10340001 0.65800005
0.006893334 0.10340001 0.65800005
0.0081466669 0.10340001 0.65800005
0.0094000008 0.10340001 0.65800005
0.010653334 0.10340001 0.65800005
0.011906668 0.10340001 0.65800005
0.013160001 0.10340001 0.65800005
0.014413334 0.10340001 0.65800005
0.015666667 0.10340001 0.65800005
0.01692 0.10340001 0.65800005
0.018173335 0.10340001 0.65800005
0.019426668 0.10340001 0.65800005
0.020680001 0.10340001 0.65800005
0.021933334 0.10340001 0.65800005
0.023186669 0.10340001 0.65800005
0.024440002 0.10340001 0.65800005
0.025693335 0.10340001 0.65800005
0.026946668 0.10340001 0.65800005
0.028200002 0.10340001 0.65800005
0.029453335 0.10340001 0.65800005
0.030706668 0.10340001 0.65800005
0.031960003 0.10340001 0.65800005
0.033162858 0.10324287 0.65700001
-0.045101907 0.10608477 0.66700006
-0.04383143 0.10608477 0.66700006
-0.042560954 0.10608477 0.66700006
-0.041228574 0.10592572 0.66600001
-0.039900001 0.10576668 0.66500002
-0.038633335 0.10576668 0.66500002
-0.03736667 0.10576668 0.66500002
-0.036100004 0.10576668 0.66500002
-0.034833334 0.10576668 0.66500002
-0.033566669 0.10576668 0.66500002
-0.032300003 0.10576668 0.66500002
-0.030940002 0.10544858 0.66300005
-0.029677145 0.10544858 0.66300005
-0.028414287 0.10544858 0.66300005
-0.02715143 0.10544858 0.66300005
-0.025849525 0.10528953 0.66200006
-0.024588574 0.10528953 0.66200006
-0.023327621 0.10528953 0.66200006
-0.022033336 0.10513049 0.66100001
-0.020774286 0.10513049 0.66100001
-0.019515239 0.10513049 0.66100001
-0.01828381 0.10528953 0.66200006
-0.016997144 0.10513049 0.66100001
-0.015738096 0.10513049 0.66100001
-0.014479049 0.10513049 0.66100001
-0.013240001 0.10528953 0.66200006
-0.011979048 0.10528953 0.66200006
-0.010718096 0.10528953 0.66200006
-0.009457143 0.10528953 0.66200006
-0.0081838099 0.10513049 0.66100001
-0.0069247624 0.10513049 0.66100001
-0.0056657149 0.10513049 0.66100001
-0.0044000004 0.10497144 0.66000003
-0.0031428575 0.10497144 0.66000003
-0.0018800001 0.10465334 0.65800005
-0.0006266667 0.10465334 0.65800005
0.0006266667 0.10465334 0.65800005
0.0018800001 0.10465334 0.65800005
0.0031333335 0.10465334 0.65800005
0.0043866672 0.10465334 0.65800005
0.0056400006 0.10465334 0.65800005
0.006893334 0.10465334 0.65800005
0.0081466669 0.10465334 0.65800005
0.0094000008 0.10465334 0.65800005
0.010653334 0.10465334 0.65800005
0.011906668 0.10465334 0.65800005
0.013160001 0.10465334 0.65800005
0.014413334 0.10465334 0.65800005
0.015666667 0.10465334 0.65800005
0.01692 0.10465334 0.65800005
0.018173335 0.10465334 0.65800005
0.019426668 0.10465334 0.65800005
0.020680001 0.10465334 0.65800005
0.021933334 0.10465334 0.65800005
0.023186669 0.10465334 0.65800005
0.024440002 0.10465334 0.65800005
0.025693335 0.10465334 0.65800005
0.026946668 0.10465334 0.65800005
0.028200002 0.10465334 0.65800005
0.029453335 0.10465334 0.65800005
0.030706668 0.10465334 0.65800005
0.031960003 0.10465334 0.65800005
0.033213336 0.10465334 0.65800005
-0.045237146 0.10767715 0.66900003
-0.043962859 0.10767715 0.66900003
-0.042560954 0.10735524 0.66700006
-0.041228574 0.10719429 0.66600001
-0.039900001 0.10703334 0.66500002
-0.038633335 0.10703334 0.66500002
-0.03736667 0.10703334 0.66500002
-0.036100004 0.10703334 0.66500002
-0.034833334 0.10703334 0.66500002
-0.033566669 0.10703334 0.66500002
-0.032300003 0.10703334 0.66500002
-0.031033335 0.10703334 0.66500002
-0.029677145 0.10671143 0.66300005
-0.028414287 0.10671143 0.66300005
-0.02715143 0.10671143 0.66300005
-0.025888573 0.10671143 0.66300005
-0.024588574 0.10655048 0.66200006
-0.023327621 0.10655048 0.66200006
-0.022066668 0.10655048 0.66200006
-0.020805717 0.10655048 0.66200006
-0.019544763 0.10655048 0.66200006
-0.01831143 0.10671143 0.66300005
-0.017022857 0.10655048 0.66200006
-0.015761906 0.10655048 0.66200006
-0.014500953 0.10655048 0.66200006
-0.013240001 0.10655048 0.66200006
-0.011979048 0.10655048 0.66200006
-0.010718096 0.10655048 0.66200006
-0.009457143 0.10655048 0.66200006
-0.0081961909 0.10655048 0.66200006
-0.0069352384 0.10655048 0.66200006
-0.0056657149 0.10638953 0.66100001
-0.0044000004 0.10622858 0.66000003
-0.0031428575 0.10622858 0.66000003
-0.0018857144 0.10622858 0.66000003
-0.00062857149 0.10622858 0.66000003
0.00062857149 0.10622858 0.66000003
0.0018800001 0.10590667 0.65800005
0.0031333335 0.10590667 0.65800005
0.0043866672 0.10590667 0.65800005
0.0056400006 0.10590667 0.65800005
0.006893334 0.10590667 0.65800005
0.0081466669 0.10590667 0.65800005
0.0094000008 0.10590667 0.65800005
0.010653334 0.10590667 0.65800005
0.011906668 0.10590667 0.65800005
0.013160001 0.10590667 0.65800005
0.014413334 0.10590667 0.65800005
0.015666667 0.10590667 0.65800005
0.01692 0.10590667 0.65800005
0.018173335 0.10590667 0.65800005
0.019426668 0.10590667 0.65800005
0.020680001 0.10590667 0.65800005
0.021933334 0.10590667 0.65800005
0.023186669 0.10590667 0.65800005
0.024440002 0.10590667 0.65800005
0.025693335 0.10590667 0.65800005
0.026946668 0.10590667 0.65800005
0.028200002 0.10590667 0.65800005
0.029453335 0.10590667 0.65800005
0.030706668 0.10590667 0.65800005
0.031960003 0.10590667 0.65800005
0.033213336 0.10590667 0.65800005
-0.045101907 0.10862572 0.66700006
-0.04383143 0.10862572 0.66700006
-0.042497147 0.10846286 0.66600001
-0.041166671 0.10830001 0.66500002
-0.039900001 0.10830001 0.66500002
-0.038633335 0.10830001 0.66500002
-0.037422858 0.10846286 0.66600001
-0.036100004 0.10830001 0.66500002
-0.034833334 0.10830001 0.66500002
-0.033566669 0.10830001 0.66500002
-0.032300003 0.10830001 0.66500002
-0.031033335 0.10830001 0.66500002
-0.029766669 0.10830001 0.66500002
-0.028414287 0.10797429 0.66300005
-0.02715143 0.10797429 0.66300005
-0.025888573 0.10797429 0.66300005
-0.024625717 0.10797429 0.66300005
-0.023362858 0.10797429 0.66300005
-0.022100002 0.10797429 0.66300005
-0.020837145 0.10797429 0.66300005
-0.019574286 0.10797429 0.66300005
-0.01831143 0.10797429 0.66300005
-0.017022857 0.10781144 0.66200006
-0.015761906 0.10781144 0.66200006
-0.014500953 0.10781144 0.66200006
-0.013240001 0.10781144 0.66200006
-0.011979048 0.10781144 0.66200006
-0.010718096 0.10781144 0.66200006
-0.009457143 0.10781144 0.66200006
-0.0081961909 0.10781144 0.66200006
-0.0069352384 0.10781144 0.66200006
-0.0056742863 0.10781144 0.66200006
-0.0044066668 0.10764858 0.66100001
-0.0031428575 0.10748572 0.66000003
-0.0018857144 0.10748572 0.66000003
-0.00062857149 0.10748572 0.66000003
0.00062857149 0.10748572 0.66000003
0.0018857144 0.10748572 0.66000003
0.0031428575 0.10748572 0.66000003
0.0043866672 0.10716001 0.65800005
0.0056571434 0.10748572 0.66000003
0.006893334 0.10716001 0.65800005
0.0081466669 0.10716001 0.65800005
0.0094000008 0.10716001 0.65800005
0.010653334 0.10716001 0.65800005
0.011906668 0.10716001 0.65800005
0.013160001 0.10716001 0.65800005
0.014413334 0.10716001 0.65800005
0.015666667 0.10716001 0.65800005
0.01697143 0.10748572 0.66000003
0.018228572 0.10748572 0.66000003
0.019485716 0.10748572 0.66000003
0.020742858 0.10748572 0.66000003
0.022000002 0.10748572 0.66000003
0.023257144 0.10748572 0.66000003
0.024514288 0.10748572 0.66000003
0.025693335 0.10716001 0.65800005
0.026946668 0.10716001 0.65800005
0.028200002 0.10716001 0.65800005
0.029453335 0.10716001 0.65800005
0.030706668 0.10716001 0.65800005
0.031960003 0.10716001 0.65800005
0.033213336 0.10716001 0.65800005
-0.045304764 0.11039048 0.67000002
-0.04383143 0.1098962 0.66700006
-0.042560954 0.1098962 0.66700006
-0.041228574 0.10973144 0.66600001
-0.039960004 0.10973144 0.66600001
-0.038691431 0.10973144 0.66600001
-0.037422858 0.10973144 0.66600001
-0.036154289 0.10973144 0.66600001
-0.034885716 0.10973144 0.66600001
-0.033617146 0.10973144 0.66600001
-0.032348573 0.10973144 0.66600001
-0.031033335 0.10956667 0.66500002
-0.029766669 0.10956667 0.66500002
-0.028414287 0.10923715 0.66300005
-0.02715143 0.10923715 0.66300005
-0.025888573 0.10923715 0.66300005
-0.024625717 0.10923715 0.66300005
-0.023362858 0.10923715 0.66300005
-0.022100002 0.10923715 0.66300005
-0.020837145 0.10923715 0.66300005
-0.019574286 0.10923715 0.66300005
-0.018366668 0.10956667 0.66500002
-0.017022857 0.10907239 0.66200006
-0.015761906 0.10907239 0.66200006
-0.014500953 0.10907239 0.66200006
-0.013240001 0.10907239 0.66200006
-0.011997144 0.10923715 0.66300005
-0.010718096 0.10907239 0.66200006
-0.009457143 0.10907239 0.66200006
-0.0081961909 0.10907239 0.66200006
-0.0069352384 0.10907239 0.66200006
-0.0056742863 0.10907239 0.66200006
-0.0044133337 0.10907239 0.66200006
-0.0031476193 0.10890763 0.66100001
-0.0018857144 0.10874286 0.66000003
-0.00062857149 0.10874286 0.66000003
0.00062857149 0.10874286 0.66000003
0.0018857144 0.10874286 0.66000003
0.0031428575 0.10874286 0.66000003
0.0044000004 0.10874286 0.66000003
0.0056571434 0.10874286 0.66000003
0.0069142859 0.10874286 0.66000003
0.0081714289 0.10874286 0.66000003
0.0094285719 0.10874286 0.66000003
0.010685715 0.10874286 0.66000003
0.011906668 0.10841334 0.65800005
0.013160001 0.10841334 0.65800005
0.014413334 0.10841334 0.65800005
0.015714286 0.10874286 0.66000003
0.01697143 0.10874286 0.66000003
0.018228572 0.10874286 0.66000003
0.019485716 0.10874286 0.66000003
0.020742858 0.10874286 0.66000003
0.022033336 0.10890763 0.66100001
0.023257144 0.10874286 0.66000003
0.024514288 0.10874286 0.66000003
0.02577143 0.10874286 0.66000003
0.027028574 0.10874286 0.66000003
0.028285716 0.10874286 0.66000003
0.02954286 0.10874286 0.66000003
0.030800002 0.10874286 0.66000003
0.032057144 0.10874286 0.66000003
-0.046580955 0.11166667 0.67000002
-0.045237146 0.11150001 0.66900003
-0.043962859 0.11150001 0.66900003
-0.042560954 0.11116667 0.66700006
-0.041228574 0.11100001 0.66600001
-0.040020004 0.11116667 0.66700006
-0.038749527 0.11116667 0.66700006
-0.03747905 0.11116667 0.66700006
-0.036208574 0.11116667 0.66700006
-0.034938097 0.11116667 0.66700006
-0.03366762 0.11116667 0.66700006
-0.032348573 0.11100001 0.66600001
-0.031080002 0.11100001 0.66600001
-0.029766669 0.11083334 0.66500002
-0.028414287 0.11050001 0.66300005
-0.027233334 0.11083334 0.66500002
-0.025888573 0.11050001 0.66300005
-0.024625717 0.11050001 0.66300005
-0.023362858 0.11050001 0.66300005
-0.022166668 0.11083334 0.66500002
-0.020837145 0.11050001 0.66300005
-0.019633334 0.11083334 0.66500002
-0.018366668 0.11083334 0.66500002
-0.017048573 0.11050001 0.66300005
-0.015761906 0.11033334 0.66200006
-0.014500953 0.11033334 0.66200006
-0.013260001 0.11050001 0.66300005
-0.011997144 0.11050001 0.66300005
-0.010734286 0.11050001 0.66300005
-0.0094714295 0.11050001 0.66300005
-0.0082085719 0.11050001 0.66300005
-0.0069457148 0.11050001 0.66300005
-0.0056742863 0.11033334 0.66200006
-0.0044133337 0.11033334 0.66200006
-0.0031523812 0.11033334 0.66200006
-0.0018885715 0.11016668 0.66100001
-0.00062952383 0.11016668 0.66100001
0.00062952383 0.11016668 0.66100001
0.0018885715 0.11016668 0.66100001
0.0031476193 0.11016668 0.66100001
0.0044066668 0.11016668 0.66100001
0.0056657149 0.11016668 0.66100001
0.0069247624 0.11016668 0.66100001
0.0081838099 0.11016668 0.66100001
0.0094285719 0.11000001 0.66000003
0.010685715 0.11000001 0.66000003
0.011942858 0.11000001 0.66000003
0.013200001 0.11000001 0.66000003
0.014457144 0.11000001 0.66000003
0.015714286 0.11000001 0.66000003
0.016997144 0.11016668 0.66100001
0.018256191 0.11016668 0.66100001
0.019515239 0.11016668 0.66100001
0.020774286 0.11016668 0.66100001
0.022033336 0.11016668 0.66100001
0.023292383 0.11016668 0.66100001
0.024551431 0.11016668 0.66100001
