# .PCD v0.7 - Point Cloud Data file format
VERSION 0.7
FIELDS x y z
SIZE 4 4 4
TYPE F F F
COUNT 1 1 1
WIDTH 1332
HEIGHT 1
VIEWPOINT 0 0 0 1 0 0 0
POINTS 1332
DATA ascii
-0.060435243 0.049570478 0.71300006
-0.059077147 0.049570478 0.71300006
-0.057719052 0.049570478 0.71300006
-0.056360956 0.049570478 0.71300006
-0.055002861 0.049570478 0.71300006
-0.053644765 0.049570478 0.71300006
-0.05228667 0.049570478 0.71300006
-0.051000003 0.049640004 0.71400005
-0.049640004 0.049640004 0.71400005
-0.048280004 0.049640004 0.71400005
-0.046920002 0.049640004 0.71400005
-0.045560002 0.049640004 0.71400005
-0.044200003 0.049640004 0.71400005
-0.042840004 0.049640004 0.71400005
-0.041480001 0.049640004 0.71400005
-0.040120002 0.049640004 0.71400005
-0.038760003 0.049640004 0.71400005
-0.037504766 0.04977905 0.71600002
-0.036140956 0.04977905 0.71600002
-0.034777146 0.04977905 0.71600002
-0.033413336 0.04977905 0.71600002
-0.032049526 0.04977905 0.71600002
-0.030685715 0.04977905 0.71600002
-0.029362859 0.049848575 0.71700001
-0.027997145 0.049848575 0.71700001
-0.026594287 0.04977905 0.71600002
-0.025230478 0.04977905 0.71600002
-0.023866668 0.04977905 0.71600002
-0.022534287 0.049848575 0.71700001
-0.021168573 0.049848575 0.71700001
-0.019802859 0.049848575 0.71700001
-0.018437143 0.049848575 0.71700001
-0.01707143 0.049848575 0.71700001
-0.015705716 0.049848575 0.71700001
-0.014340001 0.049848575 0.71700001
-0.012974286 0.049848575 0.71700001
-0.011608572 0.049848575 0.71700001
-0.010242858 0.049848575 0.71700001
-0.0085428581 0.047971431 0.69000006
-0.0072285719 0.047971431 0.69000006
-0.0059142862 0.047971431 0.69000006
-0.0046000001 0.047971431 0.69000006
-0.0032809526 0.047901906 0.68900001
-0.0019685715 0.047901906 0.68900001
-0.0006561905 0.047901906 0.68900001
0.0006561905 0.047901906 0.68900001
0.0019685715 0.047901906 0.68900001
0.0032809526 0.047901906 0.68900001
0.0045933337 0.047901906 0.68900001
0.0059057148 0.047901906 0.68900001
0.0072180959 0.047901906 0.68900001
0.0085428581 0.047971431 0.69000006
0.0098571433 0.047971431 0.69000006
0.011122858 0.04776286 0.68700004
0.012485716 0.047971431 0.69000006
-0.062053338 0.05114286 0.71600002
-0.060689528 0.05114286 0.71600002
-0.059160005 0.051000003 0.71400005
-0.057800002 0.051000003 0.71400005
-0.056440003 0.051000003 0.71400005
-0.055080004 0.051000003 0.71400005
-0.053720005 0.051000003 0.71400005
-0.05250667 0.05114286 0.71600002
-0.05114286 0.05114286 0.71600002
-0.04977905 0.05114286 0.71600002
-0.04841524 0.05114286 0.71600002
-0.047051433 0.05114286 0.71600002
-0.045687623 0.05114286 0.71600002
-0.044323813 0.05114286 0.71600002
-0.042960003 0.05114286 0.71600002
-0.041596193 0.05114286 0.71600002
-0.040232383 0.05114286 0.71600002
-0.038868573 0.05114286 0.71600002
-0.037557144 0.051214289 0.71700001
-0.03619143 0.051214289 0.71700001
-0.034825716 0.051214289 0.71700001
-0.033460002 0.051214289 0.71700001
-0.032094289 0.051214289 0.71700001
-0.030814288 0.051357146 0.71900004
-0.029444763 0.051357146 0.71900004
-0.028075241 0.051357146 0.71900004
-0.026705716 0.051357146 0.71900004
-0.025336193 0.051357146 0.71900004
-0.023966668 0.051357146 0.71900004
-0.022628574 0.051428575 0.72000003
-0.021257143 0.051428575 0.72000003
-0.019885715 0.051428575 0.72000003
-0.018514287 0.051428575 0.72000003
-0.017119048 0.051357146 0.71900004
-0.015749525 0.051357146 0.71900004
-0.014380001 0.051357146 0.71900004
-0.013010477 0.051357146 0.71900004
-0.011171429 0.049285717 0.69000006
-0.0098571433 0.049285717 0.69000006
-0.0085428581 0.049285717 0.69000006
-0.0072285719 0.049285717 0.69000006
-0.0059142862 0.049285717 0.69000006
-0.0046000001 0.049285717 0.69000006
-0.0032809526 0.049214289 0.68900001
-0.0019685715 0.049214289 0.68900001
-0.0006561905 0.049214289 0.68900001
0.0006561905 0.049214289 0.68900001
0.0019685715 0.049214289 0.68900001
0.0032809526 0.049214289 0.68900001
0.0045933337 0.049214289 0.68900001
0.0059057148 0.049214289 0.68900001
0.0072285719 0.049285717 0.69000006
0.0085428581 0.049285717 0.69000006
0.0098714288 0.049357146 0.69100004
0.011171429 0.049285717 0.69000006
0.012485716 0.049285717 0.69000006
0.013800001 0.049285717 0.69000006
-0.062140003 0.052580003 0.71700001
-0.060689528 0.05250667 0.71600002
-0.059325717 0.05250667 0.71600002
-0.057961907 0.05250667 0.71600002
-0.056598101 0.05250667 0.71600002
-0.055234291 0.05250667 0.71600002
-0.053870481 0.05250667 0.71600002
-0.052580003 0.052580003 0.71700001
-0.051214289 0.052580003 0.71700001
-0.049848575 0.052580003 0.71700001
-0.048618097 0.052726671 0.71900004
-0.047117148 0.052580003 0.71700001
-0.04575143 0.052580003 0.71700001
-0.044385716 0.052580003 0.71700001
-0.042960003 0.05250667 0.71600002
-0.041596193 0.05250667 0.71600002
-0.040232383 0.05250667 0.71600002
-0.038868573 0.05250667 0.71600002
-0.037504766 0.05250667 0.71600002
-0.03619143 0.052580003 0.71700001
-0.034825716 0.052580003 0.71700001
-0.033553336 0.052726671 0.71900004
-0.032094289 0.052580003 0.71700001
-0.030814288 0.052726671 0.71900004
-0.029444763 0.052726671 0.71900004
-0.028075241 0.052726671 0.71900004
-0.026705716 0.052726671 0.71900004
-0.02537143 0.052800003 0.72000003
-0.024000002 0.052800003 0.72000003
-0.022628574 0.052800003 0.72000003
-0.021257143 0.052800003 0.72000003
-0.019885715 0.052800003 0.72000003
-0.01859143 0.053020004 0.72300005
-0.017142858 0.052800003 0.72000003
-0.015092382 0.050526671 0.68900001
-0.013780001 0.050526671 0.68900001
-0.012485716 0.050600003 0.69000006
-0.011171429 0.050600003 0.69000006
-0.0098571433 0.050600003 0.69000006
-0.0085428581 0.050600003 0.69000006
-0.0072285719 0.050600003 0.69000006
-0.0059142862 0.050600003 0.69000006
-0.0046000001 0.050600003 0.69000006
-0.0032857144 0.050600003 0.69000006
-0.0019685715 0.050526671 0.68900001
-0.0006561905 0.050526671 0.68900001
0.0006561905 0.050526671 0.68900001
0.0019714287 0.050600003 0.69000006
0.0032857144 0.050600003 0.69000006
0.0045933337 0.050526671 0.68900001
0.0059142862 0.050600003 0.69000006
0.0072285719 0.050600003 0.69000006
0.0085552391 0.050673336 0.69100004
0.0098714288 0.050673336 0.69100004
0.01118762 0.050673336 0.69100004
0.012485716 0.050600003 0.69000006
0.01388 0.050893337 0.69400001
-0.062313337 0.054096196 0.71900004
-0.060774289 0.053945716 0.71700001
-0.059325717 0.053870481 0.71600002
-0.058042862 0.053945716 0.71700001
-0.056677148 0.053945716 0.71700001
-0.055311434 0.053945716 0.71700001
-0.053945716 0.053945716 0.71700001
-0.052726671 0.054096196 0.71900004
-0.051357146 0.054096196 0.71900004
-0.049987622 0.054096196 0.71900004
-0.048618097 0.054096196 0.71900004
-0.047248576 0.054096196 0.71900004
-0.045879051 0.054096196 0.71900004
-0.044385716 0.053945716 0.71700001
-0.043020003 0.053945716 0.71700001
-0.041654289 0.053945716 0.71700001
-0.040232383 0.053870481 0.71600002
-0.038868573 0.053870481 0.71600002
-0.037557144 0.053945716 0.71700001
-0.03619143 0.053945716 0.71700001
-0.034825716 0.053945716 0.71700001
-0.033600003 0.054171432 0.72000003
-0.031020002 0.052140005 0.69300002
-0.029700002 0.052140005 0.69300002
-0.028257145 0.05191429 0.69000006
-0.026942858 0.05191429 0.69000006
-0.025628572 0.05191429 0.69000006
-0.024314288 0.05191429 0.69000006
-0.023000002 0.05191429 0.69000006
-0.021685716 0.05191429 0.69000006
-0.02037143 0.05191429 0.69000006
-0.019057143 0.05191429 0.69000006
-0.017742859 0.05191429 0.69000006
-0.016428573 0.05191429 0.69000006
-0.015092382 0.05183905 0.68900001
-0.013800001 0.05191429 0.69000006
-0.012485716 0.05191429 0.69000006
-0.011171429 0.05191429 0.69000006
-0.0098571433 0.05191429 0.69000006
-0.0085428581 0.05191429 0.69000006
-0.0072285719 0.05191429 0.69000006
-0.0059142862 0.05191429 0.69000006
-0.004606667 0.051989526 0.69100004
-0.0032904765 0.051989526 0.69100004
-0.0019742858 0.051989526 0.69100004
-0.00065809529 0.051989526 0.69100004
0.00065809529 0.051989526 0.69100004
0.0019742858 0.051989526 0.69100004
0.0032904765 0.051989526 0.69100004
0.0046000001 0.05191429 0.69000006
0.0059142862 0.05191429 0.69000006
0.0072390479 0.051989526 0.69100004
0.0085800001 0.052140005 0.69300002
0.0099000009 0.052140005 0.69300002
0.011220001 0.052140005 0.69300002
0.01254 0.052140005 0.69300002
0.01388 0.052215241 0.69400001
0.020340001 0.059513338 0.79100001
-0.062313337 0.055465717 0.71900004
-0.060943812 0.055465717 0.71900004
-0.059574291 0.055465717 0.71900004
-0.058204766 0.055465717 0.71900004
-0.056835242 0.055465717 0.71900004
-0.055465717 0.055465717 0.71900004
-0.054096196 0.055465717 0.71900004
-0.052800003 0.05554286 0.72000003
-0.049214289 0.053151432 0.68900001
-0.047971431 0.053228576 0.69000006
-0.048685718 0.05554286 0.72000003
-0.04731429 0.05554286 0.72000003
-0.045942862 0.05554286 0.72000003
-0.044509526 0.055465717 0.71900004
-0.043140002 0.055465717 0.71900004
-0.041654289 0.055311434 0.71700001
-0.040288575 0.055311434 0.71700001
-0.038922861 0.055311434 0.71700001
-0.037557144 0.055311434 0.71700001
-0.034778096 0.053151432 0.68900001
-0.033465717 0.053151432 0.68900001
-0.032246668 0.053305719 0.69100004
-0.031020002 0.053460002 0.69300002
-0.029700002 0.053460002 0.69300002
-0.028298097 0.053305719 0.69100004
-0.026981907 0.053305719 0.69100004
-0.025665715 0.053305719 0.69100004
-0.024314288 0.053228576 0.69000006
-0.023000002 0.053228576 0.69000006
-0.021685716 0.053228576 0.69000006
-0.02037143 0.053228576 0.69000006
-0.019057143 0.053228576 0.69000006
-0.017742859 0.053228576 0.69000006
-0.016428573 0.053228576 0.69000006
-0.015114287 0.053228576 0.69000006
-0.013800001 0.053228576 0.69000006
-0.012485716 0.053228576 0.69000006
-0.011171429 0.053228576 0.69000006
-0.0098571433 0.053228576 0.69000006
-0.0085428581 0.053228576 0.69000006
-0.0072285719 0.053228576 0.69000006
-0.0059228577 0.053305719 0.69100004
-0.004606667 0.053305719 0.69100004
-0.0033000002 0.053460002 0.69300002
-0.0019800002 0.053460002 0.69300002
-0.00066000002 0.053460002 0.69300002
0.00066000002 0.053460002 0.69300002
0.0019800002 0.053460002 0.69300002
0.0033000002 0.053460002 0.69300002
0.0046200003 0.053460002 0.69300002
0.0059400005 0.053460002 0.69300002
0.0072600003 0.053460002 0.69300002
0.0085800001 0.053460002 0.69300002
0.0099000009 0.053460002 0.69300002
0.011220001 0.053460002 0.69300002
0.01254 0.053460002 0.69300002
0.013860001 0.053460002 0.69300002
-0.061028574 0.056914289 0.72000003
-0.059657145 0.056914289 0.72000003
-0.058447622 0.057072386 0.72200006
-0.054463815 0.054463815 0.68900001
-0.053151432 0.054463815 0.68900001
-0.051688574 0.054305717 0.68700004
-0.050526671 0.054463815 0.68900001
-0.049214289 0.054463815 0.68900001
-0.047901906 0.054463815 0.68900001
-0.046657145 0.054542862 0.69000006
-0.045342859 0.054542862 0.69000006
-0.044028573 0.054542862 0.69000006
-0.04271429 0.054542862 0.69000006
-0.041400004 0.054542862 0.69000006
-0.040085718 0.054542862 0.69000006
-0.038771432 0.054542862 0.69000006
-0.037457146 0.054542862 0.69000006
-0.036195241 0.054621909 0.69100004
-0.034828573 0.054542862 0.69000006
-0.033514287 0.054542862 0.69000006
-0.032246668 0.054621909 0.69100004
-0.031020002 0.054780003 0.69300002
-0.029700002 0.054780003 0.69300002
-0.028298097 0.054621909 0.69100004
-0.026981907 0.054621909 0.69100004
-0.025665715 0.054621909 0.69100004
-0.024349526 0.054621909 0.69100004
-0.023033334 0.054621909 0.69100004
-0.021717144 0.054621909 0.69100004
-0.020400954 0.054621909 0.69100004
-0.019084763 0.054621909 0.69100004
-0.017742859 0.054542862 0.69000006
-0.016428573 0.054542862 0.69000006
-0.015114287 0.054542862 0.69000006
-0.013820001 0.054621909 0.69100004
-0.01250381 0.054621909 0.69100004
-0.01118762 0.054621909 0.69100004
-0.0098714288 0.054621909 0.69100004
-0.0085552391 0.054621909 0.69100004
-0.0072390479 0.054621909 0.69100004
-0.0059400005 0.054780003 0.69300002
-0.0046200003 0.054780003 0.69300002
-0.0033000002 0.054780003 0.69300002
-0.0019828572 0.05485905 0.69400001
-0.00066095241 0.05485905 0.69400001
0.00066095241 0.05485905 0.69400001
0.0019828572 0.05485905 0.69400001
0.0033047621 0.05485905 0.69400001
0.0046266671 0.05485905 0.69400001
0.005948572 0.05485905 0.69400001
0.0072704768 0.05485905 0.69400001
0.0085923811 0.05485905 0.69400001
0.0099142864 0.05485905 0.69400001
0.011236191 0.05485905 0.69400001
0.01254 0.054780003 0.69300002
-0.058231432 0.055614289 0.68700004
-0.05692286 0.055614289 0.68700004
-0.055776194 0.055776194 0.68900001
-0.054463815 0.055776194 0.68900001
-0.053151432 0.055776194 0.68900001
-0.05183905 0.055776194 0.68900001
-0.050526671 0.055776194 0.68900001
-0.049214289 0.055776194 0.68900001
-0.047901906 0.055776194 0.68900001
-0.046657145 0.055857148 0.69000006
-0.045342859 0.055857148 0.69000006
-0.044028573 0.055857148 0.69000006
-0.04271429 0.055857148 0.69000006
-0.041400004 0.055857148 0.69000006
-0.040143814 0.055938099 0.69100004
-0.03882762 0.055938099 0.69100004
-0.037511431 0.055938099 0.69100004
-0.036195241 0.055938099 0.69100004
-0.034879051 0.055938099 0.69100004
-0.033562858 0.055938099 0.69100004
-0.032246668 0.055938099 0.69100004
-0.031020002 0.056100003 0.69300002
-0.029700002 0.056100003 0.69300002
-0.028380001 0.056100003 0.69300002
-0.026981907 0.055938099 0.69100004
-0.025665715 0.055938099 0.69100004
-0.024349526 0.055938099 0.69100004
-0.023033334 0.055938099 0.69100004
-0.021717144 0.055938099 0.69100004
-0.020400954 0.055938099 0.69100004
-0.019084763 0.055938099 0.69100004
-0.017742859 0.055857148 0.69000006
-0.016428573 0.055857148 0.69000006
-0.015136192 0.055938099 0.69100004
-0.013820001 0.055938099 0.69100004
-0.01250381 0.055938099 0.69100004
-0.01118762 0.055938099 0.69100004
-0.0099000009 0.056100003 0.69300002
-0.0085800001 0.056100003 0.69300002
-0.0072600003 0.056100003 0.69300002
-0.0059400005 0.056100003 0.69300002
-0.0046266671 0.056180958 0.69400001
-0.0033047621 0.056180958 0.69400001
-0.0019828572 0.056180958 0.69400001
-0.00066095241 0.056180958 0.69400001
0.00066095241 0.056180958 0.69400001
0.0019828572 0.056180958 0.69400001
0.0033047621 0.056180958 0.69400001
0.0046266671 0.056180958 0.69400001
0.005948572 0.056180958 0.69400001
0.0072704768 0.056180958 0.69400001
0.0085923811 0.056180958 0.69400001
0.0099142864 0.056180958 0.69400001
0.011236191 0.056180958 0.69400001
0.012558096 0.056180958 0.69400001
-0.059800003 0.057171434 0.69000006
-0.058400955 0.057088576 0.68900001
-0.057088576 0.057088576 0.68900001
-0.055776194 0.057088576 0.68900001
-0.054542862 0.057171434 0.69000006
-0.053151432 0.057088576 0.68900001
-0.05183905 0.057088576 0.68900001
-0.050526671 0.057088576 0.68900001
-0.049214289 0.057088576 0.68900001
-0.047901906 0.057088576 0.68900001
-0.046657145 0.057171434 0.69000006
-0.045342859 0.057171434 0.69000006
-0.044028573 0.057171434 0.69000006
-0.04271429 0.057171434 0.69000006
-0.041460004 0.057254288 0.69100004
-0.040143814 0.057254288 0.69100004
-0.03882762 0.057254288 0.69100004
-0.037511431 0.057254288 0.69100004
-0.036300004 0.057420004 0.69300002
-0.034980003 0.057420004 0.69300002
-0.033660002 0.057420004 0.69300002
-0.032340001 0.057420004 0.69300002
-0.031020002 0.057420004 0.69300002
-0.029700002 0.057420004 0.69300002
-0.028380001 0.057420004 0.69300002
-0.026981907 0.057254288 0.69100004
-0.025665715 0.057254288 0.69100004
-0.024420002 0.057420004 0.69300002
-0.023033334 0.057254288 0.69100004
-0.021717144 0.057254288 0.69100004
-0.020400954 0.057254288 0.69100004
-0.019084763 0.057254288 0.69100004
-0.017768573 0.057254288 0.69100004
-0.016452381 0.057254288 0.69100004
-0.015136192 0.057254288 0.69100004
-0.013860001 0.057420004 0.69300002
-0.01254 0.057420004 0.69300002
-0.011220001 0.057420004 0.69300002
-0.0099142864 0.057502862 0.69400001
-0.0085923811 0.057502862 0.69400001
-0.0072704768 0.057502862 0.69400001
-0.005948572 0.057502862 0.69400001
-0.0046266671 0.057502862 0.69400001
-0.0033047621 0.057502862 0.69400001
-0.0019857143 0.057585716 0.69500005
-0.00066190481 0.057585716 0.69500005
0.00066190481 0.057585716 0.69500005
0.0019857143 0.057585716 0.69500005
0.0033095239 0.057585716 0.69500005
0.0046333335 0.057585716 0.69500005
0.0059571434 0.057585716 0.69500005
0.0072809528 0.057585716 0.69500005
0.0086047621 0.057585716 0.69500005
0.009928572 0.057585716 0.69500005
0.011252382 0.057585716 0.69500005
0.012558096 0.057502862 0.69400001
-0.059886672 0.058570482 0.69100004
-0.058485717 0.058485717 0.69000006
-0.057171434 0.058485717 0.69000006
-0.055857148 0.058485717 0.69000006
-0.054542862 0.058485717 0.69000006
-0.053228576 0.058485717 0.69000006
-0.05191429 0.058485717 0.69000006
-0.050600003 0.058485717 0.69000006
-0.049214289 0.058400955 0.68900001
-0.047971431 0.058485717 0.69000006
-0.046657145 0.058485717 0.69000006
-0.045342859 0.058485717 0.69000006
-0.044092383 0.058570482 0.69100004
-0.042776193 0.058570482 0.69100004
-0.041460004 0.058570482 0.69100004
-0.040143814 0.058570482 0.69100004
-0.03882762 0.058570482 0.69100004
-0.037620004 0.058740005 0.69300002
-0.036300004 0.058740005 0.69300002
-0.034980003 0.058740005 0.69300002
-0.033660002 0.058740005 0.69300002
-0.032386668 0.058824766 0.69400001
-0.031064764 0.058824766 0.69400001
-0.029742859 0.058824766 0.69400001
-0.028420955 0.058824766 0.69400001
-0.027060002 0.058740005 0.69300002
-0.025740001 0.058740005 0.69300002
-0.024420002 0.058740005 0.69300002
-0.023100002 0.058740005 0.69300002
-0.021780001 0.058740005 0.69300002
-0.020460002 0.058740005 0.69300002
-0.019140001 0.058740005 0.69300002
-0.017820001 0.058740005 0.69300002
-0.016500002 0.058740005 0.69300002
-0.015180001 0.058740005 0.69300002
-0.013860001 0.058740005 0.69300002
-0.01254 0.058740005 0.69300002
-0.011220001 0.058740005 0.69300002
-0.0099142864 0.058824766 0.69400001
-0.0085923811 0.058824766 0.69400001
-0.0072704768 0.058824766 0.69400001
-0.005948572 0.058824766 0.69400001
-0.0046266671 0.058824766 0.69400001
-0.0033095239 0.058909528 0.69500005
-0.0019857143 0.058909528 0.69500005
-0.00066190481 0.058909528 0.69500005
0.00066190481 0.058909528 0.69500005
0.0019857143 0.058909528 0.69500005
0.0033095239 0.058909528 0.69500005
0.0046333335 0.058909528 0.69500005
0.0059571434 0.058909528 0.69500005
0.0072809528 0.058909528 0.69500005
0.0086295241 0.059079051 0.69700003
0.0099571431 0.059079051 0.69700003
0.011252382 0.058909528 0.69500005
0.012576192 0.058909528 0.69500005
-0.059886672 0.059886672 0.69100004
-0.058485717 0.059800003 0.69000006
-0.057171434 0.059800003 0.69000006
-0.055857148 0.059800003 0.69000006
-0.054542862 0.059800003 0.69000006
-0.053228576 0.059800003 0.69000006
-0.05191429 0.059800003 0.69000006
-0.050600003 0.059800003 0.69000006
-0.049285717 0.059800003 0.69000006
-0.047971431 0.059800003 0.69000006
-0.046724766 0.059886672 0.69100004
-0.045408573 0.059886672 0.69100004
-0.044092383 0.059886672 0.69100004
-0.042776193 0.059886672 0.69100004
-0.041460004 0.059886672 0.69100004
-0.040143814 0.059886672 0.69100004
-0.038940001 0.060060006 0.69300002
-0.037620004 0.060060006 0.69300002
-0.036300004 0.060060006 0.69300002
-0.035030477 0.060146671 0.69400001
-0.033708572 0.060146671 0.69400001
-0.032386668 0.060146671 0.69400001
-0.031064764 0.060146671 0.69400001
-0.029742859 0.060146671 0.69400001
-0.028420955 0.060146671 0.69400001
-0.027099049 0.060146671 0.69400001
-0.025777144 0.060146671 0.69400001
-0.02445524 0.060146671 0.69400001
-0.023133336 0.060146671 0.69400001
-0.021811429 0.060146671 0.69400001
-0.020489525 0.060146671 0.69400001
-0.019167621 0.060146671 0.69400001
-0.01787143 0.060233336 0.69500005
-0.016500002 0.060060006 0.69300002
-0.015201906 0.060146671 0.69400001
-0.01388 0.060146671 0.69400001
-0.012558096 0.060146671 0.69400001
-0.011236191 0.060146671 0.69400001
-0.0099142864 0.060146671 0.69400001
-0.0085923811 0.060146671 0.69400001
-0.0072704768 0.060146671 0.69400001
-0.0059571434 0.060233336 0.69500005
-0.0046333335 0.060233336 0.69500005
-0.0033095239 0.060233336 0.69500005
-0.0019857143 0.060233336 0.69500005
-0.00066190481 0.060233336 0.69500005
0.00066190481 0.060233336 0.69500005
0.0019857143 0.060233336 0.69500005
0.0033095239 0.060233336 0.69500005
0.0046333335 0.060233336 0.69500005
0.0059571434 0.060233336 0.69500005
0.0073019052 0.06040667 0.69700003
0.0086295241 0.06040667 0.69700003
0.0099571431 0.06040667 0.69700003
0.011284763 0.06040667 0.69700003
0.012612382 0.06040667 0.69700003
-0.061380003 0.061380003 0.69300002
-0.060060006 0.061380003 0.69300002
-0.058570482 0.061202861 0.69100004
-0.057254288 0.061202861 0.69100004
-0.055938099 0.061202861 0.69100004
-0.054621909 0.061202861 0.69100004
-0.053305719 0.061202861 0.69100004
-0.051989526 0.061202861 0.69100004
-0.050673336 0.061202861 0.69100004
-0.049357146 0.061202861 0.69100004
-0.048040956 0.061202861 0.69100004
-0.046724766 0.061202861 0.69100004
-0.045408573 0.061202861 0.69100004
-0.044220004 0.061380003 0.69300002
-0.042900003 0.061380003 0.69300002
-0.041580003 0.061380003 0.69300002
-0.040260002 0.061380003 0.69300002
-0.038940001 0.061380003 0.69300002
-0.037620004 0.061380003 0.69300002
-0.036352385 0.061468575 0.69400001
-0.035030477 0.061468575 0.69400001
-0.033708572 0.061468575 0.69400001
-0.032433335 0.061557148 0.69500005
-0.031109527 0.061557148 0.69500005
-0.029785717 0.061557148 0.69500005
-0.028461907 0.061557148 0.69500005
-0.027099049 0.061468575 0.69400001
-0.025777144 0.061468575 0.69400001
-0.024490478 0.061557148 0.69500005
-0.023133336 0.061468575 0.69400001
-0.021811429 0.061468575 0.69400001
-0.02051905 0.061557148 0.69500005
-0.019167621 0.061468575 0.69400001
-0.01787143 0.061557148 0.69500005
-0.01652381 0.061468575 0.69400001
-0.015201906 0.061468575 0.69400001
-0.01388 0.061468575 0.69400001
-0.012558096 0.061468575 0.69400001
-0.011236191 0.061468575 0.69400001
-0.009928572 0.061557148 0.69500005
-0.0086047621 0.061557148 0.69500005
-0.0072809528 0.061557148 0.69500005
-0.0059571434 0.061557148 0.69500005
-0.0046333335 0.061557148 0.69500005
-0.0033095239 0.061557148 0.69500005
-0.0019914287 0.061734289 0.69700003
-0.00066190481 0.061557148 0.69500005
0.00066190481 0.061557148 0.69500005
0.0019857143 0.061557148 0.69500005
0.0033095239 0.061557148 0.69500005
0.0046466668 0.061734289 0.69700003
0.0059742862 0.061734289 0.69700003
0.0073123816 0.061822861 0.69800001
0.0086419052 0.061822861 0.69800001
0.0099714296 0.061822861 0.69800001
0.011300953 0.061822861 0.69800001
0.012630477 0.061822861 0.69800001
-0.061468575 0.062790483 0.69400001
-0.060146671 0.062790483 0.69400001
-0.058740005 0.062700003 0.69300002
-0.057420004 0.062700003 0.69300002
-0.056100003 0.062700003 0.69300002
-0.054780003 0.062700003 0.69300002
-0.053460002 0.062700003 0.69300002
-0.052140005 0.062700003 0.69300002
-0.050820004 0.062700003 0.69300002
-0.049500003 0.062700003 0.69300002
-0.048180003 0.062700003 0.69300002
-0.046927623 0.062790483 0.69400001
-0.045605719 0.062790483 0.69400001
-0.044283811 0.062790483 0.69400001
-0.042961907 0.062790483 0.69400001
-0.041640002 0.062790483 0.69400001
-0.040318098 0.062790483 0.69400001
-0.039052382 0.062880956 0.69500005
-0.037728574 0.062880956 0.69500005
-0.036404766 0.062880956 0.69500005
-0.035080954 0.062880956 0.69500005
-0.033757146 0.062880956 0.69500005
-0.032433335 0.062880956 0.69500005
-0.031109527 0.062880956 0.69500005
-0.029785717 0.062880956 0.69500005
-0.028461907 0.062880956 0.69500005
-0.027138097 0.062880956 0.69500005
-0.025814287 0.062880956 0.69500005
-0.024490478 0.062880956 0.69500005
-0.023166668 0.062880956 0.69500005
-0.021842858 0.062880956 0.69500005
-0.02051905 0.062880956 0.69500005
-0.01919524 0.062880956 0.69500005
-0.01787143 0.062880956 0.69500005
-0.01652381 0.062790483 0.69400001
-0.015201906 0.062790483 0.69400001
-0.013900001 0.062880956 0.69500005
-0.012576192 0.062880956 0.69500005
-0.011252382 0.062880956 0.69500005
-0.009928572 0.062880956 0.69500005
-0.0086047621 0.062880956 0.69500005
-0.0073019052 0.063061908 0.69700003
-0.0059742862 0.063061908 0.69700003
-0.0046333335 0.062880956 0.69500005
-0.0033190479 0.063061908 0.69700003
-0.0019914287 0.063061908 0.69700003
-0.00066380959 0.063061908 0.69700003
0.00066380959 0.063061908 0.69700003
0.0019942857 0.063152388 0.69800001
0.0033238097 0.063152388 0.69800001
0.004666667 0.06333334 0.70000005
0.0060000005 0.06333334 0.70000005
0.0073123816 0.063152388 0.69800001
0.0086419052 0.063152388 0.69800001
0.010000001 0.06333334 0.70000005
0.011333334 0.06333334 0.70000005
0.012630477 0.063152388 0.69800001
0.013940001 0.063061908 0.69700003
-0.061557148 0.064204767 0.69500005
-0.060233336 0.064204767 0.69500005
-0.058824766 0.064112388 0.69400001
-0.057502862 0.064112388 0.69400001
-0.056180958 0.064112388 0.69400001
-0.05485905 0.064112388 0.69400001
-0.053537145 0.064112388 0.69400001
-0.052140005 0.064020008 0.69300002
-0.050820004 0.064020008 0.69300002
-0.049571432 0.064112388 0.69400001
-0.048249528 0.064112388 0.69400001
-0.046927623 0.064112388 0.69400001
-0.045605719 0.064112388 0.69400001
-0.044283811 0.064112388 0.69400001
-0.043023814 0.064204767 0.69500005
-0.041700002 0.064204767 0.69500005
-0.040376194 0.064204767 0.69500005
-0.039052382 0.064204767 0.69500005
-0.037728574 0.064204767 0.69500005
-0.036404766 0.064204767 0.69500005
-0.035080954 0.064204767 0.69500005
-0.033757146 0.064204767 0.69500005
-0.032526668 0.064389527 0.69700003
-0.031199049 0.064389527 0.69700003
-0.02987143 0.064389527 0.69700003
-0.028543811 0.064389527 0.69700003
-0.027216192 0.064389527 0.69700003
-0.025888573 0.064389527 0.69700003
-0.024560954 0.064389527 0.69700003
-0.023233335 0.064389527 0.69700003
-0.021905717 0.064389527 0.69700003
-0.020578096 0.064389527 0.69700003
-0.01919524 0.064204767 0.69500005
-0.017922858 0.064389527 0.69700003
-0.01654762 0.064204767 0.69500005
-0.01522381 0.064204767 0.69500005
-0.013900001 0.064204767 0.69500005
-0.012576192 0.064204767 0.69500005
-0.011252382 0.064204767 0.69500005
-0.0099571431 0.064389527 0.69700003
-0.0086295241 0.064389527 0.69700003
-0.0073019052 0.064389527 0.69700003
-0.0059828577 0.064481907 0.69800001
-0.0046466668 0.064389527 0.69700003
-0.0033238097 0.064481907 0.69800001
-0.0019942857 0.064481907 0.69800001
-0.00066476193 0.064481907 0.69800001
0.00066476193 0.064481907 0.69800001
0.0019942857 0.064481907 0.69800001
0.0033238097 0.064481907 0.69800001
0.004666667 0.064666674 0.70000005
0.0060000005 0.064666674 0.70000005
0.0073333336 0.064666674 0.70000005
0.0086666672 0.064666674 0.70000005
0.010000001 0.064666674 0.70000005
0.011333334 0.064666674 0.70000005
0.012666668 0.064666674 0.70000005
0.013960001 0.064481907 0.69800001
-0.061557148 0.065528579 0.69500005
-0.060233336 0.065528579 0.69500005
-0.058909528 0.065528579 0.69500005
-0.057585716 0.065528579 0.69500005
-0.056261908 0.065528579 0.69500005
-0.0549381 0.065528579 0.69500005
-0.053614289 0.065528579 0.69500005
-0.052215241 0.065434292 0.69400001
-0.050893337 0.065434292 0.69400001
-0.049642861 0.065528579 0.69500005
-0.048319049 0.065528579 0.69500005
-0.046995241 0.065528579 0.69500005
-0.045671433 0.065528579 0.69500005
-0.044347622 0.065528579 0.69500005
-0.043147624 0.065717146 0.69700003
-0.041820005 0.065717146 0.69700003
-0.040492382 0.065717146 0.69700003
-0.039164763 0.065717146 0.69700003
-0.037837144 0.065717146 0.69700003
-0.036509525 0.065717146 0.69700003
-0.035181906 0.065717146 0.69700003
-0.033854287 0.065717146 0.69700003
-0.032526668 0.065717146 0.69700003
-0.031199049 0.065717146 0.69700003
-0.02987143 0.065717146 0.69700003
-0.028543811 0.065717146 0.69700003
-0.027216192 0.065717146 0.69700003
-0.025888573 0.065717146 0.69700003
-0.024596192 0.065811433 0.69800001
-0.023233335 0.065717146 0.69700003
-0.021905717 0.065717146 0.69700003
-0.020578096 0.065717146 0.69700003
-0.019250477 0.065717146 0.69700003
-0.017922858 0.065717146 0.69700003
-0.01654762 0.065528579 0.69500005
-0.01522381 0.065528579 0.69500005
-0.013900001 0.065528579 0.69500005
-0.012576192 0.065528579 0.69500005
-0.011284763 0.065717146 0.69700003
-0.0099571431 0.065717146 0.69700003
-0.0086419052 0.065811433 0.69800001
-0.0073123816 0.065811433 0.69800001
-0.0059828577 0.065811433 0.69800001
-0.0046466668 0.065717146 0.69700003
-0.0033238097 0.065811433 0.69800001
-0.0019942857 0.065811433 0.69800001
-0.00066476193 0.065811433 0.69800001
0.00066476193 0.065811433 0.69800001
0.0020000001 0.066000007 0.70000005
0.0033333336 0.066000007 0.70000005
0.004666667 0.066000007 0.70000005
0.0060000005 0.066000007 0.70000005
0.0073333336 0.066000007 0.70000005
0.0086666672 0.066000007 0.70000005
0.010000001 0.066000007 0.70000005
0.011333334 0.066000007 0.70000005
0.012630477 0.065811433 0.69800001
0.013960001 0.065811433 0.69800001
-0.062880956 0.066852383 0.69500005
-0.061557148 0.066852383 0.69500005
-0.060233336 0.066852383 0.69500005
-0.058909528 0.066852383 0.69500005
-0.057585716 0.066852383 0.69500005
-0.056261908 0.066852383 0.69500005
-0.0549381 0.066852383 0.69500005
-0.053614289 0.066852383 0.69500005
-0.052290481 0.066852383 0.69500005
-0.050966669 0.066852383 0.69500005
-0.049642861 0.066852383 0.69500005
-0.048319049 0.066852383 0.69500005
-0.046995241 0.066852383 0.69500005
-0.045671433 0.066852383 0.69500005
-0.044347622 0.066852383 0.69500005
-0.043147624 0.067044765 0.69700003
-0.041820005 0.067044765 0.69700003
-0.040550478 0.067140959 0.69800001
-0.039220955 0.067140959 0.69800001
-0.037891433 0.067140959 0.69800001
-0.036561906 0.067140959 0.69800001
-0.035232384 0.067140959 0.69800001
-0.033854287 0.067044765 0.69700003
-0.032526668 0.067044765 0.69700003
-0.031199049 0.067044765 0.69700003
-0.02987143 0.067044765 0.69700003
-0.028584763 0.067140959 0.69800001
-0.027255239 0.067140959 0.69800001
-0.025925716 0.067140959 0.69800001
-0.024666669 0.067333341 0.70000005
-0.023266668 0.067140959 0.69800001
-0.021937145 0.067140959 0.69800001
-0.020578096 0.067044765 0.69700003
-0.019250477 0.067044765 0.69700003
-0.017922858 0.067044765 0.69700003
-0.01654762 0.066852383 0.69500005
-0.01522381 0.066852383 0.69500005
-0.013900001 0.066852383 0.69500005
-0.012612382 0.067044765 0.69700003
-0.011284763 0.067044765 0.69700003
-0.0099714296 0.067140959 0.69800001
-0.0086419052 0.067140959 0.69800001
-0.0073123816 0.067140959 0.69800001
-0.0060000005 0.067333341 0.70000005
-0.0046533337 0.067140959 0.69800001
-0.0033238097 0.067140959 0.69800001
-0.0020000001 0.067333341 0.70000005
-0.00066666672 0.067333341 0.70000005
0.00066666672 0.067333341 0.70000005
0.0020000001 0.067333341 0.70000005
0.0033333336 0.067333341 0.70000005
0.004666667 0.067333341 0.70000005
0.0060000005 0.067333341 0.70000005
0.0073333336 0.067333341 0.70000005
0.0086666672 0.067333341 0.70000005
0.010000001 0.067333341 0.70000005
0.011333334 0.067333341 0.70000005
0.012630477 0.067140959 0.69800001
0.013960001 0.067140959 0.69800001
-0.061557148 0.068176195 0.69500005
-0.060233336 0.068176195 0.69500005
-0.058909528 0.068176195 0.69500005
-0.057585716 0.068176195 0.69500005
-0.056261908 0.068176195 0.69500005
-0.0549381 0.068176195 0.69500005
-0.053614289 0.068176195 0.69500005
-0.052290481 0.068176195 0.69500005
-0.050966669 0.068176195 0.69500005
-0.049642861 0.068176195 0.69500005
-0.048319049 0.068176195 0.69500005
-0.046995241 0.068176195 0.69500005
-0.045671433 0.068176195 0.69500005
-0.044347622 0.068176195 0.69500005
-0.043147624 0.068372384 0.69700003
-0.041880004 0.068470478 0.69800001
-0.040550478 0.068470478 0.69800001
-0.039333336 0.068666674 0.70000005
-0.038000003 0.068666674 0.70000005
-0.036561906 0.068470478 0.69800001
-0.035232384 0.068470478 0.69800001
-0.033902861 0.068470478 0.69800001
-0.032573335 0.068470478 0.69800001
-0.031243812 0.068470478 0.69800001
-0.029914288 0.068470478 0.69800001
-0.028584763 0.068470478 0.69800001
-0.027255239 0.068470478 0.69800001
-0.025925716 0.068470478 0.69800001
-0.024666669 0.068666674 0.70000005
-0.023266668 0.068470478 0.69800001
-0.022000002 0.068666674 0.70000005
-0.020666668 0.068666674 0.70000005
-0.019278096 0.068470478 0.69800001
-0.018000001 0.068666674 0.70000005
-0.016595239 0.068372384 0.69700003
-0.01526762 0.068372384 0.69700003
-0.013960001 0.068470478 0.69800001
-0.012630477 0.068470478 0.69800001
-0.011300953 0.068470478 0.69800001
-0.010000001 0.068666674 0.70000005
-0.0086666672 0.068666674 0.70000005
-0.0073333336 0.068666674 0.70000005
-0.0060000005 0.068666674 0.70000005
-0.004666667 0.068666674 0.70000005
-0.0033333336 0.068666674 0.70000005
-0.0020000001 0.068666674 0.70000005
-0.00066666672 0.068666674 0.70000005
0.00066666672 0.068666674 0.70000005
0.0020028572 0.068764769 0.70100003
0.0033333336 0.068666674 0.70000005
0.0046733338 0.068764769 0.70100003
0.0060085719 0.068764769 0.70100003
0.0073333336 0.068666674 0.70000005
0.0086666672 0.068666674 0.70000005
0.010000001 0.068666674 0.70000005
0.011333334 0.068666674 0.70000005
0.012666668 0.068666674 0.70000005
0.013960001 0.068470478 0.69800001
-0.061557148 0.069500007 0.69500005
-0.060233336 0.069500007 0.69500005
-0.058909528 0.069500007 0.69500005
-0.057751432 0.069700003 0.69700003
-0.056423813 0.069700003 0.69700003
-0.055096194 0.069700003 0.69700003
-0.053768575 0.069700003 0.69700003
-0.052440956 0.069700003 0.69700003
-0.051113337 0.069700003 0.69700003
-0.049785718 0.069700003 0.69700003
-0.048458099 0.069700003 0.69700003
-0.04713048 0.069700003 0.69700003
-0.045802861 0.069700003 0.69700003
-0.044475242 0.069700003 0.69700003
-0.043209527 0.069800004 0.69800001
-0.041880004 0.069800004 0.69800001
-0.04066667 0.070000008 0.70000005
-0.039333336 0.070000008 0.70000005
-0.038000003 0.070000008 0.70000005
-0.036666669 0.070000008 0.70000005
-0.035232384 0.069800004 0.69800001
-0.033902861 0.069800004 0.69800001
-0.032573335 0.069800004 0.69800001
-0.031243812 0.069800004 0.69800001
-0.029914288 0.069800004 0.69800001
-0.028666668 0.070000008 0.70000005
-0.027333336 0.070000008 0.70000005
-0.026000002 0.070000008 0.70000005
-0.024666669 0.070000008 0.70000005
-0.023333335 0.070000008 0.70000005
-0.022000002 0.070000008 0.70000005
-0.020666668 0.070000008 0.70000005
-0.019333335 0.070000008 0.70000005
-0.018000001 0.070000008 0.70000005
-0.016619049 0.069800004 0.69800001
-0.015289525 0.069800004 0.69800001
-0.013960001 0.069800004 0.69800001
-0.012630477 0.069800004 0.69800001
-0.011300953 0.069800004 0.69800001
-0.010000001 0.070000008 0.70000005
-0.0086666672 0.070000008 0.70000005
-0.0073333336 0.070000008 0.70000005
-0.0060085719 0.070100002 0.70100003
-0.004666667 0.070000008 0.70000005
-0.0033380955 0.070100002 0.70100003
-0.0020028572 0.070100002 0.70100003
-0.00066761911 0.070100002 0.70100003
0.00066761911 0.070100002 0.70100003
0.0020028572 0.070100002 0.70100003
0.0033380955 0.070100002 0.70100003
0.0046733338 0.070100002 0.70100003
0.0060085719 0.070100002 0.70100003
0.0073438101 0.070100002 0.70100003
0.0086790482 0.070100002 0.70100003
0.010014286 0.070100002 0.70100003
0.011349524 0.070100002 0.70100003
0.012666668 0.070000008 0.70000005
0.014000001 0.070000008 0.70000005
-0.061734289 0.071027622 0.69700003
-0.06040667 0.071027622 0.69700003
-0.059079051 0.071027622 0.69700003
-0.05783429 0.071129531 0.69800001
-0.056504767 0.071129531 0.69800001
-0.055096194 0.071027622 0.69700003
-0.053768575 0.071027622 0.69700003
-0.052440956 0.071027622 0.69700003
-0.051113337 0.071027622 0.69700003
-0.049785718 0.071027622 0.69700003
-0.048458099 0.071027622 0.69700003
-0.04713048 0.071027622 0.69700003
-0.045802861 0.071027622 0.69700003
-0.044475242 0.071027622 0.69700003
-0.043209527 0.071129531 0.69800001
-0.042000003 0.071333341 0.70000005
-0.04066667 0.071333341 0.70000005
-0.039333336 0.071333341 0.70000005
-0.038000003 0.071333341 0.70000005
-0.036666669 0.071333341 0.70000005
-0.035333335 0.071333341 0.70000005
-0.033902861 0.071129531 0.69800001
-0.032573335 0.071129531 0.69800001
-0.031243812 0.071129531 0.69800001
-0.029914288 0.071129531 0.69800001
-0.028584763 0.071129531 0.69800001
-0.027333336 0.071333341 0.70000005
-0.026037145 0.071435243 0.70100003
-0.024701906 0.071435243 0.70100003
-0.023366667 0.071435243 0.70100003
-0.02203143 0.071435243 0.70100003
-0.020696191 0.071435243 0.70100003
-0.019360954 0.071435243 0.70100003
-0.018025715 0.071435243 0.70100003
-0.016666668 0.071333341 0.70000005
-0.015289525 0.071129531 0.69800001
-0.014000001 0.071333341 0.70000005
-0.012666668 0.071333341 0.70000005
-0.011333334 0.071333341 0.70000005
-0.010000001 0.071333341 0.70000005
-0.0086666672 0.071333341 0.70000005
-0.0073438101 0.071435243 0.70100003
-0.0060085719 0.071435243 0.70100003
-0.0046733338 0.071435243 0.70100003
-0.0033380955 0.071435243 0.70100003
-0.0020028572 0.071435243 0.70100003
-0.00066761911 0.071435243 0.70100003
0.00066761911 0.071435243 0.70100003
0.0020028572 0.071435243 0.70100003
0.0033380955 0.071435243 0.70100003
0.0046733338 0.071435243 0.70100003
0.0060085719 0.071435243 0.70100003
0.0073438101 0.071435243 0.70100003
0.0086790482 0.071435243 0.70100003
0.010014286 0.071435243 0.70100003
0.011349524 0.071435243 0.70100003
0.012666668 0.071333341 0.70000005
0.014000001 0.071333341 0.70000005
-0.061822861 0.07245905 0.69800001
-0.060493339 0.07245905 0.69800001
-0.059333336 0.072666675 0.70000005
-0.058000002 0.072666675 0.70000005
-0.056504767 0.07245905 0.69800001
-0.055175241 0.07245905 0.69800001
-0.053845719 0.07245905 0.69800001
-0.052516192 0.07245905 0.69800001
-0.05118667 0.07245905 0.69800001
-0.049857147 0.07245905 0.69800001
-0.048527621 0.07245905 0.69800001
-0.047198098 0.07245905 0.69800001
-0.045868576 0.07245905 0.69800001
-0.044539049 0.07245905 0.69800001
-0.043333337 0.072666675 0.70000005
-0.042000003 0.072666675 0.70000005
-0.040724766 0.072770484 0.70100003
-0.039389525 0.072770484 0.70100003
-0.038054287 0.072770484 0.70100003
-0.036666669 0.072666675 0.70000005
-0.035333335 0.072666675 0.70000005
-0.034000002 0.072666675 0.70000005
-0.032666668 0.072666675 0.70000005
-0.031243812 0.07245905 0.69800001
-0.030000001 0.072666675 0.70000005
-0.028666668 0.072666675 0.70000005
-0.027372383 0.072770484 0.70100003
-0.026037145 0.072770484 0.70100003
-0.024701906 0.072770484 0.70100003
-0.023433335 0.072978102 0.70300001
-0.022094287 0.072978102 0.70300001
-0.020755239 0.072978102 0.70300001
-0.019416193 0.072978102 0.70300001
-0.018077144 0.072978102 0.70300001
-0.016666668 0.072666675 0.70000005
-0.015333334 0.072666675 0.70000005
-0.014000001 0.072666675 0.70000005
-0.012666668 0.072666675 0.70000005
-0.011349524 0.072770484 0.70100003
-0.010042857 0.072978102 0.70300001
-0.0087038102 0.072978102 0.70300001
-0.0073752385 0.073081911 0.70400006
-0.0060257148 0.072978102 0.70300001
-0.0046866671 0.072978102 0.70300001
-0.0033476192 0.072978102 0.70300001
-0.0020085715 0.072978102 0.70300001
-0.00066952384 0.072978102 0.70300001
0.00066952384 0.072978102 0.70300001
0.0020085715 0.072978102 0.70300001
0.0033476192 0.072978102 0.70300001
0.0046866671 0.072978102 0.70300001
0.0060257148 0.072978102 0.70300001
0.0073647625 0.072978102 0.70300001
0.0087038102 0.072978102 0.70300001
0.010042857 0.072978102 0.70300001
0.011381906 0.072978102 0.70300001
0.012684762 0.072770484 0.70100003
0.014020001 0.072770484 0.70100003
-0.065173335 0.079497151 0.75200003
-0.059333336 0.074000008 0.70000005
-0.05808286 0.074105717 0.70100003
-0.056666672 0.074000008 0.70000005
-0.055333339 0.074000008 0.70000005
-0.054000005 0.074000008 0.70000005
-0.052666672 0.074000008 0.70000005
-0.05118667 0.073788576 0.69800001
-0.049857147 0.073788576 0.69800001
-0.048527621 0.073788576 0.69800001
-0.047333337 0.074000008 0.70000005
-0.046000004 0.074000008 0.70000005
-0.04466667 0.074000008 0.70000005
-0.04339524 0.074105717 0.70100003
-0.042060003 0.074105717 0.70100003
-0.040724766 0.074105717 0.70100003
-0.039389525 0.074105717 0.70100003
-0.038054287 0.074105717 0.70100003
-0.03671905 0.074105717 0.70100003
-0.035333335 0.074000008 0.70000005
-0.034000002 0.074000008 0.70000005
-0.032666668 0.074000008 0.70000005
-0.031333335 0.074000008 0.70000005
-0.030042859 0.074105717 0.70100003
-0.028707622 0.074105717 0.70100003
-0.027372383 0.074105717 0.70100003
-0.02611143 0.07431715 0.70300001
-0.024772383 0.07431715 0.70300001
-0.023433335 0.07431715 0.70300001
-0.022094287 0.07431715 0.70300001
-0.020755239 0.07431715 0.70300001
-0.019416193 0.07431715 0.70300001
-0.018077144 0.07431715 0.70300001
-0.016690478 0.074105717 0.70100003
-0.015333334 0.074000008 0.70000005
-0.014020001 0.074105717 0.70100003
-0.012684762 0.074105717 0.70100003
-0.011349524 0.074105717 0.70100003
-0.010042857 0.07431715 0.70300001
-0.0087161912 0.074422859 0.70400006
-0.0073752385 0.074422859 0.70400006
-0.0060257148 0.07431715 0.70300001
-0.0046866671 0.07431715 0.70300001
-0.0033476192 0.07431715 0.70300001
-0.0020085715 0.07431715 0.70300001
-0.00067047623 0.074422859 0.70400006
0.00066952384 0.07431715 0.70300001
0.0020085715 0.07431715 0.70300001
0.0033476192 0.07431715 0.70300001
0.0046866671 0.07431715 0.70300001
0.0060342862 0.074422859 0.70400006
0.0073752385 0.074422859 0.70400006
0.0087161912 0.074422859 0.70400006
0.010057144 0.074422859 0.70400006
0.011398096 0.074422859 0.70400006
0.012739048 0.074422859 0.70400006
0.014080001 0.074422859 0.70400006
-0.066605717 0.080929533 0.75200003
-0.065173335 0.080929533 0.75200003
-0.059418101 0.075440958 0.70100003
-0.05808286 0.075440958 0.70100003
-0.056747623 0.075440958 0.70100003
-0.055333339 0.075333342 0.70000005
-0.054000005 0.075333342 0.70000005
-0.052666672 0.075333342 0.70000005
-0.051333338 0.075333342 0.70000005
-0.050000004 0.075333342 0.70000005
-0.048666671 0.075333342 0.70000005
-0.047333337 0.075333342 0.70000005
-0.046000004 0.075333342 0.70000005
-0.044730481 0.075440958 0.70100003
-0.04339524 0.075440958 0.70100003
-0.042060003 0.075440958 0.70100003
-0.040724766 0.075440958 0.70100003
-0.039389525 0.075440958 0.70100003
-0.038054287 0.075440958 0.70100003
-0.03671905 0.075440958 0.70100003
-0.035383813 0.075440958 0.70100003
-0.034000002 0.075333342 0.70000005
-0.032666668 0.075333342 0.70000005
-0.031333335 0.075333342 0.70000005
-0.030000001 0.075333342 0.70000005
-0.028707622 0.075440958 0.70100003
-0.027450478 0.075656198 0.70300001
-0.02611143 0.075656198 0.70300001
-0.024807621 0.075763814 0.70400006
-0.023466669 0.075763814 0.70400006
-0.022125715 0.075763814 0.70400006
-0.020755239 0.075656198 0.70300001
-0.019416193 0.075656198 0.70300001
-0.018077144 0.075656198 0.70300001
-0.016690478 0.075440958 0.70100003
-0.015355239 0.075440958 0.70100003
-0.014020001 0.075440958 0.70100003
-0.012684762 0.075440958 0.70100003
-0.011381906 0.075656198 0.70300001
-0.010042857 0.075656198 0.70300001
-0.0087161912 0.075763814 0.70400006
-0.0073752385 0.075763814 0.70400006
-0.0060342862 0.075763814 0.70400006
-0.0046933335 0.075763814 0.70400006
-0.0033523813 0.075763814 0.70400006
-0.0020114286 0.075763814 0.70400006
-0.00067047623 0.075763814 0.70400006
0.00067047623 0.075763814 0.70400006
0.0020142859 0.07587143 0.70500004
0.0033571431 0.07587143 0.70500004
0.0047000004 0.07587143 0.70500004
0.0060428577 0.07587143 0.70500004
0.0073857149 0.07587143 0.70500004
0.0087285722 0.07587143 0.70500004
0.010071429 0.07587143 0.70500004
0.011414287 0.07587143 0.70500004
0.012757144 0.07587143 0.70500004
0.014100001 0.07587143 0.70500004
-0.059587624 0.076995246 0.70300001
-0.058248576 0.076995246 0.70300001
-0.056909528 0.076995246 0.70300001
-0.055412386 0.076776199 0.70100003
-0.054077145 0.076776199 0.70100003
-0.052892383 0.076995246 0.70300001
-0.051553335 0.076995246 0.70300001
-0.050214291 0.076995246 0.70300001
-0.048875242 0.076995246 0.70300001
-0.047536194 0.076995246 0.70300001
-0.046197146 0.076995246 0.70300001
-0.044858098 0.076995246 0.70300001
-0.043580957 0.07710477 0.70400006
-0.042180002 0.076995246 0.70300001
-0.040840954 0.076995246 0.70300001
-0.039501909 0.076995246 0.70300001
-0.038162861 0.076995246 0.70300001
-0.036823813 0.076995246 0.70300001
-0.035383813 0.076776199 0.70100003
-0.034048572 0.076776199 0.70100003
-0.032713335 0.076776199 0.70100003
-0.031378098 0.076776199 0.70100003
-0.030042859 0.076776199 0.70100003
-0.028789526 0.076995246 0.70300001
-0.027450478 0.076995246 0.70300001
-0.026148573 0.07710477 0.70400006
-0.024842858 0.077214293 0.70500004
-0.023500001 0.077214293 0.70500004
-0.022157144 0.077214293 0.70500004
-0.020784764 0.07710477 0.70400006
-0.01944381 0.07710477 0.70400006
-0.018102858 0.07710477 0.70400006
-0.016738096 0.076995246 0.70300001
-0.015399049 0.076995246 0.70300001
-0.014060001 0.076995246 0.70300001
-0.012720954 0.076995246 0.70300001
-0.011398096 0.07710477 0.70400006
-0.010057144 0.07710477 0.70400006
-0.0087285722 0.077214293 0.70500004
-0.0073857149 0.077214293 0.70500004
-0.0060428577 0.077214293 0.70500004
-0.0047000004 0.077214293 0.70500004
-0.0033571431 0.077214293 0.70500004
-0.0020142859 0.077214293 0.70500004
-0.00067142863 0.077214293 0.70500004
0.00067333336 0.07743334 0.70700002
0.0020200002 0.07743334 0.70700002
0.0033571431 0.077214293 0.70500004
0.0047000004 0.077214293 0.70500004
0.0060685719 0.077542864 0.708
0.0074066673 0.07743334 0.70700002
0.0087533342 0.07743334 0.70700002
0.010100001 0.07743334 0.70700002
0.011446668 0.07743334 0.70700002
0.012793334 0.07743334 0.70700002
0.016384764 0.081923813 0.74800003
-0.060926672 0.078334294 0.70300001
-0.059587624 0.078334294 0.70300001
-0.058248576 0.078334294 0.70300001
-0.056909528 0.078334294 0.70300001
-0.055570479 0.078334294 0.70300001
-0.054231431 0.078334294 0.70300001
-0.052892383 0.078334294 0.70300001
-0.051626671 0.078445718 0.70400006
-0.050285719 0.078445718 0.70400006
-0.048944764 0.078445718 0.70400006
-0.047603812 0.078445718 0.70400006
-0.04626286 0.078445718 0.70400006
-0.044921909 0.078445718 0.70400006
-0.04364286 0.078557149 0.70500004
-0.042240001 0.078445718 0.70400006
-0.040899049 0.078445718 0.70400006
-0.039558098 0.078445718 0.70400006
-0.038162861 0.078334294 0.70300001
-0.036823813 0.078334294 0.70300001
-0.035484765 0.078334294 0.70300001
-0.034048572 0.078111432 0.70100003
-0.032713335 0.078111432 0.70100003
-0.031378098 0.078111432 0.70100003
-0.030128574 0.078334294 0.70300001
-0.028789526 0.078334294 0.70300001
-0.027489526 0.078445718 0.70400006
-0.026185716 0.078557149 0.70500004
-0.024842858 0.078557149 0.70500004
-0.023500001 0.078557149 0.70500004
-0.022157144 0.078557149 0.70500004
-0.020814287 0.078557149 0.70500004
-0.01944381 0.078445718 0.70400006
-0.018102858 0.078445718 0.70400006
-0.016738096 0.078334294 0.70300001
-0.015420954 0.078445718 0.70400006
-0.014100001 0.078557149 0.70500004
-0.012757144 0.078557149 0.70500004
-0.011398096 0.078445718 0.70400006
-0.010071429 0.078557149 0.70500004
-0.0087285722 0.078557149 0.70500004
-0.0073857149 0.078557149 0.70500004
-0.0060428577 0.078557149 0.70500004
-0.0047000004 0.078557149 0.70500004
-0.0033571431 0.078557149 0.70500004
-0.0020142859 0.078557149 0.70500004
-0.00067333336 0.078780003 0.70700002
0.00067428575 0.078891434 0.708
0.0020200002 0.078780003 0.70700002
0.0033666668 0.078780003 0.70700002
0.0047133337 0.078780003 0.70700002
0.0060600005 0.078780003 0.70700002
0.0074171433 0.078891434 0.708
0.0087533342 0.078780003 0.70700002
0.010100001 0.078780003 0.70700002
0.011446668 0.078780003 0.70700002
0.012793334 0.078780003 0.70700002
0.017738096 0.083014295 0.74500006
-0.060926672 0.079673335 0.70300001
-0.059587624 0.079673335 0.70300001
-0.058248576 0.079673335 0.70300001
-0.056909528 0.079673335 0.70300001
-0.055570479 0.079673335 0.70300001
-0.054231431 0.079673335 0.70300001
-0.052967623 0.079786673 0.70400006
-0.051626671 0.079786673 0.70400006
-0.050357144 0.079900004 0.70500004
-0.049014289 0.079900004 0.70500004
-0.047671434 0.079900004 0.70500004
-0.046328574 0.079900004 0.70500004
-0.044985719 0.079900004 0.70500004
-0.04364286 0.079900004 0.70500004
-0.042300005 0.079900004 0.70500004
-0.040957145 0.079900004 0.70500004
-0.03961429 0.079900004 0.70500004
-0.038217146 0.079786673 0.70400006
-0.036876194 0.079786673 0.70400006
-0.035535239 0.079786673 0.70400006
