# .PCD v0.7 - Point Cloud Data file format
VERSION 0.7
FIELDS x y z
SIZE 4 4 4
TYPE F F F
COUNT 1 1 1
WIDTH 83
HEIGHT 1
VIEWPOINT 0 0 0 1 0 0 0
POINTS 83
DATA ascii
0.16233334 -0.030611431 0.97400004
0.015219049 -0.022380954 0.94000006
0.018800002 -0.022380954 0.94000006
0.0053733336 0.048360005 0.80600005
0.0069085718 0.048360005 0.80600005
0.0038380956 0.049895242 0.80600005
0.0053733336 0.049895242 0.80600005
0.0069085718 0.049895242 0.80600005
0.0038380956 0.051430479 0.80600005
0.0053733336 0.051430479 0.80600005
0.006891429 0.051302861 0.80400002
0.0084228581 0.051302861 0.80400002
-0.0082866671 0.059513338 0.79100001
-0.0067800004 0.059513338 0.79100001
-0.0097314296 0.062131431 0.78600001
-0.011200001 0.063466668 0.78400004
-0.0097066676 0.063466668 0.78400004
-0.012660953 0.064794287 0.78200006
0.0036333336 0.073393337 0.76300001
-0.022526668 0.07484667 0.76300001
-0.014150477 0.076710485 0.78200006
-0.012660953 0.076710485 0.78200006
0.0036333336 0.07484667 0.76300001
0.0050866669 0.07484667 0.76300001
-0.022467621 0.076100007 0.76100004
-0.019440001 0.075600006 0.75600004
-0.013680001 0.075600006 0.75600004
0.0050733336 0.076100007 0.76100004
-0.020935239 0.077243812 0.75800002
-0.019440001 0.077040002 0.75600004
-0.017976191 0.0769381 0.75500005
-0.016538097 0.0769381 0.75500005
-0.015120001 0.077040002 0.75600004
-0.013680001 0.077040002 0.75600004
-0.018000001 0.078480005 0.75600004
-0.016560001 0.078480005 0.75600004
-0.015120001 0.078480005 0.75600004
0.0035714288 0.080714293 0.75000006
0.0049800002 0.080391437 0.74700004
0.006411429 0.080499053 0.74800003
0.015040001 0.080929533 0.75200003
-0.016428573 0.08214286 0.75000006
0.0035714288 0.08214286 0.75000006
0.0049800002 0.081814289 0.74700004
0.006411429 0.081923813 0.74800003
-0.010685715 0.08334858 0.74800003
0.0049800002 0.083237149 0.74700004
0.0064028576 0.083237149 0.74700004
0.0049666669 0.08443334 0.74500006
0.0063857147 0.08443334 0.74500006
0.0078047626 0.08443334 0.74500006
0.0092238104 0.08443334 0.74500006
0.0077838101 0.085621908 0.74300003
0.0091990484 0.085621908 0.74300003
-0.021581907 0.091200955 0.73100001
-0.018797144 0.091200955 0.73100001
-0.017333334 0.090826675 0.72800004
-0.015946668 0.090826675 0.72800004
-0.020189526 0.092593342 0.73100001
-0.018797144 0.092593342 0.73100001
-0.017333334 0.09221334 0.72800004
-0.015968572 0.092340007 0.72900003
-0.017357145 0.09372858 0.72900003
-0.015968572 0.09372858 0.72900003
0.0062485719 0.09372858 0.72900003
0.0061200005 0.10132001 0.71400005
-0.015574287 0.10360286 0.71100003
0.0060942862 0.10360286 0.71100003
0.0047200001 0.10451429 0.708
0.0060685719 0.10451429 0.708
0.0074171433 0.10451429 0.708
0.0087533342 0.10436668 0.70700002
0.0047133337 0.10571334 0.70700002
0.0060600005 0.10571334 0.70700002
0.0073857149 0.10541429 0.70500004
0.010100001 0.10571334 0.70700002
0.011446668 0.10571334 0.70700002
0.0047000004 0.10675715 0.70500004
0.0060428577 0.10675715 0.70500004
0.0073857149 0.10675715 0.70500004
0.0087285722 0.10675715 0.70500004
0.010071429 0.10675715 0.70500004
0.011414287 0.10675715 0.70500004
