# .PCD v0.7 - Point Cloud Data file format
VERSION 0.7
FIELDS x y z
SIZE 4 4 4
TYPE F F F
COUNT 1 1 1
WIDTH 1343
HEIGHT 1
VIEWPOINT 0 0 0 1 0 0 0
POINTS 1343
DATA ascii
-0.069100954 0.044880003 0.74800003
-0.067585722 0.044820003 0.74700004
-0.065985717 0.044700004 0.74500006
-0.064393334 0.044580001 0.74300003
-0.062893339 0.044520002 0.74200004
-0.061314289 0.044400003 0.74000001
-0.059823815 0.044340003 0.73900002
-0.057862859 0.043920003 0.73200005
-0.056391433 0.043860003 0.73100001
-0.054848574 0.043740004 0.72900003
-0.053460002 0.043740004 0.72900003
-0.05114286 0.042960003 0.71600002
-0.049640004 0.042840004 0.71400005
-0.048212383 0.042780004 0.71300006
-0.046854287 0.042780004 0.71300006
-0.045368575 0.042660002 0.71100003
-0.043952383 0.042600002 0.71000004
-0.042480003 0.042480003 0.708
-0.041073337 0.042420004 0.70700002
-0.09194953 0.045623813 0.73700005
-0.090422861 0.045561906 0.73600006
-0.088779055 0.0454381 0.73400003
-0.087023817 0.045252383 0.73100001
-0.085280009 0.04506667 0.72800004
-0.083201908 0.04469524 0.72200006
-0.081600003 0.044571433 0.72000003
-0.080117151 0.044509526 0.71900004
-0.078419052 0.044323813 0.71600002
-0.076840006 0.044200003 0.71400005
-0.075480007 0.044200003 0.71400005
-0.074016199 0.0441381 0.71300006
-0.072352387 0.043952383 0.71000004
-0.070800006 0.043828573 0.708
-0.069353335 0.04376667 0.70700002
-0.070902862 0.046552382 0.75200003
-0.069100954 0.046304766 0.74800003
-0.067676194 0.046304766 0.74800003
-0.065985717 0.046119049 0.74500006
-0.064393334 0.045995243 0.74300003
-0.062893339 0.045933336 0.74200004
-0.061314289 0.045809526 0.74000001
-0.059823815 0.045747623 0.73900002
-0.058020957 0.0454381 0.73400003
-0.056468576 0.04531429 0.73200005
-0.05499905 0.045252383 0.73100001
-0.053460002 0.045128573 0.72900003
-0.05114286 0.044323813 0.71600002
-0.04977905 0.044323813 0.71600002
-0.048280004 0.044200003 0.71400005
-0.046920002 0.044200003 0.71400005
-0.045496192 0.0441381 0.71300006
-0.043952383 0.043952383 0.71000004
-0.042480003 0.043828573 0.708
-0.041131433 0.043828573 0.708
-0.039726671 0.04376667 0.70700002
-0.09194953 0.047027621 0.73700005
-0.090545721 0.047027621 0.73700005
-0.08902096 0.046963811 0.73600006
-0.087142862 0.046708573 0.73200005
-0.085748576 0.046708573 0.73200005
-0.083201908 0.046070479 0.72200006
-0.081600003 0.045942862 0.72000003
-0.080117151 0.045879051 0.71900004
-0.078419052 0.045687623 0.71600002
-0.076840006 0.045560002 0.71400005
-0.07537429 0.045496192 0.71300006
-0.074016199 0.045496192 0.71300006
-0.072454289 0.045368575 0.71100003
-0.071000002 0.045304764 0.71000004
-0.069353335 0.045113336 0.70700002
-0.067814291 0.044985719 0.70500004
-0.069100954 0.047729526 0.74800003
-0.067585722 0.047665719 0.74700004
-0.066162862 0.047665719 0.74700004
-0.064566672 0.047538098 0.74500006
-0.062978096 0.047410481 0.74300003
-0.061314289 0.047219049 0.74000001
-0.059823815 0.047155242 0.73900002
-0.058020957 0.046836194 0.73400003
-0.056468576 0.046708573 0.73200005
-0.054848574 0.046517145 0.72900003
-0.053460002 0.046517145 0.72900003
-0.052071434 0.046517145 0.72900003
-0.04977905 0.045687623 0.71600002
-0.048280004 0.045560002 0.71400005
-0.046920002 0.045560002 0.71400005
-0.045496192 0.045496192 0.71300006
-0.04401429 0.045368575 0.71100003
-0.042480003 0.045177147 0.708
-0.041131433 0.045177147 0.708
-0.03961429 0.044985719 0.70500004
-0.092199057 0.048562862 0.73900002
-0.090545721 0.04843143 0.73700005
-0.089141913 0.04843143 0.73700005
-0.087380961 0.048234288 0.73400003
-0.085982859 0.048234288 0.73400003
-0.082971431 0.04731429 0.72000003
-0.081600003 0.04731429 0.72000003
-0.080117151 0.047248576 0.71900004
-0.078419052 0.047051433 0.71600002
-0.076840006 0.046920002 0.71400005
-0.07537429 0.046854287 0.71300006
-0.074016199 0.046854287 0.71300006
-0.072454289 0.046722859 0.71100003
-0.071000002 0.046657145 0.71000004
-0.069353335 0.046460003 0.70700002
-0.067718096 0.04626286 0.70400006
-0.069100954 0.049154289 0.74800003
-0.067676194 0.049154289 0.74800003
-0.061557148 0.045671433 0.69500005
-0.06040667 0.045802861 0.69700003
-0.059079051 0.045802861 0.69700003
-0.057751432 0.045802861 0.69700003
-0.058020957 0.048234288 0.73400003
-0.056468576 0.048102859 0.73200005
-0.05499905 0.048037145 0.73100001
-0.053460002 0.047905717 0.72900003
-0.051785719 0.047642861 0.72500002
-0.049848575 0.047117148 0.71700001
-0.04841524 0.047051433 0.71600002
-0.046920002 0.046920002 0.71400005
-0.045496192 0.046854287 0.71300006
-0.0441381 0.046854287 0.71300006
-0.042600002 0.046657145 0.71000004
-0.041131433 0.046525717 0.708
-0.039726671 0.046460003 0.70700002
-0.090545721 0.049835242 0.73700005
-0.089141913 0.049835242 0.73700005
-0.087142862 0.049497146 0.73200005
-0.085748576 0.049497146 0.73200005
-0.082971431 0.048685718 0.72000003
-0.081600003 0.048685718 0.72000003
-0.080228575 0.048685718 0.72000003
-0.078419052 0.04841524 0.71600002
-0.076840006 0.048280004 0.71400005
-0.07537429 0.048212383 0.71300006
-0.073808573 0.048077147 0.71100003
-0.072352387 0.048009526 0.71000004
-0.070800006 0.04787429 0.708
-0.069353335 0.047806669 0.70700002
-0.067814291 0.047671434 0.70500004
-0.066282861 0.047536194 0.70300001
-0.067676194 0.050579052 0.74800003
-0.061734289 0.04713048 0.69700003
-0.06040667 0.04713048 0.69700003
-0.059079051 0.04713048 0.69700003
-0.057751432 0.04713048 0.69700003
-0.058020957 0.049632385 0.73400003
-0.056468576 0.049497146 0.73200005
-0.05499905 0.049429528 0.73100001
-0.053460002 0.049294289 0.72900003
-0.051785719 0.049023814 0.72500002
-0.049987622 0.048618097 0.71900004
-0.048482861 0.048482861 0.71700001
-0.047051433 0.04841524 0.71600002
-0.045560002 0.048280004 0.71400005
-0.0441381 0.048212383 0.71300006
-0.042600002 0.048009526 0.71000004
-0.040957145 0.047671434 0.70500004
-0.039389525 0.047400955 0.70100003
-0.037891433 0.047198098 0.69800001
-0.036561906 0.047198098 0.69800001
-0.035080954 0.046995241 0.69500005
-0.089141913 0.051239051 0.73700005
-0.087142862 0.050891433 0.73200005
-0.085748576 0.050891433 0.73200005
-0.083201908 0.050196193 0.72200006
-0.081826672 0.050196193 0.72200006
-0.080228575 0.050057147 0.72000003
-0.078419052 0.04977905 0.71600002
-0.076840006 0.049640004 0.71400005
-0.07537429 0.049570478 0.71300006
-0.073808573 0.049431432 0.71100003
-0.072454289 0.049431432 0.71100003
-0.070800006 0.04922286 0.708
-0.069353335 0.049153335 0.70700002
-0.067718096 0.048944764 0.70400006
-0.066000007 0.048666671 0.70000005
-0.064389527 0.048458099 0.69700003
-0.063061908 0.048458099 0.69700003
-0.061557148 0.048319049 0.69500005
-0.060233336 0.048319049 0.69500005
-0.059079051 0.048458099 0.69700003
-0.061728574 0.05179524 0.74500006
-0.06006667 0.051586669 0.74200004
-0.058179051 0.051169526 0.73600006
-0.056468576 0.050891433 0.73200005
-0.055074289 0.050891433 0.73200005
-0.053460002 0.050682861 0.72900003
-0.051857147 0.05047429 0.72600001
-0.049987622 0.049987622 0.71900004
-0.048482861 0.049848575 0.71700001
-0.047051433 0.04977905 0.71600002
-0.045560002 0.049640004 0.71400005
-0.0441381 0.049570478 0.71300006
-0.042600002 0.049361907 0.71000004
-0.040957145 0.049014289 0.70500004
-0.039333336 0.048666671 0.70000005
-0.038000003 0.048666671 0.70000005
-0.036561906 0.048527621 0.69800001
-0.035181906 0.048458099 0.69700003
-0.033757146 0.048319049 0.69500005
-0.032386668 0.048249528 0.69400001
-0.031064764 0.048249528 0.69400001
-0.092698105 0.053071432 0.74300003
-0.091282859 0.053071432 0.74300003
-0.089383818 0.052785717 0.73900002
-0.087142862 0.052285716 0.73200005
-0.085748576 0.052285716 0.73200005
-0.08366286 0.051857147 0.72600001
-0.082166672 0.051785719 0.72500002
-0.08056286 0.051642861 0.72300005
-0.079185717 0.051642861 0.72300005
-0.077162862 0.051214289 0.71700001
-0.07537429 0.050928574 0.71300006
-0.073808573 0.050785717 0.71100003
-0.072454289 0.050785717 0.71100003
-0.071000002 0.050714288 0.71000004
-0.069353335 0.050500002 0.70700002
-0.067333341 0.050000004 0.70000005
-0.065717146 0.049785718 0.69700003
-0.064204767 0.049642861 0.69500005
-0.062880956 0.049642861 0.69500005
-0.061557148 0.049642861 0.69500005
-0.06331715 0.053357147 0.74700004
-0.061728574 0.053214289 0.74500006
-0.060309529 0.053214289 0.74500006
-0.058732383 0.053071432 0.74300003
-0.057008576 0.052785717 0.73900002
-0.05545048 0.05264286 0.73700005
-0.053826671 0.052428573 0.73400003
-0.052000005 0.052000005 0.72800004
-0.050057147 0.051428575 0.72000003
-0.048685718 0.051428575 0.72000003
-0.047117148 0.051214289 0.71700001
-0.045687623 0.05114286 0.71600002
-0.044200003 0.051000003 0.71400005
-0.042780004 0.050928574 0.71300006
-0.041247621 0.050714288 0.71000004
-0.039220955 0.049857147 0.69800001
-0.037891433 0.049857147 0.69800001
-0.036561906 0.049857147 0.69800001
-0.035181906 0.049785718 0.69700003
-0.033854287 0.049785718 0.69700003
-0.032433335 0.049642861 0.69500005
-0.031109527 0.049642861 0.69500005
-0.029785717 0.049642861 0.69500005
-0.09436667 0.054633338 0.74500006
-0.092698105 0.05448667 0.74300003
-0.091282859 0.05448667 0.74300003
-0.089383818 0.054193337 0.73900002
-0.087142862 0.053680003 0.73200005
-0.085982859 0.053826671 0.73400003
-0.084584765 0.053826671 0.73400003
-0.082280003 0.053240005 0.72600001
-0.080785722 0.053166669 0.72500002
-0.079404764 0.053166669 0.72500002
-0.077378102 0.052726671 0.71900004
-0.075480007 0.052360002 0.71400005
-0.074016199 0.05228667 0.71300006
-0.072454289 0.052140005 0.71100003
-0.071000002 0.052066669 0.71000004
-0.069451436 0.051920004 0.708
-0.067814291 0.051700003 0.70500004
-0.065717146 0.051113337 0.69700003
-0.064204767 0.050966669 0.69500005
-0.062880956 0.050966669 0.69500005
-0.061557148 0.050966669 0.69500005
-0.060146671 0.050893337 0.69400001
-0.061728574 0.054633338 0.74500006
-0.060309529 0.054633338 0.74500006
-0.058732383 0.05448667 0.74300003
-0.057085719 0.054266669 0.74000001
-0.055600956 0.054193337 0.73900002
-0.054046672 0.054046672 0.73700005
-0.05264286 0.054046672 0.73700005
-0.049987622 0.052726671 0.71900004
-0.048618097 0.052726671 0.71900004
-0.047248576 0.052726671 0.71900004
-0.045687623 0.05250667 0.71600002
-0.044323813 0.05250667 0.71600002
-0.042780004 0.05228667 0.71300006
-0.041305717 0.052140005 0.71100003
-0.039220955 0.05118667 0.69800001
-0.037891433 0.05118667 0.69800001
-0.036561906 0.05118667 0.69800001
-0.035181906 0.051113337 0.69700003
-0.033854287 0.051113337 0.69700003
-0.032433335 0.050966669 0.69500005
-0.031109527 0.050966669 0.69500005
-0.029785717 0.050966669 0.69500005
-0.028543811 0.051113337 0.69700003
-0.094113342 0.055901907 0.74300003
-0.092698105 0.055901907 0.74300003
-0.091282859 0.055901907 0.74300003
-0.089746669 0.055826671 0.74200004
-0.087380961 0.055224765 0.73400003
-0.085748576 0.055074289 0.73200005
-0.084354289 0.055074289 0.73200005
-0.082506672 0.054773338 0.72800004
-0.080897145 0.054622862 0.72600001
-0.079404764 0.054547623 0.72500002
-0.077485718 0.054171432 0.72000003
-0.075691432 0.053870481 0.71600002
-0.074016199 0.053644765 0.71300006
-0.072658099 0.053644765 0.71300006
-0.071000002 0.05341905 0.71000004
-0.069451436 0.053268574 0.708
-0.067814291 0.053042859 0.70500004
-0.065717146 0.052440956 0.69700003
-0.064389527 0.052440956 0.69700003
-0.062880956 0.052290481 0.69500005
-0.061557148 0.052290481 0.69500005
-0.060146671 0.052215241 0.69400001
-0.058824766 0.052215241 0.69400001
-0.060309529 0.056052383 0.74500006
-0.058890481 0.056052383 0.74500006
-0.057085719 0.055676196 0.74000001
-0.055600956 0.055600956 0.73900002
-0.054046672 0.05545048 0.73700005
-0.05264286 0.05545048 0.73700005
-0.051239051 0.05545048 0.73700005
-0.048618097 0.054096196 0.71900004
-0.047248576 0.054096196 0.71900004
-0.04575143 0.053945716 0.71700001
-0.044323813 0.053870481 0.71600002
-0.042840004 0.053720005 0.71400005
-0.041421909 0.053644765 0.71300006
-0.039782859 0.053268574 0.708
-0.038000003 0.052666672 0.70000005
-0.036561906 0.052516192 0.69800001
-0.035181906 0.052440956 0.69700003
-0.033854287 0.052440956 0.69700003
-0.032433335 0.052290481 0.69500005
-0.031199049 0.052440956 0.69700003
-0.029785717 0.052290481 0.69500005
-0.028461907 0.052290481 0.69500005
-0.09436667 0.057471432 0.74500006
-0.092947625 0.057471432 0.74500006
-0.091282859 0.057317145 0.74300003
-0.089867622 0.057317145 0.74300003
-0.08809524 0.057085719 0.74000001
-0.086568579 0.057008576 0.73900002
-0.085621908 0.057317145 0.74300003
-0.082506672 0.056160003 0.72800004
-0.081120007 0.056160003 0.72800004
-0.079404764 0.055928577 0.72500002
-0.077378102 0.055465717 0.71900004
-0.075480007 0.055080004 0.71400005
-0.074016199 0.055002861 0.71300006
-0.072658099 0.055002861 0.71300006
-0.071000002 0.054771431 0.71000004
-0.069451436 0.054617148 0.708
-0.067621909 0.054231431 0.70300001
-0.065811433 0.053845719 0.69800001
-0.064389527 0.053768575 0.69700003
-0.063061908 0.053768575 0.69700003
-0.061557148 0.053614289 0.69500005
-0.060233336 0.053614289 0.69500005
-0.058824766 0.053537145 0.69400001
-0.060309529 0.057471432 0.74500006
-0.058732383 0.057317145 0.74300003
-0.057085719 0.057085719 0.74000001
-0.055600956 0.057008576 0.73900002
-0.054193337 0.057008576 0.73900002
-0.052785717 0.057008576 0.73900002
-0.051239051 0.056854289 0.73700005
-0.049835242 0.056854289 0.73700005
-0.04843143 0.056854289 0.73700005
-0.045687623 0.055234291 0.71600002
-0.044323813 0.055234291 0.71600002
-0.042840004 0.055080004 0.71400005
-0.041421909 0.055002861 0.71300006
-0.03961429 0.054385718 0.70500004
-0.038162861 0.054231431 0.70300001
-0.03671905 0.054077145 0.70100003
-0.035333335 0.054000005 0.70000005
-0.033854287 0.053768575 0.69700003
-0.032526668 0.053768575 0.69700003
-0.031199049 0.053768575 0.69700003
-0.02987143 0.053768575 0.69700003
-0.028461907 0.053614289 0.69500005
-0.096171431 0.059127621 0.74800003
-0.09436667 0.058890481 0.74500006
-0.092947625 0.058890481 0.74500006
-0.09152858 0.058890481 0.74500006
-0.089867622 0.058732383 0.74300003
-0.088452384 0.058732383 0.74300003
-0.087037146 0.058732383 0.74300003
-0.085621908 0.058732383 0.74300003
-0.082280003 0.057388574 0.72600001
-0.080897145 0.057388574 0.72600001
-0.079404764 0.057309527 0.72500002
-0.077378102 0.056835242 0.71900004
-0.075691432 0.056598101 0.71600002
-0.074016199 0.056360956 0.71300006
-0.072454289 0.056202862 0.71100003
-0.071000002 0.056123812 0.71000004
-0.069451436 0.055965718 0.708
-0.067621909 0.055570479 0.70300001
-0.066000007 0.055333339 0.70000005
-0.064481907 0.055175241 0.69800001
-0.063061908 0.055096194 0.69700003
-0.061557148 0.0549381 0.69500005
-0.060233336 0.0549381 0.69500005
-0.058824766 0.05485905 0.69400001
-0.057502862 0.05485905 0.69400001
-0.058653336 0.058653336 0.74200004
-0.057085719 0.058495242 0.74000001
-0.055600956 0.058416195 0.73900002
-0.054193337 0.058416195 0.73900002
-0.05264286 0.058258098 0.73700005
-0.051239051 0.058258098 0.73700005
-0.049835242 0.058258098 0.73700005
-0.04843143 0.058258098 0.73700005
-0.047027621 0.058258098 0.73700005
-0.044323813 0.056598101 0.71600002
-0.042960003 0.056598101 0.71600002
-0.041421909 0.056360956 0.71300006
-0.039558098 0.055649526 0.70400006
-0.038162861 0.055570479 0.70300001
-0.036823813 0.055570479 0.70300001
-0.035333335 0.055333339 0.70000005
-0.034000002 0.055333339 0.70000005
-0.032573335 0.055175241 0.69800001
-0.031199049 0.055096194 0.69700003
-0.029785717 0.0549381 0.69500005
-0.028461907 0.0549381 0.69500005
-0.096171431 0.060552385 0.74800003
-0.094746672 0.060552385 0.74800003
-0.093197152 0.060471434 0.74700004
-0.09152858 0.060309529 0.74500006
-0.090109527 0.060309529 0.74500006
-0.088690482 0.060309529 0.74500006
-0.087037146 0.060147624 0.74300003
-0.085621908 0.060147624 0.74300003
-0.082280003 0.058771431 0.72600001
-0.080897145 0.058771431 0.72600001
-0.079404764 0.058690481 0.72500002
-0.077485718 0.058285717 0.72000003
-0.075797148 0.058042862 0.71700001
-0.074327625 0.057961907 0.71600002
-0.072658099 0.057719052 0.71300006
-0.071000002 0.057476193 0.71000004
-0.069451436 0.057314288 0.708
-0.067718096 0.056990478 0.70400006
-0.066000007 0.056666672 0.70000005
-0.064389527 0.056423813 0.69700003
-0.062880956 0.056261908 0.69500005
-0.061557148 0.056261908 0.69500005
-0.060146671 0.056180958 0.69400001
-0.058570482 0.055938099 0.69100004
-0.058495242 0.059904765 0.74000001
-0.057008576 0.059823815 0.73900002
-0.055600956 0.059823815 0.73900002
-0.054193337 0.059823815 0.73900002
-0.05264286 0.05966191 0.73700005
-0.051239051 0.05966191 0.73700005
-0.049767621 0.059580956 0.73600006
-0.048365716 0.059580956 0.73600006
-0.046261907 0.058690481 0.72500002
-0.04469524 0.058447622 0.72200006
-0.042840004 0.057800002 0.71400005
-0.041480001 0.057800002 0.71400005
-0.039558098 0.056990478 0.70400006
-0.038217146 0.056990478 0.70400006
-0.036823813 0.056909528 0.70300001
-0.035383813 0.056747623 0.70100003
-0.034000002 0.056666672 0.70000005
-0.032666668 0.056666672 0.70000005
-0.031243812 0.056504767 0.69800001
-0.02987143 0.056423813 0.69700003
-0.096171431 0.061977148 0.74800003
-0.094746672 0.061977148 0.74800003
-0.093197152 0.06189429 0.74700004
-0.091774292 0.06189429 0.74700004
-0.090351433 0.06189429 0.74700004
-0.088690482 0.061728574 0.74500006
-0.087271437 0.061728574 0.74500006
-0.085621908 0.061562862 0.74300003
-0.084206671 0.061562862 0.74300003
-0.080897145 0.060154289 0.72600001
-0.079514287 0.060154289 0.72600001
-0.077485718 0.059657145 0.72000003
-0.075797148 0.059408575 0.71700001
-0.074120007 0.059160005 0.71400005
-0.072658099 0.059077147 0.71300006
-0.071100004 0.058911432 0.71100003
-0.069647625 0.058828574 0.71000004
-0.067718096 0.058331434 0.70400006
-0.066000007 0.058000002 0.70000005
-0.064481907 0.05783429 0.69800001
-0.063061908 0.057751432 0.69700003
-0.061557148 0.057585716 0.69500005
-0.060146671 0.057502862 0.69400001
-0.058570482 0.057254288 0.69100004
-0.058495242 0.061314289 0.74000001
-0.057085719 0.061314289 0.74000001
-0.055600956 0.061231434 0.73900002
-0.054193337 0.061231434 0.73900002
-0.05264286 0.061065719 0.73700005
-0.051239051 0.061065719 0.73700005
-0.049767621 0.060982861 0.73600006
-0.048102859 0.060651433 0.73200005
-0.046261907 0.060071431 0.72500002
-0.04469524 0.059822861 0.72200006
-0.043320004 0.059822861 0.72200006
-0.041770481 0.059574291 0.71900004
-0.040120002 0.059160005 0.71400005
-0.038380001 0.058580004 0.70700002
-0.036876194 0.058331434 0.70400006
-0.035383813 0.05808286 0.70100003
-0.034048572 0.05808286 0.70100003
-0.032713335 0.05808286 0.70100003
-0.031333335 0.058000002 0.70000005
-0.030000001 0.058000002 0.70000005
-0.094746672 0.063401908 0.74800003
-0.093321912 0.063401908 0.74800003
-0.091774292 0.06331715 0.74700004
-0.090351433 0.06331715 0.74700004
-0.088690482 0.063147627 0.74500006
-0.087271437 0.063147627 0.74500006
-0.085621908 0.062978096 0.74300003
-0.083526671 0.062469527 0.73700005
-0.080897145 0.061537147 0.72600001
-0.079514287 0.061537147 0.72600001
-0.077485718 0.061028574 0.72000003
-0.076008573 0.060943812 0.71900004
-0.074431434 0.060774289 0.71700001
-0.072760008 0.060520004 0.71400005
-0.071300007 0.060435243 0.71300006
-0.069647625 0.060180955 0.71000004
-0.067718096 0.059672385 0.70400006
-0.066094287 0.059418101 0.70100003
-0.064481907 0.059163813 0.69800001
-0.063061908 0.059079051 0.69700003
-0.061557148 0.058909528 0.69500005
-0.060146671 0.058824766 0.69400001
-0.058570482 0.058570482 0.69100004
-0.057088576 0.058400955 0.68900001
-0.057085719 0.062723815 0.74000001
-0.055600956 0.06263905 0.73900002
-0.054193337 0.06263905 0.73900002
-0.052785717 0.06263905 0.73900002
-0.051239051 0.062469527 0.73700005
-0.049835242 0.062469527 0.73700005
-0.048234288 0.062215243 0.73400003
-0.046261907 0.061452385 0.72500002
-0.04469524 0.0611981 0.72200006
-0.043320004 0.0611981 0.72200006
-0.041770481 0.060943812 0.71900004
-0.040120002 0.060520004 0.71400005
-0.038542859 0.060180955 0.71000004
-0.036928575 0.059757147 0.70500004
-0.035484765 0.059587624 0.70300001
-0.034048572 0.059418101 0.70100003
-0.032713335 0.059418101 0.70100003
-0.031378098 0.059418101 0.70100003
-0.030042859 0.059418101 0.70100003
-0.028666668 0.059333336 0.70000005
-0.093321912 0.064826667 0.74800003
-0.091897152 0.064826667 0.74800003
-0.090472385 0.064826667 0.74800003
-0.088690482 0.064566672 0.74500006
-0.087037146 0.064393334 0.74300003
-0.085160956 0.064046673 0.73900002
-0.083526671 0.063873336 0.73700005
-0.082122862 0.063873336 0.73700005
-0.080719054 0.063873336 0.73700005
-0.077485718 0.062400006 0.72000003
-0.076008573 0.062313337 0.71900004
-0.074431434 0.062140003 0.71700001
-0.072760008 0.061880004 0.71400005
-0.071400002 0.061880004 0.71400005
-0.069745719 0.061620004 0.71100003
-0.067718096 0.061013337 0.70400006
-0.066094287 0.060753338 0.70100003
-0.064481907 0.060493339 0.69800001
-0.063061908 0.06040667 0.69700003
-0.061557148 0.060233336 0.69500005
-0.060146671 0.060146671 0.69400001
-0.058570482 0.059886672 0.69100004
-0.057088576 0.059713338 0.68900001
-0.055533338 0.059453338 0.68600005
-0.057008576 0.064046673 0.73900002
-0.055600956 0.064046673 0.73900002
-0.054193337 0.064046673 0.73900002
-0.052785717 0.064046673 0.73900002
-0.051239051 0.063873336 0.73700005
-0.049835242 0.063873336 0.73700005
-0.048365716 0.063786671 0.73600006
-0.046325717 0.062920004 0.72600001
-0.044757146 0.062660001 0.72300005
-0.043320004 0.062573336 0.72200006
-0.041828573 0.062400006 0.72000003
-0.040400956 0.062313337 0.71900004
-0.038542859 0.061533336 0.71000004
-0.036928575 0.061100002 0.70500004
-0.035484765 0.060926672 0.70300001
-0.034145717 0.060926672 0.70300001
-0.032806668 0.060926672 0.70300001
-0.031378098 0.060753338 0.70100003
-0.030042859 0.060753338 0.70100003
-0.028707622 0.060753338 0.70100003
-0.091897152 0.066251434 0.74800003
-0.090472385 0.066251434 0.74800003
-0.088690482 0.065985717 0.74500006
-0.086685717 0.065542862 0.74000001
-0.08493048 0.065277144 0.73700005
-0.083526671 0.065277144 0.73700005
-0.082122862 0.065277144 0.73700005
-0.080061913 0.064745717 0.73100001
-0.077485718 0.063771434 0.72000003
-0.076008573 0.063682862 0.71900004
-0.074431434 0.063505717 0.71700001
-0.072760008 0.063240007 0.71400005
-0.071400002 0.063240007 0.71400005
-0.069745719 0.062974289 0.71100003
-0.067718096 0.062354289 0.70400006
-0.066282861 0.06226572 0.70300001
-0.064666674 0.062000003 0.70000005
-0.063061908 0.061734289 0.69700003
-0.061557148 0.061557148 0.69500005
-0.060146671 0.061468575 0.69400001
-0.058485717 0.061114289 0.69000006
-0.057088576 0.06102572 0.68900001
-0.055533338 0.060760003 0.68600005
-0.05422667 0.060760003 0.68600005
-0.05276572 0.060582861 0.68400002
-0.054193337 0.065454289 0.73900002
-0.05264286 0.065277144 0.73700005
-0.051239051 0.065277144 0.73700005
-0.049767621 0.065188579 0.73600006
-0.048234288 0.065011434 0.73400003
-0.046453338 0.064480007 0.72800004
-0.04494286 0.064302862 0.72600001
-0.043380003 0.064037144 0.72300005
-0.041770481 0.063682862 0.71900004
-0.040232383 0.063417144 0.71600002
-0.038760003 0.063240007 0.71400005
-0.037033334 0.062620007 0.70700002
-0.035535239 0.062354289 0.70400006
-0.034145717 0.06226572 0.70300001
-0.032806668 0.06226572 0.70300001
-0.03146762 0.06226572 0.70300001
-0.030042859 0.062088575 0.70100003
-0.028707622 0.062088575 0.70100003
-0.092388578 0.068038099 0.75200003
-0.090956196 0.068038099 0.75200003
-0.084239051 0.066138096 0.73100001
-0.082846671 0.066138096 0.73100001
-0.080061913 0.066138096 0.73100001
-0.078454293 0.065957144 0.72900003
-0.076431431 0.065414287 0.72300005
-0.074639052 0.065052383 0.71900004
-0.072963811 0.064780958 0.71600002
-0.071400002 0.064600006 0.71400005
-0.069745719 0.064328574 0.71100003
-0.068006672 0.063966669 0.70700002
-0.066377148 0.063695244 0.70400006
-0.064759053 0.063423812 0.70100003
-0.063152388 0.063152388 0.69800001
-0.061557148 0.062880956 0.69500005
-0.060146671 0.062790483 0.69400001
-0.058570482 0.062519051 0.69100004
-0.057171434 0.062428575 0.69000006
-0.055776194 0.062338099 0.68900001
-0.054305717 0.062157147 0.68700004
-0.052920002 0.062066671 0.68600005
-0.051613338 0.062066671 0.68600005
-0.052785717 0.066861913 0.73900002
-0.051378097 0.066861913 0.73900002
-0.049970478 0.066861913 0.73900002
-0.04843143 0.06668096 0.73700005
-0.046517145 0.065957144 0.72900003
-0.04506667 0.065866672 0.72800004
-0.043500002 0.065595239 0.72500002
-0.04200286 0.065414287 0.72300005
-0.040232383 0.064780958 0.71600002
-0.038868573 0.064780958 0.71600002
-0.03724286 0.064328574 0.71100003
-0.035737146 0.064057149 0.708
-0.034242861 0.063785717 0.70500004
-0.032853335 0.063695244 0.70400006
-0.03146762 0.063604765 0.70300001
-0.030128574 0.063604765 0.70300001
-0.028707622 0.063423812 0.70100003
-0.027333336 0.06333334 0.70000005
-0.091319054 0.069747627 0.75500005
-0.078454293 0.067345716 0.72900003
-0.076642863 0.066976197 0.72500002
-0.074742861 0.066514291 0.72000003
-0.07306572 0.066237144 0.71700001
-0.071400002 0.065960005 0.71400005
-0.069745719 0.065682858 0.71100003
-0.068006672 0.065313339 0.70700002
-0.066377148 0.065036193 0.70400006
-0.064943813 0.064943813 0.70300001
-0.06333334 0.064666674 0.70000005
-0.061734289 0.064389527 0.69700003
-0.060233336 0.064204767 0.69500005
-0.058570482 0.063835241 0.69100004
-0.057171434 0.063742861 0.69000006
-0.055776194 0.063650481 0.68900001
-0.054305717 0.063465722 0.68700004
-0.052920002 0.063373335 0.68600005
-0.051613338 0.063373335 0.68600005
-0.053000003 0.068546668 0.74200004
-0.051447622 0.068361908 0.74000001
-0.050173335 0.068546668 0.74200004
-0.048562862 0.068269528 0.73900002
-0.046708573 0.067622863 0.73200005
-0.04506667 0.067253336 0.72800004
-0.043500002 0.066976197 0.72500002
-0.04200286 0.06679143 0.72300005
-0.040400956 0.066421911 0.71900004
-0.038922861 0.066237144 0.71700001
-0.037347622 0.065867625 0.71300006
-0.035888575 0.065682858 0.71100003
-0.034340002 0.065313339 0.70700002
-0.032853335 0.065036193 0.70400006
-0.031512383 0.065036193 0.70400006
-0.030128574 0.064943813 0.70300001
-0.028707622 0.064759053 0.70100003
-0.027372383 0.064759053 0.70100003
-0.092757151 0.071185715 0.75500005
-0.091319054 0.071185715 0.75500005
-0.089880958 0.071185715 0.75500005
-0.080061913 0.068922862 0.73100001
-0.078669526 0.068922862 0.73100001
-0.076642863 0.068357147 0.72500002
-0.074950479 0.068074293 0.72200006
-0.073269531 0.067791432 0.71900004
-0.071400002 0.067320004 0.71400005
-0.069745719 0.06703715 0.71100003
-0.068006672 0.066660002 0.70700002
-0.066471435 0.066471435 0.70500004
-0.064943813 0.066282861 0.70300001
-0.063423812 0.066094287 0.70100003
-0.062000003 0.066000007 0.70000005
-0.06040667 0.065717146 0.69700003
-0.058740005 0.065340005 0.69300002
-0.057254288 0.065151431 0.69100004
-0.055857148 0.065057144 0.69000006
-0.054463815 0.064962864 0.68900001
-0.052997146 0.06477429 0.68700004
-0.051688574 0.06477429 0.68700004
-0.053071432 0.070054293 0.74300003
-0.051656194 0.070054293 0.74300003
-0.050173335 0.069960006 0.74200004
-0.048760004 0.069960006 0.74200004
-0.047219049 0.069771431 0.74000001
-0.04506667 0.068640001 0.72800004
-0.043500002 0.068357147 0.72500002
-0.042119049 0.068357147 0.72500002
-0.040738098 0.068357147 0.72500002
-0.039031431 0.067791432 0.71900004
-0.037347622 0.067225717 0.71300006
-0.035888575 0.06703715 0.71100003
-0.034388572 0.066754289 0.708
-0.032853335 0.066377148 0.70400006
-0.031512383 0.066377148 0.70400006
-0.030128574 0.066282861 0.70300001
-0.028789526 0.066282861 0.70300001
-0.027372383 0.066094287 0.70100003
-0.095193341 0.073393337 0.76300001
-0.093125723 0.072912388 0.75800002
-0.091319054 0.072623812 0.75500005
-0.089880958 0.072623812 0.75500005
-0.078454293 0.07012286 0.72900003
-0.07674858 0.069834292 0.72600001
-0.075261913 0.069738097 0.72500002
-0.073677145 0.069545716 0.72300005
-0.071900003 0.069160961 0.71900004
-0.069647625 0.06829524 0.71000004
-0.068006672 0.068006672 0.70700002
-0.066377148 0.067718096 0.70400006
-0.064943813 0.067621909 0.70300001
-0.063423812 0.067429528 0.70100003
-0.062088575 0.067429528 0.70100003
-0.060493339 0.067140959 0.69800001
-0.058740005 0.066660002 0.69300002
-0.057254288 0.06646762 0.69100004
-0.055857148 0.066371433 0.69000006
-0.054463815 0.066275239 0.68900001
-0.053151432 0.066275239 0.68900001
-0.051688574 0.066082865 0.68700004
-0.050526671 0.066275239 0.68900001
-0.051656194 0.07146953 0.74300003
-0.050173335 0.071373336 0.74200004
-0.048760004 0.071373336 0.74200004
-0.047219049 0.071180955 0.74000001
-0.04531429 0.070411436 0.73200005
-0.043740004 0.07012286 0.72900003
-0.042351432 0.07012286 0.72900003
-0.040794287 0.069834292 0.72600001
-0.039357144 0.069738097 0.72500002
-0.037400004 0.068680003 0.71400005
-0.035888575 0.068391435 0.71100003
-0.034388572 0.068102859 0.708
-0.032900002 0.067814291 0.70500004
-0.031557146 0.067814291 0.70500004
-0.03017143 0.067718096 0.70400006
-0.028789526 0.067621909 0.70300001
-0.027450478 0.067621909 0.70300001
-0.098357148 0.075042859 0.76500005
-0.095193341 0.07484667 0.76300001
-0.093125723 0.074356198 0.75800002
-0.091681913 0.074356198 0.75800002
-0.090000004 0.074160002 0.75600004
-0.088560008 0.074160002 0.75600004
-0.080061913 0.071707621 0.73100001
-0.078454293 0.071511433 0.72900003
-0.07674858 0.071217149 0.72600001
-0.075261913 0.071119055 0.72500002
-0.073880956 0.071119055 0.72500002
-0.072500005 0.071119055 0.72500002
-0.069451436 0.069451436 0.708
-0.068006672 0.069353335 0.70700002
-0.066377148 0.069059052 0.70400006
-0.065036193 0.069059052 0.70400006
-0.063604765 0.068960957 0.70300001
-0.062088575 0.068764769 0.70100003
-0.060666669 0.068666674 0.70000005
-0.059163813 0.068470478 0.69800001
-0.057254288 0.067783818 0.69100004
-0.055938099 0.067783818 0.69100004
-0.054542862 0.067685716 0.69000006
-0.053151432 0.067587622 0.68900001
-0.05183905 0.067587622 0.68900001
-0.050526671 0.067587622 0.68900001
-0.049285717 0.067685716 0.69000006
-0.050173335 0.072786674 0.74200004
-0.048628576 0.072590478 0.74000001
-0.047155242 0.072492383 0.73900002
-0.0454381 0.072001912 0.73400003
-0.043860003 0.071707621 0.73100001
-0.042351432 0.071511433 0.72900003
-0.040906668 0.071413338 0.72800004
-0.039411429 0.071217149 0.72600001
-0.037400004 0.070040002 0.71400005
-0.035989527 0.069941908 0.71300006
-0.034485716 0.069647625 0.71000004
-0.032993335 0.069353335 0.70700002
-0.031646669 0.069353335 0.70700002
-0.03017143 0.069059052 0.70400006
-0.028830478 0.069059052 0.70400006
-0.027450478 0.068960957 0.70300001
-0.094943814 0.076100007 0.76100004
-0.093125723 0.075800002 0.75800002
-0.091681913 0.075800002 0.75800002
-0.090000004 0.075600006 0.75600004
-0.088560008 0.075600006 0.75600004
-0.078454293 0.072900005 0.72900003
-0.07674858 0.072600007 0.72600001
-0.075365722 0.072600007 0.72600001
-0.073982865 0.072600007 0.72600001
-0.072600007 0.072600007 0.72600001
-0.069451436 0.070800006 0.708
-0.068006672 0.070700005 0.70700002
-0.066471435 0.070500001 0.70500004
-0.065036193 0.070400007 0.70400006
-0.063604765 0.070300005 0.70300001
-0.06226572 0.070300005 0.70300001
-0.060753338 0.070100002 0.70100003
-0.059333336 0.070000008 0.70000005
-0.057420004 0.069300003 0.69300002
-0.055938099 0.069100007 0.69100004
-0.054621909 0.069100007 0.69100004
-0.053228576 0.069000006 0.69000006
-0.05191429 0.069000006 0.69000006
-0.050600003 0.069000006 0.69000006
-0.049357146 0.069100007 0.69100004
-0.050173335 0.074200004 0.74200004
-0.048628576 0.074000008 0.74000001
-0.047155242 0.073900007 0.73900002
-0.045623813 0.073700003 0.73700005
-0.043920003 0.073200002 0.73200005
-0.04246762 0.073100008 0.73100001
-0.040906668 0.072800003 0.72800004
-0.039357144 0.072500005 0.72500002
-0.037714288 0.072000004 0.72000003
-0.036040001 0.071400002 0.71400005
-0.034534287 0.071100004 0.71100003
-0.033040002 0.070800006 0.708
-0.031646669 0.070700005 0.70700002
-0.030214287 0.070500001 0.70500004
-0.028830478 0.070400007 0.70400006
-0.027450478 0.070300005 0.70300001
-0.094819054 0.077447623 0.76000005
-0.093125723 0.077243812 0.75800002
-0.091440007 0.077040002 0.75600004
-0.089880958 0.0769381 0.75500005
-0.088442862 0.0769381 0.75500005
-0.086659051 0.076632388 0.75200003
-0.085000008 0.076428577 0.75000006
-0.083571434 0.076428577 0.75000006
-0.07674858 0.073982865 0.72600001
-0.075365722 0.073982865 0.72600001
-0.06829524 0.072352387 0.71000004
-0.066660002 0.072046675 0.70700002
-0.065128572 0.071842864 0.70500004
-0.063695244 0.071740955 0.70400006
-0.062354289 0.071740955 0.70400006
-0.060926672 0.071639054 0.70300001
-0.059418101 0.071435243 0.70100003
-0.057585716 0.070823811 0.69500005
-0.056100003 0.070620008 0.69300002
-0.054780003 0.070620008 0.69300002
-0.053305719 0.070416197 0.69100004
-0.051989526 0.070416197 0.69100004
-0.050673336 0.070416197 0.69100004
-0.049285717 0.070314288 0.69000006
-0.050240956 0.075715244 0.74300003
-0.048760004 0.075613335 0.74200004
-0.047219049 0.075409532 0.74000001
-0.045623813 0.075103812 0.73700005
-0.044040002 0.0747981 0.73400003
-0.04246762 0.074492387 0.73100001
-0.04096286 0.074288577 0.72900003
-0.039411429 0.073982865 0.72600001
-0.03781905 0.073575243 0.72200006
-0.036040001 0.072760008 0.71400005
-0.034631431 0.072658099 0.71300006
-0.033040002 0.072148576 0.708
-0.031646669 0.072046675 0.70700002
-0.030300003 0.072046675 0.70700002
-0.02887143 0.071842864 0.70500004
-0.027489526 0.071740955 0.70400006
-0.094569527 0.078687623 0.75800002
-0.092880003 0.078480005 0.75600004
-0.091440007 0.078480005 0.75600004
-0.089880958 0.078376196 0.75500005
-0.088208579 0.078168578 0.75300002
-0.086659051 0.07806477 0.75200003
-0.084773339 0.077649526 0.74800003
-0.08334858 0.077649526 0.74800003
-0.078131437 0.075365722 0.72600001
-0.07674858 0.075365722 0.72600001
-0.075365722 0.075365722 0.72600001
-0.073982865 0.075365722 0.72600001
-0.069451436 0.073497146 0.708
-0.066754289 0.073497146 0.708
-0.065313339 0.073393337 0.70700002
-0.063785717 0.07318572 0.70500004
-0.062442861 0.07318572 0.70500004
-0.061013337 0.073081911 0.70400006
-0.059587624 0.072978102 0.70300001
-0.057585716 0.072147623 0.69500005
-0.056180958 0.072043814 0.69400001
-0.054780003 0.071940005 0.69300002
-0.053305719 0.071732387 0.69100004
-0.051989526 0.071732387 0.69100004
-0.050600003 0.071628578 0.69000006
-0.049285717 0.071628578 0.69000006
-0.050376195 0.077338099 0.74500006
-0.048760004 0.077026673 0.74200004
-0.047219049 0.076819055 0.74000001
-0.045623813 0.076507621 0.73700005
-0.044160005 0.076403812 0.73600006
-0.042525716 0.075988576 0.73200005
-0.041075241 0.075884767 0.73100001
-0.039574288 0.075677149 0.72900003
-0.03781905 0.074950479 0.72200006
-0.036140956 0.074327625 0.71600002
-0.034680001 0.074120007 0.71400005
-0.033180002 0.073808573 0.71100003
-0.031691432 0.073497146 0.708
-0.030342858 0.073497146 0.708
-0.028953334 0.073393337 0.70700002
-0.092880003 0.079920009 0.75600004
-0.091440007 0.079920009 0.75600004
-0.089880958 0.079814292 0.75500005
-0.088208579 0.07960286 0.75300002
-0.086659051 0.079497151 0.75200003
-0.084773339 0.079074293 0.74800003
-0.083237149 0.078968577 0.74700004
-0.081814289 0.078968577 0.74700004
-0.076642863 0.076642863 0.72500002
-0.075261913 0.076642863 0.72500002
-0.066754289 0.074845716 0.708
-0.065313339 0.074740008 0.70700002
-0.063966669 0.074740008 0.70700002
-0.062620007 0.074740008 0.70700002
-0.061013337 0.074422859 0.70400006
-0.059587624 0.07431715 0.70300001
-0.058000002 0.074000008 0.70000005
-0.056261908 0.073471434 0.69500005
-0.05485905 0.073365718 0.69400001
-0.053460002 0.073260002 0.69300002
-0.051989526 0.073048577 0.69100004
-0.050673336 0.073048577 0.69100004
-0.049357146 0.073048577 0.69100004
-0.050579052 0.079074293 0.74800003
-0.048825718 0.078545719 0.74300003
-0.047219049 0.078228578 0.74000001
-0.045623813 0.077911437 0.73700005
-0.044160005 0.07780572 0.73600006
-0.042641908 0.077594288 0.73400003
-0.041131433 0.077382863 0.73200005
-0.039574288 0.077065721 0.72900003
-0.038028575 0.07674858 0.72600001
-0.03619143 0.075797148 0.71700001
-0.034680001 0.075480007 0.71400005
-0.033180002 0.075162865 0.71100003
-0.031780954 0.075057149 0.71000004
-0.030342858 0.074845716 0.708
-0.028953334 0.074740008 0.70700002
-0.088208579 0.081037149 0.75300002
-0.086659051 0.080929533 0.75200003
-0.084773339 0.080499053 0.74800003
-0.083237149 0.080391437 0.74700004
-0.081595242 0.080176197 0.74500006
-0.079960957 0.079960957 0.74300003
-0.06703715 0.07651715 0.71100003
-0.065405719 0.076194294 0.708
-0.064057149 0.076194294 0.708
-0.062620007 0.07608667 0.70700002
-0.061013337 0.075763814 0.70400006
-0.059587624 0.075656198 0.70300001
-0.058000002 0.075333342 0.70000005
-0.056261908 0.074795246 0.69500005
-0.05485905 0.074687622 0.69400001
-0.053537145 0.074687622 0.69400001
-0.052140005 0.074580006 0.69300002
-0.053785719 0.081037149 0.75300002
-0.052281909 0.080929533 0.75200003
-0.050849527 0.080929533 0.75200003
-0.049154289 0.080499053 0.74800003
-0.04734667 0.079853341 0.74200004
-0.045747623 0.079530485 0.73900002
-0.044220004 0.079315245 0.73700005
-0.042641908 0.078992389 0.73400003
-0.041131433 0.078777149 0.73200005
-0.039574288 0.078454293 0.72900003
-0.038028575 0.078131437 0.72600001
-0.03619143 0.077162862 0.71700001
-0.034825716 0.077162862 0.71700001
-0.033273336 0.07673239 0.71300006
-0.031691432 0.076194294 0.708
-0.030342858 0.076194294 0.708
-0.028953334 0.07608667 0.70700002
-0.027606668 0.07608667 0.70700002
-0.026185716 0.07587143 0.70500004
-0.084773339 0.081923813 0.74800003
-0.083237149 0.081814289 0.74700004
-0.081376195 0.081376195 0.74300003
-0.079960957 0.081376195 0.74300003
-0.078545719 0.081376195 0.74300003
-0.077026673 0.081266671 0.74200004
-0.067320004 0.078200005 0.71400005
-0.065867625 0.078090481 0.71300006
-0.064238101 0.077761911 0.71000004
-0.062708579 0.077542864 0.708
-0.061273336 0.07743334 0.70700002
-0.059672385 0.07710477 0.70400006
-0.058248576 0.076995246 0.70300001
-0.056747623 0.076776199 0.70100003
-0.055175241 0.076447621 0.69800001
-0.052142862 0.08214286 0.75000006
-0.049154289 0.081923813 0.74800003
-0.047729526 0.081923813 0.74800003
-0.045995243 0.081376195 0.74300003
-0.044340003 0.080938101 0.73900002
-0.0427581 0.08060953 0.73600006
-0.041243814 0.080390483 0.73400003
-0.039574288 0.079842865 0.72900003
-0.038028575 0.079514287 0.72600001
-0.036292382 0.078747623 0.71900004
-0.034922861 0.078747623 0.71900004
-0.033320002 0.078200005 0.71400005
-0.031780954 0.077761911 0.71000004
-0.030428573 0.077761911 0.71000004
-0.028994288 0.077542864 0.708
-0.027645716 0.077542864 0.708
-0.084660009 0.083237149 0.74700004
-0.083237149 0.083237149 0.74700004
-0.081595242 0.083014295 0.74500006
-0.079960957 0.082791433 0.74300003
-0.078545719 0.082791433 0.74300003
-0.077026673 0.082680002 0.74200004
-0.068872385 0.079782866 0.71600002
-0.067508578 0.079782866 0.71600002
-0.065867625 0.079448573 0.71300006
-0.064328574 0.079225719 0.71100003
-0.062885717 0.079114288 0.71000004
-0.061273336 0.078780003 0.70700002
-0.059672385 0.078445718 0.70400006
-0.058248576 0.078334294 0.70300001
-0.056747623 0.078111432 0.70100003
-0.055175241 0.077777147 0.69800001
-0.053768575 0.077665716 0.69700003
-0.052440956 0.077665716 0.69700003
-0.049154289 0.08334858 0.74800003
-0.047729526 0.08334858 0.74800003
-0.045995243 0.082791433 0.74300003
-0.044520002 0.082680002 0.74200004
-0.042816192 0.082122862 0.73700005
-0.041356195 0.082011431 0.73600006
-0.039574288 0.081231438 0.72900003
-0.038028575 0.080897145 0.72600001
-0.036494289 0.08056286 0.72300005
-0.034922861 0.080117151 0.71900004
-0.033320002 0.079560004 0.71400005
-0.031825718 0.079225719 0.71100003
-0.030471431 0.079225719 0.71100003
-0.029076193 0.079114288 0.71000004
-0.027723812 0.079114288 0.71000004
-0.083237149 0.084660009 0.74700004
-0.081595242 0.08443334 0.74500006
-0.079960957 0.084206671 0.74300003
-0.078545719 0.084206671 0.74300003
-0.077026673 0.08409334 0.74200004
-0.075409532 0.083866671 0.74000001
-0.068968579 0.081260003 0.71700001
-0.067508578 0.081146672 0.71600002
-0.065960005 0.080920003 0.71400005
-0.064509526 0.080806673 0.71300006
-0.062885717 0.080466673 0.71000004
-0.061360005 0.080240004 0.708
-0.059757147 0.079900004 0.70500004
-0.058248576 0.079673335 0.70300001
-0.056909528 0.079673335 0.70300001
-0.055333339 0.079333335 0.70000005
-0.045995243 0.084206671 0.74300003
-0.044520002 0.08409334 0.74200004
-0.042932384 0.08375334 0.73900002
-0.041412383 0.083526671 0.73700005
-0.039737146 0.082960002 0.73200005
-0.038133334 0.082506672 0.72800004
-0.03659524 0.082166672 0.72500002
-0.034922861 0.081486672 0.71900004
-0.033320002 0.080920003 0.71400005
-0.03191524 0.080806673 0.71300006
-0.030557144 0.080806673 0.71300006
-0.029117145 0.080580004 0.71100003
-0.081595242 0.085852385 0.74500006
-0.079960957 0.085621908 0.74300003
-0.078545719 0.085621908 0.74300003
-0.077026673 0.08550667 0.74200004
-0.075409532 0.085276194 0.74000001
-0.068968579 0.082625717 0.71700001
-0.067508578 0.082510479 0.71600002
-0.065960005 0.082280003 0.71400005
-0.064509526 0.082164764 0.71300006
-0.062974289 0.081934288 0.71100003
-0.061533336 0.08181905 0.71000004
-0.05992667 0.081473336 0.70700002
-0.058331434 0.081127621 0.70400006
-0.056909528 0.081012383 0.70300001
-0.055333339 0.080666669 0.70000005
-0.044580001 0.085621908 0.74300003
-0.042932384 0.085160956 0.73900002
-0.041412383 0.08493048 0.73700005
-0.03995429 0.084815241 0.73600006
-0.038290478 0.084239051 0.73100001
-0.036645718 0.08366286 0.72600001
-0.034971431 0.082971431 0.72000003
-0.033553336 0.082856193 0.71900004
-0.032094289 0.082625717 0.71700001
-0.030600002 0.082280003 0.71400005
-0.029240001 0.082280003 0.71400005
-0.078440003 0.086920008 0.74200004
-0.076819055 0.086685717 0.74000001
-0.075307623 0.086568579 0.73900002
-0.073900007 0.086568579 0.73900002
-0.070334293 0.083991431 0.71700001
-0.068968579 0.083991431 0.71700001
-0.067508578 0.083874293 0.71600002
-0.065960005 0.083640009 0.71400005
-0.064509526 0.083522864 0.71300006
-0.062974289 0.08328858 0.71100003
-0.061360005 0.082937151 0.708
-0.05992667 0.082820006 0.70700002
-0.058331434 0.082468577 0.70400006
-0.056990478 0.082468577 0.70400006
-0.055412386 0.082117148 0.70100003
-0.054000005 0.082000002 0.70000005
-0.052666672 0.082000002 0.70000005
-0.04299048 0.086685717 0.74000001
-0.041524764 0.086568579 0.73900002
-0.040008575 0.086334288 0.73700005
-0.03834286 0.085748576 0.73200005
-0.036645718 0.085045718 0.72600001
-0.035214286 0.08492858 0.72500002
-0.033600003 0.08434286 0.72000003
-0.032183811 0.084225722 0.71900004
-0.030685715 0.083874293 0.71600002
-0.029240001 0.083640009 0.71400005
-0.078228578 0.08809524 0.74000001
-0.076715246 0.087976195 0.73900002
-0.075307623 0.087976195 0.73900002
-0.068872385 0.085238099 0.71600002
-0.067508578 0.085238099 0.71600002
-0.065960005 0.085000008 0.71400005
-0.064509526 0.084880956 0.71300006
-0.063151434 0.084880956 0.71300006
-0.061533336 0.084523812 0.71000004
-0.060011432 0.084285721 0.708
-0.058580004 0.084166676 0.70700002
-0.056990478 0.083809532 0.70400006
-0.055570479 0.083690479 0.70300001
-0.054077145 0.083452389 0.70100003
-0.052741908 0.083452389 0.70100003
-0.04299048 0.08809524 0.74000001
-0.041580956 0.08809524 0.74000001
-0.040008575 0.087738104 0.73700005
-0.03834286 0.087142862 0.73200005
-0.036797144 0.086785719 0.72900003
-0.03526286 0.086428575 0.72600001
-0.033693336 0.085952386 0.72200006
-0.032228574 0.085714288 0.72000003
-0.030814288 0.085595243 0.71900004
-0.029362859 0.085357152 0.71700001
-0.068968579 0.086722866 0.71700001
-0.067602858 0.086722866 0.71700001
-0.065960005 0.086360008 0.71400005
-0.064509526 0.086239055 0.71300006
-0.063151434 0.086239055 0.71300006
-0.061533336 0.085876197 0.71000004
-0.060011432 0.085634291 0.708
-0.058580004 0.085513338 0.70700002
-0.056990478 0.08515048 0.70400006
-0.055570479 0.085029528 0.70300001
-0.054077145 0.084787622 0.70100003
-0.052741908 0.084787622 0.70100003
-0.040008575 0.089141913 0.73700005
-0.038447622 0.088779055 0.73400003
-0.036898099 0.088416196 0.73100001
-0.03526286 0.087811433 0.72600001
-0.033740003 0.087448575 0.72300005
-0.032318097 0.087327622 0.72200006
-0.030857146 0.087085716 0.72000003
-0.029444763 0.086964771 0.71900004
-0.028042858 0.091319054 0.75500005
-0.069160961 0.088334292 0.71900004
-0.067791432 0.088334292 0.71900004
-0.065960005 0.087720007 0.71400005
-0.064509526 0.087597147 0.71300006
-0.062974289 0.087351434 0.71100003
-0.061533336 0.087228574 0.71000004
-0.060011432 0.086982861 0.708
-0.058580004 0.086860009 0.70700002
-0.056990478 0.086491436 0.70400006
-0.055412386 0.086122863 0.70100003
-0.054077145 0.086122863 0.70100003
-0.052741908 0.086122863 0.70100003
-0.038447622 0.090177149 0.73400003
-0.036948573 0.089931436 0.73200005
-0.035505716 0.089808576 0.73100001
-0.033833336 0.089071438 0.72500002
-0.032318097 0.088702865 0.72200006
-0.030942859 0.088702865 0.72200006
-0.029485716 0.088457152 0.72000003
-0.028114287 0.088457152 0.72000003
-0.069160961 0.089703813 0.71900004
-0.067791432 0.089703813 0.71900004
-0.066421911 0.089703813 0.71900004
-0.064600006 0.089080006 0.71400005
-0.062974289 0.088705719 0.71100003
-0.061360005 0.088331431 0.708
-0.060011432 0.088331431 0.708
-0.058580004 0.088206671 0.70700002
-0.056990478 0.087832384 0.70400006
-0.055570479 0.087707624 0.70300001
-0.054231431 0.087707624 0.70300001
-0.052892383 0.087707624 0.70300001
-0.036948573 0.091325723 0.73200005
-0.03555429 0.091325723 0.73200005
-0.033880003 0.090577148 0.72600001
-0.032452382 0.090452388 0.72500002
-0.030985717 0.090202861 0.72300005
-0.029567622 0.090078101 0.72200006
-0.028114287 0.089828581 0.72000003
-0.026742859 0.089828581 0.72000003
-0.067791432 0.091073342 0.71900004
-0.066421911 0.091073342 0.71900004
-0.064600006 0.090440005 0.71400005
-0.063151434 0.090313338 0.71300006
-0.061533336 0.089933336 0.71000004
-0.060011432 0.089680009 0.708
-0.058580004 0.089553341 0.70700002
-0.057071432 0.089300007 0.70500004
-0.055570479 0.089046672 0.70300001
-0.054231431 0.089046672 0.70300001
-0.032452382 0.091833338 0.72500002
-0.030985717 0.091580003 0.72300005
-0.029567622 0.091453336 0.72200006
-0.028192382 0.091453336 0.72200006
-0.026817145 0.091453336 0.72200006
-0.02537143 0.091200009 0.72000003
-0.068734288 0.09372858 0.72900003
-0.067345716 0.09372858 0.72900003
-0.064238101 0.09128572 0.71000004
-0.062885717 0.09128572 0.71000004
-0.061360005 0.091028579 0.708
-0.060011432 0.091028579 0.708
-0.058580004 0.090900004 0.70700002
-0.057071432 0.090642862 0.70500004
-0.055570479 0.09038572 0.70300001
-0.054231431 0.09038572 0.70300001
-0.034020003 0.09372858 0.72900003
-0.032497145 0.093342863 0.72600001
-0.03107143 0.093214288 0.72500002
-0.029608574 0.092957146 0.72300005
-0.028231431 0.092957146 0.72300005
-0.026817145 0.092828579 0.72200006
-0.02537143 0.092571437 0.72000003
-0.024000002 0.092571437 0.72000003
-0.064238101 0.092638098 0.71000004
-0.062885717 0.092638098 0.71000004
-0.061533336 0.092638098 0.71000004
-0.060011432 0.092377149 0.708
-0.058662862 0.092377149 0.708
-0.057233337 0.092246674 0.70700002
-0.055728573 0.091985717 0.70500004
-0.054308575 0.091855243 0.70400006
-0.052967623 0.091855243 0.70400006
-0.032497145 0.094725721 0.72600001
-0.031114288 0.094725721 0.72600001
-0.029690478 0.094595246 0.72500002
-0.028348573 0.094725721 0.72600001
-0.026965717 0.094725721 0.72600001
-0.025582859 0.094725721 0.72600001
-0.062708579 0.093725719 0.708
-0.061360005 0.093725719 0.708
-0.060011432 0.093725719 0.708
-0.058662862 0.093725719 0.708
-0.057233337 0.093593337 0.70700002
-0.055728573 0.09332858 0.70500004
-0.054308575 0.093196198 0.70400006
-0.053042859 0.09332858 0.70500004
-0.051553335 0.093063816 0.70300001
-0.029690478 0.095976196 0.72500002
-0.061360005 0.095074289 0.708
-0.058662862 0.095074289 0.708
-0.057233337 0.094940007 0.70700002
-0.055886671 0.094940007 0.70700002
-0.054540005 0.094940007 0.70700002
-0.053042859 0.094671436 0.70500004
-0.051553335 0.094402865 0.70300001
-0.061028574 0.098057151 0.72000003
-0.058662862 0.096422866 0.708
