# .PCD v0.7 - Point Cloud Data file format
VERSION 0.7
FIELDS x y z
SIZE 4 4 4
TYPE F F F
COUNT 1 1 1
WIDTH 626
HEIGHT 1
VIEWPOINT 0 0 0 1 0 0 0
POINTS 626
DATA ascii
0.044333335 -0.028047621 0.95000005
0.020590477 -0.022380954 0.94000006
0.020524763 -0.020524763 0.93700004
-0.014846668 -0.0096066669 0.91700006
0.032313336 -0.0096066669 0.91700006
-0.017562859 0.060494289 0.68300003
-0.016261905 0.060494289 0.68300003
-0.014982858 0.060582861 0.68400002
-0.013680001 0.060582861 0.68400002
-0.012377144 0.060582861 0.68400002
-0.011074287 0.060582861 0.68400002
-0.017562859 0.061795242 0.68300003
-0.016285716 0.061885718 0.68400002
-0.014982858 0.061885718 0.68400002
-0.013680001 0.061885718 0.68400002
-0.012413334 0.062066671 0.68600005
-0.011074287 0.061885718 0.68400002
-0.017562859 0.063096195 0.68300003
-0.016285716 0.063188575 0.68400002
-0.014982858 0.063188575 0.68400002
-0.013780001 0.063650481 0.68900001
-0.012485716 0.063742861 0.69000006
-0.011171429 0.063742861 0.69000006
-0.050409526 0.063171431 0.67000002
-0.049133338 0.063171431 0.67000002
-0.047857147 0.063171431 0.67000002
-0.046580955 0.063171431 0.67000002
-0.045372386 0.063265719 0.671
-0.044094287 0.063265719 0.671
-0.042880002 0.063360006 0.67200005
-0.017588573 0.064491436 0.68400002
-0.016285716 0.064491436 0.68400002
-0.014982858 0.064491436 0.68400002
-0.013800001 0.065057144 0.69000006
-0.012485716 0.065057144 0.69000006
-0.011171429 0.065057144 0.69000006
-0.05033429 0.064351432 0.66900003
-0.049060002 0.064351432 0.66900003
-0.047785718 0.064351432 0.66900003
-0.046580955 0.064447626 0.67000002
-0.045304764 0.064447626 0.67000002
-0.044028573 0.064447626 0.67000002
-0.017588573 0.065794289 0.68400002
-0.016333334 0.065986671 0.68600005
-0.014982858 0.065794289 0.68400002
-0.013800001 0.066371433 0.69000006
-0.01246762 0.066275239 0.68900001
-0.01118762 0.06646762 0.69100004
-0.051377147 0.065331429 0.66600001
-0.05033429 0.06562572 0.66900003
-0.049060002 0.06562572 0.66900003
-0.047785718 0.06562572 0.66900003
-0.04651143 0.06562572 0.66900003
-0.045304764 0.065723814 0.67000002
-0.044028573 0.065723814 0.67000002
-0.017640002 0.067293338 0.68600005
-0.016357144 0.067391433 0.68700004
-0.015114287 0.067685716 0.69000006
-0.013800001 0.067685716 0.69000006
-0.012485716 0.067685716 0.69000006
-0.011171429 0.067685716 0.69000006
-0.051377147 0.066600002 0.66600001
-0.050183814 0.066700004 0.66700006
-0.048913337 0.066700004 0.66700006
-0.047642861 0.066700004 0.66700006
-0.046372384 0.066700004 0.66700006
-0.045101907 0.066700004 0.66700006
-0.017717144 0.068900004 0.68900001
-0.016357144 0.068700008 0.68700004
-0.015114287 0.069000006 0.69000006
-0.013800001 0.069000006 0.69000006
-0.01246762 0.068900004 0.68900001
-0.011171429 0.069000006 0.69000006
-0.050183814 0.067970477 0.66700006
-0.048913337 0.067970477 0.66700006
-0.047571432 0.067868575 0.66600001
-0.046372384 0.067970477 0.66700006
-0.017665716 0.070008576 0.68700004
-0.016357144 0.070008576 0.68700004
-0.015092382 0.070212387 0.68900001
-0.013780001 0.070212387 0.68900001
-0.01246762 0.070212387 0.68900001
-0.011155238 0.070212387 0.68900001
-0.0098428577 0.070212387 0.68900001
-0.0086790482 0.071435243 0.70100003
-0.051454291 0.069240957 0.66700006
-0.050183814 0.069240957 0.66700006
-0.049060002 0.069448575 0.66900003
-0.047642861 0.069240957 0.66700006
-0.04651143 0.069448575 0.66900003
-0.045237146 0.069448575 0.66900003
-0.016404763 0.071524769 0.68900001
-0.015092382 0.071524769 0.68900001
-0.013800001 0.071628578 0.69000006
-0.012485716 0.071628578 0.69000006
-0.01118762 0.071732387 0.69100004
-0.0099000009 0.071940005 0.69300002
-0.0086790482 0.072770484 0.70100003
-0.051377147 0.070405722 0.66600001
-0.050183814 0.070511431 0.66700006
-0.048913337 0.070511431 0.66700006
-0.047571432 0.070405722 0.66600001
-0.04651143 0.070722863 0.66900003
-0.045237146 0.070722863 0.66900003
-0.04488286 0.072202861 0.68300003
-0.043390479 0.07188572 0.68000001
-0.04209524 0.07188572 0.68000001
-0.017717144 0.072837144 0.68900001
-0.016404763 0.072837144 0.68900001
-0.015092382 0.072837144 0.68900001
-0.013800001 0.07294286 0.69000006
-0.012485716 0.07294286 0.69000006
-0.011284763 0.07368286 0.69700003
-0.0099714296 0.073788576 0.69800001
-0.0086790482 0.074105717 0.70100003
-0.0073333336 0.074000008 0.70000005
-0.066694289 0.081037149 0.75300002
-0.065260008 0.081037149 0.75300002
-0.052250478 0.071136191 0.66100001
-0.051300004 0.071566671 0.66500002
-0.050108574 0.071674287 0.66600001
-0.048913337 0.071781911 0.66700006
-0.047642861 0.071781911 0.66700006
-0.046372384 0.071781911 0.66700006
-0.046183813 0.073503815 0.68300003
-0.04488286 0.073503815 0.68300003
-0.043390479 0.073180959 0.68000001
-0.04209524 0.073180959 0.68000001
-0.016404763 0.074149527 0.68900001
-0.015114287 0.07425715 0.69000006
-0.013820001 0.074364766 0.69100004
-0.012612382 0.075010478 0.69700003
-0.011284763 0.075010478 0.69700003
-0.0099714296 0.075118102 0.69800001
-0.0086419052 0.075118102 0.69800001
-0.052882861 0.073271431 0.66900003
-0.051608574 0.073271431 0.66900003
-0.05033429 0.073271431 0.66900003
-0.049133338 0.073380955 0.67000002
-0.047857147 0.073380955 0.67000002
-0.047484767 0.074804768 0.68300003
-0.046183813 0.074804768 0.68300003
-0.044948574 0.074914292 0.68400002
-0.043581907 0.074804768 0.68300003
-0.016428573 0.075571433 0.69000006
-0.015114287 0.075571433 0.69000006
-0.013820001 0.075680956 0.69100004
-0.012630477 0.076447621 0.69800001
-0.011284763 0.076338097 0.69700003
-0.0099714296 0.076447621 0.69800001
-0.052882861 0.074545719 0.66900003
-0.051608574 0.074545719 0.66900003
-0.050409526 0.07465715 0.67000002
-0.049133338 0.07465715 0.67000002
-0.047857147 0.07465715 0.67000002
-0.047693338 0.076440006 0.68600005
-0.045710478 0.07532572 0.67600006
-0.044948574 0.076217145 0.68400002
-0.043581907 0.076105721 0.68300003
-0.016404763 0.076774292 0.68900001
-0.015092382 0.076774292 0.68900001
-0.013820001 0.076997146 0.69100004
-0.012630477 0.077777147 0.69800001
-0.011284763 0.077665716 0.69700003
-0.0099714296 0.077777147 0.69800001
-0.0073438101 0.078111432 0.70100003
-0.052882861 0.075820006 0.66900003
-0.051685717 0.075933337 0.67000002
-0.050484765 0.076046668 0.671
-0.04920667 0.076046668 0.671
-0.047928575 0.076046668 0.671
-0.046928573 0.076500006 0.67500001
-0.04564286 0.076500006 0.67500001
-0.044554289 0.076840006 0.67800003
-0.017717144 0.078086674 0.68900001
-0.016404763 0.078086674 0.68900001
-0.015092382 0.078086674 0.68900001
-0.013820001 0.078313336 0.69100004
-0.012630477 0.079106674 0.69800001
-0.011300953 0.079106674 0.69800001
-0.010000001 0.079333335 0.70000005
-0.0086790482 0.079446673 0.70100003
-0.052724764 0.076863818 0.66700006
-0.051685717 0.077209532 0.67000002
-0.050409526 0.077209532 0.67000002
-0.04920667 0.07732477 0.671
-0.04821429 0.077785723 0.67500001
-0.046928573 0.077785723 0.67500001
-0.04564286 0.077785723 0.67500001
-0.044422861 0.077900961 0.67600006
-0.017717144 0.079399049 0.68900001
-0.016428573 0.079514287 0.69000006
-0.015114287 0.079514287 0.69000006
-0.013820001 0.079629526 0.69100004
-0.012630477 0.080436192 0.69800001
-0.011284763 0.080320954 0.69700003
-0.0099714296 0.080436192 0.69800001
-0.0073857149 0.081242859 0.70500004
-0.052961908 0.07848572 0.67000002
-0.051685717 0.07848572 0.67000002
-0.050484765 0.078602865 0.671
-0.04920667 0.078602865 0.671
-0.047484767 0.080008574 0.68300003
-0.017717144 0.080711432 0.68900001
-0.016404763 0.080711432 0.68900001
-0.015092382 0.080711432 0.68900001
-0.013800001 0.080828577 0.69000006
-0.012684762 0.082117148 0.70100003
-0.011333334 0.082000002 0.70000005
-0.010000001 0.082000002 0.70000005
-0.0087285722 0.082585722 0.70500004
-0.0073857149 0.082585722 0.70500004
-0.052961908 0.079761907 0.67000002
-0.05176286 0.07988096 0.671
-0.050785717 0.080357149 0.67500001
-0.049573336 0.080476195 0.67600006
-0.048500001 0.080833338 0.67900002
-0.047276195 0.080952384 0.68000001
-0.017717144 0.082023814 0.68900001
-0.016404763 0.082023814 0.68900001
-0.015092382 0.082023814 0.68900001
-0.013800001 0.08214286 0.69000006
-0.012684762 0.083452389 0.70100003
-0.011333334 0.083333336 0.70000005
-0.010057144 0.083809532 0.70400006
-0.0087285722 0.083928578 0.70500004
-0.0073857149 0.083928578 0.70500004
-0.05176286 0.081159055 0.671
-0.050710481 0.081521913 0.67400002
-0.049720004 0.082005717 0.67800003
-0.04857143 0.082247622 0.68000001
-0.047415242 0.082489528 0.68200004
-0.017717144 0.083336197 0.68900001
-0.016428573 0.08345715 0.69000006
-0.015092382 0.083336197 0.68900001
-0.012739048 0.08515048 0.70400006
-0.011398096 0.08515048 0.70400006
-0.010071429 0.085271433 0.70500004
-0.0087285722 0.085271433 0.70500004
-0.0074066673 0.085513338 0.70700002
-0.0060600005 0.085513338 0.70700002
-0.053040955 0.08243715 0.671
-0.051840004 0.082560003 0.67200005
-0.050785717 0.082928576 0.67500001
-0.049720004 0.083297148 0.67800003
-0.04857143 0.083542861 0.68000001
-0.047276195 0.083542861 0.68000001
-0.045113336 0.086860009 0.70700002
-0.040120002 0.087720007 0.71400005
-0.038760003 0.087720007 0.71400005
-0.037661906 0.088334292 0.71900004
-0.036342859 0.088457152 0.72000003
-0.017742859 0.084771432 0.69000006
-0.016428573 0.084771432 0.69000006
-0.015114287 0.084771432 0.69000006
-0.014020001 0.086122863 0.70100003
-0.012739048 0.086491436 0.70400006
-0.011414287 0.086614288 0.70500004
-0.010071429 0.086614288 0.70500004
-0.0087285722 0.086614288 0.70500004
-0.0073857149 0.086614288 0.70500004
-0.0060428577 0.086614288 0.70500004
-0.053120002 0.083840005 0.67200005
-0.05199429 0.084089532 0.67400002
-0.050860956 0.084339052 0.67600006
-0.049793337 0.08471334 0.67900002
-0.04857143 0.0848381 0.68000001
-0.047276195 0.0848381 0.68000001
-0.045980956 0.0848381 0.68000001
-0.045113336 0.088206671 0.70700002
-0.04351905 0.087707624 0.70300001
-0.042480003 0.088331431 0.708
-0.040232383 0.089329533 0.71600002
-0.038868573 0.089329533 0.71600002
-0.037714288 0.089828581 0.72000003
-0.036443811 0.090078101 0.72200006
-0.035117146 0.090202861 0.72300005
-0.017922858 0.086959057 0.69700003
-0.01652381 0.086584769 0.69400001
-0.015201906 0.086584769 0.69400001
-0.014000001 0.087333336 0.70000005
-0.012720954 0.087707624 0.70300001
-0.011398096 0.087832384 0.70400006
-0.010071429 0.087957151 0.70500004
-0.0087533342 0.088206671 0.70700002
-0.0074066673 0.088206671 0.70700002
-0.0060428577 0.087957151 0.70500004
-0.053120002 0.085120007 0.67200005
-0.05199429 0.085373342 0.67400002
-0.050785717 0.085500002 0.67500001
-0.049793337 0.086006671 0.67900002
-0.04857143 0.086133339 0.68000001
-0.047276195 0.086133339 0.68000001
-0.045980956 0.086133339 0.68000001
-0.044985719 0.089300007 0.70500004
-0.04364286 0.089300007 0.70500004
-0.042420004 0.089553341 0.70700002
-0.041073337 0.089553341 0.70700002
-0.040625717 0.091580003 0.72300005
-0.03919429 0.091453336 0.72200006
-0.03781905 0.091453336 0.72200006
-0.036494289 0.091580003 0.72300005
-0.035214286 0.091833338 0.72500002
-0.01652381 0.087906674 0.69400001
-0.01522381 0.088033341 0.69500005
-0.014000001 0.08866667 0.70000005
-0.012684762 0.088793337 0.70100003
-0.011446668 0.089553341 0.70700002
-0.010071429 0.089300007 0.70500004
-0.0087285722 0.089300007 0.70500004
-0.0073857149 0.089300007 0.70500004
-0.0060428577 0.089300007 0.70500004
-0.0532781 0.086657152 0.67400002
-0.05199429 0.086657152 0.67400002
-0.050860956 0.086914293 0.67600006
-0.049866669 0.087428577 0.68000001
-0.04857143 0.087428577 0.68000001
-0.047415242 0.087685719 0.68200004
-0.045342859 0.088714294 0.69000006
-0.045113336 0.090900004 0.70700002
-0.04376667 0.090900004 0.70700002
-0.042240001 0.090514295 0.70400006
-0.040899049 0.090514295 0.70400006
-0.040625717 0.092957146 0.72300005
-0.039248575 0.092957146 0.72300005
-0.037871432 0.092957146 0.72300005
-0.036494289 0.092957146 0.72300005
-0.035214286 0.093214288 0.72500002
-0.033880003 0.093342863 0.72600001
-0.01787143 0.089357145 0.69500005
-0.01654762 0.089357145 0.69500005
-0.01522381 0.089357145 0.69500005
-0.014000001 0.090000004 0.70000005
-0.012757144 0.090642862 0.70500004
-0.011446668 0.090900004 0.70700002
-0.010071429 0.090642862 0.70500004
-0.0087285722 0.090642862 0.70500004
-0.0073857149 0.090642862 0.70500004
-0.0060428577 0.090642862 0.70500004
-0.053357147 0.088071436 0.67500001
-0.052071434 0.088071436 0.67500001
-0.051011432 0.088462859 0.67800003
-0.049866669 0.088723816 0.68000001
-0.04857143 0.088723816 0.68000001
-0.047484767 0.089115247 0.68300003
-0.04638667 0.089506671 0.68600005
-0.045177147 0.092377149 0.708
-0.043828573 0.092377149 0.708
-0.042480003 0.092377149 0.708
-0.041828573 0.093942866 0.72000003
-0.040625717 0.094334289 0.72300005
-0.039248575 0.094334289 0.72300005
-0.037871432 0.094334289 0.72300005
-0.03659524 0.094595246 0.72500002
-0.035214286 0.094595246 0.72500002
-0.033880003 0.094725721 0.72600001
-0.017845716 0.090550482 0.69400001
-0.01652381 0.090550482 0.69400001
-0.01522381 0.090680957 0.69500005
-0.013940001 0.090941913 0.69700003
-0.012757144 0.091985717 0.70500004
-0.011446668 0.092246674 0.70700002
-0.010071429 0.091985717 0.70500004
-0.0087285722 0.091985717 0.70500004
-0.0073857149 0.091985717 0.70500004
-0.05464286 0.089357145 0.67500001
-0.053357147 0.089357145 0.67500001
-0.05230286 0.089754291 0.67800003
-0.051086672 0.089886673 0.67900002
-0.050013337 0.090283819 0.68200004
-0.048714288 0.090283819 0.68200004
-0.047554288 0.090548575 0.68400002
-0.04638667 0.090813339 0.68600005
-0.045080002 0.090813339 0.68600005
-0.044385716 0.094917148 0.71700001
-0.043140002 0.095181912 0.71900004
-0.041828573 0.095314294 0.72000003
-0.040569525 0.09557905 0.72200006
-0.03919429 0.09557905 0.72200006
-0.03781905 0.09557905 0.72200006
-0.036494289 0.095711432 0.72300005
-0.035117146 0.095711432 0.72300005
-0.033833336 0.095976196 0.72500002
-0.019140001 0.091740005 0.69300002
-0.017820001 0.091740005 0.69300002
-0.01652381 0.091872387 0.69400001
-0.015201906 0.091872387 0.69400001
-0.01388 0.091872387 0.69400001
-0.012558096 0.091872387 0.69400001
-0.010314287 0.09557905 0.72200006
-0.0089390483 0.09557905 0.72200006
-0.0075742863 0.095711432 0.72300005
-0.054885719 0.091045722 0.67800003
-0.053594287 0.091045722 0.67800003
-0.052380003 0.091180004 0.67900002
-0.051161908 0.091314293 0.68000001
-0.05008667 0.091717146 0.68300003
-0.048785716 0.091717146 0.68300003
-0.047554288 0.091851436 0.68400002
-0.04638667 0.092120007 0.68600005
-0.045145717 0.092254288 0.68700004
-0.044385716 0.096282862 0.71700001
-0.043140002 0.096551433 0.71900004
-0.041828573 0.096685722 0.72000003
-0.040569525 0.096954294 0.72200006
-0.03919429 0.096954294 0.72200006
-0.03781905 0.096954294 0.72200006
-0.036494289 0.097088575 0.72300005
-0.035117146 0.097088575 0.72300005
-0.020489525 0.093194291 0.69400001
-0.019140001 0.093060009 0.69300002
-0.017820001 0.093060009 0.69300002
-0.016500002 0.093060009 0.69300002
-0.015201906 0.093194291 0.69400001
-0.01388 0.093194291 0.69400001
-0.012558096 0.093194291 0.69400001
-0.010314287 0.096954294 0.72200006
-0.0089390483 0.096954294 0.72200006
-0.0075742863 0.097088575 0.72300005
-0.054885719 0.092337146 0.67800003
-0.053594287 0.092337146 0.67800003
-0.052380003 0.092473343 0.67900002
-0.051161908 0.092609532 0.68000001
-0.05008667 0.0930181 0.68300003
-0.048785716 0.0930181 0.68300003
-0.047554288 0.093154289 0.68400002
-0.04638667 0.093426675 0.68600005
-0.045080002 0.093426675 0.68600005
-0.044385716 0.097648576 0.71700001
-0.043140002 0.097920962 0.71900004
-0.041828573 0.098057151 0.72000003
-0.020489525 0.094516195 0.69400001
-0.019140001 0.094380006 0.69300002
-0.017820001 0.094380006 0.69300002
-0.01652381 0.094516195 0.69400001
-0.015201906 0.094516195 0.69400001
-0.01388 0.094516195 0.69400001
-0.05496667 0.093766674 0.67900002
-0.053673338 0.093766674 0.67900002
-0.052457146 0.093904771 0.68000001
-0.051312383 0.094180956 0.68200004
-0.05008667 0.094319053 0.68300003
-0.048785716 0.094319053 0.68300003
-0.047554288 0.09445715 0.68400002
-0.04638667 0.094733343 0.68600005
-0.04575143 0.09901429 0.71700001
-0.044385716 0.09901429 0.71700001
-0.043140002 0.099290483 0.71900004
-0.041770481 0.099290483 0.71900004
-0.021780001 0.095700003 0.69300002
-0.020489525 0.0958381 0.69400001
-0.019167621 0.0958381 0.69400001
-0.017820001 0.095700003 0.69300002
-0.01652381 0.0958381 0.69400001
-0.015201906 0.0958381 0.69400001
-0.01388 0.0958381 0.69400001
-0.053910479 0.09548001 0.68200004
-0.052611433 0.09548001 0.68200004
-0.051387623 0.095620006 0.68300003
-0.05008667 0.095620006 0.68300003
-0.048785716 0.095620006 0.68300003
-0.047554288 0.095760003 0.68400002
-0.04638667 0.096040003 0.68600005
-0.04575143 0.10038 0.71700001
-0.044385716 0.10038 0.71700001
-0.032853335 0.098560005 0.70400006
-0.021685716 0.096600004 0.69000006
-0.020400954 0.096740007 0.69100004
-0.019140001 0.097020008 0.69300002
-0.017768573 0.096740007 0.69100004
-0.016452381 0.096740007 0.69100004
-0.052688576 0.09692096 0.68300003
-0.051387623 0.09692096 0.68300003
-0.05008667 0.09692096 0.68300003
-0.048785716 0.09692096 0.68300003
-0.047554288 0.097062863 0.68400002
-0.046251431 0.097062863 0.68400002
-0.021811429 0.098481908 0.69400001
-0.02037143 0.097914293 0.69000006
-0.019084763 0.098056197 0.69100004
-0.017768573 0.098056197 0.69100004
-0.051387623 0.098221913 0.68300003
-0.05008667 0.098221913 0.68300003
-0.048785716 0.098221913 0.68300003
-0.047484767 0.098221913 0.68300003
-0.046854287 0.10253619 0.71300006
-0.021811429 0.099803813 0.69400001
-0.020460002 0.099660009 0.69300002
-0.019084763 0.099372387 0.69100004
-0.017820001 0.099660009 0.69300002
-0.051462859 0.099668577 0.68400002
-0.05008667 0.099522866 0.68300003
-0.048785716 0.099522866 0.68300003
-0.047484767 0.099522866 0.68300003
-0.03146762 0.10243715 0.70300001
-0.030128574 0.10243715 0.70300001
-0.020400954 0.10068858 0.69100004
-0.019057143 0.10054287 0.69000006
-0.017768573 0.10068858 0.69100004
-0.053151432 0.10170953 0.68900001
-0.05183905 0.10170953 0.68900001
-0.05030667 0.10126667 0.68600005
-0.048857145 0.10097144 0.68400002
-0.047484767 0.10082382 0.68300003
-0.047671434 0.10407144 0.70500004
-0.034388572 0.10451429 0.708
-0.033040002 0.10451429 0.708
-0.031691432 0.10451429 0.708
-0.021560002 0.10126667 0.68600005
-0.020253334 0.10126667 0.68600005
-0.019029524 0.10170953 0.68900001
-0.017742859 0.10185715 0.69000006
-0.054621909 0.10332096 0.69100004
-0.053228576 0.10317144 0.69000006
-0.05191429 0.10317144 0.69000006
-0.050526671 0.10302191 0.68900001
-0.049214289 0.10302191 0.68900001
-0.049014289 0.10541429 0.70500004
-0.047806669 0.10571334 0.70700002
-0.031646669 0.10571334 0.70700002
-0.021560002 0.10257334 0.68600005
-0.020253334 0.10257334 0.68600005
-0.018946668 0.10257334 0.68600005
-0.054621909 0.10463715 0.69100004
-0.053305719 0.10463715 0.69100004
-0.051989526 0.10463715 0.69100004
-0.050600003 0.10448572 0.69000006
-0.049285717 0.10448572 0.69000006
-0.049014289 0.10675715 0.70500004
-0.021560002 0.10388001 0.68600005
-0.020253334 0.10388001 0.68600005
-0.018946668 0.10388001 0.68600005
-0.054780003 0.10626001 0.69300002
-0.053460002 0.10626001 0.69300002
-0.051989526 0.10595334 0.69100004
-0.050600003 0.10580001 0.69000006
-0.049285717 0.10580001 0.69000006
-0.048944764 0.10794667 0.70400006
-0.021465715 0.10472667 0.68300003
-0.020135239 0.10457334 0.68200004
-0.018753335 0.10411334 0.67900002
-0.057171434 0.10711429 0.69000006
-0.055857148 0.10711429 0.69000006
-0.05485905 0.10773525 0.69400001
-0.053537145 0.10773525 0.69400001
-0.051989526 0.10726953 0.69100004
-0.050673336 0.10726953 0.69100004
-0.026318097 0.10463049 0.67400002
-0.025034288 0.10463049 0.67400002
-0.023785716 0.10478572 0.67500001
-0.022633335 0.10540667 0.67900002
-0.02137143 0.10556191 0.68000001
-0.020046668 0.10540667 0.67900002
-0.018753335 0.10540667 0.67900002
-0.017434286 0.10525144 0.67800003
-0.057171434 0.10842858 0.69000006
-0.055857148 0.10842858 0.69000006
-0.054542862 0.10842858 0.69000006
-0.053305719 0.10858572 0.69100004
-0.05191429 0.10842858 0.69000006
-0.050673336 0.10858572 0.69100004
-0.050000004 0.11000001 0.70000005
-0.026240002 0.10560001 0.67200005
-0.025034288 0.10591429 0.67400002
-0.023785716 0.10607143 0.67500001
-0.022666669 0.10685715 0.68000001
-0.02137143 0.10685715 0.68000001
-0.020017143 0.10654286 0.67800003
-0.018725716 0.10654286 0.67800003
-0.017382858 0.10622858 0.67600006
-0.01609524 0.10622858 0.67600006
-0.057171434 0.10974286 0.69000006
-0.055857148 0.10974286 0.69000006
-0.054542862 0.10974286 0.69000006
-0.053305719 0.10990191 0.69100004
-0.051989526 0.10990191 0.69100004
-0.050673336 0.10990191 0.69100004
-0.027601907 0.1071981 0.67400002
-0.026318097 0.1071981 0.67400002
-0.025034288 0.1071981 0.67400002
-0.023785716 0.10735715 0.67500001
-0.022533335 0.1075162 0.67600006
-0.021308573 0.10783429 0.67800003
-0.020017143 0.10783429 0.67800003
-0.018725716 0.10783429 0.67800003
-0.057585716 0.11186191 0.69500005
-0.056100003 0.11154 0.69300002
-0.054621909 0.1112181 0.69100004
-0.053460002 0.11154 0.69300002
-0.051989526 0.1112181 0.69100004
-0.050673336 0.1112181 0.69100004
-0.027520001 0.10816 0.67200005
-0.026318097 0.10848191 0.67400002
-0.025071431 0.10864286 0.67500001
-0.023785716 0.10864286 0.67500001
-0.056180958 0.11302286 0.69400001
-0.054780003 0.11286001 0.69300002
-0.053537145 0.11302286 0.69400001
-0.052140005 0.11286001 0.69300002
-0.050820004 0.11286001 0.69300002
-0.027601907 0.10976572 0.67400002
-0.026318097 0.10976572 0.67400002
-0.025071431 0.10992858 0.67500001
-0.023785716 0.10992858 0.67500001
-0.027642859 0.1112143 0.67500001
-0.026357144 0.1112143 0.67500001
-0.025071431 0.1112143 0.67500001
-0.023785716 0.1112143 0.67500001
-0.027642859 0.1125 0.67500001
-0.026357144 0.1125 0.67500001
-0.025108574 0.11266667 0.67600006
-0.023820953 0.11266667 0.67600006
-0.029271431 0.11513429 0.68300003
-0.027929526 0.11496572 0.68200004
-0.026552383 0.11462858 0.68000001
-0.025220001 0.11446001 0.67900002
-0.023926668 0.11446001 0.67900002
-0.030751431 0.11711715 0.68700004
-0.029314287 0.11660572 0.68400002
-0.027970478 0.11643524 0.68300003
-0.026630478 0.11626477 0.68200004
-0.025257144 0.11592381 0.68000001
-0.029314287 0.11790858 0.68400002
-0.02801143 0.11790858 0.68400002
-0.026630478 0.11756381 0.68200004
-0.02533143 0.11756381 0.68200004
