# .PCD v0.7 - Point Cloud Data file format
VERSION 0.7
FIELDS x y z
SIZE 4 4 4
TYPE F F F
COUNT 1 1 1
WIDTH 1346
HEIGHT 1
VIEWPOINT 0 0 0 1 0 0 0
POINTS 1346
DATA ascii
-0.01083143 0.047785718 0.66900003
-0.0095571438 0.047785718 0.66900003
-0.0082580959 0.047642861 0.66700006
-0.033460002 0.052580003 0.71700001
-0.031960003 0.052360002 0.71400005
-0.030557144 0.05228667 0.71300006
-0.029117145 0.052140005 0.71100003
-0.027645716 0.051920004 0.708
-0.02611143 0.051553335 0.70300001
-0.024701906 0.05140667 0.70100003
-0.023266668 0.05118667 0.69800001
-0.021905717 0.051113337 0.69700003
-0.020489525 0.050893337 0.69400001
-0.018974287 0.050380003 0.68700004
-0.017588573 0.050160002 0.68400002
-0.016261905 0.05008667 0.68300003
-0.014895239 0.049866669 0.68000001
-0.013520001 0.049573336 0.67600006
-0.01216 0.049280003 0.67200005
-0.01084762 0.049133338 0.67000002
-0.0095571438 0.049060002 0.66900003
-0.0082580959 0.048913337 0.66700006
-0.0069876197 0.048913337 0.66700006
-0.032049526 0.053870481 0.71600002
-0.030557144 0.053644765 0.71300006
-0.029117145 0.05349429 0.71100003
-0.027645716 0.053268574 0.708
-0.02611143 0.052892383 0.70300001
-0.024666669 0.052666672 0.70000005
-0.023266668 0.052516192 0.69800001
-0.021905717 0.052440956 0.69700003
-0.020489525 0.052215241 0.69400001
-0.019057143 0.05191429 0.69000006
-0.017588573 0.051462859 0.68400002
-0.016261905 0.051387623 0.68300003
-0.014939048 0.051312383 0.68200004
-0.013580001 0.051086672 0.67900002
-0.012214286 0.050785717 0.67500001
-0.01084762 0.050409526 0.67000002
-0.0095571438 0.05033429 0.66900003
-0.0082580959 0.050183814 0.66700006
-0.0069876197 0.050183814 0.66700006
-0.005708572 0.050108574 0.66600001
-0.033320002 0.055080004 0.71400005
-0.032049526 0.055234291 0.71600002
-0.030557144 0.055002861 0.71300006
-0.029199049 0.055002861 0.71300006
-0.027723812 0.054771431 0.71000004
-0.026148573 0.054308575 0.70400006
-0.024701906 0.054077145 0.70100003
-0.023266668 0.053845719 0.69800001
-0.021905717 0.053768575 0.69700003
-0.020489525 0.053537145 0.69400001
-0.019057143 0.053228576 0.69000006
-0.017640002 0.052920002 0.68600005
-0.016285716 0.05276572 0.68400002
-0.014960953 0.052688576 0.68300003
-0.013600001 0.052457146 0.68000001
-0.012286668 0.052380003 0.67900002
-0.010928572 0.052071434 0.67500001
-0.0095571438 0.051608574 0.66900003
-0.0082580959 0.051454291 0.66700006
-0.0069876197 0.051454291 0.66700006
-0.005708572 0.051377147 0.66600001
-0.034922861 0.056835242 0.71900004
-0.033413336 0.056598101 0.71600002
-0.032049526 0.056598101 0.71600002
-0.030600002 0.056440003 0.71400005
-0.029199049 0.056360956 0.71300006
-0.027723812 0.056123812 0.71000004
-0.026148573 0.055649526 0.70400006
-0.024701906 0.055412386 0.70100003
-0.023266668 0.055175241 0.69800001
-0.021842858 0.0549381 0.69500005
-0.020489525 0.05485905 0.69400001
-0.019057143 0.054542862 0.69000006
-0.017640002 0.05422667 0.68600005
-0.016285716 0.054068577 0.68400002
-0.014960953 0.053989526 0.68300003
-0.012940001 0.051143814 0.64700001
-0.010977143 0.053594287 0.67800003
-0.0093142865 0.051539052 0.65200001
-0.0080723818 0.051539052 0.65200001
-0.0068409527 0.051618099 0.65300006
-0.0056228577 0.05185524 0.65600002
-0.0043733334 0.05185524 0.65600002
-0.033413336 0.057961907 0.71600002
-0.032094289 0.058042862 0.71700001
-0.030600002 0.057800002 0.71400005
-0.029199049 0.057719052 0.71300006
-0.027840953 0.057719052 0.71300006
-0.023994287 0.052295242 0.64600003
-0.022763811 0.052295242 0.64600003
-0.020334287 0.052376192 0.64700001
-0.020489525 0.056180958 0.69400001
-0.019057143 0.055857148 0.69000006
-0.017640002 0.055533338 0.68600005
-0.016261905 0.055290479 0.68300003
-0.014960953 0.055290479 0.68300003
-0.012960001 0.052457146 0.648
-0.011761906 0.052619051 0.65000004
-0.010491429 0.052457146 0.648
-0.0093142865 0.052780956 0.65200001
-0.0080723818 0.052780956 0.65200001
-0.0068409527 0.052861907 0.65300006
-0.0055971434 0.052861907 0.65300006
-0.0043733334 0.053104766 0.65600002
-0.0031190477 0.053023811 0.65500003
-0.0018714287 0.053023811 0.65500003
-0.032094289 0.059408575 0.71700001
-0.030600002 0.059160005 0.71400005
-0.029240001 0.059160005 0.71400005
-0.027880002 0.059160005 0.71400005
-0.02403143 0.053608574 0.64700001
-0.022763811 0.053525716 0.64600003
-0.021566669 0.053608574 0.64700001
-0.020334287 0.053608574 0.64700001
-0.019131429 0.053691432 0.648
-0.017869525 0.053608574 0.64700001
-0.016662858 0.053691432 0.648
-0.014238096 0.053857148 0.65000004
-0.013000001 0.053857148 0.65000004
-0.011761906 0.053857148 0.65000004
-0.01052381 0.053857148 0.65000004
-0.0093142865 0.05402286 0.65200001
-0.0080723818 0.05402286 0.65200001
-0.0068304767 0.05402286 0.65200001
-0.0055971434 0.054105718 0.65300006
-0.004366667 0.054271434 0.65500003
-0.0031190477 0.054271434 0.65500003
-0.0018657144 0.054105718 0.65300006
-0.00062190479 0.054105718 0.65300006
-0.032183811 0.060943812 0.71900004
-0.030685715 0.060689528 0.71600002
-0.029321907 0.060689528 0.71600002
-0.027880002 0.060520004 0.71400005
-0.02403143 0.054840956 0.64700001
-0.022799049 0.054840956 0.64700001
-0.021566669 0.054840956 0.64700001
-0.020334287 0.054840956 0.64700001
-0.019131429 0.054925717 0.648
-0.017897144 0.054925717 0.648
-0.016662858 0.054925717 0.648
-0.015428573 0.054925717 0.648
-0.014238096 0.05509524 0.65000004
-0.013000001 0.05509524 0.65000004
-0.011761906 0.05509524 0.65000004
-0.01052381 0.05509524 0.65000004
-0.009300001 0.055180002 0.65100002
-0.0080723818 0.055264767 0.65200001
-0.0068304767 0.055264767 0.65200001
-0.0055971434 0.055349529 0.65300006
-0.004366667 0.055519052 0.65500003
-0.0031190477 0.055519052 0.65500003
-0.0018714287 0.055519052 0.65500003
-0.00062380958 0.055519052 0.65500003
0.00062380958 0.055519052 0.65500003
0.14497811 0.067555241 0.79700005
-0.033553336 0.062313337 0.71900004
-0.032094289 0.062140003 0.71700001
-0.030728573 0.062140003 0.71700001
-0.026537145 0.056160003 0.648
-0.025263811 0.056073338 0.64700001
-0.02403143 0.056073338 0.64700001
-0.022799049 0.056073338 0.64700001
-0.021600001 0.056160003 0.648
-0.020365715 0.056160003 0.648
-0.019131429 0.056160003 0.648
-0.017897144 0.056160003 0.648
-0.016662858 0.056160003 0.648
-0.015476191 0.056333337 0.65000004
-0.014238096 0.056333337 0.65000004
-0.01302 0.056420002 0.65100002
-0.011780001 0.056420002 0.65100002
-0.010540001 0.056420002 0.65100002
-0.009300001 0.056420002 0.65100002
-0.0080723818 0.056506671 0.65200001
-0.0068304767 0.056506671 0.65200001
-0.0055971434 0.056593336 0.65300006
-0.0043533337 0.056593336 0.65300006
-0.0031190477 0.05676667 0.65500003
-0.0018714287 0.05676667 0.65500003
-0.00062476192 0.056853335 0.65600002
-0.034309525 0.058014289 0.65500003
-0.032910477 0.057748575 0.65200001
-0.031620003 0.057660002 0.65100002
-0.030333335 0.057571433 0.65000004
-0.02909524 0.057571433 0.65000004
-0.02777143 0.057394288 0.648
-0.026496192 0.05730572 0.64700001
-0.025263811 0.05730572 0.64700001
-0.02403143 0.05730572 0.64700001
-0.022799049 0.05730572 0.64700001
-0.021600001 0.057394288 0.648
-0.020365715 0.057394288 0.648
-0.019131429 0.057394288 0.648
-0.017897144 0.057394288 0.648
-0.016662858 0.057394288 0.648
-0.015476191 0.057571433 0.65000004
-0.014238096 0.057571433 0.65000004
-0.01302 0.057660002 0.65100002
-0.011780001 0.057660002 0.65100002
-0.010540001 0.057660002 0.65100002
-0.0093142865 0.057748575 0.65200001
-0.0080723818 0.057748575 0.65200001
-0.0068304767 0.057748575 0.65200001
-0.0055971434 0.057837147 0.65300006
-0.0043533337 0.057837147 0.65300006
-0.003109524 0.057837147 0.65300006
-0.0018657144 0.057837147 0.65300006
0.0036571431 0.068022862 0.76800001
-0.035557143 0.059261907 0.65500003
-0.034204762 0.059080955 0.65300006
-0.032910477 0.058990479 0.65200001
-0.031620003 0.058900002 0.65100002
-0.030333335 0.058809526 0.65000004
-0.02909524 0.058809526 0.65000004
-0.02777143 0.058628574 0.648
-0.026537145 0.058628574 0.648
-0.025302859 0.058628574 0.648
-0.024068573 0.058628574 0.648
-0.022834288 0.058628574 0.648
-0.021600001 0.058628574 0.648
-0.020428572 0.058809526 0.65000004
-0.019190477 0.058809526 0.65000004
-0.017897144 0.058628574 0.648
-0.016662858 0.058628574 0.648
-0.015476191 0.058809526 0.65000004
-0.014260001 0.058900002 0.65100002
-0.01302 0.058900002 0.65100002
-0.011798096 0.058990479 0.65200001
-0.010556191 0.058990479 0.65200001
-0.0093142865 0.058990479 0.65200001
-0.0080723818 0.058990479 0.65200001
-0.0068409527 0.059080955 0.65300006
-0.0055971434 0.059080955 0.65300006
-0.0043533337 0.059080955 0.65300006
-0.003109524 0.059080955 0.65300006
-0.0018657144 0.059080955 0.65300006
0.0036666668 0.069666669 0.77000004
-0.035557143 0.060509529 0.65500003
-0.034204762 0.060324766 0.65300006
-0.032910477 0.060232386 0.65200001
-0.031620003 0.060140003 0.65100002
-0.030333335 0.060047623 0.65000004
-0.02909524 0.060047623 0.65000004
-0.02777143 0.05986286 0.648
-0.026537145 0.05986286 0.648
-0.025302859 0.05986286 0.648
-0.024068573 0.05986286 0.648
-0.022834288 0.05986286 0.648
-0.021666668 0.060047623 0.65000004
-0.020428572 0.060047623 0.65000004
-0.019190477 0.060047623 0.65000004
-0.017897144 0.05986286 0.648
-0.016714286 0.060047623 0.65000004
-0.015500001 0.060140003 0.65100002
-0.014281905 0.060232386 0.65200001
-0.013040001 0.060232386 0.65200001
-0.011798096 0.060232386 0.65200001
-0.010556191 0.060232386 0.65200001
-0.0093285721 0.060324766 0.65300006
-0.0080847628 0.060324766 0.65300006
-0.0068409527 0.060324766 0.65300006
-0.0055971434 0.060324766 0.65300006
-0.0043533337 0.060324766 0.65300006
-0.0031190477 0.060509529 0.65500003
-0.0018657144 0.060324766 0.65300006
-0.035557143 0.061757147 0.65500003
-0.034309525 0.061757147 0.65500003
-0.032910477 0.06147429 0.65200001
-0.031620003 0.061380003 0.65100002
-0.030333335 0.061285719 0.65000004
-0.02909524 0.061285719 0.65000004
-0.02777143 0.061097145 0.648
-0.026537145 0.061097145 0.648
-0.025302859 0.061097145 0.648
-0.024068573 0.061097145 0.648
-0.022904763 0.061285719 0.65000004
-0.021666668 0.061285719 0.65000004
-0.020428572 0.061285719 0.65000004
-0.019190477 0.061285719 0.65000004
-0.017897144 0.061097145 0.648
-0.016714286 0.061285719 0.65000004
-0.015523811 0.06147429 0.65200001
-0.014281905 0.06147429 0.65200001
-0.013040001 0.06147429 0.65200001
-0.011798096 0.06147429 0.65200001
-0.010572381 0.061568577 0.65300006
-0.0093285721 0.061568577 0.65300006
-0.0080847628 0.061568577 0.65300006
-0.0068619051 0.061757147 0.65500003
-0.0055971434 0.061568577 0.65300006
-0.0043533337 0.061568577 0.65300006
-0.003109524 0.061568577 0.65300006
-0.035611432 0.063100956 0.65600002
-0.034361906 0.063100956 0.65600002
-0.033061907 0.063004769 0.65500003
-0.031717144 0.062812388 0.65300006
-0.030380001 0.062620007 0.65100002
-0.02909524 0.062523812 0.65000004
-0.027857145 0.062523812 0.65000004
-0.026537145 0.062331434 0.648
-0.025302859 0.062331434 0.648
-0.02414286 0.062523812 0.65000004
-0.022904763 0.062523812 0.65000004
-0.021666668 0.062523812 0.65000004
-0.020460002 0.062620007 0.65100002
-0.019220002 0.062620007 0.65100002
-0.017980002 0.062620007 0.65100002
-0.016740002 0.062620007 0.65100002
-0.015523811 0.062716193 0.65200001
-0.014281905 0.062716193 0.65200001
-0.013040001 0.062716193 0.65200001
-0.011798096 0.062716193 0.65200001
-0.010572381 0.062812388 0.65300006
-0.0093285721 0.062812388 0.65300006
-0.0080847628 0.062812388 0.65300006
-0.0068619051 0.063004769 0.65500003
-0.0055971434 0.062812388 0.65300006
-0.0043533337 0.062812388 0.65300006
-0.003109524 0.062812388 0.65300006
-0.035720002 0.064546674 0.65800005
-0.034414288 0.064448573 0.65700001
-0.033162858 0.064448573 0.65700001
-0.031814288 0.064252384 0.65500003
-0.030380001 0.063860007 0.65100002
-0.02909524 0.063761912 0.65000004
-0.027857145 0.063761912 0.65000004
-0.026619049 0.063761912 0.65000004
-0.025380954 0.063761912 0.65000004
-0.02414286 0.063761912 0.65000004
-0.022940002 0.063860007 0.65100002
-0.021700002 0.063860007 0.65100002
-0.020460002 0.063860007 0.65100002
-0.019249525 0.063958101 0.65200001
-0.018007619 0.063958101 0.65200001
-0.016765716 0.063958101 0.65200001
-0.015523811 0.063958101 0.65200001
-0.014303811 0.064056195 0.65300006
-0.013060001 0.064056195 0.65300006
-0.011816191 0.064056195 0.65300006
-0.010604762 0.064252384 0.65500003
-0.0093571432 0.064252384 0.65500003
-0.0081095239 0.064252384 0.65500003
-0.0068723815 0.064350478 0.65600002
-0.0056228577 0.064350478 0.65600002
-0.004366667 0.064252384 0.65500003
-0.0031238098 0.064350478 0.65600002
-0.035720002 0.065800004 0.65800005
-0.034414288 0.065700002 0.65700001
-0.033162858 0.065700002 0.65700001
-0.031717144 0.065300003 0.65300006
-0.030380001 0.065100007 0.65100002
-0.029140001 0.065100007 0.65100002
-0.027857145 0.065000005 0.65000004
-0.026619049 0.065000005 0.65000004
-0.025380954 0.065000005 0.65000004
-0.024180003 0.065100007 0.65100002
-0.022940002 0.065100007 0.65100002
-0.021733334 0.065200001 0.65200001
-0.020491431 0.065200001 0.65200001
-0.01927905 0.065300003 0.65300006
-0.018007619 0.065200001 0.65200001
-0.016765716 0.065200001 0.65200001
-0.01554762 0.065300003 0.65300006
-0.014303811 0.065300003 0.65300006
-0.013100001 0.065500006 0.65500003
-0.011852382 0.065500006 0.65500003
-0.010604762 0.065500006 0.65500003
-0.0093714288 0.065600008 0.65600002
-0.0081219049 0.065600008 0.65600002
-0.0068723815 0.065600008 0.65600002
-0.0056228577 0.065600008 0.65600002
-0.0043733334 0.065600008 0.65600002
-0.0031285717 0.065700002 0.65700001
-0.0018771429 0.065700002 0.65700001
-0.035720002 0.06705334 0.65800005
-0.034466669 0.06705334 0.65800005
-0.033213336 0.06705334 0.65800005
-0.031814288 0.066747621 0.65500003
-0.030473335 0.066543818 0.65300006
-0.029140001 0.066340007 0.65100002
-0.027857145 0.066238098 0.65000004
-0.026619049 0.066238098 0.65000004
-0.025380954 0.066238098 0.65000004
-0.024180003 0.066340007 0.65100002
-0.02297524 0.066441908 0.65200001
-0.021733334 0.066441908 0.65200001
-0.020491431 0.066441908 0.65200001
-0.01927905 0.066543818 0.65300006
-0.018007619 0.066441908 0.65200001
-0.016791429 0.066543818 0.65300006
-0.01554762 0.066543818 0.65300006
-0.014369525 0.06684953 0.65600002
-0.013120001 0.06684953 0.65600002
-0.011870477 0.06684953 0.65600002
-0.010620954 0.06684953 0.65600002
-0.0093714288 0.06684953 0.65600002
-0.0081219049 0.06684953 0.65600002
-0.0068828575 0.066951431 0.65700001
-0.0056314291 0.066951431 0.65700001
-0.0043733334 0.06684953 0.65600002
-0.0031285717 0.066951431 0.65700001
-0.037254289 0.068825722 0.66300005
-0.03588286 0.068618096 0.66100001
-0.034571432 0.068514287 0.66000003
-0.033213336 0.06830667 0.65800005
-0.031862859 0.068099052 0.65600002
-0.030473335 0.067787625 0.65300006
-0.029140001 0.067580007 0.65100002
-0.027900001 0.067580007 0.65100002
-0.026660001 0.067580007 0.65100002
-0.025420001 0.067580007 0.65100002
-0.024217144 0.067683816 0.65200001
-0.02297524 0.067683816 0.65200001
-0.021766668 0.067787625 0.65300006
-0.020522859 0.067787625 0.65300006
-0.01927905 0.067787625 0.65300006
-0.018035239 0.067787625 0.65300006
-0.016842859 0.067995243 0.65500003
-0.015595239 0.067995243 0.65500003
-0.014369525 0.068099052 0.65600002
-0.01314 0.068202861 0.65700001
-0.011888572 0.068202861 0.65700001
-0.010637144 0.068202861 0.65700001
-0.0093857152 0.068202861 0.65700001
-0.0081342859 0.068202861 0.65700001
-0.0068828575 0.068202861 0.65700001
-0.0056314291 0.068202861 0.65700001
-0.0043800003 0.068202861 0.65700001
-0.0031285717 0.068202861 0.65700001
-0.0018800001 0.06830667 0.65800005
-0.038517144 0.070088573 0.66300005
-0.037254289 0.070088573 0.66300005
-0.035937145 0.069982864 0.66200006
-0.034571432 0.069771431 0.66000003
-0.033314288 0.069771431 0.66000003
-0.031960003 0.069560006 0.65800005
-0.030566668 0.069242865 0.65500003
-0.029184764 0.068925716 0.65200001
-0.027942859 0.068925716 0.65200001
-0.026660001 0.068820007 0.65100002
-0.025420001 0.068820007 0.65100002
-0.024217144 0.068925716 0.65200001
-0.02297524 0.068925716 0.65200001
-0.021766668 0.069031432 0.65300006
-0.020522859 0.069031432 0.65300006
-0.019338097 0.069242865 0.65500003
-0.018090477 0.069242865 0.65500003
-0.016842859 0.069242865 0.65500003
-0.015619049 0.069348574 0.65600002
-0.014369525 0.069348574 0.65600002
-0.01314 0.06945429 0.65700001
-0.011888572 0.06945429 0.65700001
-0.010637144 0.06945429 0.65700001
-0.0093857152 0.06945429 0.65700001
-0.0081342859 0.06945429 0.65700001
-0.006893334 0.069560006 0.65800005
-0.0056400006 0.069560006 0.65800005
-0.0043866672 0.069560006 0.65800005
-0.0031333335 0.069560006 0.65800005
-0.0018800001 0.069560006 0.65800005
-0.038517144 0.071351431 0.66300005
-0.037254289 0.071351431 0.66300005
-0.035937145 0.071243815 0.66200006
-0.034623813 0.071136191 0.66100001
-0.033314288 0.071028575 0.66000003
-0.031960003 0.070813335 0.65800005
-0.030566668 0.070490479 0.65500003
-0.029229525 0.07027524 0.65300006
-0.027942859 0.070167623 0.65200001
-0.026700955 0.070167623 0.65200001
-0.025459049 0.070167623 0.65200001
-0.024217144 0.070167623 0.65200001
-0.023010477 0.07027524 0.65300006
-0.021766668 0.07027524 0.65300006
-0.020522859 0.07027524 0.65300006
-0.019338097 0.070490479 0.65500003
-0.018090477 0.070490479 0.65500003
-0.016868573 0.070598103 0.65600002
-0.015619049 0.070598103 0.65600002
-0.01439143 0.070705719 0.65700001
-0.01314 0.070705719 0.65700001
-0.011888572 0.070705719 0.65700001
-0.010653334 0.070813335 0.65800005
-0.0094000008 0.070813335 0.65800005
-0.0081466669 0.070813335 0.65800005
-0.006893334 0.070813335 0.65800005
-0.0056400006 0.070813335 0.65800005
-0.0043866672 0.070813335 0.65800005
-0.0031428575 0.071028575 0.66000003
-0.0018857144 0.071028575 0.66000003
-0.038691431 0.07294286 0.66600001
-0.03736667 0.072833337 0.66500002
-0.036100004 0.072833337 0.66500002
-0.034728575 0.07261429 0.66300005
-0.033415239 0.072504766 0.66200006
-0.032057144 0.072285719 0.66000003
-0.030613335 0.071847625 0.65600002
-0.02931905 0.071738102 0.65500003
-0.027985716 0.071519054 0.65300006
-0.026741907 0.071519054 0.65300006
-0.025498098 0.071519054 0.65300006
-0.024254287 0.071519054 0.65300006
-0.023080954 0.071738102 0.65500003
-0.021833334 0.071738102 0.65500003
-0.020585716 0.071738102 0.65500003
-0.01936762 0.071847625 0.65600002
-0.018118097 0.071847625 0.65600002
-0.016894286 0.071957149 0.65700001
-0.015642859 0.071957149 0.65700001
-0.014413334 0.072066672 0.65800005
-0.013160001 0.072066672 0.65800005
-0.011906668 0.072066672 0.65800005
-0.010653334 0.072066672 0.65800005
-0.0094000008 0.072066672 0.65800005
-0.0081466669 0.072066672 0.65800005
-0.0069142859 0.072285719 0.66000003
-0.0056571434 0.072285719 0.66000003
-0.0044000004 0.072285719 0.66000003
-0.0031428575 0.072285719 0.66000003
-0.0018857144 0.072285719 0.66000003
-0.03736667 0.074100003 0.66500002
-0.036100004 0.074100003 0.66500002
-0.034833334 0.074100003 0.66500002
-0.033415239 0.073765717 0.66200006
-0.032105718 0.073654294 0.66100001
-0.030613335 0.073097147 0.65600002
-0.02931905 0.072985716 0.65500003
-0.02807143 0.072985716 0.65500003
-0.026823811 0.072985716 0.65500003
-0.025576193 0.072985716 0.65500003
-0.024328573 0.072985716 0.65500003
-0.023080954 0.072985716 0.65500003
-0.021833334 0.072985716 0.65500003
-0.020585716 0.072985716 0.65500003
-0.01936762 0.073097147 0.65600002
-0.018145716 0.073208578 0.65700001
-0.016894286 0.073208578 0.65700001
-0.015642859 0.073208578 0.65700001
-0.014413334 0.073320001 0.65800005
-0.013160001 0.073320001 0.65800005
-0.011906668 0.073320001 0.65800005
-0.010653334 0.073320001 0.65800005
-0.0094285719 0.073542863 0.66000003
-0.0081714289 0.073542863 0.66000003
-0.0069142859 0.073542863 0.66000003
-0.0056657149 0.073654294 0.66100001
-0.0044066668 0.073654294 0.66100001
-0.0031476193 0.073654294 0.66100001
-0.03736667 0.075366668 0.66500002
-0.036100004 0.075366668 0.66500002
-0.034833334 0.075366668 0.66500002
-0.033415239 0.075026669 0.66200006
-0.032105718 0.074913338 0.66100001
-0.030706668 0.074573338 0.65800005
-0.029363811 0.074346669 0.65600002
-0.028114287 0.074346669 0.65600002
-0.026823811 0.074233338 0.65500003
-0.025576193 0.074233338 0.65500003
-0.024328573 0.074233338 0.65500003
-0.023116192 0.074346669 0.65600002
-0.021866668 0.074346669 0.65600002
-0.020617144 0.074346669 0.65600002
-0.019397143 0.074460007 0.65700001
-0.018145716 0.074460007 0.65700001
-0.016894286 0.074460007 0.65700001
-0.015666667 0.074573338 0.65800005
-0.014413334 0.074573338 0.65800005
-0.013200001 0.074800007 0.66000003
-0.011942858 0.074800007 0.66000003
-0.010685715 0.074800007 0.66000003
-0.0094285719 0.074800007 0.66000003
-0.0081714289 0.074800007 0.66000003
-0.0069247624 0.074913338 0.66100001
-0.0056742863 0.075026669 0.66200006
-0.0044066668 0.074913338 0.66100001
-0.0031476193 0.074913338 0.66100001
-0.036100004 0.076633342 0.66500002
-0.034728575 0.076402865 0.66300005
-0.033415239 0.076287627 0.66200006
-0.032105718 0.076172389 0.66100001
-0.030706668 0.075826675 0.65800005
-0.029408574 0.075711437 0.65700001
-0.028114287 0.075596198 0.65600002
-0.026864763 0.075596198 0.65600002
-0.02561524 0.075596198 0.65600002
-0.024365716 0.075596198 0.65600002
-0.023151429 0.075711437 0.65700001
-0.021866668 0.075596198 0.65600002
-0.020648573 0.075711437 0.65700001
-0.019426668 0.075826675 0.65800005
-0.018173335 0.075826675 0.65800005
-0.01692 0.075826675 0.65800005
-0.015666667 0.075826675 0.65800005
-0.014457144 0.076057151 0.66000003
-0.013200001 0.076057151 0.66000003
-0.011942858 0.076057151 0.66000003
-0.010685715 0.076057151 0.66000003
-0.0094428575 0.076172389 0.66100001
-0.0081961909 0.076287627 0.66200006
-0.0069352384 0.076287627 0.66200006
-0.0056742863 0.076287627 0.66200006
-0.0044133337 0.076287627 0.66200006
-0.0031523812 0.076287627 0.66200006
-0.033415239 0.077548578 0.66200006
-0.032105718 0.077431433 0.66100001
-0.030706668 0.077080004 0.65800005
-0.029408574 0.076962866 0.65700001
-0.028157145 0.076962866 0.65700001
-0.026864763 0.07684572 0.65600002
-0.025654288 0.076962866 0.65700001
-0.024402859 0.076962866 0.65700001
-0.023151429 0.076962866 0.65700001
-0.021900002 0.076962866 0.65700001
-0.020648573 0.076962866 0.65700001
-0.019426668 0.077080004 0.65800005
-0.018173335 0.077080004 0.65800005
-0.01692 0.077080004 0.65800005
-0.015666667 0.077080004 0.65800005
-0.014457144 0.077314287 0.66000003
-0.013220001 0.077431433 0.66100001
-0.011960953 0.077431433 0.66100001
-0.010718096 0.077548578 0.66200006
-0.009457143 0.077548578 0.66200006
-0.0081961909 0.077548578 0.66200006
-0.0069457148 0.077665716 0.66300005
-0.0056828577 0.077665716 0.66300005
-0.0044200001 0.077665716 0.66300005
-0.003157143 0.077665716 0.66300005
-0.033415239 0.07880953 0.66200006
-0.032105718 0.078690484 0.66100001
-0.030800002 0.078571431 0.66000003
-0.029453335 0.078333341 0.65800005
-0.028157145 0.078214288 0.65700001
-0.026905715 0.078214288 0.65700001
-0.025693335 0.078333341 0.65800005
-0.024402859 0.078214288 0.65700001
-0.023151429 0.078214288 0.65700001
-0.021900002 0.078214288 0.65700001
-0.020680001 0.078333341 0.65800005
-0.019485716 0.078571431 0.66000003
-0.018228572 0.078571431 0.66000003
-0.01697143 0.078571431 0.66000003
-0.015714286 0.078571431 0.66000003
-0.014479049 0.078690484 0.66100001
-0.013220001 0.078690484 0.66100001
-0.011979048 0.07880953 0.66200006
-0.010718096 0.07880953 0.66200006
-0.0094714295 0.078928575 0.66300005
-0.0082085719 0.078928575 0.66300005
-0.0069457148 0.078928575 0.66300005
-0.0056828577 0.078928575 0.66300005
-0.0044200001 0.078928575 0.66300005
-0.003166667 0.079166673 0.66500002
-0.0019000001 0.079166673 0.66500002
-0.030800002 0.079828575 0.66000003
-0.029453335 0.07958667 0.65800005
-0.028200002 0.07958667 0.65800005
-0.026946668 0.07958667 0.65800005
-0.025693335 0.07958667 0.65800005
-0.024440002 0.07958667 0.65800005
-0.023186669 0.07958667 0.65800005
-0.021900002 0.079465717 0.65700001
-0.020680001 0.07958667 0.65800005
-0.019485716 0.079828575 0.66000003
-0.018228572 0.079828575 0.66000003
-0.01697143 0.079828575 0.66000003
-0.015738096 0.079949528 0.66100001
-0.014500953 0.080070481 0.66200006
-0.013260001 0.080191433 0.66300005
-0.011979048 0.080070481 0.66200006
-0.010718096 0.080070481 0.66200006
-0.0095000006 0.080433339 0.66500002
-0.0082333339 0.080433339 0.66500002
-0.0069666672 0.080433339 0.66500002
-0.005708572 0.080554292 0.66600001
-0.0044400003 0.080554292 0.66600001
-0.0031714288 0.080554292 0.66600001
-0.0019028572 0.080554292 0.66600001
-0.030800002 0.081085719 0.66000003
-0.02954286 0.081085719 0.66000003
-0.028285716 0.081085719 0.66000003
-0.027028574 0.081085719 0.66000003
-0.02577143 0.081085719 0.66000003
-0.024514288 0.081085719 0.66000003
-0.023257144 0.081085719 0.66000003
-0.021933334 0.080840006 0.65800005
-0.020742858 0.081085719 0.66000003
-0.019485716 0.081085719 0.66000003
-0.018256191 0.081208579 0.66100001
-0.016997144 0.081208579 0.66100001
-0.015761906 0.081331432 0.66200006
-0.014566667 0.081700005 0.66500002
-0.013300001 0.081700005 0.66500002
-0.01205143 0.081822865 0.66600001
-0.010782857 0.081822865 0.66600001
-0.0095142862 0.081822865 0.66600001
-0.0082457149 0.081822865 0.66600001
-0.0069771432 0.081822865 0.66600001
-0.005708572 0.081822865 0.66600001
-0.0044466672 0.081945717 0.66700006
-0.0031761907 0.081945717 0.66700006
-0.0019057144 0.081945717 0.66700006
-0.00063523813 0.081945717 0.66700006
-0.030800002 0.082342863 0.66000003
-0.02954286 0.082342863 0.66000003
-0.028285716 0.082342863 0.66000003
-0.027028574 0.082342863 0.66000003
-0.02577143 0.082342863 0.66000003
-0.024514288 0.082342863 0.66000003
-0.023257144 0.082342863 0.66000003
-0.022000002 0.082342863 0.66000003
-0.020742858 0.082342863 0.66000003
-0.019515239 0.082467623 0.66100001
-0.018256191 0.082467623 0.66100001
-0.017022857 0.082592383 0.66200006
-0.015761906 0.082592383 0.66200006
-0.014588572 0.08309143 0.66600001
-0.013300001 0.08296667 0.66500002
-0.01205143 0.08309143 0.66600001
-0.010782857 0.08309143 0.66600001
-0.0095142862 0.08309143 0.66600001
-0.0082457149 0.08309143 0.66600001
-0.0069771432 0.08309143 0.66600001
-0.0057171434 0.083216198 0.66700006
-0.0044466672 0.083216198 0.66700006
-0.0031761907 0.083216198 0.66700006
-0.0019028572 0.08309143 0.66600001
-0.00063523813 0.083216198 0.66700006
-0.030800002 0.083600007 0.66000003
-0.029587621 0.083726674 0.66100001
-0.028328573 0.083726674 0.66100001
-0.027028574 0.083600007 0.66000003
-0.02577143 0.083600007 0.66000003
-0.024514288 0.083600007 0.66000003
-0.023292383 0.083726674 0.66100001
-0.022000002 0.083600007 0.66000003
-0.020774286 0.083726674 0.66100001
-0.019515239 0.083726674 0.66100001
-0.01828381 0.083853342 0.66200006
-0.017022857 0.083853342 0.66200006
-0.015785715 0.083980009 0.66300005
-0.014610477 0.084486671 0.66700006
-0.013320001 0.084360003 0.66600001
-0.012069524 0.084486671 0.66700006
-0.010799048 0.084486671 0.66700006
-0.0095285717 0.084486671 0.66700006
-0.0082580959 0.084486671 0.66700006
-0.0069876197 0.084486671 0.66700006
-0.0057171434 0.084486671 0.66700006
-0.0044466672 0.084486671 0.66700006
-0.0031761907 0.084486671 0.66700006
-0.0019028572 0.084360003 0.66600001
-0.00063523813 0.084486671 0.66700006
-0.030893335 0.085114293 0.66200006
-0.029632382 0.085114293 0.66200006
-0.028328573 0.084985718 0.66100001
-0.027069526 0.084985718 0.66100001
-0.025810478 0.084985718 0.66100001
-0.024551431 0.084985718 0.66100001
-0.023292383 0.084985718 0.66100001
-0.022033336 0.084985718 0.66100001
-0.020805717 0.085114293 0.66200006
-0.019544763 0.085114293 0.66200006
-0.01831143 0.08524286 0.66300005
-0.017048573 0.08524286 0.66300005
-0.015833335 0.085500002 0.66500002
-0.014610477 0.085757151 0.66700006
-0.013340001 0.085757151 0.66700006
-0.012069524 0.085757151 0.66700006
-0.010799048 0.085757151 0.66700006
-0.0095285717 0.085757151 0.66700006
-0.0082580959 0.085757151 0.66700006
-0.0070085721 0.086014293 0.66900003
-0.0057342863 0.086014293 0.66900003
-0.0044600004 0.086014293 0.66900003
-0.0031857146 0.086014293 0.66900003
-0.0019057144 0.085757151 0.66700006
-0.00063714292 0.086014293 0.66900003
-0.032202858 0.086505719 0.66300005
-0.030940002 0.086505719 0.66300005
-0.029677145 0.086505719 0.66300005
-0.028371431 0.086375244 0.66200006
-0.027110478 0.086375244 0.66200006
-0.025849525 0.086375244 0.66200006
-0.024588574 0.086375244 0.66200006
-0.023327621 0.086375244 0.66200006
-0.022100002 0.086505719 0.66300005
-0.020837145 0.086505719 0.66300005
-0.019633334 0.086766675 0.66500002
-0.018421905 0.087027624 0.66700006
-0.017100001 0.086766675 0.66500002
-0.015880954 0.087027624 0.66700006
-0.014610477 0.087027624 0.66700006
-0.013340001 0.087027624 0.66700006
-0.012069524 0.087027624 0.66700006
-0.01083143 0.087288581 0.66900003
-0.0095571438 0.087288581 0.66900003
-0.0082828579 0.087288581 0.66900003
-0.0070085721 0.087288581 0.66900003
-0.0057428577 0.087419055 0.67000002
-0.0044666668 0.087419055 0.67000002
-0.0031952383 0.08754953 0.671
-0.0019200002 0.087680005 0.67200005
-0.00064190483 0.087940961 0.67400002
-0.032300003 0.088033341 0.66500002
-0.030940002 0.087768577 0.66300005
-0.029677145 0.087768577 0.66300005
-0.028414287 0.087768577 0.66300005
-0.027110478 0.087636195 0.66200006
-0.025888573 0.087768577 0.66300005
-0.024625717 0.087768577 0.66300005
-0.023362858 0.087768577 0.66300005
-0.022166668 0.088033341 0.66500002
-0.020900002 0.088033341 0.66500002
-0.019662859 0.088165723 0.66600001
-0.018421905 0.088298105 0.66700006
-0.017125715 0.088165723 0.66600001
-0.015857143 0.088165723 0.66600001
-0.014610477 0.088298105 0.66700006
-0.013380001 0.088562861 0.66900003
-0.012105715 0.088562861 0.66900003
-0.01083143 0.088562861 0.66900003
-0.0095571438 0.088562861 0.66900003
-0.0082952389 0.088695243 0.67000002
-0.0070190481 0.088695243 0.67000002
-0.0057514291 0.088827625 0.671
-0.0044733337 0.088827625 0.671
-0.0032000002 0.088960007 0.67200005
-0.0019257144 0.089224771 0.67400002
-0.033566669 0.089300007 0.66500002
-0.032300003 0.089300007 0.66500002
-0.030940002 0.089031436 0.66300005
-0.029766669 0.089300007 0.66500002
-0.028500002 0.089300007 0.66500002
-0.027233334 0.089300007 0.66500002
-0.025966669 0.089300007 0.66500002
-0.024700001 0.089300007 0.66500002
-0.023433335 0.089300007 0.66500002
-0.022166668 0.089300007 0.66500002
-0.02093143 0.089434288 0.66600001
-0.019662859 0.089434288 0.66600001
-0.018421905 0.089568578 0.66700006
-0.017125715 0.089434288 0.66600001
-0.015857143 0.089434288 0.66600001
-0.014654287 0.089837149 0.66900003
-0.013380001 0.089837149 0.66900003
-0.012105715 0.089837149 0.66900003
-0.01083143 0.089837149 0.66900003
-0.0095714293 0.089971438 0.67000002
-0.00830762 0.09010572 0.671
-0.0070295241 0.09010572 0.671
-0.0057600006 0.090240009 0.67200005
-0.0044733337 0.09010572 0.671
-0.0032000002 0.090240009 0.67200005
-0.0019257144 0.09050858 0.67400002
-0.032300003 0.090566672 0.66500002
-0.031033335 0.090566672 0.66500002
-0.029766669 0.090566672 0.66500002
-0.028500002 0.090566672 0.66500002
-0.027274288 0.090702862 0.66600001
-0.026005715 0.090702862 0.66600001
-0.024737144 0.090702862 0.66600001
-0.023468573 0.090702862 0.66600001
-0.022200001 0.090702862 0.66600001
-0.020962859 0.090839051 0.66700006
-0.019692382 0.090839051 0.66700006
-0.018477144 0.091111436 0.66900003
-0.01715143 0.090839051 0.66700006
-0.015880954 0.090839051 0.66700006
-0.014654287 0.091111436 0.66900003
-0.013380001 0.091111436 0.66900003
-0.012105715 0.091111436 0.66900003
-0.01084762 0.091247626 0.67000002
-0.0095857149 0.091383815 0.671
-0.008320001 0.091520004 0.67200005
-0.0070400005 0.091520004 0.67200005
-0.0057771434 0.09179239 0.67400002
-0.0044933334 0.09179239 0.67400002
-0.0032095241 0.09179239 0.67400002
-0.0019285716 0.091928579 0.67500001
-0.032300003 0.091833338 0.66500002
-0.031033335 0.091833338 0.66500002
-0.029766669 0.091833338 0.66500002
-0.028500002 0.091833338 0.66500002
-0.027274288 0.091971435 0.66600001
-0.026005715 0.091971435 0.66600001
-0.024737144 0.091971435 0.66600001
-0.023468573 0.091971435 0.66600001
-0.022233335 0.092109531 0.66700006
-0.020962859 0.092109531 0.66700006
-0.01975143 0.092385717 0.66900003
-0.018477144 0.092385717 0.66900003
-0.01715143 0.092109531 0.66700006
-0.015880954 0.092109531 0.66700006
-0.014610477 0.092109531 0.66700006
-0.013380001 0.092385717 0.66900003
-0.01212381 0.092523813 0.67000002
-0.01086381 0.09266191 0.671
-0.0096000005 0.092800006 0.67200005
-0.008320001 0.092800006 0.67200005
-0.0070400005 0.092800006 0.67200005
-0.0057771434 0.093076199 0.67400002
-0.0044933334 0.093076199 0.67400002
-0.0032142859 0.093214288 0.67500001
-0.0019285716 0.093214288 0.67500001
-0.044730481 0.098140009 0.70100003
-0.031033335 0.093100004 0.66500002
-0.029811431 0.093240008 0.66600001
-0.028585717 0.093380004 0.66700006
-0.027274288 0.093240008 0.66600001
-0.026044764 0.093380004 0.66700006
-0.024774287 0.093380004 0.66700006
-0.023468573 0.093240008 0.66600001
-0.022233335 0.093380004 0.66700006
-0.021025715 0.093660004 0.66900003
-0.01975143 0.093660004 0.66900003
-0.018477144 0.093660004 0.66900003
-0.01715143 0.093380004 0.66700006
-0.015880954 0.093380004 0.66700006
-0.014610477 0.093380004 0.66700006
-0.013380001 0.093660004 0.66900003
-0.01212381 0.093800008 0.67000002
-0.010880001 0.094080009 0.67200005
-0.0096000005 0.094080009 0.67200005
-0.008320001 0.094080009 0.67200005
-0.007060953 0.094360009 0.67400002
-0.0057771434 0.094360009 0.67400002
-0.0044933334 0.094360009 0.67400002
-0.0032142859 0.094500005 0.67500001
-0.0019285716 0.094500005 0.67500001
-0.044730481 0.099475242 0.70100003
-0.043580957 0.099900961 0.70400006
-0.042180002 0.099759057 0.70300001
-0.040840954 0.099759057 0.70300001
-0.031266667 0.095076196 0.67000002
-0.029945716 0.094934292 0.66900003
-0.02867143 0.094934292 0.66900003
-0.02731524 0.094650485 0.66700006
-0.026044764 0.094650485 0.66700006
-0.024774287 0.094650485 0.66700006
-0.02350381 0.094650485 0.66700006
-0.022233335 0.094650485 0.66700006
-0.021025715 0.094934292 0.66900003
-0.01975143 0.094934292 0.66900003
-0.018477144 0.094934292 0.66900003
-0.01715143 0.094650485 0.66700006
-0.015880954 0.094650485 0.66700006
-0.014654287 0.094934292 0.66900003
-0.013380001 0.094934292 0.66900003
-0.012141906 0.0952181 0.671
-0.010880001 0.095360003 0.67200005
-0.0096285725 0.095643818 0.67400002
-0.008344762 0.095643818 0.67400002
-0.007060953 0.095643818 0.67400002
-0.0057857148 0.095785722 0.67500001
-0.0045000003 0.095785722 0.67500001
-0.0032190478 0.095927626 0.67600006
-0.0019314287 0.095927626 0.67600006
-0.046065718 0.10081048 0.70100003
-0.044730481 0.10081048 0.70100003
-0.04351905 0.10109811 0.70300001
-0.042060003 0.10081048 0.70100003
-0.040724766 0.10081048 0.70100003
-0.032591432 0.096496195 0.671
-0.031313334 0.096496195 0.671
-0.029990477 0.096352391 0.67000002
-0.028714288 0.096352391 0.67000002
-0.027438097 0.096352391 0.67000002
-0.026122859 0.09620858 0.66900003
-0.024848573 0.09620858 0.66900003
-0.023574287 0.09620858 0.66900003
-0.022300001 0.09620858 0.66900003
-0.021057144 0.096352391 0.67000002
-0.01975143 0.09620858 0.66900003
-0.018477144 0.09620858 0.66900003
-0.01715143 0.095920958 0.66700006
-0.015928572 0.09620858 0.66900003
-0.014654287 0.09620858 0.66900003
-0.013400001 0.096352391 0.67000002
-0.01216 0.096640006 0.67200005
-0.010912382 0.096927628 0.67400002
-0.0096285725 0.096927628 0.67400002
-0.008344762 0.096927628 0.67400002
-0.0070714289 0.097071432 0.67500001
-0.0057942863 0.097215243 0.67600006
-0.0045066671 0.097215243 0.67600006
-0.0032190478 0.097215243 0.67600006
-0.046065718 0.10214572 0.70100003
-0.044730481 0.10214572 0.70100003
-0.04339524 0.10214572 0.70100003
-0.042180002 0.10243715 0.70300001
-0.040550478 0.10170858 0.69800001
-0.034020953 0.098211437 0.67400002
-0.032640003 0.097920008 0.67200005
-0.031313334 0.09777429 0.671
-0.030035241 0.09777429 0.671
-0.028714288 0.097628579 0.67000002
-0.027438097 0.097628579 0.67000002
-0.026161907 0.097628579 0.67000002
-0.024848573 0.09748286 0.66900003
-0.023574287 0.09748286 0.66900003
-0.022333335 0.097628579 0.67000002
-0.021057144 0.097628579 0.67000002
-0.019780954 0.097628579 0.67000002
-0.018504763 0.097628579 0.67000002
-0.017202858 0.09748286 0.66900003
-0.016000001 0.097920008 0.67200005
-0.014720001 0.097920008 0.67200005
-0.013440001 0.097920008 0.67200005
-0.01216 0.097920008 0.67200005
-0.010912382 0.098211437 0.67400002
-0.0096285725 0.098211437 0.67400002
-0.008357143 0.098357148 0.67500001
-0.0070714289 0.098357148 0.67500001
-0.0057942863 0.098502867 0.67600006
-0.0045066671 0.098502867 0.67600006
-0.0032190478 0.098502867 0.67600006
-0.044858098 0.10377619 0.70300001
-0.04351905 0.10377619 0.70300001
-0.042000003 0.10333334 0.70000005
-0.040550478 0.1030381 0.69800001
-0.034020953 0.099495247 0.67400002
-0.032591432 0.099052384 0.671
-0.031313334 0.099052384 0.671
-0.030035241 0.099052384 0.671
-0.028757146 0.099052384 0.671
-0.027479049 0.099052384 0.671
-0.026161907 0.098904766 0.67000002
-0.024885716 0.098904766 0.67000002
-0.023609525 0.098904766 0.67000002
-0.022333335 0.098904766 0.67000002
-0.021088572 0.099052384 0.671
-0.019780954 0.098904766 0.67000002
-0.018532382 0.099052384 0.671
-0.017254287 0.099052384 0.671
-0.016000001 0.099200003 0.67200005
-0.014720001 0.099200003 0.67200005
-0.013480001 0.099495247 0.67400002
-0.012196192 0.099495247 0.67400002
-0.010912382 0.099495247 0.67400002
-0.0096428581 0.099642865 0.67500001
-0.008357143 0.099642865 0.67500001
-0.0070819054 0.099790484 0.67600006
-0.0057942863 0.099790484 0.67600006
-0.0045200004 0.10008572 0.67800003
-0.0032285717 0.10008572 0.67800003
-0.04376667 0.10571334 0.70700002
-0.042300005 0.10541429 0.70500004
-0.040899049 0.10526477 0.70400006
-0.035357144 0.10092857 0.67500001
-0.034020953 0.10077906 0.67400002
-0.032640003 0.10048001 0.67200005
-0.03136 0.10048001 0.67200005
-0.030080002 0.10048001 0.67200005
-0.028800001 0.10048001 0.67200005
-0.027520001 0.10048001 0.67200005
-0.026200954 0.10033048 0.671
-0.024922859 0.10033048 0.671
-0.023680001 0.10048001 0.67200005
-0.022400001 0.10048001 0.67200005
-0.021120001 0.10048001 0.67200005
-0.019840002 0.10048001 0.67200005
-0.018560002 0.10048001 0.67200005
-0.017280001 0.10048001 0.67200005
-0.016047619 0.10077906 0.67400002
-0.014763811 0.10077906 0.67400002
-0.013480001 0.10077906 0.67400002
-0.012214286 0.10092857 0.67500001
-0.010928572 0.10092857 0.67500001
-0.0096571436 0.1010781 0.67600006
-0.008369524 0.1010781 0.67600006
-0.0071028578 0.10137715 0.67800003
-0.0058114291 0.10137715 0.67800003
-0.0045200004 0.10137715 0.67800003
-0.0032285717 0.10137715 0.67800003
-0.040957145 0.10675715 0.70500004
-0.034020953 0.10206287 0.67400002
-0.032737143 0.10206287 0.67400002
-0.03136 0.10176001 0.67200005
-0.030169526 0.10206287 0.67400002
-0.028800001 0.10176001 0.67200005
-0.027520001 0.10176001 0.67200005
-0.026240002 0.10176001 0.67200005
-0.024960002 0.10176001 0.67200005
-0.023680001 0.10176001 0.67200005
-0.022400001 0.10176001 0.67200005
-0.021120001 0.10176001 0.67200005
-0.01989905 0.10206287 0.67400002
-0.01861524 0.10206287 0.67400002
-0.017280001 0.10176001 0.67200005
-0.016047619 0.10206287 0.67400002
-0.014763811 0.10206287 0.67400002
-0.013480001 0.10206287 0.67400002
-0.012214286 0.10221429 0.67500001
-0.010928572 0.10221429 0.67500001
-0.0096857147 0.10266858 0.67800003
-0.008394286 0.10266858 0.67800003
-0.0071028578 0.10266858 0.67800003
-0.0058114291 0.10266858 0.67800003
-0.0045266668 0.10282001 0.67900002
-0.0032285717 0.10266858 0.67800003
-0.034020953 0.10334668 0.67400002
-0.032737143 0.10334668 0.67400002
-0.03136 0.10304001 0.67200005
-0.030169526 0.10334668 0.67400002
-0.028885717 0.10334668 0.67400002
-0.027520001 0.10304001 0.67200005
-0.026240002 0.10304001 0.67200005
-0.024960002 0.10304001 0.67200005
-0.023750478 0.10334668 0.67400002
-0.022466669 0.10334668 0.67400002
-0.021182859 0.10334668 0.67400002
-0.01989905 0.10334668 0.67400002
-0.018642858 0.10350001 0.67500001
-0.017331429 0.10334668 0.67400002
-0.016071429 0.10350001 0.67500001
-0.014785715 0.10350001 0.67500001
-0.013520001 0.10365334 0.67600006
-0.012268572 0.10396001 0.67800003
-0.010944762 0.10365334 0.67600006
-0.0096857147 0.10396001 0.67800003
-0.008406667 0.10411334 0.67900002
-0.0071133338 0.10411334 0.67900002
-0.0058200005 0.10411334 0.67900002
-0.0045266668 0.10411334 0.67900002
-0.0032285717 0.10396001 0.67800003
-0.034020953 0.10463049 0.67400002
-0.032640003 0.10432 0.67200005
-0.031313334 0.10416477 0.671
-0.030169526 0.10463049 0.67400002
-0.028885717 0.10463049 0.67400002
-0.027601907 0.10463049 0.67400002
-0.026318097 0.10463049 0.67400002
-0.024960002 0.10432 0.67200005
-0.023750478 0.10463049 0.67400002
-0.022500001 0.10478572 0.67500001
-0.021214288 0.10478572 0.67500001
-0.019928573 0.10478572 0.67500001
-0.018642858 0.10478572 0.67500001
-0.017357145 0.10478572 0.67500001
-0.01609524 0.10494096 0.67600006
-0.01480762 0.10494096 0.67600006
-0.013560001 0.10525144 0.67800003
-0.012268572 0.10525144 0.67800003
-0.010977143 0.10525144 0.67800003
-0.0097000003 0.10540667 0.67900002
-0.008406667 0.10540667 0.67900002
-0.0071133338 0.10540667 0.67900002
-0.0058200005 0.10540667 0.67900002
-0.0045266668 0.10540667 0.67900002
-0.0032333336 0.10540667 0.67900002
-0.031313334 0.10544287 0.671
-0.030169526 0.10591429 0.67400002
-0.028885717 0.10591429 0.67400002
-0.027601907 0.10591429 0.67400002
-0.026318097 0.10591429 0.67400002
-0.025034288 0.10591429 0.67400002
-0.023750478 0.10591429 0.67400002
-0.022500001 0.10607143 0.67500001
-0.021245716 0.10622858 0.67600006
-0.019958096 0.10622858 0.67600006
-0.018670477 0.10622858 0.67600006
-0.017382858 0.10622858 0.67600006
-0.01609524 0.10622858 0.67600006
-0.014851429 0.10654286 0.67800003
-0.013560001 0.10654286 0.67800003
-0.012286668 0.10670001 0.67900002
-0.010993334 0.10670001 0.67900002
-0.0097000003 0.10670001 0.67900002
-0.008419048 0.10685715 0.68000001
-0.0071238098 0.10685715 0.68000001
-0.005828572 0.10685715 0.68000001
-0.0045266668 0.10670001 0.67900002
-0.0032333336 0.10670001 0.67900002
-0.0019400001 0.10670001 0.67900002
-0.030169526 0.1071981 0.67400002
-0.028885717 0.1071981 0.67400002
-0.027601907 0.1071981 0.67400002
-0.026318097 0.1071981 0.67400002
-0.025034288 0.1071981 0.67400002
-0.023750478 0.1071981 0.67400002
-0.022500001 0.10735715 0.67500001
-0.021245716 0.1075162 0.67600006
-0.019958096 0.1075162 0.67600006
-0.018725716 0.10783429 0.67800003
-0.017382858 0.1075162 0.67600006
-0.016142858 0.10783429 0.67800003
-0.014873334 0.10799334 0.67900002
-0.013580001 0.10799334 0.67900002
-0.012286668 0.10799334 0.67900002
-0.010993334 0.10799334 0.67900002
-0.0097142868 0.10815239 0.68000001
-0.008419048 0.10815239 0.68000001
-0.0071447622 0.10847048 0.68200004
-0.0058457148 0.10847048 0.68200004
-0.0045333337 0.10815239 0.68000001
-0.0032380954 0.10815239 0.68000001
-0.0019428573 0.10815239 0.68000001
-0.031453334 0.10848191 0.67400002
-0.030214287 0.10864286 0.67500001
-0.028885717 0.10848191 0.67400002
-0.027601907 0.10848191 0.67400002
-0.026318097 0.10848191 0.67400002
-0.025034288 0.10848191 0.67400002
-0.023785716 0.10864286 0.67500001
-0.022500001 0.10864286 0.67500001
-0.021308573 0.10912572 0.67800003
-0.020017143 0.10912572 0.67800003
-0.018753335 0.10928667 0.67900002
-0.017434286 0.10912572 0.67800003
-0.016166668 0.10928667 0.67900002
-0.014873334 0.10928667 0.67900002
-0.013580001 0.10928667 0.67900002
-0.012304762 0.10944763 0.68000001
-0.011009525 0.10944763 0.68000001
-0.0097142868 0.10944763 0.68000001
-0.00844381 0.10976953 0.68200004
-0.0071447622 0.10976953 0.68200004
-0.0058457148 0.10976953 0.68200004
-0.004546667 0.10976953 0.68200004
-0.0032523812 0.10993049 0.68300003
-0.0019514287 0.10993049 0.68300003
-0.031453334 0.10976572 0.67400002
-0.030214287 0.10992858 0.67500001
-0.028928574 0.10992858 0.67500001
-0.027642859 0.10992858 0.67500001
-0.026357144 0.10992858 0.67500001
-0.025034288 0.10976572 0.67400002
-0.023785716 0.10992858 0.67500001
-0.022533335 0.11009143 0.67600006
-0.021340001 0.11058 0.67900002
-0.020046668 0.11058 0.67900002
-0.018753335 0.11058 0.67900002
-0.017434286 0.11041715 0.67800003
-0.016166668 0.11058 0.67900002
-0.014873334 0.11058 0.67900002
-0.013580001 0.11058 0.67900002
-0.012304762 0.11074287 0.68000001
-0.011009525 0.11074287 0.68000001
-0.0097428579 0.11106858 0.68200004
-0.008456191 0.11123144 0.68300003
-0.0071552387 0.11123144 0.68300003
-0.0058542863 0.11123144 0.68300003
-0.0045533339 0.11123144 0.68300003
-0.0032571431 0.11139429 0.68400002
-0.031546667 0.11137906 0.67600006
-0.03025905 0.11137906 0.67600006
-0.028928574 0.1112143 0.67500001
-0.027642859 0.1112143 0.67500001
-0.026357144 0.1112143 0.67500001
-0.025071431 0.1112143 0.67500001
-0.023820953 0.11137906 0.67600006
-0.022600001 0.11170858 0.67800003
-0.021340001 0.11187334 0.67900002
-0.020046668 0.11187334 0.67900002
-0.018780954 0.11203811 0.68000001
-0.017460002 0.11187334 0.67900002
-0.016166668 0.11187334 0.67900002
-0.014873334 0.11187334 0.67900002
-0.013600001 0.11203811 0.68000001
-0.012340954 0.11236763 0.68200004
-0.011041906 0.11236763 0.68200004
-0.0097428579 0.11236763 0.68200004
-0.008456191 0.11253238 0.68300003
-0.0071552387 0.11253238 0.68300003
-0.0058628577 0.11269715 0.68400002
-0.0045600003 0.11269715 0.68400002
-0.0032666668 0.11302667 0.68600005
-0.031686667 0.11316667 0.67900002
-0.03025905 0.11266667 0.67600006
-0.02897143 0.11266667 0.67600006
-0.027642859 0.1125 0.67500001
-0.026396193 0.11266667 0.67600006
-0.025108574 0.11266667 0.67600006
-0.02389143 0.11300001 0.67800003
-0.022600001 0.11300001 0.67800003
-0.02137143 0.11333334 0.68000001
-0.020076191 0.11333334 0.68000001
-0.018780954 0.11333334 0.68000001
-0.017460002 0.11316667 0.67900002
-0.016166668 0.11316667 0.67900002
-0.014895239 0.11333334 0.68000001
-0.013600001 0.11333334 0.68000001
-0.012340954 0.11366668 0.68200004
-0.011041906 0.11366668 0.68200004
-0.0097428579 0.11366668 0.68200004
-0.008456191 0.11383334 0.68300003
-0.0071552387 0.11383334 0.68300003
-0.0058628577 0.11400001 0.68400002
-0.0045800004 0.11450001 0.68700004
-0.0032857144 0.11500001 0.69000006
-0.0019714287 0.11500001 0.69000006
-0.031733334 0.11462858 0.68000001
-0.030438097 0.11462858 0.68000001
-0.029100003 0.11446001 0.67900002
-0.027806668 0.11446001 0.67900002
-0.026513334 0.11446001 0.67900002
-0.025220001 0.11446001 0.67900002
-0.023926668 0.11446001 0.67900002
-0.022633335 0.11446001 0.67900002
-0.02137143 0.11462858 0.68000001
-0.020135239 0.11496572 0.68200004
-0.018780954 0.11462858 0.68000001
-0.017485715 0.11462858 0.68000001
-0.016190477 0.11462858 0.68000001
-0.014895239 0.11462858 0.68000001
-0.01364 0.11496572 0.68200004
-0.012340954 0.11496572 0.68200004
-0.011041906 0.11496572 0.68200004
-0.0097571434 0.11513429 0.68300003
-0.0084685721 0.11530287 0.68400002
-0.0071657146 0.11530287 0.68400002
-0.005888572 0.11580858 0.68700004
-0.033320002 0.11694667 0.68600005
-0.031920001 0.11660572 0.68400002
-0.030527622 0.11626477 0.68200004
-0.029142858 0.11592381 0.68000001
-0.027847622 0.11592381 0.68000001
-0.026513334 0.11575334 0.67900002
-0.025220001 0.11575334 0.67900002
-0.023926668 0.11575334 0.67900002
-0.022633335 0.11575334 0.67900002
-0.02137143 0.11592381 0.68000001
-0.020076191 0.11592381 0.68000001
-0.018780954 0.11592381 0.68000001
-0.017485715 0.11592381 0.68000001
-0.016238097 0.11626477 0.68200004
-0.014939048 0.11626477 0.68200004
-0.01364 0.11626477 0.68200004
-0.012359048 0.11643524 0.68300003
-0.011058096 0.11643524 0.68300003
-0.0097571434 0.11643524 0.68300003
-0.0084685721 0.11660572 0.68400002
-0.0071657146 0.11660572 0.68400002
-0.031920001 0.11790858 0.68400002
-0.030527622 0.11756381 0.68200004
-0.029142858 0.11721905 0.68000001
-0.027847622 0.11721905 0.68000001
-0.026552383 0.11721905 0.68000001
-0.025220001 0.11704668 0.67900002
-0.023926668 0.11704668 0.67900002
-0.022633335 0.11704668 0.67900002
-0.02137143 0.11721905 0.68000001
