# .PCD v0.7 - Point Cloud Data file format
VERSION 0.7
FIELDS x y z
SIZE 4 4 4
TYPE F F F
COUNT 1 1 1
WIDTH 1354
HEIGHT 1
VIEWPOINT 0 0 0 1 0 0 0
POINTS 1354
DATA ascii
-0.098465718 0.072300002 0.72300005
-0.096685722 0.072000004 0.72000003
-0.095314294 0.072000004 0.72000003
-0.093942866 0.072000004 0.72000003
-0.092442863 0.071900003 0.71900004
-0.091073342 0.071900003 0.71900004
-0.089828581 0.072000004 0.72000003
-0.088334292 0.071900003 0.71900004
-0.086964771 0.071900003 0.71900004
-0.085238099 0.071600005 0.71600002
-0.083640009 0.071400002 0.71400005
-0.082164764 0.071300007 0.71300006
-0.080806673 0.071300007 0.71300006
-0.079560004 0.071400002 0.71400005
-0.078200005 0.071400002 0.71400005
-0.077055246 0.071600005 0.71600002
-0.076008573 0.071900003 0.71900004
-0.074639052 0.071900003 0.71900004
-0.073269531 0.071900003 0.71900004
-0.071900003 0.071900003 0.71900004
-0.070530482 0.071900003 0.71900004
-0.068968579 0.071700007 0.71700001
-0.067602858 0.071700007 0.71700001
-0.066237144 0.071700007 0.71700001
-0.06487143 0.071700007 0.71700001
-0.063682862 0.071900003 0.71900004
-0.062400006 0.072000004 0.72000003
-0.060943812 0.071900003 0.71900004
-0.059408575 0.071700007 0.71700001
-0.057961907 0.071600005 0.71600002
-0.056202862 0.071100004 0.71100003
-0.054848574 0.071100004 0.71100003
-0.13188095 0.073880956 0.72500002
-0.13014001 0.073677145 0.72300005
-0.12876287 0.073677145 0.72300005
-0.12720953 0.073575243 0.72200006
-0.1258343 0.073575243 0.72200006
-0.12445906 0.073575243 0.72200006
-0.12274286 0.073371433 0.72000003
-0.12187715 0.073677145 0.72300005
-0.12033334 0.073575243 0.72200006
-0.11912286 0.073677145 0.72300005
-0.11774572 0.073677145 0.72300005
-0.11636858 0.073677145 0.72300005
-0.11483239 0.073575243 0.72200006
-0.11314286 0.073371433 0.72000003
-0.11177143 0.073371433 0.72000003
-0.11070667 0.073575243 0.72200006
-0.10902858 0.073371433 0.72000003
-0.10765715 0.073371433 0.72000003
-0.10628572 0.073371433 0.72000003
-0.10491429 0.073371433 0.72000003
-0.10354286 0.073371433 0.72000003
-0.10217144 0.073371433 0.72000003
-0.10080001 0.073371433 0.72000003
-0.099290483 0.073269531 0.71900004
-0.097648576 0.07306572 0.71700001
-0.096282862 0.07306572 0.71700001
-0.094917148 0.07306572 0.71700001
-0.093551435 0.07306572 0.71700001
-0.092185721 0.07306572 0.71700001
-0.09069334 0.072963811 0.71600002
-0.089454293 0.07306572 0.71700001
-0.088088579 0.07306572 0.71700001
-0.086722866 0.07306572 0.71700001
-0.085000008 0.072760008 0.71400005
-0.083522864 0.072658099 0.71300006
-0.081934288 0.072454289 0.71100003
-0.080580004 0.072454289 0.71100003
-0.079225719 0.072454289 0.71100003
-0.077871434 0.072454289 0.71100003
-0.076409526 0.072352387 0.71000004
-0.075162865 0.072454289 0.71100003
-0.074120007 0.072760008 0.71400005
-0.07306572 0.07306572 0.71700001
-0.071600005 0.072963811 0.71600002
-0.070236199 0.072963811 0.71600002
-0.068872385 0.072963811 0.71600002
-0.067508578 0.072963811 0.71600002
-0.066144764 0.072963811 0.71600002
-0.064780958 0.072963811 0.71600002
-0.063417144 0.072963811 0.71600002
-0.062053338 0.072963811 0.71600002
-0.060689528 0.072963811 0.71600002
-0.059160005 0.072760008 0.71400005
-0.057557147 0.072454289 0.71100003
-0.056123812 0.072352387 0.71000004
-0.054771431 0.072352387 0.71000004
-0.053268574 0.072148576 0.708
-0.13188095 0.075261913 0.72500002
-0.12996002 0.074950479 0.72200006
-0.12822857 0.074742861 0.72000003
-0.12685715 0.074742861 0.72000003
-0.12496287 0.074431434 0.71700001
-0.12342477 0.074327625 0.71600002
-0.12206096 0.074327625 0.71600002
-0.12069715 0.074327625 0.71600002
-0.11933334 0.074327625 0.71600002
-0.11764001 0.074120007 0.71400005
-0.11660572 0.074327625 0.71600002
-0.11572477 0.074639052 0.71900004
-0.11403715 0.074431434 0.71700001
-0.11267143 0.074431434 0.71700001
-0.11161619 0.074639052 0.71900004
-0.11024667 0.074639052 0.71900004
-0.10887715 0.074639052 0.71900004
-0.10750762 0.074639052 0.71900004
-0.10584287 0.074431434 0.71700001
-0.10476858 0.074639052 0.71900004
-0.10339905 0.074639052 0.71900004
-0.10174572 0.074431434 0.71700001
-0.10066 0.074639052 0.71900004
-0.09901429 0.074431434 0.71700001
-0.097512387 0.074327625 0.71600002
-0.09614858 0.074327625 0.71600002
-0.094784766 0.074327625 0.71600002
-0.09342096 0.074327625 0.71600002
-0.091800004 0.074120007 0.71400005
-0.090313338 0.074016199 0.71300006
-0.089080006 0.074120007 0.71400005
-0.087965719 0.074327625 0.71600002
-0.086360008 0.074120007 0.71400005
-0.084880956 0.074016199 0.71300006
-0.08328858 0.073808573 0.71100003
-0.08181905 0.073704764 0.71000004
-0.080466673 0.073704764 0.71000004
-0.079114288 0.073704764 0.71000004
-0.077761911 0.073704764 0.71000004
-0.076409526 0.073704764 0.71000004
-0.074845716 0.073497146 0.708
-0.073704764 0.073704764 0.71000004
-0.072454289 0.073808573 0.71100003
-0.071000002 0.073704764 0.71000004
-0.069745719 0.073808573 0.71100003
-0.068391435 0.073808573 0.71100003
-0.067225717 0.074016199 0.71300006
-0.065867625 0.074016199 0.71300006
-0.064328574 0.073808573 0.71100003
-0.063151434 0.074016199 0.71300006
-0.061793339 0.074016199 0.71300006
-0.060435243 0.074016199 0.71300006
-0.059077147 0.074016199 0.71300006
-0.057476193 0.073704764 0.71000004
-0.055965718 0.073497146 0.708
-0.054617148 0.073497146 0.708
-0.053268574 0.073497146 0.708
-0.13042572 0.075797148 0.71700001
-0.12906002 0.075797148 0.71700001
-0.12769429 0.075797148 0.71700001
-0.12632857 0.075797148 0.71700001
-0.12478858 0.075691432 0.71600002
-0.12342477 0.075691432 0.71600002
-0.12172001 0.075480007 0.71400005
-0.12036001 0.075480007 0.71400005
-0.11900001 0.075480007 0.71400005
-0.11764001 0.075480007 0.71400005
-0.11628 0.075480007 0.71400005
-0.11492001 0.075480007 0.71400005
-0.11356001 0.075480007 0.71400005
-0.11220001 0.075480007 0.71400005
-0.11084001 0.075480007 0.71400005
-0.10994001 0.075797148 0.71700001
-0.10857429 0.075797148 0.71700001
-0.10705905 0.075691432 0.71600002
-0.10569525 0.075691432 0.71600002
-0.10433143 0.075691432 0.71600002
-0.10296763 0.075691432 0.71600002
-0.10160381 0.075691432 0.71600002
-0.10024001 0.075691432 0.71600002
-0.098876201 0.075691432 0.71600002
-0.097240008 0.075480007 0.71400005
-0.095880009 0.075480007 0.71400005
-0.094520003 0.075480007 0.71400005
-0.093160003 0.075480007 0.71400005
-0.091671437 0.07537429 0.71300006
-0.090060003 0.075162865 0.71100003
-0.088705719 0.075162865 0.71100003
-0.087228574 0.075057149 0.71000004
-0.085997149 0.075162865 0.71100003
-0.084642865 0.075162865 0.71100003
-0.083171435 0.075057149 0.71000004
-0.08181905 0.075057149 0.71000004
-0.080466673 0.075057149 0.71000004
-0.079114288 0.075057149 0.71000004
-0.077542864 0.074845716 0.708
-0.076194294 0.074845716 0.708
-0.074845716 0.074845716 0.708
-0.073497146 0.074845716 0.708
-0.072352387 0.075057149 0.71000004
-0.071000002 0.075057149 0.71000004
-0.069647625 0.075057149 0.71000004
-0.06829524 0.075057149 0.71000004
-0.066942863 0.075057149 0.71000004
-0.065590478 0.075057149 0.71000004
-0.064238101 0.075057149 0.71000004
-0.062885717 0.075057149 0.71000004
-0.061533336 0.075057149 0.71000004
-0.060180955 0.075057149 0.71000004
-0.058828574 0.075057149 0.71000004
-0.057476193 0.075057149 0.71000004
-0.055965718 0.074845716 0.708
-0.054617148 0.074845716 0.708
-0.05341905 0.075057149 0.71000004
-0.052066669 0.075057149 0.71000004
-0.12988001 0.076840006 0.71400005
-0.12852001 0.076840006 0.71400005
-0.12716001 0.076840006 0.71400005
-0.12580001 0.076840006 0.71400005
-0.12444001 0.076840006 0.71400005
-0.12308001 0.076840006 0.71400005
-0.12154953 0.07673239 0.71300006
-0.12019144 0.07673239 0.71300006
-0.11900001 0.076840006 0.71400005
-0.11747525 0.07673239 0.71300006
-0.11611715 0.07673239 0.71300006
-0.11475906 0.07673239 0.71300006
-0.11340096 0.07673239 0.71300006
-0.11172858 0.07651715 0.71100003
-0.11037429 0.07651715 0.71100003
-0.10886668 0.076409526 0.71000004
-0.10751429 0.076409526 0.71000004
-0.10631143 0.07651715 0.71100003
-0.10495715 0.07651715 0.71100003
-0.10360286 0.07651715 0.71100003
-0.10224858 0.07651715 0.71100003
-0.10089429 0.07651715 0.71100003
-0.099820003 0.07673239 0.71300006
-0.098461911 0.07673239 0.71300006
-0.097103819 0.07673239 0.71300006
-0.095477149 0.07651715 0.71100003
-0.094122864 0.07651715 0.71100003
-0.092638098 0.076409526 0.71000004
-0.091028579 0.076194294 0.708
-0.089680009 0.076194294 0.708
-0.088331431 0.076194294 0.708
-0.086982861 0.076194294 0.708
-0.085634291 0.076194294 0.708
-0.084285721 0.076194294 0.708
-0.082937151 0.076194294 0.708
-0.081473336 0.07608667 0.70700002
-0.080126673 0.07608667 0.70700002
-0.078780003 0.07608667 0.70700002
-0.07743334 0.07608667 0.70700002
-0.07608667 0.07608667 0.70700002
-0.074740008 0.07608667 0.70700002
-0.073393337 0.07608667 0.70700002
-0.072046675 0.07608667 0.70700002
-0.070700005 0.07608667 0.70700002
-0.069451436 0.076194294 0.708
-0.068006672 0.07608667 0.70700002
-0.066660002 0.07608667 0.70700002
-0.065313339 0.07608667 0.70700002
-0.063966669 0.07608667 0.70700002
-0.062620007 0.07608667 0.70700002
-0.061100002 0.07587143 0.70500004
-0.05992667 0.07608667 0.70700002
-0.058580004 0.07608667 0.70700002
-0.057233337 0.07608667 0.70700002
-0.055886671 0.07608667 0.70700002
-0.054540005 0.07608667 0.70700002
-0.053193338 0.07608667 0.70700002
-0.051846672 0.07608667 0.70700002
-0.05057143 0.076194294 0.708
-0.1296981 0.078090481 0.71300006
-0.12834001 0.078090481 0.71300006
-0.12698191 0.078090481 0.71300006
-0.12562382 0.078090481 0.71300006
-0.12426572 0.078090481 0.71300006
-0.12290762 0.078090481 0.71300006
-0.12154953 0.078090481 0.71300006
-0.12019144 0.078090481 0.71300006
-0.11883334 0.078090481 0.71300006
-0.11747525 0.078090481 0.71300006
-0.11611715 0.078090481 0.71300006
-0.11443715 0.077871434 0.71100003
-0.11308286 0.077871434 0.71100003
-0.11157144 0.077761911 0.71000004
-0.11021905 0.077761911 0.71000004
-0.10856001 0.077542864 0.708
-0.10721143 0.077542864 0.708
-0.10586286 0.077542864 0.708
-0.10451429 0.077542864 0.708
-0.10316572 0.077542864 0.708
-0.10181715 0.077542864 0.708
-0.10075239 0.077761911 0.71000004
-0.09954001 0.077871434 0.71100003
-0.098185718 0.077871434 0.71100003
-0.096831433 0.077871434 0.71100003
-0.095342867 0.077761911 0.71000004
-0.093725719 0.077542864 0.708
-0.092377149 0.077542864 0.708
-0.090900004 0.07743334 0.70700002
-0.089553341 0.07743334 0.70700002
-0.088206671 0.07743334 0.70700002
-0.086860009 0.07743334 0.70700002
-0.085513338 0.07743334 0.70700002
-0.084166676 0.07743334 0.70700002
-0.082820006 0.07743334 0.70700002
-0.081473336 0.07743334 0.70700002
-0.079900004 0.077214293 0.70500004
-0.078557149 0.077214293 0.70500004
-0.07743334 0.07743334 0.70700002
-0.07608667 0.07743334 0.70700002
-0.074528575 0.077214293 0.70500004
-0.07318572 0.077214293 0.70500004
-0.072046675 0.07743334 0.70700002
-0.070700005 0.07743334 0.70700002
-0.069353335 0.07743334 0.70700002
-0.067814291 0.077214293 0.70500004
-0.066471435 0.077214293 0.70500004
-0.065128572 0.077214293 0.70500004
-0.063785717 0.077214293 0.70500004
-0.062354289 0.07710477 0.70400006
-0.061013337 0.07710477 0.70400006
-0.059672385 0.07710477 0.70400006
-0.058414288 0.077214293 0.70500004
-0.057071432 0.077214293 0.70500004
-0.055728573 0.077214293 0.70500004
-0.054385718 0.077214293 0.70500004
-0.053042859 0.077214293 0.70500004
-0.051700003 0.077214293 0.70500004
-0.050500002 0.07743334 0.70700002
-0.12958573 0.078557149 0.70500004
-0.12824287 0.078557149 0.70500004
-0.12744001 0.078891434 0.708
-0.12609144 0.078891434 0.708
-0.12474287 0.078891434 0.708
-0.12391715 0.079225719 0.71100003
-0.12256286 0.079225719 0.71100003
-0.12120858 0.079225719 0.71100003
-0.11985429 0.079225719 0.71100003
-0.11850001 0.079225719 0.71100003
-0.11714572 0.079225719 0.71100003
-0.11579143 0.079225719 0.71100003
-0.11443715 0.079225719 0.71100003
-0.11292382 0.079114288 0.71000004
-0.11125715 0.078891434 0.708
-0.10990858 0.078891434 0.708
-0.10840667 0.078780003 0.70700002
-0.10706001 0.078780003 0.70700002
-0.10541429 0.078557149 0.70500004
-0.10436668 0.078780003 0.70700002
-0.10272858 0.078557149 0.70500004
-0.10138572 0.078557149 0.70500004
-0.10032667 0.078780003 0.70700002
-0.09898001 0.078780003 0.70700002
-0.097771436 0.078891434 0.708
-0.096422866 0.078891434 0.708
-0.094940007 0.078780003 0.70700002
-0.093593337 0.078780003 0.70700002
-0.091985717 0.078557149 0.70500004
-0.090642862 0.078557149 0.70500004
-0.089300007 0.078557149 0.70500004
-0.087832384 0.078445718 0.70400006
-0.086491436 0.078445718 0.70400006
-0.08515048 0.078445718 0.70400006
-0.083809532 0.078445718 0.70400006
-0.082468577 0.078445718 0.70400006
-0.081012383 0.078334294 0.70300001
-0.079673335 0.078334294 0.70300001
-0.078334294 0.078334294 0.70300001
-0.07710477 0.078445718 0.70400006
-0.075763814 0.078445718 0.70400006
-0.074422859 0.078445718 0.70400006
-0.073081911 0.078445718 0.70400006
-0.071842864 0.078557149 0.70500004
-0.070500001 0.078557149 0.70500004
-0.069059052 0.078445718 0.70400006
-0.067621909 0.078334294 0.70300001
-0.066282861 0.078334294 0.70300001
-0.064943813 0.078334294 0.70300001
-0.063604765 0.078334294 0.70300001
-0.06226572 0.078334294 0.70300001
-0.060926672 0.078334294 0.70300001
-0.059587624 0.078334294 0.70300001
-0.058331434 0.078445718 0.70400006
-0.056990478 0.078445718 0.70400006
-0.055649526 0.078445718 0.70400006
-0.054308575 0.078445718 0.70400006
-0.052967623 0.078445718 0.70400006
-0.051626671 0.078445718 0.70400006
-0.12958573 0.079900004 0.70500004
-0.12824287 0.079900004 0.70500004
-0.12726001 0.080126673 0.70700002
-0.12591334 0.080126673 0.70700002
-0.12421429 0.079900004 0.70500004
-0.12322001 0.080126673 0.70700002
-0.12187334 0.080126673 0.70700002
-0.12052667 0.080126673 0.70700002
-0.11918001 0.080126673 0.70700002
-0.11800001 0.080240004 0.708
-0.11665144 0.080240004 0.708
-0.11530287 0.080240004 0.708
-0.11379334 0.080126673 0.70700002
-0.11212858 0.079900004 0.70500004
-0.11078572 0.079900004 0.70500004
-0.10944287 0.079900004 0.70500004
-0.10794667 0.079786673 0.70400006
-0.10675715 0.079900004 0.70500004
-0.10526477 0.079786673 0.70400006
-0.10392382 0.079786673 0.70400006
-0.10258286 0.079786673 0.70400006
-0.10124191 0.079786673 0.70400006
-0.099900961 0.079786673 0.70400006
-0.098700009 0.079900004 0.70500004
-0.097357146 0.079900004 0.70500004
-0.096014291 0.079900004 0.70500004
-0.094537146 0.079786673 0.70400006
-0.093196198 0.079786673 0.70400006
-0.091855243 0.079786673 0.70400006
-0.090514295 0.079786673 0.70400006
-0.089173339 0.079786673 0.70400006
-0.087707624 0.079673335 0.70300001
-0.086368576 0.079673335 0.70300001
-0.085029528 0.079673335 0.70300001
-0.083452389 0.079446673 0.70100003
-0.082117148 0.079446673 0.70100003
-0.080781907 0.079446673 0.70100003
-0.079446673 0.079446673 0.70100003
-0.078111432 0.079446673 0.70100003
-0.076776199 0.079446673 0.70100003
-0.075656198 0.079673335 0.70300001
-0.07431715 0.079673335 0.70300001
-0.072978102 0.079673335 0.70300001
-0.071740955 0.079786673 0.70400006
-0.070300005 0.079673335 0.70300001
-0.068960957 0.079673335 0.70300001
-0.067621909 0.079673335 0.70300001
-0.066094287 0.079446673 0.70100003
-0.064759053 0.079446673 0.70100003
-0.063423812 0.079446673 0.70100003
-0.062088575 0.079446673 0.70100003
-0.060753338 0.079446673 0.70100003
-0.059418101 0.079446673 0.70100003
-0.058248576 0.079673335 0.70300001
-0.056909528 0.079673335 0.70300001
-0.055570479 0.079673335 0.70300001
-0.054231431 0.079673335 0.70300001
-0.052967623 0.079786673 0.70400006
-0.051626671 0.079786673 0.70400006
-0.12940191 0.081127621 0.70400006
-0.12806097 0.081127621 0.70400006
-0.1269 0.081242859 0.70500004
-0.12555715 0.081242859 0.70500004
-0.1240381 0.081127621 0.70400006
-0.12269715 0.081127621 0.70400006
-0.1213562 0.081127621 0.70400006
-0.12001525 0.081127621 0.70400006
-0.11867429 0.081127621 0.70400006
-0.11733334 0.081127621 0.70400006
-0.11582763 0.081012383 0.70300001
-0.11448858 0.081012383 0.70300001
-0.11314953 0.081012383 0.70300001
-0.11181048 0.081012383 0.70300001
-0.11047143 0.081012383 0.70300001
-0.10913239 0.081012383 0.70300001
-0.10779334 0.081012383 0.70300001
-0.10645429 0.081012383 0.70300001
-0.10511524 0.081012383 0.70300001
-0.10377619 0.081012383 0.70300001
-0.10258286 0.081127621 0.70400006
-0.10109811 0.081012383 0.70300001
-0.099759057 0.081012383 0.70300001
-0.098420009 0.081012383 0.70300001
-0.097080961 0.081012383 0.70300001
-0.095741913 0.081012383 0.70300001
-0.094402865 0.081012383 0.70300001
-0.092799053 0.080781907 0.70100003
-0.091333337 0.080666669 0.70000005
-0.090128578 0.080781907 0.70100003
-0.088793337 0.080781907 0.70100003
-0.087458104 0.080781907 0.70100003
-0.086122863 0.080781907 0.70100003
-0.084787622 0.080781907 0.70100003
-0.083333336 0.080666669 0.70000005
-0.082000002 0.080666669 0.70000005
-0.080666669 0.080666669 0.70000005
-0.079333335 0.080666669 0.70000005
-0.078000002 0.080666669 0.70000005
-0.076666668 0.080666669 0.70000005
-0.075118102 0.080436192 0.69800001
-0.074000008 0.080666669 0.70000005
-0.072666675 0.080666669 0.70000005
-0.071333341 0.080666669 0.70000005
-0.069800004 0.080436192 0.69800001
-0.068666674 0.080666669 0.70000005
-0.067333341 0.080666669 0.70000005
-0.066094287 0.080781907 0.70100003
-0.064481907 0.080436192 0.69800001
-0.063152388 0.080436192 0.69800001
-0.061822861 0.080436192 0.69800001
-0.060666669 0.080666669 0.70000005
-0.059333336 0.080666669 0.70000005
-0.058000002 0.080666669 0.70000005
-0.056747623 0.080781907 0.70100003
-0.055412386 0.080781907 0.70100003
-0.054077145 0.080781907 0.70100003
-0.052892383 0.081012383 0.70300001
-0.051553335 0.081012383 0.70300001
-0.12940191 0.082468577 0.70400006
-0.12787905 0.082351431 0.70300001
-0.12672001 0.082468577 0.70400006
-0.12537906 0.082468577 0.70400006
-0.12386192 0.082351431 0.70300001
-0.12252287 0.082351431 0.70300001
-0.12118382 0.082351431 0.70300001
-0.11984477 0.082351431 0.70300001
-0.11850572 0.082351431 0.70300001
-0.11683334 0.082117148 0.70100003
-0.1154981 0.082117148 0.70100003
-0.11367429 0.081765719 0.69800001
-0.11266667 0.082000002 0.70000005
-0.11133334 0.082000002 0.70000005
-0.11000001 0.082000002 0.70000005
-0.10866667 0.082000002 0.70000005
-0.10748667 0.082117148 0.70100003
-0.10615144 0.082117148 0.70100003
-0.1048162 0.082117148 0.70100003
-0.10377619 0.082351431 0.70300001
-0.10243715 0.082351431 0.70300001
-0.10109811 0.082351431 0.70300001
-0.099475242 0.082117148 0.70100003
-0.098140009 0.082117148 0.70100003
-0.096666671 0.082000002 0.70000005
-0.095333338 0.082000002 0.70000005
-0.094000004 0.082000002 0.70000005
-0.092401914 0.081765719 0.69800001
-0.091072388 0.081765719 0.69800001
-0.090000004 0.082000002 0.70000005
-0.08866667 0.082000002 0.70000005
-0.087333336 0.082000002 0.70000005
-0.086000003 0.082000002 0.70000005
-0.084424764 0.081765719 0.69800001
-0.083095245 0.081765719 0.69800001
-0.081765719 0.081765719 0.69800001
-0.080436192 0.081765719 0.69800001
-0.079106674 0.081765719 0.69800001
-0.077777147 0.081765719 0.69800001
-0.076447621 0.081765719 0.69800001
-0.075010478 0.081648573 0.69700003
-0.073788576 0.081765719 0.69800001
-0.07245905 0.081765719 0.69800001
-0.071027622 0.081648573 0.69700003
-0.069700003 0.081648573 0.69700003
-0.068372384 0.081648573 0.69700003
-0.067044765 0.081648573 0.69700003
-0.065717146 0.081648573 0.69700003
-0.064389527 0.081648573 0.69700003
-0.063061908 0.081648573 0.69700003
-0.061734289 0.081648573 0.69700003
-0.06040667 0.081648573 0.69700003
-0.059163813 0.081765719 0.69800001
-0.05783429 0.081765719 0.69800001
-0.056504767 0.081765719 0.69800001
-0.055333339 0.082000002 0.70000005
-0.054000005 0.082000002 0.70000005
-0.052666672 0.082000002 0.70000005
-0.051333338 0.082000002 0.70000005
-0.13055715 0.083690479 0.70300001
-0.1292181 0.083690479 0.70300001
-0.12787905 0.083690479 0.70300001
-0.12654001 0.083690479 0.70300001
-0.12520096 0.083690479 0.70300001
-0.12350953 0.083452389 0.70100003
-0.12217429 0.083452389 0.70100003
-0.12083905 0.083452389 0.70100003
-0.11950382 0.083452389 0.70100003
-0.11816858 0.083452389 0.70100003
-0.11666667 0.083333336 0.70000005
-0.11500382 0.083095245 0.69800001
-0.11351144 0.082976192 0.69700003
-0.11218382 0.082976192 0.69700003
-0.1108562 0.082976192 0.69700003
-0.10952858 0.082976192 0.69700003
-0.1083562 0.083095245 0.69800001
-0.10702667 0.083095245 0.69800001
-0.10569715 0.083095245 0.69800001
-0.10466667 0.083333336 0.70000005
-0.10333334 0.083333336 0.70000005
-0.10214572 0.083452389 0.70100003
-0.10066667 0.083333336 0.70000005
-0.099049531 0.083095245 0.69800001
-0.097720005 0.083095245 0.69800001
-0.096390486 0.083095245 0.69800001
-0.09492477 0.082976192 0.69700003
-0.093731433 0.083095245 0.69800001
-0.092269532 0.082976192 0.69700003
-0.090941913 0.082976192 0.69700003
-0.089614294 0.082976192 0.69700003
-0.088286676 0.082976192 0.69700003
-0.086959057 0.082976192 0.69700003
-0.085631438 0.082976192 0.69700003
-0.084303819 0.082976192 0.69700003
-0.082976192 0.082976192 0.69700003
-0.081648573 0.082976192 0.69700003
-0.080320954 0.082976192 0.69700003
-0.078993335 0.082976192 0.69700003
-0.077665716 0.082976192 0.69700003
-0.076338097 0.082976192 0.69700003
-0.075010478 0.082976192 0.69700003
-0.07368286 0.082976192 0.69700003
-0.072355241 0.082976192 0.69700003
-0.070823811 0.082738101 0.69500005
-0.069500007 0.082738101 0.69500005
-0.068176195 0.082738101 0.69500005
-0.066852383 0.082738101 0.69500005
-0.065528579 0.082738101 0.69500005
-0.064204767 0.082738101 0.69500005
-0.062880956 0.082738101 0.69500005
-0.061557148 0.082738101 0.69500005
-0.06040667 0.082976192 0.69700003
-0.059079051 0.082976192 0.69700003
-0.057751432 0.082976192 0.69700003
-0.056423813 0.082976192 0.69700003
-0.055175241 0.083095245 0.69800001
-0.053845719 0.083095245 0.69800001
-0.052516192 0.083095245 0.69800001
-0.05118667 0.083095245 0.69800001
-0.13055715 0.085029528 0.70300001
-0.1292181 0.085029528 0.70300001
-0.12751524 0.084787622 0.70100003
-0.12618001 0.084787622 0.70100003
-0.12466668 0.084666669 0.70000005
-0.12333334 0.084666669 0.70000005
-0.12165143 0.084424764 0.69800001
-0.12066668 0.084666669 0.70000005
-0.11899239 0.084424764 0.69800001
-0.11800001 0.084666669 0.70000005
-0.11633334 0.084424764 0.69800001
-0.11483905 0.084303819 0.69700003
-0.11351144 0.084303819 0.69700003
-0.11218382 0.084303819 0.69700003
-0.1105381 0.084061913 0.69500005
-0.10952858 0.084303819 0.69700003
-0.10820096 0.084303819 0.69700003
-0.10687334 0.084303819 0.69700003
-0.10554572 0.084303819 0.69700003
-0.1042181 0.084303819 0.69700003
-0.10289048 0.084303819 0.69700003
-0.10170858 0.084424764 0.69800001
-0.10037906 0.084424764 0.69800001
-0.098907627 0.084303819 0.69700003
-0.097580008 0.084303819 0.69700003
-0.095976196 0.084061913 0.69500005
-0.094652385 0.084061913 0.69500005
-0.09332858 0.084061913 0.69500005
-0.092004769 0.084061913 0.69500005
-0.090680957 0.084061913 0.69500005
-0.089357145 0.084061913 0.69500005
-0.088033341 0.084061913 0.69500005
-0.086584769 0.08394096 0.69400001
-0.085262865 0.08394096 0.69400001
-0.08394096 0.08394096 0.69400001
-0.082619056 0.08394096 0.69400001
-0.08141429 0.084061913 0.69500005
-0.080090478 0.084061913 0.69500005
-0.078653336 0.08394096 0.69400001
-0.077442862 0.084061913 0.69500005
-0.07611905 0.084061913 0.69500005
-0.074795246 0.084061913 0.69500005
-0.073471434 0.084061913 0.69500005
-0.072147623 0.084061913 0.69500005
-0.070823811 0.084061913 0.69500005
-0.069500007 0.084061913 0.69500005
-0.068176195 0.084061913 0.69500005
-0.066852383 0.084061913 0.69500005
-0.065528579 0.084061913 0.69500005
-0.064204767 0.084061913 0.69500005
-0.062880956 0.084061913 0.69500005
-0.061557148 0.084061913 0.69500005
-0.060233336 0.084061913 0.69500005
-0.059079051 0.084303819 0.69700003
-0.057751432 0.084303819 0.69700003
-0.056423813 0.084303819 0.69700003
-0.055096194 0.084303819 0.69700003
-0.053768575 0.084303819 0.69700003
-0.052440956 0.084303819 0.69700003
-0.051113337 0.084303819 0.69700003
-0.13055715 0.086368576 0.70300001
-0.1292181 0.086368576 0.70300001
-0.12751524 0.086122863 0.70100003
-0.12618001 0.086122863 0.70100003
-0.12466668 0.086000003 0.70000005
-0.12298096 0.08575429 0.69800001
-0.12147715 0.085631438 0.69700003
-0.12014953 0.085631438 0.69700003
-0.11882191 0.085631438 0.69700003
-0.11749429 0.085631438 0.69700003
-0.11616667 0.085631438 0.69700003
-0.11450953 0.085385717 0.69500005
-0.11318572 0.085385717 0.69500005
-0.11186191 0.085385717 0.69500005
-0.1105381 0.085385717 0.69500005
-0.10921429 0.085385717 0.69500005
-0.10789049 0.085385717 0.69500005
-0.10656668 0.085385717 0.69500005
-0.10554572 0.085631438 0.69700003
-0.1042181 0.085631438 0.69700003
-0.10289048 0.085631438 0.69700003
-0.10156287 0.085631438 0.69700003
-0.10023525 0.085631438 0.69700003
-0.09862382 0.085385717 0.69500005
-0.097300008 0.085385717 0.69500005
-0.0958381 0.085262865 0.69400001
-0.094516195 0.085262865 0.69400001
-0.093194291 0.085262865 0.69400001
-0.091872387 0.085262865 0.69400001
-0.090550482 0.085262865 0.69400001
-0.089228578 0.085262865 0.69400001
-0.088033341 0.085385717 0.69500005
-0.086584769 0.085262865 0.69400001
-0.085262865 0.085262865 0.69400001
-0.08394096 0.085262865 0.69400001
-0.082619056 0.085262865 0.69400001
-0.081297152 0.085262865 0.69400001
-0.07997524 0.085262865 0.69400001
-0.078653336 0.085262865 0.69400001
-0.077331431 0.085262865 0.69400001
-0.076009527 0.085262865 0.69400001
-0.074687622 0.085262865 0.69400001
-0.073365718 0.085262865 0.69400001
-0.072043814 0.085262865 0.69400001
-0.070823811 0.085385717 0.69500005
-0.069500007 0.085385717 0.69500005
-0.068176195 0.085385717 0.69500005
-0.066852383 0.085385717 0.69500005
-0.065434292 0.085262865 0.69400001
-0.064112388 0.085262865 0.69400001
-0.062880956 0.085385717 0.69500005
-0.061557148 0.085385717 0.69500005
-0.060233336 0.085385717 0.69500005
-0.058909528 0.085385717 0.69500005
-0.057585716 0.085385717 0.69500005
-0.056261908 0.085385717 0.69500005
-0.055096194 0.085631438 0.69700003
-0.053768575 0.085631438 0.69700003
-0.052440956 0.085631438 0.69700003
-0.051113337 0.085631438 0.69700003
-0.12701239 0.086210482 0.69100004
-0.12642382 0.086709529 0.69500005
-0.12546001 0.086959057 0.69700003
-0.12413239 0.086959057 0.69700003
-0.12245239 0.086709529 0.69500005
-0.12095429 0.086584769 0.69400001
-0.11980477 0.086709529 0.69500005
-0.11848096 0.086709529 0.69500005
-0.11715715 0.086709529 0.69500005
-0.11583334 0.086709529 0.69500005
-0.11434477 0.086584769 0.69400001
-0.11302286 0.086584769 0.69400001
-0.11170096 0.086584769 0.69400001
-0.11022001 0.086460009 0.69300002
-0.10905715 0.086584769 0.69400001
-0.10773525 0.086584769 0.69400001
-0.10641334 0.086584769 0.69400001
-0.10524286 0.086709529 0.69500005
-0.10391905 0.086709529 0.69500005
-0.10259525 0.086709529 0.69500005
-0.10127144 0.086709529 0.69500005
-0.099947624 0.086709529 0.69500005
-0.098481908 0.086584769 0.69400001
-0.097160004 0.086584769 0.69400001
-0.095700003 0.086460009 0.69300002
-0.094380006 0.086460009 0.69300002
-0.093060009 0.086460009 0.69300002
-0.091872387 0.086584769 0.69400001
-0.090550482 0.086584769 0.69400001
-0.089228578 0.086584769 0.69400001
-0.087906674 0.086584769 0.69400001
-0.086584769 0.086584769 0.69400001
-0.085262865 0.086584769 0.69400001
-0.08394096 0.086584769 0.69400001
-0.082619056 0.086584769 0.69400001
-0.081297152 0.086584769 0.69400001
-0.07997524 0.086584769 0.69400001
-0.078540005 0.086460009 0.69300002
-0.077331431 0.086584769 0.69400001
-0.076009527 0.086584769 0.69400001
-0.074687622 0.086584769 0.69400001
-0.073365718 0.086584769 0.69400001
-0.072043814 0.086584769 0.69400001
-0.070721909 0.086584769 0.69400001
-0.069500007 0.086709529 0.69500005
-0.068078101 0.086584769 0.69400001
-0.066756196 0.086584769 0.69400001
-0.065434292 0.086584769 0.69400001
-0.064112388 0.086584769 0.69400001
-0.062880956 0.086709529 0.69500005
-0.061468575 0.086584769 0.69400001
-0.060233336 0.086709529 0.69500005
-0.058909528 0.086709529 0.69500005
-0.057585716 0.086709529 0.69500005
-0.056261908 0.086709529 0.69500005
-0.0549381 0.086709529 0.69500005
-0.053614289 0.086709529 0.69500005
-0.052290481 0.086709529 0.69500005
-0.050966669 0.086709529 0.69500005
-0.12701239 0.087526672 0.69100004
-0.12642382 0.088033341 0.69500005
-0.1251 0.088033341 0.69500005
-0.12359811 0.087906674 0.69400001
-0.12210001 0.087780006 0.69300002
-0.12078001 0.087780006 0.69300002
-0.11946001 0.087780006 0.69300002
-0.11814 0.087780006 0.69300002
-0.11682001 0.087780006 0.69300002
-0.11550001 0.087780006 0.69300002
-0.11418001 0.087780006 0.69300002
-0.11286001 0.087780006 0.69300002
-0.11154 0.087780006 0.69300002
-0.10990191 0.087526672 0.69100004
-0.10858572 0.087526672 0.69100004
-0.10758001 0.087780006 0.69300002
-0.10626001 0.087780006 0.69300002
-0.10494 0.087780006 0.69300002
-0.10362001 0.087780006 0.69300002
-0.1023 0.087780006 0.69300002
-0.10098001 0.087780006 0.69300002
-0.099660009 0.087780006 0.69300002
-0.098340005 0.087780006 0.69300002
-0.097020008 0.087780006 0.69300002
-0.095700003 0.087780006 0.69300002
-0.094107628 0.087526672 0.69100004
-0.092791438 0.087526672 0.69100004
-0.091740005 0.087780006 0.69300002
-0.090420008 0.087780006 0.69300002
-0.088842861 0.087526672 0.69100004
-0.087780006 0.087780006 0.69300002
-0.086460009 0.087780006 0.69300002
-0.085140005 0.087780006 0.69300002
-0.08394096 0.087906674 0.69400001
-0.082619056 0.087906674 0.69400001
-0.081297152 0.087906674 0.69400001
-0.079860002 0.087780006 0.69300002
-0.078540005 0.087780006 0.69300002
-0.077220008 0.087780006 0.69300002
-0.076009527 0.087906674 0.69400001
-0.074687622 0.087906674 0.69400001
-0.073365718 0.087906674 0.69400001
-0.072043814 0.087906674 0.69400001
-0.070721909 0.087906674 0.69400001
-0.069400005 0.087906674 0.69400001
-0.068078101 0.087906674 0.69400001
-0.066756196 0.087906674 0.69400001
-0.065434292 0.087906674 0.69400001
-0.064112388 0.087906674 0.69400001
-0.062790483 0.087906674 0.69400001
-0.061468575 0.087906674 0.69400001
-0.060233336 0.088033341 0.69500005
-0.058824766 0.087906674 0.69400001
-0.057502862 0.087906674 0.69400001
-0.056261908 0.088033341 0.69500005
-0.0549381 0.088033341 0.69500005
-0.053614289 0.088033341 0.69500005
-0.052290481 0.088033341 0.69500005
-0.050966669 0.088033341 0.69500005
-0.12682858 0.088714294 0.69000006
-0.1255143 0.088714294 0.69000006
-0.12438001 0.088842861 0.69100004
-0.12306382 0.088842861 0.69100004
-0.12174763 0.088842861 0.69100004
-0.12043144 0.088842861 0.69100004
-0.11911525 0.088842861 0.69100004
-0.11779906 0.088842861 0.69100004
-0.11648286 0.088842861 0.69100004
-0.11516667 0.088842861 0.69100004
-0.11385048 0.088842861 0.69100004
-0.11253429 0.088842861 0.69100004
-0.11105715 0.088714294 0.69000006
-0.10974286 0.088714294 0.69000006
-0.10842858 0.088714294 0.69000006
-0.10711429 0.088714294 0.69000006
-0.10595334 0.088842861 0.69100004
-0.10463715 0.088842861 0.69100004
-0.10332096 0.088842861 0.69100004
-0.10200477 0.088842861 0.69100004
-0.10068858 0.088842861 0.69100004
-0.099372387 0.088842861 0.69100004
-0.098056197 0.088842861 0.69100004
-0.096740007 0.088842861 0.69100004
-0.095423818 0.088842861 0.69100004
-0.094107628 0.088842861 0.69100004
-0.092791438 0.088842861 0.69100004
-0.091475241 0.088842861 0.69100004
-0.090159051 0.088842861 0.69100004
-0.088842861 0.088842861 0.69100004
-0.087526672 0.088842861 0.69100004
-0.086460009 0.089100003 0.69300002
-0.085140005 0.089100003 0.69300002
-0.083820008 0.089100003 0.69300002
-0.082619056 0.089228578 0.69400001
-0.081180006 0.089100003 0.69300002
-0.079860002 0.089100003 0.69300002
-0.078540005 0.089100003 0.69300002
-0.077220008 0.089100003 0.69300002
-0.076009527 0.089228578 0.69400001
-0.074687622 0.089228578 0.69400001
-0.073365718 0.089228578 0.69400001
-0.072043814 0.089228578 0.69400001
-0.070721909 0.089228578 0.69400001
-0.069500007 0.089357145 0.69500005
-0.068176195 0.089357145 0.69500005
-0.066756196 0.089228578 0.69400001
-0.065434292 0.089228578 0.69400001
-0.064112388 0.089228578 0.69400001
-0.062880956 0.089357145 0.69500005
-0.061468575 0.089228578 0.69400001
-0.060233336 0.089357145 0.69500005
-0.058909528 0.089357145 0.69500005
-0.057585716 0.089357145 0.69500005
-0.056261908 0.089357145 0.69500005
-0.0549381 0.089357145 0.69500005
-0.053614289 0.089357145 0.69500005
-0.052440956 0.089614294 0.69700003
-0.051113337 0.089614294 0.69700003
-0.049785718 0.089614294 0.69700003
-0.12795715 0.089898102 0.68900001
-0.12664478 0.089898102 0.68900001
-0.12533239 0.089898102 0.68900001
-0.12420001 0.090028577 0.69000006
-0.12288572 0.090028577 0.69000006
-0.12157144 0.090028577 0.69000006
-0.12025715 0.090028577 0.69000006
-0.11894286 0.090028577 0.69000006
-0.11762858 0.090028577 0.69000006
-0.11648286 0.090159051 0.69100004
-0.11516667 0.090159051 0.69100004
-0.11368572 0.090028577 0.69000006
-0.11237144 0.090028577 0.69000006
-0.11105715 0.090028577 0.69000006
-0.10974286 0.090028577 0.69000006
-0.10842858 0.090028577 0.69000006
-0.10711429 0.090028577 0.69000006
-0.10580001 0.090028577 0.69000006
-0.10448572 0.090028577 0.69000006
-0.10332096 0.090159051 0.69100004
-0.10200477 0.090159051 0.69100004
-0.10068858 0.090159051 0.69100004
-0.099372387 0.090159051 0.69100004
-0.098056197 0.090159051 0.69100004
-0.096740007 0.090159051 0.69100004
-0.095423818 0.090159051 0.69100004
-0.094107628 0.090159051 0.69100004
-0.092791438 0.090159051 0.69100004
-0.091475241 0.090159051 0.69100004
-0.090159051 0.090159051 0.69100004
-0.088842861 0.090159051 0.69100004
-0.087780006 0.090420008 0.69300002
-0.086460009 0.090420008 0.69300002
-0.085140005 0.090420008 0.69300002
-0.08394096 0.090550482 0.69400001
-0.082619056 0.090550482 0.69400001
-0.081297152 0.090550482 0.69400001
-0.07997524 0.090550482 0.69400001
-0.078540005 0.090420008 0.69300002
-0.077220008 0.090420008 0.69300002
-0.076009527 0.090550482 0.69400001
-0.074687622 0.090550482 0.69400001
-0.073365718 0.090550482 0.69400001
-0.072043814 0.090550482 0.69400001
-0.070823811 0.090680957 0.69500005
-0.069500007 0.090680957 0.69500005
-0.068176195 0.090680957 0.69500005
-0.066852383 0.090680957 0.69500005
-0.065528579 0.090680957 0.69500005
-0.064204767 0.090680957 0.69500005
-0.062880956 0.090680957 0.69500005
-0.061557148 0.090680957 0.69500005
-0.060233336 0.090680957 0.69500005
-0.058909528 0.090680957 0.69500005
-0.057751432 0.090941913 0.69700003
-0.056423813 0.090941913 0.69700003
-0.055096194 0.090941913 0.69700003
-0.053768575 0.090941913 0.69700003
-0.052440956 0.090941913 0.69700003
-0.051113337 0.090941913 0.69700003
-0.049857147 0.091072388 0.69800001
-0.12740001 0.090813339 0.68600005
-0.12664478 0.091210485 0.68900001
-0.12533239 0.091210485 0.68900001
-0.12402001 0.091210485 0.68900001
-0.12288572 0.091342866 0.69000006
-0.12157144 0.091342866 0.69000006
-0.12025715 0.091342866 0.69000006
-0.11894286 0.091342866 0.69000006
-0.11762858 0.091342866 0.69000006
-0.11648286 0.091475241 0.69100004
-0.11516667 0.091475241 0.69100004
-0.11368572 0.091342866 0.69000006
-0.11253429 0.091475241 0.69100004
-0.11105715 0.091342866 0.69000006
-0.10974286 0.091342866 0.69000006
-0.10842858 0.091342866 0.69000006
-0.10711429 0.091342866 0.69000006
-0.10580001 0.091342866 0.69000006
-0.10448572 0.091342866 0.69000006
-0.10332096 0.091475241 0.69100004
-0.10200477 0.091475241 0.69100004
-0.10068858 0.091475241 0.69100004
-0.099372387 0.091475241 0.69100004
-0.098056197 0.091475241 0.69100004
-0.096740007 0.091475241 0.69100004
-0.095423818 0.091475241 0.69100004
-0.094107628 0.091475241 0.69100004
-0.092791438 0.091475241 0.69100004
-0.091740005 0.091740005 0.69300002
-0.090420008 0.091740005 0.69300002
-0.089100003 0.091740005 0.69300002
-0.087906674 0.091872387 0.69400001
-0.086584769 0.091872387 0.69400001
-0.085140005 0.091740005 0.69300002
-0.083820008 0.091740005 0.69300002
-0.082619056 0.091872387 0.69400001
-0.081297152 0.091872387 0.69400001
-0.07997524 0.091872387 0.69400001
-0.078653336 0.091872387 0.69400001
-0.077331431 0.091872387 0.69400001
-0.076009527 0.091872387 0.69400001
-0.074795246 0.092004769 0.69500005
-0.073471434 0.092004769 0.69500005
-0.072147623 0.092004769 0.69500005
-0.070823811 0.092004769 0.69500005
-0.069500007 0.092004769 0.69500005
-0.068372384 0.092269532 0.69700003
-0.066852383 0.092004769 0.69500005
-0.065528579 0.092004769 0.69500005
-0.064204767 0.092004769 0.69500005
-0.062880956 0.092004769 0.69500005
-0.061557148 0.092004769 0.69500005
-0.060233336 0.092004769 0.69500005
-0.058909528 0.092004769 0.69500005
-0.057751432 0.092269532 0.69700003
-0.056423813 0.092269532 0.69700003
-0.055096194 0.092269532 0.69700003
-0.053768575 0.092269532 0.69700003
-0.052516192 0.092401914 0.69800001
-0.05118667 0.092401914 0.69800001
-0.049857147 0.092401914 0.69800001
-0.12627715 0.092254288 0.68700004
-0.12533239 0.09252286 0.68900001
-0.12402001 0.09252286 0.68900001
-0.12288572 0.092657149 0.69000006
-0.12157144 0.092657149 0.69000006
-0.12025715 0.092657149 0.69000006
-0.11894286 0.092657149 0.69000006
-0.11779906 0.092791438 0.69100004
-0.11648286 0.092791438 0.69100004
-0.11516667 0.092791438 0.69100004
-0.11385048 0.092791438 0.69100004
-0.11253429 0.092791438 0.69100004
-0.1112181 0.092791438 0.69100004
-0.10974286 0.092657149 0.69000006
-0.10842858 0.092657149 0.69000006
-0.10711429 0.092657149 0.69000006
-0.10595334 0.092791438 0.69100004
-0.10463715 0.092791438 0.69100004
-0.10332096 0.092791438 0.69100004
-0.10200477 0.092791438 0.69100004
-0.10068858 0.092791438 0.69100004
-0.099372387 0.092791438 0.69100004
-0.098056197 0.092791438 0.69100004
-0.096740007 0.092791438 0.69100004
-0.095700003 0.093060009 0.69300002
-0.094380006 0.093060009 0.69300002
-0.093060009 0.093060009 0.69300002
-0.091740005 0.093060009 0.69300002
-0.090420008 0.093060009 0.69300002
-0.089100003 0.093060009 0.69300002
-0.087906674 0.093194291 0.69400001
-0.086460009 0.093060009 0.69300002
-0.085140005 0.093060009 0.69300002
-0.083820008 0.093060009 0.69300002
-0.082619056 0.093194291 0.69400001
-0.081297152 0.093194291 0.69400001
-0.07997524 0.093194291 0.69400001
-0.078653336 0.093194291 0.69400001
-0.077331431 0.093194291 0.69400001
-0.07611905 0.09332858 0.69500005
-0.074795246 0.09332858 0.69500005
-0.073471434 0.09332858 0.69500005
-0.072147623 0.09332858 0.69500005
-0.070823811 0.09332858 0.69500005
-0.069700003 0.093597151 0.69700003
-0.068372384 0.093597151 0.69700003
-0.067044765 0.093597151 0.69700003
-0.065528579 0.09332858 0.69500005
-0.064204767 0.09332858 0.69500005
-0.063061908 0.093597151 0.69700003
-0.061557148 0.09332858 0.69500005
-0.06040667 0.093597151 0.69700003
-0.059079051 0.093597151 0.69700003
-0.057751432 0.093597151 0.69700003
-0.056423813 0.093597151 0.69700003
-0.055175241 0.093731433 0.69800001
-0.053845719 0.093731433 0.69800001
-0.052516192 0.093731433 0.69800001
-0.05118667 0.093731433 0.69800001
-0.049857147 0.093731433 0.69800001
-0.1255143 0.093971431 0.69000006
-0.12420001 0.093971431 0.69000006
-0.12288572 0.093971431 0.69000006
-0.12157144 0.093971431 0.69000006
-0.12043144 0.094107628 0.69100004
-0.11911525 0.094107628 0.69100004
-0.11779906 0.094107628 0.69100004
-0.11648286 0.094107628 0.69100004
-0.11516667 0.094107628 0.69100004
-0.11385048 0.094107628 0.69100004
-0.11253429 0.094107628 0.69100004
-0.1112181 0.094107628 0.69100004
-0.10990191 0.094107628 0.69100004
-0.10858572 0.094107628 0.69100004
-0.10726953 0.094107628 0.69100004
-0.10595334 0.094107628 0.69100004
-0.10463715 0.094107628 0.69100004
-0.10332096 0.094107628 0.69100004
-0.10200477 0.094107628 0.69100004
-0.10068858 0.094107628 0.69100004
-0.099372387 0.094107628 0.69100004
-0.098056197 0.094107628 0.69100004
-0.096740007 0.094107628 0.69100004
-0.095700003 0.094380006 0.69300002
-0.094380006 0.094380006 0.69300002
-0.093060009 0.094380006 0.69300002
-0.091740005 0.094380006 0.69300002
-0.090420008 0.094380006 0.69300002
-0.089100003 0.094380006 0.69300002
-0.087780006 0.094380006 0.69300002
-0.086460009 0.094380006 0.69300002
-0.085140005 0.094380006 0.69300002
-0.08394096 0.094516195 0.69400001
-0.082619056 0.094516195 0.69400001
-0.08141429 0.094652385 0.69500005
-0.080090478 0.094652385 0.69500005
-0.078766674 0.094652385 0.69500005
-0.077442862 0.094652385 0.69500005
-0.07611905 0.094652385 0.69500005
-0.074795246 0.094652385 0.69500005
-0.07368286 0.09492477 0.69700003
-0.072355241 0.09492477 0.69700003
-0.071027622 0.09492477 0.69700003
-0.069700003 0.09492477 0.69700003
-0.068372384 0.09492477 0.69700003
-0.067044765 0.09492477 0.69700003
-0.065717146 0.09492477 0.69700003
-0.064389527 0.09492477 0.69700003
-0.063061908 0.09492477 0.69700003
-0.061734289 0.09492477 0.69700003
-0.060493339 0.095060959 0.69800001
-0.059163813 0.095060959 0.69800001
-0.058000002 0.095333338 0.70000005
-0.056666672 0.095333338 0.70000005
-0.055175241 0.095060959 0.69800001
-0.053845719 0.095060959 0.69800001
-0.052666672 0.095333338 0.70000005
-0.05118667 0.095060959 0.69800001
-0.050000004 0.095333338 0.70000005
-0.1255143 0.095285721 0.69000006
-0.12420001 0.095285721 0.69000006
-0.12306382 0.095423818 0.69100004
-0.12174763 0.095423818 0.69100004
-0.12043144 0.095423818 0.69100004
-0.11911525 0.095423818 0.69100004
-0.11779906 0.095423818 0.69100004
-0.11648286 0.095423818 0.69100004
-0.11516667 0.095423818 0.69100004
-0.11385048 0.095423818 0.69100004
-0.11286001 0.095700003 0.69300002
-0.11154 0.095700003 0.69300002
-0.10990191 0.095423818 0.69100004
-0.10858572 0.095423818 0.69100004
-0.10726953 0.095423818 0.69100004
-0.10626001 0.095700003 0.69300002
-0.10494 0.095700003 0.69300002
-0.10362001 0.095700003 0.69300002
-0.1023 0.095700003 0.69300002
-0.10068858 0.095423818 0.69100004
-0.099372387 0.095423818 0.69100004
-0.098056197 0.095423818 0.69100004
-0.097020008 0.095700003 0.69300002
-0.095700003 0.095700003 0.69300002
-0.094380006 0.095700003 0.69300002
-0.093060009 0.095700003 0.69300002
-0.091740005 0.095700003 0.69300002
-0.090420008 0.095700003 0.69300002
-0.089100003 0.095700003 0.69300002
-0.087780006 0.095700003 0.69300002
-0.086460009 0.095700003 0.69300002
-0.085140005 0.095700003 0.69300002
-0.08394096 0.0958381 0.69400001
-0.082619056 0.0958381 0.69400001
-0.08141429 0.095976196 0.69500005
-0.080090478 0.095976196 0.69500005
-0.078766674 0.095976196 0.69500005
-0.077442862 0.095976196 0.69500005
-0.07611905 0.095976196 0.69500005
-0.075010478 0.096252389 0.69700003
-0.07368286 0.096252389 0.69700003
-0.072355241 0.096252389 0.69700003
-0.071027622 0.096252389 0.69700003
-0.069800004 0.096390486 0.69800001
-0.068470478 0.096390486 0.69800001
-0.067140959 0.096390486 0.69800001
-0.065811433 0.096390486 0.69800001
-0.064481907 0.096390486 0.69800001
-0.063152388 0.096390486 0.69800001
-0.061822861 0.096390486 0.69800001
-0.060666669 0.096666671 0.70000005
-0.059333336 0.096666671 0.70000005
-0.058000002 0.096666671 0.70000005
-0.056666672 0.096666671 0.70000005
-0.055333339 0.096666671 0.70000005
-0.054000005 0.096666671 0.70000005
-0.052666672 0.096666671 0.70000005
-0.051333338 0.096666671 0.70000005
-0.050000004 0.096666671 0.70000005
-0.1255143 0.096600004 0.69000006
-0.12420001 0.096600004 0.69000006
-0.12306382 0.096740007 0.69100004
-0.12174763 0.096740007 0.69100004
-0.12043144 0.096740007 0.69100004
-0.11911525 0.096740007 0.69100004
-0.11814 0.097020008 0.69300002
-0.11648286 0.096740007 0.69100004
-0.11516667 0.096740007 0.69100004
-0.11418001 0.097020008 0.69300002
-0.11286001 0.097020008 0.69300002
-0.11154 0.097020008 0.69300002
-0.11022001 0.097020008 0.69300002
-0.10890001 0.097020008 0.69300002
-0.10758001 0.097020008 0.69300002
-0.10641334 0.097160004 0.69400001
-0.10494 0.097020008 0.69300002
-0.10362001 0.097020008 0.69300002
-0.1023 0.097020008 0.69300002
-0.10098001 0.097020008 0.69300002
-0.099372387 0.096740007 0.69100004
-0.098340005 0.097020008 0.69300002
-0.097020008 0.097020008 0.69300002
-0.0958381 0.097160004 0.69400001
-0.094516195 0.097160004 0.69400001
-0.093194291 0.097160004 0.69400001
-0.091872387 0.097160004 0.69400001
-0.090550482 0.097160004 0.69400001
-0.089228578 0.097160004 0.69400001
-0.088033341 0.097300008 0.69500005
-0.086584769 0.097160004 0.69400001
-0.085262865 0.097160004 0.69400001
-0.08394096 0.097160004 0.69400001
-0.082738101 0.097300008 0.69500005
-0.08141429 0.097300008 0.69500005
-0.080320954 0.097580008 0.69700003
-0.078766674 0.097300008 0.69500005
-0.077442862 0.097300008 0.69500005
-0.07611905 0.097300008 0.69500005
-0.075010478 0.097580008 0.69700003
-0.07368286 0.097580008 0.69700003
-0.072355241 0.097580008 0.69700003
-0.071027622 0.097580008 0.69700003
-0.069800004 0.097720005 0.69800001
-0.068470478 0.097720005 0.69800001
-0.067140959 0.097720005 0.69800001
-0.066000007 0.098000005 0.70000005
-0.064666674 0.098000005 0.70000005
-0.06333334 0.098000005 0.70000005
-0.062000003 0.098000005 0.70000005
-0.060666669 0.098000005 0.70000005
-0.059418101 0.098140009 0.70100003
-0.05808286 0.098140009 0.70100003
-0.056747623 0.098140009 0.70100003
-0.055412386 0.098140009 0.70100003
-0.054077145 0.098140009 0.70100003
-0.052666672 0.098000005 0.70000005
-0.051333338 0.098000005 0.70000005
-0.050000004 0.098000005 0.70000005
-0.048666671 0.098000005 0.70000005
-0.1255143 0.097914293 0.69000006
-0.12420001 0.097914293 0.69000006
-0.12306382 0.098056197 0.69100004
-0.12174763 0.098056197 0.69100004
-0.12043144 0.098056197 0.69100004
-0.11911525 0.098056197 0.69100004
-0.11814 0.098340005 0.69300002
-0.11682001 0.098340005 0.69300002
-0.11550001 0.098340005 0.69300002
-0.11418001 0.098340005 0.69300002
-0.11286001 0.098340005 0.69300002
-0.11170096 0.098481908 0.69400001
-0.11022001 0.098340005 0.69300002
-0.10890001 0.098340005 0.69300002
-0.10773525 0.098481908 0.69400001
-0.10641334 0.098481908 0.69400001
-0.10509144 0.098481908 0.69400001
-0.10376953 0.098481908 0.69400001
-0.10244763 0.098481908 0.69400001
-0.10098001 0.098340005 0.69300002
-0.099660009 0.098340005 0.69300002
-0.098340005 0.098340005 0.69300002
-0.097160004 0.098481908 0.69400001
-0.0958381 0.098481908 0.69400001
-0.094516195 0.098481908 0.69400001
-0.093194291 0.098481908 0.69400001
-0.091872387 0.098481908 0.69400001
-0.090550482 0.098481908 0.69400001
-0.089228578 0.098481908 0.69400001
-0.087906674 0.098481908 0.69400001
-0.086584769 0.098481908 0.69400001
-0.085262865 0.098481908 0.69400001
-0.08394096 0.098481908 0.69400001
-0.082738101 0.09862382 0.69500005
-0.08141429 0.09862382 0.69500005
-0.080320954 0.098907627 0.69700003
-0.078993335 0.098907627 0.69700003
-0.077665716 0.098907627 0.69700003
-0.076338097 0.098907627 0.69700003
-0.075010478 0.098907627 0.69700003
-0.07368286 0.098907627 0.69700003
-0.072355241 0.098907627 0.69700003
-0.071027622 0.098907627 0.69700003
-0.069800004 0.099049531 0.69800001
-0.068470478 0.099049531 0.69800001
-0.067140959 0.099049531 0.69800001
-0.066000007 0.099333338 0.70000005
-0.064666674 0.099333338 0.70000005
-0.06333334 0.099333338 0.70000005
-0.062000003 0.099333338 0.70000005
-0.060666669 0.099333338 0.70000005
-0.059418101 0.099475242 0.70100003
-0.05808286 0.099475242 0.70100003
-0.056747623 0.099475242 0.70100003
-0.055412386 0.099475242 0.70100003
-0.054000005 0.099333338 0.70000005
-0.052666672 0.099333338 0.70000005
-0.051333338 0.099333338 0.70000005
-0.050000004 0.099333338 0.70000005
-0.048666671 0.099333338 0.70000005
-0.1255143 0.099228576 0.69000006
-0.12438001 0.099372387 0.69100004
-0.12306382 0.099372387 0.69100004
-0.12174763 0.099372387 0.69100004
-0.12043144 0.099372387 0.69100004
-0.11946001 0.099660009 0.69300002
-0.11814 0.099660009 0.69300002
-0.11682001 0.099660009 0.69300002
-0.11550001 0.099660009 0.69300002
-0.11418001 0.099660009 0.69300002
-0.11286001 0.099660009 0.69300002
-0.11170096 0.099803813 0.69400001
-0.11037906 0.099803813 0.69400001
-0.10905715 0.099803813 0.69400001
-0.10773525 0.099803813 0.69400001
-0.10641334 0.099803813 0.69400001
-0.10509144 0.099803813 0.69400001
-0.10376953 0.099803813 0.69400001
