# .PCD v0.7 - Point Cloud Data file format
VERSION 0.7
FIELDS x y z
SIZE 4 4 4
TYPE F F F
COUNT 1 1 1
WIDTH 1361
HEIGHT 1
VIEWPOINT 0 0 0 1 0 0 0
POINTS 1361
DATA ascii
-0.0044466672 0.075593337 0.66700006
-0.0031857146 0.075820006 0.66900003
-0.0019114286 0.075820006 0.66900003
-0.00063714292 0.075820006 0.66900003
0.00063809525 0.075933337 0.67000002
0.001917143 0.076046668 0.671
0.0031952383 0.076046668 0.671
0.0044733337 0.076046668 0.671
0.0057428577 0.075933337 0.67000002
0.0070190481 0.075933337 0.67000002
0.00830762 0.076046668 0.671
0.0095857149 0.076046668 0.671
0.010880001 0.076160006 0.67200005
0.01216 0.076160006 0.67200005
0.013440001 0.076160006 0.67200005
0.014720001 0.076160006 0.67200005
0.016000001 0.076160006 0.67200005
0.017280001 0.076160006 0.67200005
0.018560002 0.076160006 0.67200005
0.019840002 0.076160006 0.67200005
0.021120001 0.076160006 0.67200005
0.022400001 0.076160006 0.67200005
0.023680001 0.076160006 0.67200005
0.024960002 0.076160006 0.67200005
0.026240002 0.076160006 0.67200005
0.027520001 0.076160006 0.67200005
0.028800001 0.076160006 0.67200005
0.030080002 0.076160006 0.67200005
0.03136 0.076160006 0.67200005
-0.047214288 0.076172389 0.66100001
-0.046233337 0.076633342 0.66500002
-0.044966668 0.076633342 0.66500002
-0.043700002 0.076633342 0.66500002
-0.042497147 0.07674858 0.66600001
-0.041228574 0.07674858 0.66600001
-0.040020004 0.076863818 0.66700006
-0.038749527 0.076863818 0.66700006
-0.03747905 0.076863818 0.66700006
-0.036208574 0.076863818 0.66700006
-0.03504286 0.077094294 0.66900003
-0.03366762 0.076863818 0.66700006
-0.032494288 0.077094294 0.66900003
-0.031220002 0.077094294 0.66900003
-0.029856192 0.076863818 0.66700006
-0.028585717 0.076863818 0.66700006
-0.02731524 0.076863818 0.66700006
-0.026122859 0.077094294 0.66900003
-0.024848573 0.077094294 0.66900003
-0.023574287 0.077094294 0.66900003
-0.022333335 0.077209532 0.67000002
-0.021057144 0.077209532 0.67000002
-0.019810477 0.07732477 0.671
-0.018504763 0.077209532 0.67000002
-0.017202858 0.077094294 0.66900003
-0.015928572 0.077094294 0.66900003
-0.014610477 0.076863818 0.66700006
-0.013380001 0.077094294 0.66900003
-0.012069524 0.076863818 0.66700006
-0.010799048 0.076863818 0.66700006
-0.0095285717 0.076863818 0.66700006
-0.0082580959 0.076863818 0.66700006
-0.0069876197 0.076863818 0.66700006
-0.0057171434 0.076863818 0.66700006
-0.0044600004 0.077094294 0.66900003
-0.0031857146 0.077094294 0.66900003
-0.0019114286 0.077094294 0.66900003
-0.00063714292 0.077094294 0.66900003
0.00063809525 0.077209532 0.67000002
0.001917143 0.07732477 0.671
0.0031952383 0.07732477 0.671
0.0044733337 0.07732477 0.671
0.0057514291 0.07732477 0.671
0.0070295241 0.07732477 0.671
0.00830762 0.07732477 0.671
0.0096000005 0.077440009 0.67200005
0.010880001 0.077440009 0.67200005
0.01216 0.077440009 0.67200005
0.013440001 0.077440009 0.67200005
0.014720001 0.077440009 0.67200005
0.016047619 0.077670485 0.67400002
0.017331429 0.077670485 0.67400002
0.018560002 0.077440009 0.67200005
0.01989905 0.077670485 0.67400002
0.021182859 0.077670485 0.67400002
0.022400001 0.077440009 0.67200005
0.023680001 0.077440009 0.67200005
0.025034288 0.077670485 0.67400002
0.026318097 0.077670485 0.67400002
0.027520001 0.077440009 0.67200005
0.028800001 0.077440009 0.67200005
0.030080002 0.077440009 0.67200005
0.031453334 0.077670485 0.67400002
0.032640003 0.077440009 0.67200005
-0.046302859 0.078017145 0.66600001
-0.045034289 0.078017145 0.66600001
-0.043765716 0.078017145 0.66600001
-0.042497147 0.078017145 0.66600001
-0.041290481 0.078134291 0.66700006
-0.040020004 0.078134291 0.66700006
-0.038865715 0.078368574 0.66900003
-0.037591431 0.078368574 0.66900003
-0.036317144 0.078368574 0.66900003
-0.035095241 0.07848572 0.67000002
-0.033768572 0.078368574 0.66900003
-0.032542858 0.07848572 0.67000002
-0.031220002 0.078368574 0.66900003
-0.029945716 0.078368574 0.66900003
-0.02867143 0.078368574 0.66900003
-0.027397145 0.078368574 0.66900003
-0.026122859 0.078368574 0.66900003
-0.024885716 0.07848572 0.67000002
-0.023609525 0.07848572 0.67000002
-0.022333335 0.07848572 0.67000002
-0.021088572 0.078602865 0.671
-0.019810477 0.078602865 0.671
-0.018504763 0.07848572 0.67000002
-0.017228572 0.07848572 0.67000002
-0.015928572 0.078368574 0.66900003
-0.014610477 0.078134291 0.66700006
-0.013340001 0.078134291 0.66700006
-0.012069524 0.078134291 0.66700006
-0.010799048 0.078134291 0.66700006
-0.0095571438 0.078368574 0.66900003
-0.0082580959 0.078134291 0.66700006
-0.0070085721 0.078368574 0.66900003
-0.0054514287 0.074502863 0.63600004
-0.0031857146 0.078368574 0.66900003
-0.0019142858 0.07848572 0.67000002
-0.00063809525 0.07848572 0.67000002
0.00063809525 0.07848572 0.67000002
0.001917143 0.078602865 0.671
0.0031952383 0.078602865 0.671
0.0044733337 0.078602865 0.671
0.0057514291 0.078602865 0.671
0.0070295241 0.078602865 0.671
0.008320001 0.078720003 0.67200005
0.0096000005 0.078720003 0.67200005
0.010912382 0.078954294 0.67400002
0.012196192 0.078954294 0.67400002
0.013480001 0.078954294 0.67400002
0.014763811 0.078954294 0.67400002
0.016047619 0.078954294 0.67400002
0.017331429 0.078954294 0.67400002
0.01861524 0.078954294 0.67400002
0.01989905 0.078954294 0.67400002
0.021182859 0.078954294 0.67400002
0.022466669 0.078954294 0.67400002
0.023750478 0.078954294 0.67400002
0.025034288 0.078954294 0.67400002
0.026318097 0.078954294 0.67400002
0.026414288 0.07555715 0.64500004
0.027685717 0.075674288 0.64600003
0.028916193 0.075674288 0.64600003
0.030146668 0.075674288 0.64600003
-0.045101907 0.079404764 0.66700006
-0.04383143 0.079404764 0.66700006
-0.042560954 0.079404764 0.66700006
-0.041414287 0.079642862 0.66900003
-0.040140003 0.079642862 0.66900003
-0.038865715 0.079642862 0.66900003
-0.037591431 0.079642862 0.66900003
-0.036371432 0.079761907 0.67000002
-0.035095241 0.079761907 0.67000002
-0.03381905 0.079761907 0.67000002
-0.032542858 0.079761907 0.67000002
-0.031266667 0.079761907 0.67000002
-0.029945716 0.079642862 0.66900003
-0.028714288 0.079761907 0.67000002
-0.027438097 0.079761907 0.67000002
-0.026161907 0.079761907 0.67000002
-0.024922859 0.07988096 0.671
-0.023609525 0.079761907 0.67000002
-0.022366669 0.07988096 0.671
-0.021120001 0.080000006 0.67200005
-0.019840002 0.080000006 0.67200005
-0.018532382 0.07988096 0.671
-0.017228572 0.079761907 0.67000002
-0.015928572 0.079642862 0.66900003
-0.014610477 0.079404764 0.66700006
-0.013380001 0.079642862 0.66900003
-0.012069524 0.079404764 0.66700006
-0.01083143 0.079642862 0.66900003
-0.0095571438 0.079642862 0.66900003
-0.0079114288 0.076071434 0.63900006
-0.0066942861 0.076071434 0.63900006
-0.0054685716 0.075952388 0.63800001
-0.0042533334 0.075952388 0.63800001
-0.0019142858 0.079761907 0.67000002
-0.00063809525 0.079761907 0.67000002
0.00063904765 0.07988096 0.671
0.001917143 0.07988096 0.671
0.0031952383 0.07988096 0.671
0.0044800001 0.080000006 0.67200005
0.0057600006 0.080000006 0.67200005
0.0070400005 0.080000006 0.67200005
0.008344762 0.080238104 0.67400002
0.0096285725 0.080238104 0.67400002
0.010426668 0.076666668 0.64400005
0.011653334 0.076666668 0.64400005
0.012880001 0.076666668 0.64400005
0.014128572 0.076785721 0.64500004
0.015380953 0.076904766 0.64600003
0.016585715 0.076785721 0.64500004
0.01989905 0.080238104 0.67400002
0.020302858 0.076904766 0.64600003
0.021533335 0.076904766 0.64600003
0.022763811 0.076904766 0.64600003
0.023994287 0.076904766 0.64600003
0.025224764 0.076904766 0.64600003
0.02645524 0.076904766 0.64600003
0.027685717 0.076904766 0.64600003
0.028916193 0.076904766 0.64600003
0.030146668 0.076904766 0.64600003
0.031377144 0.076904766 0.64600003
0.032607622 0.076904766 0.64600003
-0.04383143 0.080675244 0.66700006
-0.042688575 0.08091715 0.66900003
-0.041414287 0.08091715 0.66900003
-0.040200002 0.081038103 0.67000002
-0.038923811 0.081038103 0.67000002
-0.03764762 0.081038103 0.67000002
-0.036371432 0.081038103 0.67000002
-0.035147622 0.081159055 0.671
-0.03381905 0.081038103 0.67000002
-0.032542858 0.081038103 0.67000002
-0.031266667 0.081038103 0.67000002
-0.029990477 0.081038103 0.67000002
-0.028714288 0.081038103 0.67000002
-0.027438097 0.081038103 0.67000002
-0.026161907 0.081038103 0.67000002
-0.024922859 0.081159055 0.671
-0.023644764 0.081159055 0.671
-0.022400001 0.081280008 0.67200005
-0.021182859 0.081521913 0.67400002
-0.01989905 0.081521913 0.67400002
-0.018560002 0.081280008 0.67200005
-0.017254287 0.081159055 0.671
-0.015952382 0.081038103 0.67000002
-0.014654287 0.08091715 0.66900003
-0.012800001 0.077409528 0.64000005
-0.011599048 0.077530481 0.64100003
-0.010378096 0.077530481 0.64100003
-0.0091571435 0.077530481 0.64100003
-0.0079114288 0.077288575 0.63900006
-0.0066942861 0.077288575 0.63900006
-0.0054685716 0.077167623 0.63800001
-0.0042533334 0.077167623 0.63800001
-0.001917143 0.081159055 0.671
-0.00060857146 0.077288575 0.63900006
0.00064000004 0.081280008 0.67200005
0.0018314287 0.077530481 0.64100003
0.003057143 0.077651434 0.64200002
0.0042800005 0.077651434 0.64200002
0.0055028577 0.077651434 0.64200002
0.0067257145 0.077651434 0.64200002
0.0079733338 0.077893339 0.64400005
0.0092000002 0.077893339 0.64400005
0.010442858 0.078014292 0.64500004
0.011653334 0.077893339 0.64400005
0.012880001 0.077893339 0.64400005
0.014128572 0.078014292 0.64500004
0.015380953 0.078135245 0.64600003
0.016585715 0.078014292 0.64500004
0.017814286 0.078014292 0.64500004
0.019072382 0.078135245 0.64600003
0.020302858 0.078135245 0.64600003
0.021533335 0.078135245 0.64600003
0.022763811 0.078135245 0.64600003
0.023994287 0.078135245 0.64600003
0.025224764 0.078135245 0.64600003
0.02645524 0.078135245 0.64600003
0.027685717 0.078135245 0.64600003
0.028916193 0.078135245 0.64600003
0.030146668 0.078135245 0.64600003
0.031377144 0.078135245 0.64600003
0.032607622 0.078135245 0.64600003
0.033838097 0.078135245 0.64600003
-0.042752385 0.08231429 0.67000002
-0.041476194 0.08231429 0.67000002
-0.040200002 0.08231429 0.67000002
-0.038923811 0.08231429 0.67000002
-0.037703812 0.08243715 0.671
-0.036425717 0.08243715 0.671
-0.035147622 0.08243715 0.671
-0.033869527 0.08243715 0.671
-0.032591432 0.08243715 0.671
-0.031313334 0.08243715 0.671
-0.029990477 0.08231429 0.67000002
-0.028757146 0.08243715 0.671
-0.026250478 0.078751437 0.64100003
-0.025029525 0.078751437 0.64100003
-0.023771429 0.078628577 0.64000005
-0.022400001 0.082560003 0.67200005
-0.021182859 0.082805723 0.67400002
-0.01989905 0.082805723 0.67400002
-0.018532382 0.08243715 0.671
-0.016457144 0.078628577 0.64000005
-0.015261906 0.078751437 0.64100003
-0.014040953 0.078751437 0.64100003
-0.012820001 0.078751437 0.64100003
-0.011599048 0.078751437 0.64100003
-0.010394286 0.07887429 0.64200002
-0.0091571435 0.078751437 0.64100003
-0.0079361908 0.078751437 0.64100003
-0.0067047626 0.078628577 0.64000005
-0.0054857144 0.078628577 0.64000005
-0.0042600003 0.078505717 0.63900006
-0.0030476192 0.078628577 0.64000005
-0.0018257144 0.078505717 0.63900006
-0.00060857146 0.078505717 0.63900006
0.00060952385 0.078628577 0.64000005
0.0018342858 0.07887429 0.64200002
0.0030666669 0.079120003 0.64400005
0.0042933337 0.079120003 0.64400005
0.0055200006 0.079120003 0.64400005
0.006746667 0.079120003 0.64400005
0.0079733338 0.079120003 0.64400005
0.0092142867 0.079242863 0.64500004
0.010442858 0.079242863 0.64500004
0.011671429 0.079242863 0.64500004
0.0129 0.079242863 0.64500004
0.014128572 0.079242863 0.64500004
0.015380953 0.079365723 0.64600003
0.016585715 0.079242863 0.64500004
0.017841905 0.079365723 0.64600003
0.019072382 0.079365723 0.64600003
0.020302858 0.079365723 0.64600003
0.021533335 0.079365723 0.64600003
0.022799049 0.079488575 0.64700001
0.023994287 0.079365723 0.64600003
0.025263811 0.079488575 0.64700001
0.026496192 0.079488575 0.64700001
0.027728572 0.079488575 0.64700001
0.028960954 0.079488575 0.64700001
0.030193334 0.079488575 0.64700001
0.031425714 0.079488575 0.64700001
0.032658096 0.079488575 0.64700001
0.033890478 0.079488575 0.64700001
0.03512286 0.079488575 0.64700001
-0.043546669 0.080346674 0.64400005
-0.042320002 0.080346674 0.64400005
-0.040901907 0.079972386 0.64100003
-0.039619051 0.079847626 0.64000005
-0.038400002 0.079847626 0.64000005
-0.037122861 0.079722859 0.63900006
-0.036588576 0.084089532 0.67400002
-0.035304762 0.084089532 0.67400002
-0.034020953 0.084089532 0.67400002
-0.032737143 0.084089532 0.67400002
-0.029866669 0.079847626 0.64000005
-0.02864762 0.079847626 0.64000005
-0.027471431 0.079972386 0.64100003
-0.026250478 0.079972386 0.64100003
-0.025029525 0.079972386 0.64100003
-0.023808572 0.079972386 0.64100003
-0.02258762 0.079972386 0.64100003
-0.021366669 0.079972386 0.64100003
-0.020145716 0.079972386 0.64100003
-0.018895239 0.079847626 0.64000005
-0.017676191 0.079847626 0.64000005
-0.016457144 0.079847626 0.64000005
-0.015261906 0.079972386 0.64100003
-0.014040953 0.079972386 0.64100003
-0.012820001 0.079972386 0.64100003
-0.011599048 0.079972386 0.64100003
-0.010394286 0.080097146 0.64200002
-0.0091571435 0.079972386 0.64100003
-0.0079485718 0.080097146 0.64200002
-0.0067152386 0.079972386 0.64100003
-0.0054857144 0.079847626 0.64000005
-0.0042666672 0.079847626 0.64000005
-0.0030523811 0.079972386 0.64100003
-0.0018314287 0.079972386 0.64100003
-0.00061047624 0.079972386 0.64100003
0.00061142864 0.080097146 0.64200002
0.0018400002 0.080346674 0.64400005
0.0030714287 0.080471434 0.64500004
0.0043000001 0.080471434 0.64500004
0.0055200006 0.080346674 0.64400005
0.0067571434 0.080471434 0.64500004
0.0079857148 0.080471434 0.64500004
0.0092142867 0.080471434 0.64500004
0.010442858 0.080471434 0.64500004
0.011671429 0.080471434 0.64500004
0.0129 0.080471434 0.64500004
0.014128572 0.080471434 0.64500004
0.015380953 0.080596194 0.64600003
0.016611429 0.080596194 0.64600003
0.017841905 0.080596194 0.64600003
0.019072382 0.080596194 0.64600003
0.020334287 0.080720961 0.64700001
0.021566669 0.080720961 0.64700001
0.022799049 0.080720961 0.64700001
0.02403143 0.080720961 0.64700001
0.025263811 0.080720961 0.64700001
0.026496192 0.080720961 0.64700001
0.027728572 0.080720961 0.64700001
0.028960954 0.080720961 0.64700001
0.030193334 0.080720961 0.64700001
0.031425714 0.080720961 0.64700001
0.032658096 0.080720961 0.64700001
0.033890478 0.080720961 0.64700001
0.03512286 0.080720961 0.64700001
-0.042320002 0.081573337 0.64400005
-0.040901907 0.081193335 0.64100003
-0.039680954 0.081193335 0.64100003
-0.038400002 0.081066675 0.64000005
-0.037122861 0.080940008 0.63900006
-0.035905715 0.080940008 0.63900006
-0.034742858 0.081066675 0.64000005
-0.033576194 0.081193335 0.64100003
-0.032405715 0.081320003 0.64200002
-0.031134287 0.081193335 0.64100003
-0.029866669 0.081066675 0.64000005
-0.028692383 0.081193335 0.64100003
-0.027471431 0.081193335 0.64100003
-0.026250478 0.081193335 0.64100003
-0.025029525 0.081193335 0.64100003
-0.023808572 0.081193335 0.64100003
-0.022622859 0.081320003 0.64200002
-0.021400001 0.081320003 0.64200002
-0.020145716 0.081193335 0.64100003
-0.018895239 0.081066675 0.64000005
-0.017703811 0.081193335 0.64100003
-0.016482858 0.081193335 0.64100003
-0.015285715 0.081320003 0.64200002
-0.014062858 0.081320003 0.64200002
-0.012840001 0.081320003 0.64200002
-0.011617144 0.081320003 0.64200002
-0.010426668 0.081573337 0.64400005
-0.0091714291 0.081320003 0.64200002
-0.0079485718 0.081320003 0.64200002
-0.0067257145 0.081320003 0.64200002
-0.0055028577 0.081320003 0.64200002
-0.0042733336 0.081193335 0.64100003
-0.003057143 0.081320003 0.64200002
-0.0018342858 0.081320003 0.64200002
-0.00061142864 0.081320003 0.64200002
0.00061142864 0.081320003 0.64200002
0.0018428572 0.081700005 0.64500004
0.0030714287 0.081700005 0.64500004
0.0043000001 0.081700005 0.64500004
0.005528572 0.081700005 0.64500004
0.0067571434 0.081700005 0.64500004
0.0079857148 0.081700005 0.64500004
0.0092142867 0.081700005 0.64500004
0.010442858 0.081700005 0.64500004
0.011671429 0.081700005 0.64500004
0.0129 0.081700005 0.64500004
0.014128572 0.081700005 0.64500004
0.015380953 0.081826672 0.64600003
0.016611429 0.081826672 0.64600003
0.017841905 0.081826672 0.64600003
0.019101907 0.081953339 0.64700001
0.020334287 0.081953339 0.64700001
0.021566669 0.081953339 0.64700001
0.022799049 0.081953339 0.64700001
0.024068573 0.082080007 0.648
0.025302859 0.082080007 0.648
0.026537145 0.082080007 0.648
0.02777143 0.082080007 0.648
0.029005716 0.082080007 0.648
0.030193334 0.081953339 0.64700001
0.031425714 0.081953339 0.64700001
0.032658096 0.081953339 0.64700001
0.033890478 0.081953339 0.64700001
-0.048528574 0.082928576 0.64500004
-0.047300003 0.082928576 0.64500004
-0.046071433 0.082928576 0.64500004
-0.044842862 0.082928576 0.64500004
-0.043546669 0.082800008 0.64400005
-0.042188574 0.082542859 0.64200002
-0.040901907 0.082414292 0.64100003
-0.039680954 0.082414292 0.64100003
-0.038340002 0.08215715 0.63900006
-0.037122861 0.08215715 0.63900006
-0.035905715 0.08215715 0.63900006
-0.034742858 0.082285717 0.64000005
-0.033576194 0.082414292 0.64100003
-0.032304764 0.082285717 0.64000005
-0.031085717 0.082285717 0.64000005
-0.029866669 0.082285717 0.64000005
-0.028692383 0.082414292 0.64100003
-0.027514288 0.082542859 0.64200002
-0.02629143 0.082542859 0.64200002
-0.025068574 0.082542859 0.64200002
-0.023845715 0.082542859 0.64200002
-0.022693334 0.082800008 0.64400005
-0.021400001 0.082542859 0.64200002
-0.020145716 0.082414292 0.64100003
-0.018895239 0.082285717 0.64000005
-0.017703811 0.082414292 0.64100003
-0.016482858 0.082414292 0.64100003
-0.015285715 0.082542859 0.64200002
-0.014062858 0.082542859 0.64200002
-0.012840001 0.082542859 0.64200002
-0.011653334 0.082800008 0.64400005
-0.010426668 0.082800008 0.64400005
-0.0092000002 0.082800008 0.64400005
-0.0079733338 0.082800008 0.64400005
-0.006746667 0.082800008 0.64400005
-0.0055028577 0.082542859 0.64200002
-0.0042800005 0.082542859 0.64200002
-0.003057143 0.082542859 0.64200002
-0.0018342858 0.082542859 0.64200002
-0.00061333337 0.082800008 0.64400005
0.00061142864 0.082542859 0.64200002
0.0018428572 0.082928576 0.64500004
0.0030714287 0.082928576 0.64500004
0.0043000001 0.082928576 0.64500004
0.005528572 0.082928576 0.64500004
0.0067676194 0.08305715 0.64600003
0.0079980958 0.08305715 0.64600003
0.0092285722 0.08305715 0.64600003
0.010459049 0.08305715 0.64600003
0.011689524 0.08305715 0.64600003
0.012920001 0.08305715 0.64600003
0.014150477 0.08305715 0.64600003
0.015380953 0.08305715 0.64600003
0.016611429 0.08305715 0.64600003
0.017869525 0.083185717 0.64700001
0.019101907 0.083185717 0.64700001
0.020334287 0.083185717 0.64700001
0.021566669 0.083185717 0.64700001
0.022834288 0.083314292 0.648
0.024068573 0.083314292 0.648
0.025302859 0.083314292 0.648
0.026537145 0.083314292 0.648
0.02777143 0.083314292 0.648
0.029005716 0.083314292 0.648
0.030240001 0.083314292 0.648
0.031425714 0.083185717 0.64700001
0.032658096 0.083185717 0.64700001
0.033838097 0.08305715 0.64600003
-0.048528574 0.084157147 0.64500004
-0.047373336 0.084287621 0.64600003
-0.046071433 0.084157147 0.64500004
-0.044842862 0.084157147 0.64500004
-0.04341143 0.083765723 0.64200002
-0.042188574 0.083765723 0.64200002
-0.040901907 0.083635241 0.64100003
-0.039742861 0.083765723 0.64200002
-0.038460001 0.083635241 0.64100003
-0.037239049 0.083635241 0.64100003
-0.036018096 0.083635241 0.64100003
-0.034851432 0.083765723 0.64200002
-0.033628572 0.083765723 0.64200002
-0.032405715 0.083765723 0.64200002
-0.031182859 0.083765723 0.64200002
-0.030053336 0.084026672 0.64400005
-0.028737145 0.083765723 0.64200002
-0.027600002 0.084026672 0.64400005
-0.026373334 0.084026672 0.64400005
-0.025146669 0.084026672 0.64400005
-0.023920001 0.084026672 0.64400005
-0.022693334 0.084026672 0.64400005
-0.021466669 0.084026672 0.64400005
-0.020240001 0.084026672 0.64400005
-0.018954286 0.083765723 0.64200002
-0.017703811 0.083635241 0.64100003
-0.016508572 0.083765723 0.64200002
-0.015333334 0.084026672 0.64400005
-0.014106668 0.084026672 0.64400005
-0.012880001 0.084026672 0.64400005
-0.011653334 0.084026672 0.64400005
-0.010442858 0.084157147 0.64500004
-0.0092142867 0.084157147 0.64500004
-0.0079733338 0.084026672 0.64400005
-0.0067571434 0.084157147 0.64500004
-0.005528572 0.084157147 0.64500004
-0.0042933337 0.084026672 0.64400005
-0.0030666669 0.084026672 0.64400005
-0.0018428572 0.084157147 0.64500004
-0.00061428576 0.084157147 0.64500004
0.00061428576 0.084157147 0.64500004
0.0018428572 0.084157147 0.64500004
0.0030761906 0.084287621 0.64600003
0.004306667 0.084287621 0.64600003
0.0055371434 0.084287621 0.64600003
0.0067676194 0.084287621 0.64600003
0.0079980958 0.084287621 0.64600003
0.0092285722 0.084287621 0.64600003
0.010475239 0.084418103 0.64700001
0.01170762 0.084418103 0.64700001
0.012940001 0.084418103 0.64700001
0.014172382 0.084418103 0.64700001
0.015428573 0.084548578 0.648
0.016662858 0.084548578 0.648
0.017897144 0.084548578 0.648
0.019131429 0.084548578 0.648
0.020365715 0.084548578 0.648
0.021666668 0.084809527 0.65000004
0.022904763 0.084809527 0.65000004
0.02414286 0.084809527 0.65000004
0.025380954 0.084809527 0.65000004
0.026619049 0.084809527 0.65000004
0.027857145 0.084809527 0.65000004
0.02909524 0.084809527 0.65000004
0.030333335 0.084809527 0.65000004
0.031474289 0.084548578 0.648
0.032658096 0.084418103 0.64700001
-0.048528574 0.085385717 0.64500004
-0.047373336 0.085518099 0.64600003
-0.046142861 0.085518099 0.64600003
-0.044912383 0.085518099 0.64600003
-0.04212286 0.084856197 0.64100003
-0.040901907 0.084856197 0.64100003
-0.039742861 0.084988579 0.64200002
-0.038460001 0.084856197 0.64100003
-0.037239049 0.084856197 0.64100003
-0.036074288 0.084988579 0.64200002
-0.034851432 0.084988579 0.64200002
-0.033628572 0.084988579 0.64200002
-0.032405715 0.084988579 0.64200002
-0.031182859 0.084988579 0.64200002
-0.030053336 0.085253336 0.64400005
-0.028826669 0.085253336 0.64400005
-0.027600002 0.085253336 0.64400005
-0.026373334 0.085253336 0.64400005
-0.025146669 0.085253336 0.64400005
-0.023920001 0.085253336 0.64400005
-0.022693334 0.085253336 0.64400005
-0.021466669 0.085253336 0.64400005
-0.020240001 0.085253336 0.64400005
-0.018954286 0.084988579 0.64200002
-0.01773143 0.084988579 0.64200002
-0.016560001 0.085253336 0.64400005
-0.015333334 0.085253336 0.64400005
-0.014106668 0.085253336 0.64400005
-0.012880001 0.085253336 0.64400005
-0.011653334 0.085253336 0.64400005
-0.010442858 0.085385717 0.64500004
-0.0092142867 0.085385717 0.64500004
-0.0079857148 0.085385717 0.64500004
-0.0067571434 0.085385717 0.64500004
-0.005528572 0.085385717 0.64500004
-0.0043000001 0.085385717 0.64500004
-0.0030714287 0.085385717 0.64500004
-0.0018428572 0.085385717 0.64500004
-0.00061523815 0.085518099 0.64600003
0.00061523815 0.085518099 0.64600003
0.0018457144 0.085518099 0.64600003
0.0030761906 0.085518099 0.64600003
0.004306667 0.085518099 0.64600003
0.0055457149 0.085650481 0.64700001
0.0067780958 0.085650481 0.64700001
0.0080104768 0.085650481 0.64700001
0.0092428578 0.085650481 0.64700001
0.010491429 0.085782863 0.648
0.011725715 0.085782863 0.648
0.012960001 0.085782863 0.648
0.014194286 0.085782863 0.648
0.015428573 0.085782863 0.648
0.016714286 0.086047627 0.65000004
0.017952383 0.086047627 0.65000004
0.019190477 0.086047627 0.65000004
0.020428572 0.086047627 0.65000004
0.021666668 0.086047627 0.65000004
0.022940002 0.086180009 0.65100002
0.024180003 0.086180009 0.65100002
0.025420001 0.086180009 0.65100002
0.026660001 0.086180009 0.65100002
0.027900001 0.086180009 0.65100002
0.029140001 0.086180009 0.65100002
0.030380001 0.086180009 0.65100002
0.031620003 0.086180009 0.65100002
0.032809526 0.086047627 0.65000004
-0.046071433 0.086614288 0.64500004
-0.040965717 0.086211435 0.64200002
-0.039866671 0.086480007 0.64400005
-0.038520001 0.086211435 0.64200002
-0.037297145 0.086211435 0.64200002
-0.036074288 0.086211435 0.64200002
-0.034960002 0.086480007 0.64400005
-0.033733334 0.086480007 0.64400005
-0.032506667 0.086480007 0.64400005
-0.031280003 0.086480007 0.64400005
-0.030053336 0.086480007 0.64400005
-0.028826669 0.086480007 0.64400005
-0.027600002 0.086480007 0.64400005
-0.026373334 0.086480007 0.64400005
-0.025185715 0.086614288 0.64500004
-0.023957144 0.086614288 0.64500004
-0.022728574 0.086614288 0.64500004
-0.021500001 0.086614288 0.64500004
-0.02027143 0.086614288 0.64500004
-0.019013334 0.086480007 0.64400005
-0.017786669 0.086480007 0.64400005
-0.016560001 0.086480007 0.64400005
-0.015333334 0.086480007 0.64400005
-0.014106668 0.086480007 0.64400005
-0.012880001 0.086480007 0.64400005
-0.011653334 0.086480007 0.64400005
-0.010442858 0.086614288 0.64500004
-0.0092142867 0.086614288 0.64500004
-0.0079857148 0.086614288 0.64500004
-0.0067676194 0.086748578 0.64600003
-0.0055371434 0.086748578 0.64600003
-0.0043000001 0.086614288 0.64500004
-0.0030761906 0.086748578 0.64600003
-0.0018457144 0.086748578 0.64600003
-0.00061523815 0.086748578 0.64600003
0.00061523815 0.086748578 0.64600003
0.0018457144 0.086748578 0.64600003
0.0030809527 0.086882859 0.64700001
0.0043133334 0.086882859 0.64700001
0.0055457149 0.086882859 0.64700001
0.0067780958 0.086882859 0.64700001
0.0080104768 0.086882859 0.64700001
0.0092571434 0.087017149 0.648
0.010491429 0.087017149 0.648
0.011725715 0.087017149 0.648
0.013000001 0.08728572 0.65000004
0.014238096 0.08728572 0.65000004
0.015476191 0.08728572 0.65000004
0.016714286 0.08728572 0.65000004
0.017952383 0.08728572 0.65000004
0.019190477 0.08728572 0.65000004
0.020428572 0.08728572 0.65000004
0.021700002 0.087420009 0.65100002
0.022940002 0.087420009 0.65100002
0.024217144 0.087554291 0.65200001
0.025420001 0.087420009 0.65100002
0.026660001 0.087420009 0.65100002
0.027900001 0.087420009 0.65100002
0.029140001 0.087420009 0.65100002
0.030380001 0.087420009 0.65100002
0.031620003 0.087420009 0.65100002
0.032860003 0.087420009 0.65100002
-0.042320002 0.08770667 0.64400005
-0.041093335 0.08770667 0.64400005
-0.039866671 0.08770667 0.64400005
-0.038640004 0.08770667 0.64400005
-0.037413336 0.08770667 0.64400005
-0.036186669 0.08770667 0.64400005
-0.034960002 0.08770667 0.64400005
-0.033733334 0.08770667 0.64400005
-0.032506667 0.08770667 0.64400005
-0.031280003 0.08770667 0.64400005
-0.030100003 0.087842859 0.64500004
-0.02887143 0.087842859 0.64500004
-0.027642859 0.087842859 0.64500004
-0.026414288 0.087842859 0.64500004
-0.025185715 0.087842859 0.64500004
-0.023957144 0.087842859 0.64500004
-0.022728574 0.087842859 0.64500004
-0.021500001 0.087842859 0.64500004
-0.02027143 0.087842859 0.64500004
-0.019013334 0.08770667 0.64400005
-0.017786669 0.08770667 0.64400005
-0.016585715 0.087842859 0.64500004
-0.015357144 0.087842859 0.64500004
-0.014128572 0.087842859 0.64500004
-0.012920001 0.087979056 0.64600003
-0.011689524 0.087979056 0.64600003
-0.010459049 0.087979056 0.64600003
-0.0092285722 0.087979056 0.64600003
-0.0079980958 0.087979056 0.64600003
-0.0067676194 0.087979056 0.64600003
-0.0055371434 0.087979056 0.64600003
-0.0043000001 0.087842859 0.64500004
-0.0030761906 0.087979056 0.64600003
-0.0018457144 0.087979056 0.64600003
-0.00061523815 0.087979056 0.64600003
0.00061523815 0.087979056 0.64600003
0.0018457144 0.087979056 0.64600003
0.0030809527 0.088115245 0.64700001
0.0043133334 0.088115245 0.64700001
0.0055457149 0.088115245 0.64700001
0.0067780958 0.088115245 0.64700001
0.0080228578 0.088251434 0.648
0.0092571434 0.088251434 0.648
0.010491429 0.088251434 0.648
0.011725715 0.088251434 0.648
0.013000001 0.088523813 0.65000004
0.014238096 0.088523813 0.65000004
0.015476191 0.088523813 0.65000004
0.016714286 0.088523813 0.65000004
0.017980002 0.088660009 0.65100002
0.019220002 0.088660009 0.65100002
0.020460002 0.088660009 0.65100002
0.021700002 0.088660009 0.65100002
0.02297524 0.088796198 0.65200001
0.024217144 0.088796198 0.65200001
0.025459049 0.088796198 0.65200001
0.026700955 0.088796198 0.65200001
0.027942859 0.088796198 0.65200001
0.029184764 0.088796198 0.65200001
0.030426668 0.088796198 0.65200001
0.031668574 0.088796198 0.65200001
-0.042385716 0.089071438 0.64500004
-0.041157145 0.089071438 0.64500004
-0.039928574 0.089071438 0.64500004
-0.038700003 0.089071438 0.64500004
-0.037471432 0.089071438 0.64500004
-0.036242861 0.089071438 0.64500004
-0.035014287 0.089071438 0.64500004
-0.033733334 0.088933341 0.64400005
-0.032557145 0.089071438 0.64500004
-0.031328574 0.089071438 0.64500004
-0.030100003 0.089071438 0.64500004
-0.02887143 0.089071438 0.64500004
-0.027642859 0.089071438 0.64500004
-0.026414288 0.089071438 0.64500004
-0.025185715 0.089071438 0.64500004
-0.023957144 0.089071438 0.64500004
-0.022728574 0.089071438 0.64500004
-0.021533335 0.089209527 0.64600003
-0.020302858 0.089209527 0.64600003
-0.019042859 0.089071438 0.64500004
-0.017814286 0.089071438 0.64500004
-0.016611429 0.089209527 0.64600003
-0.015380953 0.089209527 0.64600003
-0.014150477 0.089209527 0.64600003
-0.012920001 0.089209527 0.64600003
-0.01170762 0.089347623 0.64700001
-0.010459049 0.089209527 0.64600003
-0.0092285722 0.089209527 0.64600003
-0.0079980958 0.089209527 0.64600003
-0.0067780958 0.089347623 0.64700001
-0.0055371434 0.089209527 0.64600003
-0.004306667 0.089209527 0.64600003
-0.0030809527 0.089347623 0.64700001
-0.0018457144 0.089209527 0.64600003
-0.00061619049 0.089347623 0.64700001
0.00061619049 0.089347623 0.64700001
0.0018514286 0.08948572 0.648
0.0030809527 0.089347623 0.64700001
0.0043133334 0.089347623 0.64700001
0.0055542863 0.08948572 0.648
0.0067885718 0.08948572 0.648
0.0080228578 0.08948572 0.648
0.0092571434 0.08948572 0.648
0.010491429 0.08948572 0.648
0.011725715 0.08948572 0.648
0.013000001 0.089761913 0.65000004
0.014260001 0.089900009 0.65100002
0.015500001 0.089900009 0.65100002
0.016714286 0.089761913 0.65000004
0.017980002 0.089900009 0.65100002
0.019220002 0.089900009 0.65100002
0.020460002 0.089900009 0.65100002
0.021733334 0.090038098 0.65200001
0.02297524 0.090038098 0.65200001
0.024217144 0.090038098 0.65200001
0.025459049 0.090038098 0.65200001
0.026700955 0.090038098 0.65200001
0.027942859 0.090038098 0.65200001
0.029184764 0.090038098 0.65200001
0.030473335 0.090176195 0.65300006
0.031668574 0.090038098 0.65200001
-0.042385716 0.090300009 0.64500004
-0.041157145 0.090300009 0.64500004
-0.039928574 0.090300009 0.64500004
-0.038700003 0.090300009 0.64500004
-0.037471432 0.090300009 0.64500004
-0.036242861 0.090300009 0.64500004
-0.035014287 0.090300009 0.64500004
-0.033785716 0.090300009 0.64500004
-0.032557145 0.090300009 0.64500004
-0.031328574 0.090300009 0.64500004
-0.030146668 0.090440005 0.64600003
-0.028916193 0.090440005 0.64600003
-0.027685717 0.090440005 0.64600003
-0.02645524 0.090440005 0.64600003
-0.025224764 0.090440005 0.64600003
-0.023994287 0.090440005 0.64600003
-0.022799049 0.090580009 0.64700001
-0.021566669 0.090580009 0.64700001
-0.020334287 0.090580009 0.64700001
-0.019072382 0.090440005 0.64600003
-0.017841905 0.090440005 0.64600003
-0.016611429 0.090440005 0.64600003
-0.015380953 0.090440005 0.64600003
-0.014150477 0.090440005 0.64600003
-0.012920001 0.090440005 0.64600003
-0.011689524 0.090440005 0.64600003
-0.010459049 0.090440005 0.64600003
-0.0092428578 0.090580009 0.64700001
-0.0080104768 0.090580009 0.64700001
-0.0067780958 0.090580009 0.64700001
-0.0055457149 0.090580009 0.64700001
-0.0043133334 0.090580009 0.64700001
-0.0030809527 0.090580009 0.64700001
-0.0018485716 0.090580009 0.64700001
-0.00061619049 0.090580009 0.64700001
0.00061619049 0.090580009 0.64700001
0.0018485716 0.090580009 0.64700001
0.0030809527 0.090580009 0.64700001
0.0043200003 0.090720005 0.648
0.0055542863 0.090720005 0.648
0.0067885718 0.090720005 0.648
0.0080476198 0.091000006 0.65000004
0.0092857145 0.091000006 0.65000004
0.010491429 0.090720005 0.648
0.011780001 0.091140009 0.65100002
0.01302 0.091140009 0.65100002
0.014260001 0.091140009 0.65100002
0.015500001 0.091140009 0.65100002
0.016740002 0.091140009 0.65100002
0.017980002 0.091140009 0.65100002
0.019220002 0.091140009 0.65100002
0.020491431 0.091280006 0.65200001
0.021733334 0.091280006 0.65200001
0.023010477 0.091420002 0.65300006
0.024254287 0.091420002 0.65300006
0.025498098 0.091420002 0.65300006
0.026741907 0.091420002 0.65300006
0.027985716 0.091420002 0.65300006
0.029229525 0.091420002 0.65300006
0.030473335 0.091420002 0.65300006
0.031717144 0.091420002 0.65300006
0.032960955 0.091420002 0.65300006
-0.04245143 0.091670483 0.64600003
-0.041157145 0.09152858 0.64500004
-0.039928574 0.09152858 0.64500004
-0.038700003 0.09152858 0.64500004
-0.037529524 0.091670483 0.64600003
-0.03629905 0.091670483 0.64600003
-0.035068575 0.091670483 0.64600003
-0.033838097 0.091670483 0.64600003
-0.032658096 0.091812387 0.64700001
-0.031425714 0.091812387 0.64700001
-0.030193334 0.091812387 0.64700001
-0.028960954 0.091812387 0.64700001
-0.027728572 0.091812387 0.64700001
-0.026496192 0.091812387 0.64700001
-0.025263811 0.091812387 0.64700001
-0.02403143 0.091812387 0.64700001
-0.022799049 0.091812387 0.64700001
-0.021566669 0.091812387 0.64700001
-0.020365715 0.091954291 0.648
-0.019101907 0.091812387 0.64700001
-0.017869525 0.091812387 0.64700001
-0.016637145 0.091812387 0.64700001
-0.015404763 0.091812387 0.64700001
-0.014172382 0.091812387 0.64700001
-0.012940001 0.091812387 0.64700001
-0.011689524 0.091670483 0.64600003
-0.010459049 0.091670483 0.64600003
-0.0092428578 0.091812387 0.64700001
-0.0080104768 0.091812387 0.64700001
-0.0067780958 0.091812387 0.64700001
-0.0055457149 0.091812387 0.64700001
-0.0043133334 0.091812387 0.64700001
-0.0030809527 0.091812387 0.64700001
-0.0018485716 0.091812387 0.64700001
-0.00061714288 0.091954291 0.648
0.00061714288 0.091954291 0.648
0.0018514286 0.091954291 0.648
0.0030857145 0.091954291 0.648
0.0043200003 0.091954291 0.648
0.0055542863 0.091954291 0.648
0.0068095243 0.092238098 0.65000004
0.0080476198 0.092238098 0.65000004
0.009300001 0.09238001 0.65100002
0.010540001 0.09238001 0.65100002
0.011780001 0.09238001 0.65100002
0.01302 0.09238001 0.65100002
0.014260001 0.09238001 0.65100002
0.015500001 0.09238001 0.65100002
0.016740002 0.09238001 0.65100002
0.017980002 0.09238001 0.65100002
0.019220002 0.09238001 0.65100002
0.020491431 0.092521913 0.65200001
0.021766668 0.092663817 0.65300006
0.023010477 0.092663817 0.65300006
0.024254287 0.092663817 0.65300006
0.025498098 0.092663817 0.65300006
0.026741907 0.092663817 0.65300006
0.027985716 0.092663817 0.65300006
0.029229525 0.092663817 0.65300006
0.030473335 0.092663817 0.65300006
0.031717144 0.092663817 0.65300006
0.033061907 0.092947625 0.65500003
-0.04245143 0.092900962 0.64600003
-0.041220956 0.092900962 0.64600003
-0.039990477 0.092900962 0.64600003
-0.038760003 0.092900962 0.64600003
-0.037529524 0.092900962 0.64600003
-0.03629905 0.092900962 0.64600003
-0.035068575 0.092900962 0.64600003
-0.033890478 0.093044765 0.64700001
-0.032658096 0.093044765 0.64700001
-0.031474289 0.093188576 0.648
-0.030240001 0.093188576 0.648
-0.029005716 0.093188576 0.648
-0.02777143 0.093188576 0.648
-0.026537145 0.093188576 0.648
-0.025302859 0.093188576 0.648
-0.024068573 0.093188576 0.648
-0.022834288 0.093188576 0.648
-0.021600001 0.093188576 0.648
-0.020365715 0.093188576 0.648
-0.019101907 0.093044765 0.64700001
-0.017869525 0.093044765 0.64700001
-0.016637145 0.093044765 0.64700001
-0.015404763 0.093044765 0.64700001
-0.014172382 0.093044765 0.64700001
-0.012940001 0.093044765 0.64700001
-0.01170762 0.093044765 0.64700001
-0.010475239 0.093044765 0.64700001
-0.0092428578 0.093044765 0.64700001
-0.0080104768 0.093044765 0.64700001
-0.0067780958 0.093044765 0.64700001
-0.0055542863 0.093188576 0.648
-0.0043200003 0.093188576 0.648
-0.0030952382 0.093476199 0.65000004
-0.0018514286 0.093188576 0.648
-0.00061904767 0.093476199 0.65000004
0.00061904767 0.093476199 0.65000004
0.001857143 0.093476199 0.65000004
0.0030857145 0.093188576 0.648
0.0043200003 0.093188576 0.648
0.0055542863 0.093188576 0.648
0.0068095243 0.093476199 0.65000004
0.0080600008 0.09362001 0.65100002
0.009300001 0.09362001 0.65100002
0.010540001 0.09362001 0.65100002
0.011780001 0.09362001 0.65100002
0.01302 0.09362001 0.65100002
0.014260001 0.09362001 0.65100002
0.015523811 0.093763813 0.65200001
0.016765716 0.093763813 0.65200001
0.018007619 0.093763813 0.65200001
0.019249525 0.093763813 0.65200001
0.020491431 0.093763813 0.65200001
0.021766668 0.093907624 0.65300006
0.023010477 0.093907624 0.65300006
0.024254287 0.093907624 0.65300006
0.025498098 0.093907624 0.65300006
0.026741907 0.093907624 0.65300006
0.02807143 0.094195247 0.65500003
0.02931905 0.094195247 0.65500003
0.030566668 0.094195247 0.65500003
0.031717144 0.093907624 0.65300006
0.033061907 0.094195247 0.65500003
-0.042517144 0.094277151 0.64700001
-0.041284766 0.094277151 0.64700001
-0.040052384 0.094277151 0.64700001
-0.038820002 0.094277151 0.64700001
-0.03758762 0.094277151 0.64700001
-0.036355242 0.094277151 0.64700001
-0.03512286 0.094277151 0.64700001
-0.03394286 0.094422862 0.648
-0.032708574 0.094422862 0.648
-0.031571429 0.094714291 0.65000004
-0.030333335 0.094714291 0.65000004
-0.02909524 0.094714291 0.65000004
-0.027857145 0.094714291 0.65000004
-0.026619049 0.094714291 0.65000004
-0.025302859 0.094422862 0.648
-0.024068573 0.094422862 0.648
-0.022834288 0.094422862 0.648
-0.021666668 0.094714291 0.65000004
-0.020428572 0.094714291 0.65000004
-0.019131429 0.094422862 0.648
-0.017897144 0.094422862 0.648
-0.016662858 0.094422862 0.648
-0.015428573 0.094422862 0.648
-0.014194286 0.094422862 0.648
-0.012960001 0.094422862 0.648
-0.011725715 0.094422862 0.648
-0.010475239 0.094277151 0.64700001
-0.0092428578 0.094277151 0.64700001
-0.0080228578 0.094422862 0.648
-0.0067885718 0.094422862 0.648
-0.0055714292 0.094714291 0.65000004
-0.0043333336 0.094714291 0.65000004
-0.0031000001 0.09486001 0.65100002
-0.0018600001 0.09486001 0.65100002
-0.00062000006 0.09486001 0.65100002
0.00062000006 0.09486001 0.65100002
0.0018600001 0.09486001 0.65100002
0.0031000001 0.09486001 0.65100002
0.0043333336 0.094714291 0.65000004
0.0055714292 0.094714291 0.65000004
0.0068095243 0.094714291 0.65000004
0.0080600008 0.09486001 0.65100002
0.009300001 0.09486001 0.65100002
0.010556191 0.095005721 0.65200001
0.011798096 0.095005721 0.65200001
0.013040001 0.095005721 0.65200001
0.014281905 0.095005721 0.65200001
0.015523811 0.095005721 0.65200001
0.016765716 0.095005721 0.65200001
0.018007619 0.095005721 0.65200001
0.01927905 0.095151432 0.65300006
0.020522859 0.095151432 0.65300006
0.021833334 0.095442861 0.65500003
0.023080954 0.095442861 0.65500003
0.024328573 0.095442861 0.65500003
0.025576193 0.095442861 0.65500003
0.026823811 0.095442861 0.65500003
0.02807143 0.095442861 0.65500003
0.02931905 0.095442861 0.65500003
0.030566668 0.095442861 0.65500003
0.031814288 0.095442861 0.65500003
0.033112384 0.09558858 0.65600002
-0.042517144 0.095509529 0.64700001
-0.041284766 0.095509529 0.64700001
-0.040052384 0.095509529 0.64700001
-0.038820002 0.095509529 0.64700001
-0.037645716 0.095657147 0.648
-0.036411431 0.095657147 0.648
-0.035177145 0.095657147 0.648
-0.034047622 0.095952384 0.65000004
-0.032809526 0.095952384 0.65000004
-0.031571429 0.095952384 0.65000004
-0.030333335 0.095952384 0.65000004
-0.02909524 0.095952384 0.65000004
-0.027857145 0.095952384 0.65000004
-0.026619049 0.095952384 0.65000004
-0.025380954 0.095952384 0.65000004
-0.02414286 0.095952384 0.65000004
-0.022904763 0.095952384 0.65000004
-0.021666668 0.095952384 0.65000004
-0.020428572 0.095952384 0.65000004
-0.019131429 0.095657147 0.648
-0.017897144 0.095657147 0.648
-0.016714286 0.095952384 0.65000004
-0.015476191 0.095952384 0.65000004
-0.014238096 0.095952384 0.65000004
-0.012960001 0.095657147 0.648
-0.011725715 0.095657147 0.648
-0.010491429 0.095657147 0.648
-0.0092571434 0.095657147 0.648
-0.0080228578 0.095657147 0.648
-0.0068200002 0.09610001 0.65100002
-0.0055800006 0.09610001 0.65100002
-0.0043400005 0.09610001 0.65100002
-0.0031047622 0.096247628 0.65200001
-0.0018628573 0.096247628 0.65200001
-0.0006209524 0.096247628 0.65200001
0.0006209524 0.096247628 0.65200001
0.0018628573 0.096247628 0.65200001
0.0031047622 0.096247628 0.65200001
0.0043400005 0.09610001 0.65100002
0.0055800006 0.09610001 0.65100002
0.0068200002 0.09610001 0.65100002
0.0080600008 0.09610001 0.65100002
0.0093142865 0.096247628 0.65200001
0.010556191 0.096247628 0.65200001
0.011798096 0.096247628 0.65200001
0.013040001 0.096247628 0.65200001
0.014281905 0.096247628 0.65200001
0.015523811 0.096247628 0.65200001
0.016765716 0.096247628 0.65200001
0.018035239 0.096395247 0.65300006
0.01927905 0.096395247 0.65300006
0.020585716 0.096690483 0.65500003
0.021833334 0.096690483 0.65500003
0.023080954 0.096690483 0.65500003
0.024328573 0.096690483 0.65500003
0.02561524 0.096838102 0.65600002
0.026864763 0.096838102 0.65600002
0.028114287 0.096838102 0.65600002
0.029363811 0.096838102 0.65600002
0.030613335 0.096838102 0.65600002
0.031862859 0.096838102 0.65600002
0.033162858 0.09698572 0.65700001
-0.04519048 0.097190484 0.65000004
-0.042845719 0.097489528 0.65200001
-0.041603811 0.097489528 0.65200001
-0.040361907 0.097489528 0.65200001
-0.039120004 0.097489528 0.65200001
-0.037820004 0.09734001 0.65100002
-0.036580004 0.09734001 0.65100002
-0.035394289 0.097489528 0.65200001
-0.034152385 0.097489528 0.65200001
-0.032860003 0.09734001 0.65100002
-0.031668574 0.097489528 0.65200001
-0.030426668 0.097489528 0.65200001
-0.029184764 0.097489528 0.65200001
-0.027942859 0.097489528 0.65200001
-0.026660001 0.09734001 0.65100002
-0.025420001 0.09734001 0.65100002
-0.024180003 0.09734001 0.65100002
-0.022940002 0.09734001 0.65100002
-0.021700002 0.09734001 0.65100002
-0.020460002 0.09734001 0.65100002
-0.019190477 0.097190484 0.65000004
-0.017980002 0.09734001 0.65100002
-0.016740002 0.09734001 0.65100002
-0.015500001 0.09734001 0.65100002
-0.014260001 0.09734001 0.65100002
-0.01302 0.09734001 0.65100002
-0.011780001 0.09734001 0.65100002
-0.010556191 0.097489528 0.65200001
-0.0093142865 0.097489528 0.65200001
-0.0080723818 0.097489528 0.65200001
-0.0068304767 0.097489528 0.65200001
-0.005588572 0.097489528 0.65200001
-0.0043466669 0.097489528 0.65200001
-0.003109524 0.097639054 0.65300006
-0.0018657144 0.097639054 0.65300006
-0.00062190479 0.097639054 0.65300006
0.00062190479 0.097639054 0.65300006
0.0018657144 0.097639054 0.65300006
0.0031047622 0.097489528 0.65200001
0.0043466669 0.097489528 0.65200001
0.005588572 0.097489528 0.65200001
0.0068304767 0.097489528 0.65200001
0.0080723818 0.097489528 0.65200001
0.0093285721 0.097639054 0.65300006
0.010572381 0.097639054 0.65300006
0.011816191 0.097639054 0.65300006
0.013060001 0.097639054 0.65300006
0.01434762 0.097938098 0.65500003
0.015595239 0.097938098 0.65500003
0.016842859 0.097938098 0.65500003
0.018118097 0.098087624 0.65600002
0.01936762 0.098087624 0.65600002
0.020617144 0.098087624 0.65600002
0.021900002 0.098237149 0.65700001
0.023151429 0.098237149 0.65700001
0.024402859 0.098237149 0.65700001
0.025654288 0.098237149 0.65700001
0.026905715 0.098237149 0.65700001
0.028157145 0.098237149 0.65700001
0.029408574 0.098237149 0.65700001
0.030660002 0.098237149 0.65700001
0.031960003 0.098386675 0.65800005
-0.04519048 0.098428577 0.65000004
-0.043952383 0.098428577 0.65000004
-0.042780004 0.098580003 0.65100002
-0.041603811 0.098731436 0.65200001
-0.040361907 0.098731436 0.65200001
-0.039120004 0.098731436 0.65200001
-0.037820004 0.098580003 0.65100002
-0.036580004 0.098580003 0.65100002
-0.035394289 0.098731436 0.65200001
-0.034152385 0.098731436 0.65200001
-0.032910477 0.098731436 0.65200001
-0.031668574 0.098731436 0.65200001
-0.030426668 0.098731436 0.65200001
-0.029184764 0.098731436 0.65200001
-0.027942859 0.098731436 0.65200001
-0.026700955 0.098731436 0.65200001
-0.025420001 0.098580003 0.65100002
-0.024180003 0.098580003 0.65100002
-0.022940002 0.098580003 0.65100002
-0.021733334 0.098731436 0.65200001
-0.020491431 0.098731436 0.65200001
-0.019220002 0.098580003 0.65100002
-0.017980002 0.098580003 0.65100002
-0.016740002 0.098580003 0.65100002
-0.015500001 0.098580003 0.65100002
-0.014260001 0.098580003 0.65100002
-0.013040001 0.098731436 0.65200001
-0.011780001 0.098580003 0.65100002
-0.010556191 0.098731436 0.65200001
-0.0093142865 0.098731436 0.65200001
-0.0080847628 0.098882861 0.65300006
-0.0068409527 0.098882861 0.65300006
-0.0055971434 0.098882861 0.65300006
-0.0043533337 0.098882861 0.65300006
-0.003109524 0.098882861 0.65300006
-0.0018657144 0.098882861 0.65300006
-0.00062190479 0.098882861 0.65300006
0.00062190479 0.098882861 0.65300006
0.0018657144 0.098882861 0.65300006
0.003109524 0.098882861 0.65300006
0.0043533337 0.098882861 0.65300006
0.0055971434 0.098882861 0.65300006
0.0068409527 0.098882861 0.65300006
0.0080847628 0.098882861 0.65300006
0.0093285721 0.098882861 0.65300006
0.010604762 0.09918572 0.65500003
0.011852382 0.09918572 0.65500003
0.013100001 0.09918572 0.65500003
0.014369525 0.099337146 0.65600002
0.015619049 0.099337146 0.65600002
0.016868573 0.099337146 0.65600002
0.018118097 0.099337146 0.65600002
0.019397143 0.099488579 0.65700001
0.020648573 0.099488579 0.65700001
0.021900002 0.099488579 0.65700001
0.023151429 0.099488579 0.65700001
0.024402859 0.099488579 0.65700001
0.025654288 0.099488579 0.65700001
0.026946668 0.099640004 0.65800005
0.028200002 0.099640004 0.65800005
0.029453335 0.099640004 0.65800005
0.030706668 0.099640004 0.65800005
0.031960003 0.099640004 0.65800005
-0.044020005 0.099820003 0.65100002
-0.042780004 0.099820003 0.65100002
-0.041603811 0.099973343 0.65200001
-0.040361907 0.099973343 0.65200001
-0.039060004 0.099820003 0.65100002
-0.037820004 0.099820003 0.65100002
-0.036580004 0.099820003 0.65100002
-0.035394289 0.099973343 0.65200001
-0.034152385 0.099973343 0.65200001
-0.032910477 0.099973343 0.65200001
-0.031668574 0.099973343 0.65200001
-0.030426668 0.099973343 0.65200001
-0.029229525 0.10012668 0.65300006
-0.027985716 0.10012668 0.65300006
-0.026741907 0.10012668 0.65300006
-0.025459049 0.099973343 0.65200001
-0.024217144 0.099973343 0.65200001
-0.02297524 0.099973343 0.65200001
-0.021766668 0.10012668 0.65300006
-0.020522859 0.10012668 0.65300006
-0.019249525 0.099973343 0.65200001
-0.018007619 0.099973343 0.65200001
-0.016765716 0.099973343 0.65200001
-0.015523811 0.099973343 0.65200001
-0.014281905 0.099973343 0.65200001
-0.013040001 0.099973343 0.65200001
-0.011798096 0.099973343 0.65200001
-0.010556191 0.099973343 0.65200001
-0.0093142865 0.099973343 0.65200001
-0.0080847628 0.10012668 0.65300006
-0.0068409527 0.10012668 0.65300006
-0.0055971434 0.10012668 0.65300006
-0.0043533337 0.10012668 0.65300006
-0.0031190477 0.10043334 0.65500003
-0.0018714287 0.10043334 0.65500003
-0.00062380958 0.10043334 0.65500003
0.00062380958 0.10043334 0.65500003
0.0018657144 0.10012668 0.65300006
0.003109524 0.10012668 0.65300006
0.0043533337 0.10012668 0.65300006
0.0055971434 0.10012668 0.65300006
0.0068409527 0.10012668 0.65300006
0.0080847628 0.10012668 0.65300006
0.0093571432 0.10043334 0.65500003
0.010604762 0.10043334 0.65500003
0.011870477 0.10058668 0.65600002
0.013120001 0.10058668 0.65600002
0.014369525 0.10058668 0.65600002
0.015619049 0.10058668 0.65600002
0.016894286 0.10074001 0.65700001
0.018145716 0.10074001 0.65700001
0.019397143 0.10074001 0.65700001
0.020648573 0.10074001 0.65700001
0.021900002 0.10074001 0.65700001
0.023151429 0.10074001 0.65700001
0.024402859 0.10074001 0.65700001
0.025693335 0.10089334 0.65800005
0.026946668 0.10089334 0.65800005
0.028200002 0.10089334 0.65800005
0.029453335 0.10089334 0.65800005
0.030706668 0.10089334 0.65800005
0.032057144 0.10120001 0.66000003
0.033314288 0.10120001 0.66000003
-0.045399051 0.10137048 0.65300006
-0.044087622 0.10121524 0.65200001
-0.042845719 0.10121524 0.65200001
-0.041603811 0.10121524 0.65200001
-0.040361907 0.10121524 0.65200001
-0.039120004 0.10121524 0.65200001
-0.037878096 0.10121524 0.65200001
-0.036580004 0.10106 0.65100002
-0.035448574 0.10137048 0.65300006
-0.034204762 0.10137048 0.65300006
-0.032960955 0.10137048 0.65300006
-0.031717144 0.10137048 0.65300006
