# .PCD v0.7 - Point Cloud Data file format
VERSION 0.7
FIELDS x y z
SIZE 4 4 4
TYPE F F F
COUNT 1 1 1
WIDTH 759
HEIGHT 1
VIEWPOINT 0 0 0 1 0 0 0
POINTS 759
DATA ascii
-0.061452385 0.013119048 0.72500002
-0.060071431 0.013119048 0.72500002
-0.058690481 0.013119048 0.72500002
-0.057309527 0.013119048 0.72500002
-0.055928577 0.013119048 0.72500002
-0.054547623 0.013119048 0.72500002
-0.053020004 0.013082858 0.72300005
-0.051785719 0.013119048 0.72500002
0.17356668 0.016086668 0.88900006
0.17526001 0.016086668 0.88900006
-0.087206669 0.01778 0.88900006
-0.085513338 0.01778 0.88900006
-0.068357147 0.014500001 0.72500002
-0.066976197 0.014500001 0.72500002
-0.065414287 0.014460001 0.72300005
-0.064214289 0.014500001 0.72500002
-0.062833339 0.014500001 0.72500002
-0.061452385 0.014500001 0.72500002
-0.060071431 0.014500001 0.72500002
-0.058690481 0.014500001 0.72500002
-0.057309527 0.014500001 0.72500002
-0.055928577 0.014500001 0.72500002
-0.054547623 0.014500001 0.72500002
-0.053166669 0.014500001 0.72500002
-0.051785719 0.014500001 0.72500002
-0.05047429 0.014520001 0.72600001
-0.049091432 0.014520001 0.72600001
-0.047642861 0.014500001 0.72500002
0.17486572 0.017740002 0.88700002
-0.071119055 0.015880954 0.72500002
-0.069738097 0.015880954 0.72500002
-0.068357147 0.015880954 0.72500002
-0.066976197 0.015880954 0.72500002
-0.065595239 0.015880954 0.72500002
-0.064214289 0.015880954 0.72500002
-0.062833339 0.015880954 0.72500002
-0.061537147 0.015902858 0.72600001
-0.060154289 0.015902858 0.72600001
-0.058690481 0.015880954 0.72500002
-0.057388574 0.015902858 0.72600001
-0.056005716 0.015902858 0.72600001
-0.054622862 0.015902858 0.72600001
-0.053166669 0.015880954 0.72500002
-0.051857147 0.015902858 0.72600001
-0.05047429 0.015902858 0.72600001
-0.049091432 0.015902858 0.72600001
-0.047642861 0.015880954 0.72500002
-0.046261907 0.015880954 0.72500002
-0.044880956 0.015880954 0.72500002
-0.073982865 0.017285716 0.72600001
-0.072500005 0.017261906 0.72500002
-0.071119055 0.017261906 0.72500002
-0.069738097 0.017261906 0.72500002
-0.068357147 0.017261906 0.72500002
-0.066976197 0.017261906 0.72500002
-0.065595239 0.017261906 0.72500002
-0.064214289 0.017261906 0.72500002
-0.062833339 0.017261906 0.72500002
-0.061537147 0.017285716 0.72600001
-0.060154289 0.017285716 0.72600001
-0.058771431 0.017285716 0.72600001
-0.057388574 0.017285716 0.72600001
-0.056005716 0.017285716 0.72600001
-0.054622862 0.017285716 0.72600001
-0.053240005 0.017285716 0.72600001
-0.051857147 0.017285716 0.72600001
-0.05047429 0.017285716 0.72600001
-0.049091432 0.017285716 0.72600001
-0.047642861 0.017261906 0.72500002
-0.046261907 0.017261906 0.72500002
-0.044880956 0.017261906 0.72500002
-0.043500002 0.017261906 0.72500002
-0.04200286 0.017214287 0.72300005
-0.073982865 0.018668573 0.72600001
-0.072500005 0.018642858 0.72500002
-0.071119055 0.018642858 0.72500002
-0.069738097 0.018642858 0.72500002
-0.068357147 0.018642858 0.72500002
-0.066976197 0.018642858 0.72500002
-0.065595239 0.018642858 0.72500002
-0.064214289 0.018642858 0.72500002
-0.062920004 0.018668573 0.72600001
-0.061537147 0.018668573 0.72600001
-0.060154289 0.018668573 0.72600001
-0.058771431 0.018668573 0.72600001
-0.057388574 0.018668573 0.72600001
-0.056005716 0.018668573 0.72600001
-0.054622862 0.018668573 0.72600001
-0.053240005 0.018668573 0.72600001
-0.051857147 0.018668573 0.72600001
-0.05047429 0.018668573 0.72600001
-0.049091432 0.018668573 0.72600001
-0.047642861 0.018642858 0.72500002
-0.046261907 0.018642858 0.72500002
-0.044880956 0.018642858 0.72500002
-0.043500002 0.018642858 0.72500002
-0.04200286 0.01859143 0.72300005
-0.072600007 0.020051429 0.72600001
-0.071119055 0.020023812 0.72500002
-0.069738097 0.020023812 0.72500002
-0.068451434 0.020051429 0.72600001
-0.067068577 0.020051429 0.72600001
-0.065685719 0.020051429 0.72600001
-0.064302862 0.020051429 0.72600001
-0.062920004 0.020051429 0.72600001
-0.061537147 0.020051429 0.72600001
-0.060154289 0.020051429 0.72600001
-0.058771431 0.020051429 0.72600001
-0.057388574 0.020051429 0.72600001
-0.056005716 0.020051429 0.72600001
-0.054622862 0.020051429 0.72600001
-0.053240005 0.020051429 0.72600001
-0.051857147 0.020051429 0.72600001
-0.05047429 0.020051429 0.72600001
-0.049091432 0.020051429 0.72600001
-0.047708575 0.020051429 0.72600001
-0.046261907 0.020023812 0.72500002
-0.044880956 0.020023812 0.72500002
-0.043500002 0.020023812 0.72500002
-0.04200286 0.019968573 0.72300005
-0.040625717 0.019968573 0.72300005
-0.071217149 0.021434287 0.72600001
-0.069834292 0.021434287 0.72600001
-0.068451434 0.021434287 0.72600001
-0.067068577 0.021434287 0.72600001
-0.065685719 0.021434287 0.72600001
-0.064302862 0.021434287 0.72600001
-0.062920004 0.021434287 0.72600001
-0.061537147 0.021434287 0.72600001
-0.060154289 0.021434287 0.72600001
-0.058771431 0.021434287 0.72600001
-0.057388574 0.021434287 0.72600001
-0.056160003 0.021493334 0.72800004
-0.054773338 0.021493334 0.72800004
-0.05338667 0.021493334 0.72800004
-0.052000005 0.021493334 0.72800004
-0.050613336 0.021493334 0.72800004
-0.049226671 0.021493334 0.72800004
-0.047708575 0.021434287 0.72600001
-0.046325717 0.021434287 0.72600001
-0.04494286 0.021434287 0.72600001
-0.043500002 0.021404764 0.72500002
-0.042119049 0.021404764 0.72500002
-0.040738098 0.021404764 0.72500002
-0.039357144 0.021404764 0.72500002
-0.070026673 0.022880001 0.72800004
-0.068640001 0.022880001 0.72800004
-0.067253336 0.022880001 0.72800004
-0.065866672 0.022880001 0.72800004
-0.064480007 0.022880001 0.72800004
-0.063180007 0.022911429 0.72900003
-0.061791431 0.022911429 0.72900003
-0.060402863 0.022911429 0.72900003
-0.059014291 0.022911429 0.72900003
-0.057625718 0.022911429 0.72900003
-0.056237146 0.022911429 0.72900003
-0.054848574 0.022911429 0.72900003
-0.053460002 0.022911429 0.72900003
-0.052071434 0.022911429 0.72900003
-0.050682861 0.022911429 0.72900003
-0.049294289 0.022911429 0.72900003
-0.047905717 0.022911429 0.72900003
-0.046453338 0.022880001 0.72800004
-0.04494286 0.022817144 0.72600001
-0.043560002 0.022817144 0.72600001
-0.042177144 0.022817144 0.72600001
-0.040738098 0.022785716 0.72500002
-0.039357144 0.022785716 0.72500002
-0.068640001 0.024266668 0.72800004
-0.067253336 0.024266668 0.72800004
-0.065866672 0.024266668 0.72800004
-0.064568579 0.024300002 0.72900003
-0.063180007 0.024300002 0.72900003
-0.061791431 0.024300002 0.72900003
-0.060568575 0.024366667 0.73100001
-0.059176195 0.024366667 0.73100001
-0.057783812 0.024366667 0.73100001
-0.056391433 0.024366667 0.73100001
-0.05499905 0.024366667 0.73100001
-0.053460002 0.024300002 0.72900003
-0.052071434 0.024300002 0.72900003
-0.050682861 0.024300002 0.72900003
-0.049294289 0.024300002 0.72900003
-0.047905717 0.024300002 0.72900003
-0.046517145 0.024300002 0.72900003
-0.04506667 0.024266668 0.72800004
-0.043560002 0.024200002 0.72600001
-0.042119049 0.024166668 0.72500002
-0.040738098 0.024166668 0.72500002
-0.068640001 0.025653334 0.72800004
-0.067253336 0.025653334 0.72800004
-0.065957144 0.025688574 0.72900003
-0.064568579 0.025688574 0.72900003
-0.063180007 0.025688574 0.72900003
-0.061960958 0.025759049 0.73100001
-0.060568575 0.025759049 0.73100001
-0.059176195 0.025759049 0.73100001
-0.057783812 0.025759049 0.73100001
-0.056391433 0.025759049 0.73100001
-0.05499905 0.025759049 0.73100001
-0.05360667 0.025759049 0.73100001
-0.052214291 0.025759049 0.73100001
-0.050821908 0.025759049 0.73100001
-0.049429528 0.025759049 0.73100001
-0.048037145 0.025759049 0.73100001
-0.046517145 0.025688574 0.72900003
-0.045128573 0.025688574 0.72900003
-0.043740004 0.025688574 0.72900003
-0.042351432 0.025688574 0.72900003
-0.067530483 0.02715143 0.73100001
-0.066138096 0.02715143 0.73100001
-0.064745717 0.02715143 0.73100001
-0.063353337 0.02715143 0.73100001
-0.061960958 0.02715143 0.73100001
-0.060568575 0.02715143 0.73100001
-0.059176195 0.02715143 0.73100001
-0.057783812 0.02715143 0.73100001
-0.056391433 0.02715143 0.73100001
-0.05499905 0.02715143 0.73100001
-0.05360667 0.02715143 0.73100001
-0.052214291 0.02715143 0.73100001
-0.050891433 0.027188573 0.73200005
-0.049429528 0.02715143 0.73100001
-0.048037145 0.02715143 0.73100001
-0.046644766 0.02715143 0.73100001
-0.045252383 0.02715143 0.73100001
-0.043860003 0.02715143 0.73100001
-0.067622863 0.02858286 0.73200005
-0.066228576 0.02858286 0.73200005
-0.064834289 0.02858286 0.73200005
-0.063440003 0.02858286 0.73200005
-0.062045719 0.02858286 0.73200005
-0.060651433 0.02858286 0.73200005
-0.059257146 0.02858286 0.73200005
-0.057862859 0.02858286 0.73200005
-0.056468576 0.02858286 0.73200005
-0.055074289 0.02858286 0.73200005
-0.053680003 0.02858286 0.73200005
-0.052285716 0.02858286 0.73200005
-0.050891433 0.02858286 0.73200005
-0.049497146 0.02858286 0.73200005
-0.048102859 0.02858286 0.73200005
-0.046708573 0.02858286 0.73200005
-0.045252383 0.028543811 0.73100001
-0.043860003 0.028543811 0.73100001
-0.067530483 0.029936193 0.73100001
-0.066228576 0.029977145 0.73200005
-0.064834289 0.029977145 0.73200005
-0.063440003 0.029977145 0.73200005
-0.062045719 0.029977145 0.73200005
-0.060651433 0.029977145 0.73200005
-0.059257146 0.029977145 0.73200005
-0.057862859 0.029977145 0.73200005
-0.056468576 0.029977145 0.73200005
-0.055074289 0.029977145 0.73200005
-0.053680003 0.029977145 0.73200005
-0.052285716 0.029977145 0.73200005
-0.051030479 0.030059049 0.73400003
-0.049497146 0.029977145 0.73200005
-0.048102859 0.029977145 0.73200005
-0.046708573 0.029977145 0.73200005
-0.04531429 0.029977145 0.73200005
-0.043920003 0.029977145 0.73200005
-0.066409528 0.031457145 0.73400003
-0.064834289 0.03137143 0.73200005
-0.063440003 0.03137143 0.73200005
-0.062045719 0.03137143 0.73200005
-0.060817149 0.031457145 0.73400003
-0.059419051 0.031457145 0.73400003
-0.058020957 0.031457145 0.73400003
-0.056622859 0.031457145 0.73400003
-0.055224765 0.031457145 0.73400003
-0.053826671 0.031457145 0.73400003
-0.052428573 0.031457145 0.73400003
-0.051030479 0.031457145 0.73400003
-0.049632385 0.031457145 0.73400003
-0.048234288 0.031457145 0.73400003
-0.046836194 0.031457145 0.73400003
-0.0454381 0.031457145 0.73400003
-0.044040002 0.031457145 0.73400003
-0.065011434 0.032855239 0.73400003
-0.06361334 0.032855239 0.73400003
-0.062215243 0.032855239 0.73400003
-0.060817149 0.032855239 0.73400003
-0.059419051 0.032855239 0.73400003
-0.058020957 0.032855239 0.73400003
-0.056622859 0.032855239 0.73400003
-0.055224765 0.032855239 0.73400003
-0.053826671 0.032855239 0.73400003
-0.052428573 0.032855239 0.73400003
-0.051030479 0.032855239 0.73400003
-0.049767621 0.032944765 0.73600006
-0.048365716 0.032944765 0.73600006
-0.046836194 0.032855239 0.73400003
-0.0454381 0.032855239 0.73400003
-0.044040002 0.032855239 0.73400003
-0.0427581 0.032944765 0.73600006
-0.06668096 0.034393337 0.73700005
-0.065011434 0.034253336 0.73400003
-0.063786671 0.03434667 0.73600006
-0.062384766 0.03434667 0.73600006
-0.060982861 0.03434667 0.73600006
-0.059580956 0.03434667 0.73600006
-0.058179051 0.03434667 0.73600006
-0.056777146 0.03434667 0.73600006
-0.055375241 0.03434667 0.73600006
-0.053973336 0.03434667 0.73600006
-0.052571431 0.03434667 0.73600006
-0.051169526 0.03434667 0.73600006
-0.049767621 0.03434667 0.73600006
-0.048365716 0.03434667 0.73600006
-0.046963811 0.03434667 0.73600006
-0.045561906 0.03434667 0.73600006
-0.044160005 0.03434667 0.73600006
-0.0427581 0.03434667 0.73600006
-0.065188579 0.035748575 0.73600006
-0.063786671 0.035748575 0.73600006
-0.062384766 0.035748575 0.73600006
-0.061065719 0.035797145 0.73700005
-0.059580956 0.035748575 0.73600006
-0.058179051 0.035748575 0.73600006
-0.056777146 0.035748575 0.73600006
-0.055375241 0.035748575 0.73600006
-0.053973336 0.035748575 0.73600006
-0.052571431 0.035748575 0.73600006
-0.051169526 0.035748575 0.73600006
-0.049835242 0.035797145 0.73700005
-0.04843143 0.035797145 0.73700005
-0.046963811 0.035748575 0.73600006
-0.045561906 0.035748575 0.73600006
-0.044160005 0.035748575 0.73600006
-0.0427581 0.035748575 0.73600006
-0.085435241 0.041541908 0.82300001
-0.063786671 0.03715048 0.73600006
-0.062469527 0.037200954 0.73700005
-0.061065719 0.037200954 0.73700005
-0.05966191 0.037200954 0.73700005
-0.058258098 0.037200954 0.73700005
-0.056854289 0.037200954 0.73700005
-0.05545048 0.037200954 0.73700005
-0.053973336 0.03715048 0.73600006
-0.052571431 0.03715048 0.73600006
-0.051239051 0.037200954 0.73700005
-0.049835242 0.037200954 0.73700005
-0.04843143 0.037200954 0.73700005
-0.047027621 0.037200954 0.73700005
-0.045623813 0.037200954 0.73700005
-0.044160005 0.03715048 0.73600006
-0.042816192 0.037200954 0.73700005
-0.041412383 0.037200954 0.73700005
-0.062469527 0.038604766 0.73700005
-0.061065719 0.038604766 0.73700005
-0.05966191 0.038604766 0.73700005
-0.058258098 0.038604766 0.73700005
-0.056854289 0.038604766 0.73700005
-0.05545048 0.038604766 0.73700005
-0.054046672 0.038604766 0.73700005
-0.05264286 0.038604766 0.73700005
-0.051239051 0.038604766 0.73700005
-0.049835242 0.038604766 0.73700005
-0.04843143 0.038604766 0.73700005
-0.047027621 0.038604766 0.73700005
-0.045623813 0.038604766 0.73700005
-0.044220004 0.038604766 0.73700005
-0.042816192 0.038604766 0.73700005
-0.041412383 0.038604766 0.73700005
-0.062469527 0.040008575 0.73700005
-0.061231434 0.040117145 0.73900002
-0.05966191 0.040008575 0.73700005
-0.058258098 0.040008575 0.73700005
-0.056854289 0.040008575 0.73700005
-0.05545048 0.040008575 0.73700005
-0.054046672 0.040008575 0.73700005
-0.05264286 0.040008575 0.73700005
-0.051239051 0.040008575 0.73700005
-0.049970478 0.040117145 0.73900002
-0.048562862 0.040117145 0.73900002
-0.047027621 0.040008575 0.73700005
-0.045623813 0.040008575 0.73700005
-0.044220004 0.040008575 0.73700005
-0.042816192 0.040008575 0.73700005
-0.041412383 0.040008575 0.73700005
-0.040008575 0.040008575 0.73700005
-0.06263905 0.041524764 0.73900002
-0.061231434 0.041524764 0.73900002
-0.059823815 0.041524764 0.73900002
-0.058416195 0.041524764 0.73900002
-0.057008576 0.041524764 0.73900002
-0.055600956 0.041524764 0.73900002
-0.054193337 0.041524764 0.73900002
-0.05264286 0.041412383 0.73700005
-0.051378097 0.041524764 0.73900002
-0.049970478 0.041524764 0.73900002
-0.048562862 0.041524764 0.73900002
-0.047155242 0.041524764 0.73900002
-0.045747623 0.041524764 0.73900002
-0.044220004 0.041412383 0.73700005
-0.042932384 0.041524764 0.73900002
-0.06263905 0.042932384 0.73900002
-0.061231434 0.042932384 0.73900002
-0.059904765 0.04299048 0.74000001
-0.058416195 0.042932384 0.73900002
-0.057008576 0.042932384 0.73900002
-0.055600956 0.042932384 0.73900002
-0.054193337 0.042932384 0.73900002
-0.052785717 0.042932384 0.73900002
-0.051378097 0.042932384 0.73900002
-0.049970478 0.042932384 0.73900002
-0.048562862 0.042932384 0.73900002
-0.047155242 0.042932384 0.73900002
-0.045747623 0.042932384 0.73900002
-0.044340003 0.042932384 0.73900002
-0.042932384 0.042932384 0.73900002
-0.06263905 0.044340003 0.73900002
-0.061314289 0.044400003 0.74000001
-0.059904765 0.044400003 0.74000001
-0.058495242 0.044400003 0.74000001
-0.057085719 0.044400003 0.74000001
-0.055676196 0.044400003 0.74000001
-0.054266669 0.044400003 0.74000001
-0.052857146 0.044400003 0.74000001
-0.051447622 0.044400003 0.74000001
-0.050038099 0.044400003 0.74000001
-0.048628576 0.044400003 0.74000001
-0.047219049 0.044400003 0.74000001
-0.045809526 0.044400003 0.74000001
-0.044340003 0.044340003 0.73900002
-0.042932384 0.044340003 0.73900002
-0.061231434 0.045747623 0.73900002
-0.060147624 0.045995243 0.74300003
-0.058653336 0.045933336 0.74200004
-0.057240006 0.045933336 0.74200004
-0.055826671 0.045933336 0.74200004
-0.054413337 0.045933336 0.74200004
-0.053000003 0.045933336 0.74200004
-0.051586669 0.045933336 0.74200004
-0.050173335 0.045933336 0.74200004
-0.048628576 0.045809526 0.74000001
-0.047219049 0.045809526 0.74000001
-0.045809526 0.045809526 0.74000001
-0.044340003 0.045747623 0.73900002
-0.042932384 0.045747623 0.73900002
-0.061231434 0.047155242 0.73900002
-0.060147624 0.047410481 0.74300003
-0.058732383 0.047410481 0.74300003
-0.057317145 0.047410481 0.74300003
-0.055901907 0.047410481 0.74300003
-0.05448667 0.047410481 0.74300003
-0.053071432 0.047410481 0.74300003
-0.051656194 0.047410481 0.74300003
-0.050173335 0.04734667 0.74200004
-0.048760004 0.04734667 0.74200004
-0.04734667 0.04734667 0.74200004
-0.045933336 0.04734667 0.74200004
-0.044400003 0.047219049 0.74000001
-0.061231434 0.048562862 0.73900002
-0.060147624 0.048825718 0.74300003
-0.058732383 0.048825718 0.74300003
-0.057317145 0.048825718 0.74300003
-0.055901907 0.048825718 0.74300003
-0.05448667 0.048825718 0.74300003
-0.053071432 0.048825718 0.74300003
-0.051656194 0.048825718 0.74300003
-0.050240956 0.048825718 0.74300003
-0.048825718 0.048825718 0.74300003
-0.047410481 0.048825718 0.74300003
-0.045933336 0.048760004 0.74200004
-0.060147624 0.050240956 0.74300003
-0.058732383 0.050240956 0.74300003
-0.057317145 0.050240956 0.74300003
-0.055901907 0.050240956 0.74300003
-0.05448667 0.050240956 0.74300003
-0.053071432 0.050240956 0.74300003
-0.05179524 0.050376195 0.74500006
-0.050240956 0.050240956 0.74300003
-0.048825718 0.050240956 0.74300003
-0.047410481 0.050240956 0.74300003
-0.045995243 0.050240956 0.74300003
-0.044520002 0.050173335 0.74200004
-0.060309529 0.05179524 0.74500006
-0.058890481 0.05179524 0.74500006
-0.057471432 0.05179524 0.74500006
-0.056052383 0.05179524 0.74500006
-0.054633338 0.05179524 0.74500006
-0.053214289 0.05179524 0.74500006
-0.05179524 0.05179524 0.74500006
-0.050240956 0.051656194 0.74300003
-0.048825718 0.051656194 0.74300003
-0.047410481 0.051656194 0.74300003
-0.045995243 0.051656194 0.74300003
-0.060309529 0.053214289 0.74500006
-0.058890481 0.053214289 0.74500006
-0.057471432 0.053214289 0.74500006
-0.056052383 0.053214289 0.74500006
-0.054633338 0.053214289 0.74500006
-0.053214289 0.053214289 0.74500006
-0.05179524 0.053214289 0.74500006
-0.050376195 0.053214289 0.74500006
-0.048957147 0.053214289 0.74500006
-0.047729526 0.053428575 0.74800003
-0.046304766 0.053428575 0.74800003
-0.066126674 0.055953339 0.76300001
-0.064673334 0.055953339 0.76300001
-0.060309529 0.054633338 0.74500006
-0.058890481 0.054633338 0.74500006
-0.057471432 0.054633338 0.74500006
-0.056052383 0.054633338 0.74500006
-0.054633338 0.054633338 0.74500006
-0.053214289 0.054633338 0.74500006
-0.05179524 0.054633338 0.74500006
-0.050376195 0.054633338 0.74500006
-0.049088575 0.054780003 0.74700004
-0.047665719 0.054780003 0.74700004
-0.046304766 0.054853339 0.74800003
-0.065866672 0.057180956 0.76000005
-0.064503811 0.057256196 0.76100004
-0.062308576 0.05657905 0.75200003
-0.060471434 0.056202862 0.74700004
-0.059048574 0.056202862 0.74700004
-0.057625718 0.056202862 0.74700004
-0.056202862 0.056202862 0.74700004
-0.054780003 0.056202862 0.74700004
-0.053357147 0.056202862 0.74700004
-0.051934291 0.056202862 0.74700004
-0.050579052 0.056278098 0.74800003
-0.049154289 0.056278098 0.74800003
-0.047729526 0.056278098 0.74800003
-0.046242859 0.056202862 0.74700004
-0.065866672 0.058628574 0.76000005
-0.064503811 0.058705717 0.76100004
-0.062308576 0.058011431 0.75200003
-0.06071429 0.057857148 0.75000006
-0.059048574 0.057625718 0.74700004
-0.057625718 0.057625718 0.74700004
-0.056202862 0.057625718 0.74700004
-0.054780003 0.057625718 0.74700004
-0.053357147 0.057625718 0.74700004
-0.052003812 0.057702862 0.74800003
-0.050579052 0.057702862 0.74800003
-0.049154289 0.057702862 0.74800003
-0.047729526 0.057702862 0.74800003
-0.046304766 0.057702862 0.74800003
-0.067137145 0.059918098 0.75800002
-0.065866672 0.060076196 0.76000005
-0.06424953 0.059918098 0.75800002
-0.062308576 0.059443813 0.75200003
-0.06071429 0.059285719 0.75000006
-0.059285719 0.059285719 0.75000006
-0.057625718 0.059048574 0.74700004
-0.056278098 0.059127621 0.74800003
-0.054853339 0.059127621 0.74800003
-0.053428575 0.059127621 0.74800003
-0.052003812 0.059127621 0.74800003
-0.050579052 0.059127621 0.74800003
-0.049285717 0.059285719 0.75000006
-0.047857147 0.059285719 0.75000006
-0.046304766 0.059127621 0.74800003
-0.067137145 0.061361909 0.75800002
-0.065866672 0.061523814 0.76000005
-0.06424953 0.061361909 0.75800002
-0.062308576 0.060876194 0.75200003
-0.06071429 0.06071429 0.75000006
-0.059285719 0.06071429 0.75000006
-0.057702862 0.060552385 0.74800003
-0.056278098 0.060552385 0.74800003
-0.054853339 0.060552385 0.74800003
-0.053571433 0.06071429 0.75000006
-0.052142862 0.06071429 0.75000006
-0.050714288 0.06071429 0.75000006
-0.049285717 0.06071429 0.75000006
-0.047857147 0.06071429 0.75000006
-0.046428576 0.06071429 0.75000006
-0.045000002 0.06071429 0.75000006
-0.065866672 0.062971435 0.76000005
-0.064419053 0.062971435 0.76000005
-0.062308576 0.062308576 0.75200003
-0.06071429 0.06214286 0.75000006
-0.059127621 0.061977148 0.74800003
-0.057702862 0.061977148 0.74800003
-0.056428574 0.06214286 0.75000006
-0.055000003 0.06214286 0.75000006
-0.053571433 0.06214286 0.75000006
-0.052142862 0.06214286 0.75000006
-0.050714288 0.06214286 0.75000006
-0.049285717 0.06214286 0.75000006
-0.047984764 0.062308576 0.75200003
-0.046428576 0.06214286 0.75000006
-0.045000002 0.06214286 0.75000006
-0.043745719 0.062391434 0.75300002
-0.06424953 0.06424953 0.75800002
-0.06280572 0.06424953 0.75800002
-0.060552385 0.063401908 0.74800003
-0.059285719 0.063571431 0.75000006
-0.057857148 0.063571431 0.75000006
-0.056428574 0.063571431 0.75000006
-0.055000003 0.063571431 0.75000006
-0.05371429 0.063740954 0.75200003
-0.052281909 0.063740954 0.75200003
-0.050849527 0.063740954 0.75200003
-0.049417146 0.063740954 0.75200003
-0.047984764 0.063740954 0.75200003
-0.046552382 0.063740954 0.75200003
-0.045120005 0.063740954 0.75200003
-0.043687623 0.063740954 0.75200003
-0.064673334 0.066126674 0.76300001
-0.063054293 0.065953337 0.76100004
-0.06071429 0.065000005 0.75000006
-0.059285719 0.065000005 0.75000006
-0.058011431 0.065173335 0.75200003
-0.05657905 0.065173335 0.75200003
-0.055146672 0.065173335 0.75200003
-0.05371429 0.065173335 0.75200003
-0.052281909 0.065173335 0.75200003
-0.050849527 0.065173335 0.75200003
-0.049417146 0.065173335 0.75200003
-0.047984764 0.065173335 0.75200003
-0.046552382 0.065173335 0.75200003
-0.045000002 0.065000005 0.75000006
-0.043571431 0.065000005 0.75000006
-0.060876194 0.066605717 0.75200003
-0.059443813 0.066605717 0.75200003
-0.058011431 0.066605717 0.75200003
-0.05657905 0.066605717 0.75200003
-0.055146672 0.066605717 0.75200003
-0.05371429 0.066605717 0.75200003
-0.052281909 0.066605717 0.75200003
-0.050849527 0.066605717 0.75200003
-0.049417146 0.066605717 0.75200003
-0.047984764 0.066605717 0.75200003
-0.046552382 0.066605717 0.75200003
-0.045000002 0.066428579 0.75000006
-0.043571431 0.066428579 0.75000006
-0.042142861 0.066428579 0.75000006
-0.05952286 0.068128578 0.75300002
-0.058088575 0.068128578 0.75300002
-0.056654289 0.068128578 0.75300002
-0.055220004 0.068128578 0.75300002
-0.053785719 0.068128578 0.75300002
-0.052351434 0.068128578 0.75300002
-0.051052384 0.068309531 0.75500005
-0.049614288 0.068309531 0.75500005
-0.048048574 0.068128578 0.75300002
-0.046614289 0.068128578 0.75300002
-0.045120005 0.068038099 0.75200003
-0.043687623 0.068038099 0.75200003
-0.042255241 0.068038099 0.75200003
-0.05952286 0.06956286 0.75300002
-0.058242861 0.069747627 0.75500005
-0.056804765 0.069747627 0.75500005
-0.055366669 0.069747627 0.75500005
-0.053928576 0.069747627 0.75500005
-0.05249048 0.069747627 0.75500005
-0.051052384 0.069747627 0.75500005
-0.049680002 0.069840007 0.75600004
-0.048176195 0.069747627 0.75500005
-0.046738099 0.069747627 0.75500005
-0.045180004 0.06956286 0.75300002
-0.043687623 0.06947048 0.75200003
-0.042255241 0.06947048 0.75200003
-0.059918098 0.071468577 0.75800002
-0.058320004 0.071280003 0.75600004
-0.056880005 0.071280003 0.75600004
-0.055440005 0.071280003 0.75600004
-0.054000005 0.071280003 0.75600004
-0.052560002 0.071280003 0.75600004
-0.051120002 0.071280003 0.75600004
-0.049680002 0.071280003 0.75600004
-0.048240002 0.071280003 0.75600004
-0.046800002 0.071280003 0.75600004
-0.045360003 0.071280003 0.75600004
-0.043920003 0.071280003 0.75600004
-0.042480003 0.071280003 0.75600004
-0.059918098 0.072912388 0.75800002
-0.058320004 0.072720006 0.75600004
-0.056880005 0.072720006 0.75600004
-0.055440005 0.072720006 0.75600004
-0.054000005 0.072720006 0.75600004
-0.052560002 0.072720006 0.75600004
-0.051120002 0.072720006 0.75600004
-0.049680002 0.072720006 0.75600004
-0.048240002 0.072720006 0.75600004
-0.046800002 0.072720006 0.75600004
-0.045360003 0.072720006 0.75600004
-0.043920003 0.072720006 0.75600004
-0.042480003 0.072720006 0.75600004
-0.041040003 0.072720006 0.75600004
-0.061200004 0.074160002 0.75600004
-0.059760004 0.074160002 0.75600004
-0.058320004 0.074160002 0.75600004
-0.05703048 0.074356198 0.75800002
-0.055440005 0.074160002 0.75600004
-0.054000005 0.074160002 0.75600004
-0.052560002 0.074160002 0.75600004
-0.051255241 0.074356198 0.75800002
-0.04981143 0.074356198 0.75800002
-0.048240002 0.074160002 0.75600004
-0.046800002 0.074160002 0.75600004
-0.045360003 0.074160002 0.75600004
-0.044036195 0.074356198 0.75800002
-0.042592384 0.074356198 0.75800002
-0.041148573 0.074356198 0.75800002
-0.06111905 0.075500004 0.75500005
-0.059760004 0.075600006 0.75600004
-0.058320004 0.075600006 0.75600004
-0.05703048 0.075800002 0.75800002
-0.05558667 0.075800002 0.75800002
-0.054142863 0.075800002 0.75800002
-0.052699052 0.075800002 0.75800002
-0.051255241 0.075800002 0.75800002
-0.04981143 0.075800002 0.75800002
-0.048367623 0.075800002 0.75800002
-0.046923812 0.075800002 0.75800002
-0.045480002 0.075800002 0.75800002
-0.044036195 0.075800002 0.75800002
-0.042592384 0.075800002 0.75800002
-0.041148573 0.075800002 0.75800002
-0.06111905 0.0769381 0.75500005
-0.059918098 0.077243812 0.75800002
-0.058474291 0.077243812 0.75800002
-0.05703048 0.077243812 0.75800002
-0.05558667 0.077243812 0.75800002
-0.054142863 0.077243812 0.75800002
-0.052699052 0.077243812 0.75800002
-0.051255241 0.077243812 0.75800002
-0.04981143 0.077243812 0.75800002
-0.048367623 0.077243812 0.75800002
-0.046923812 0.077243812 0.75800002
-0.045480002 0.077243812 0.75800002
-0.044036195 0.077243812 0.75800002
-0.042592384 0.077243812 0.75800002
-0.041148573 0.077243812 0.75800002
-0.039704766 0.077243812 0.75800002
-0.038260955 0.077243812 0.75800002
-0.066694289 0.078168578 0.75300002
-0.065260008 0.078168578 0.75300002
-0.063740954 0.07806477 0.75200003
-0.062308576 0.07806477 0.75200003
-0.06111905 0.078376196 0.75500005
-0.038160004 0.078480005 0.75600004
-0.066605717 0.079497151 0.75200003
-0.065173335 0.079497151 0.75200003
-0.063571431 0.079285719 0.75000006
-0.062308576 0.079497151 0.75200003
-0.068038099 0.080929533 0.75200003
-0.066428579 0.080714293 0.75000006
-0.065000005 0.080714293 0.75000006
-0.063571431 0.080714293 0.75000006
-0.06214286 0.080714293 0.75000006
-0.060876194 0.080929533 0.75200003
-0.066428579 0.08214286 0.75000006
-0.064826667 0.081923813 0.74800003
-0.063571431 0.08214286 0.75000006
-0.06214286 0.08214286 0.75000006
-0.064834289 0.091325723 0.73200005
-0.063440003 0.091325723 0.73200005
-0.061960958 0.091200955 0.73100001
-0.061960958 0.092593342 0.73100001
0.16984192 0.1079562 0.72200006
0.17121716 0.1079562 0.72200006
