# .PCD v0.7 - Point Cloud Data file format
VERSION 0.7
FIELDS x y z
SIZE 4 4 4
TYPE F F F
COUNT 1 1 1
WIDTH 1098
HEIGHT 1
VIEWPOINT 0 0 0 1 0 0 0
POINTS 1098
DATA ascii
0.18173049 0.0026085717 0.91300005
0.18346953 0.0026085717 0.91300005
0.18073525 0.0060533336 0.90800005
0.17630002 0.0077400007 0.90300006
0.17802002 0.0077400007 0.90300006
0.17974001 0.0077400007 0.90300006
0.18146001 0.0077400007 0.90300006
0.17076096 0.0094390484 0.90100002
0.17590953 0.0094390484 0.90100002
0.17762573 0.0094390484 0.90100002
0.17356668 0.016086668 0.88900006
0.17526001 0.016086668 0.88900006
-0.053673338 0.042033337 0.67900002
-0.052380003 0.042033337 0.67900002
-0.028928574 0.041785717 0.67500001
-0.027642859 0.041785717 0.67500001
-0.053673338 0.043326668 0.67900002
-0.052380003 0.043326668 0.67900002
-0.051011432 0.043262862 0.67800003
-0.049720004 0.043262862 0.67800003
-0.036697146 0.043135241 0.67600006
-0.035409525 0.043135241 0.67600006
-0.034121908 0.043135241 0.67600006
-0.032785717 0.04307143 0.67500001
-0.031500001 0.04307143 0.67500001
-0.030214287 0.04307143 0.67500001
-0.028928574 0.04307143 0.67500001
-0.027601907 0.043007623 0.67400002
-0.026318097 0.043007623 0.67400002
-0.055928577 0.044357147 0.67500001
-0.054723814 0.044422861 0.67600006
-0.053436194 0.044422861 0.67600006
-0.052148573 0.044422861 0.67600006
-0.050860956 0.044422861 0.67600006
-0.049500003 0.044357147 0.67500001
-0.04821429 0.044357147 0.67500001
-0.04564286 0.044357147 0.67500001
-0.044291433 0.044291433 0.67400002
-0.04307143 0.044357147 0.67500001
-0.041785717 0.044357147 0.67500001
-0.040500004 0.044357147 0.67500001
-0.039272383 0.044422861 0.67600006
-0.037984766 0.044422861 0.67600006
-0.036697146 0.044422861 0.67600006
-0.035409525 0.044422861 0.67600006
-0.034071431 0.044357147 0.67500001
-0.032785717 0.044357147 0.67500001
-0.031500001 0.044357147 0.67500001
-0.030214287 0.044357147 0.67500001
-0.028885717 0.044291433 0.67400002
-0.027601907 0.044291433 0.67400002
-0.026318097 0.044291433 0.67400002
-0.024960002 0.044160005 0.67200005
-0.057299051 0.045710478 0.67600006
-0.055928577 0.04564286 0.67500001
-0.054723814 0.045710478 0.67600006
-0.053436194 0.045710478 0.67600006
-0.052148573 0.045710478 0.67600006
-0.050785717 0.04564286 0.67500001
-0.049500003 0.04564286 0.67500001
-0.04821429 0.04564286 0.67500001
-0.046928573 0.04564286 0.67500001
-0.04564286 0.04564286 0.67500001
-0.044357147 0.04564286 0.67500001
-0.04307143 0.04564286 0.67500001
-0.041785717 0.04564286 0.67500001
-0.040500004 0.04564286 0.67500001
-0.039214287 0.04564286 0.67500001
-0.037928574 0.04564286 0.67500001
-0.036697146 0.045710478 0.67600006
-0.035409525 0.045710478 0.67600006
-0.034121908 0.045710478 0.67600006
-0.032785717 0.04564286 0.67500001
-0.031500001 0.04564286 0.67500001
-0.030214287 0.04564286 0.67500001
-0.028885717 0.045575242 0.67400002
-0.027601907 0.045575242 0.67400002
-0.026240002 0.045440003 0.67200005
-0.024960002 0.045440003 0.67200005
-0.057299051 0.046998098 0.67600006
-0.055928577 0.046928573 0.67500001
-0.054723814 0.046998098 0.67600006
-0.053436194 0.046998098 0.67600006
-0.052148573 0.046998098 0.67600006
-0.050785717 0.046928573 0.67500001
-0.049500003 0.046928573 0.67500001
-0.04821429 0.046928573 0.67500001
-0.046928573 0.046928573 0.67500001
-0.04564286 0.046928573 0.67500001
-0.044357147 0.046928573 0.67500001
-0.04307143 0.046928573 0.67500001
-0.041785717 0.046928573 0.67500001
-0.040500004 0.046928573 0.67500001
-0.039214287 0.046928573 0.67500001
-0.037984766 0.046998098 0.67600006
-0.036697146 0.046998098 0.67600006
-0.035409525 0.046998098 0.67600006
-0.034071431 0.046928573 0.67500001
-0.032785717 0.046928573 0.67500001
-0.031500001 0.046928573 0.67500001
-0.030214287 0.046928573 0.67500001
-0.028885717 0.046859052 0.67400002
-0.027601907 0.046859052 0.67400002
-0.026240002 0.046720002 0.67200005
-0.024960002 0.046720002 0.67200005
-0.056177147 0.048428576 0.67800003
-0.054885719 0.048428576 0.67800003
-0.053594287 0.048428576 0.67800003
-0.052148573 0.048285719 0.67600006
-0.050860956 0.048285719 0.67600006
-0.049500003 0.04821429 0.67500001
-0.04821429 0.04821429 0.67500001
-0.046928573 0.04821429 0.67500001
-0.04564286 0.04821429 0.67500001
-0.044291433 0.048142862 0.67400002
-0.04307143 0.04821429 0.67500001
-0.041785717 0.04821429 0.67500001
-0.040560003 0.048285719 0.67600006
-0.039214287 0.04821429 0.67500001
-0.037928574 0.04821429 0.67500001
-0.036697146 0.048285719 0.67600006
-0.035409525 0.048285719 0.67600006
-0.034071431 0.04821429 0.67500001
-0.032834288 0.048285719 0.67600006
-0.031500001 0.04821429 0.67500001
-0.030214287 0.04821429 0.67500001
-0.028928574 0.04821429 0.67500001
-0.027601907 0.048142862 0.67400002
-0.026240002 0.048000004 0.67200005
-0.024960002 0.048000004 0.67200005
-0.057553336 0.049793337 0.67900002
-0.056260005 0.049793337 0.67900002
-0.054885719 0.049720004 0.67800003
-0.053594287 0.049720004 0.67800003
-0.05230286 0.049720004 0.67800003
-0.050860956 0.049573336 0.67600006
-0.049573336 0.049573336 0.67600006
-0.048285719 0.049573336 0.67600006
-0.046998098 0.049573336 0.67600006
-0.04564286 0.049500003 0.67500001
-0.044357147 0.049500003 0.67500001
-0.04307143 0.049500003 0.67500001
-0.041785717 0.049500003 0.67500001
-0.040560003 0.049573336 0.67600006
-0.039214287 0.049500003 0.67500001
-0.037984766 0.049573336 0.67600006
-0.036805715 0.049720004 0.67800003
-0.035514288 0.049720004 0.67800003
-0.034121908 0.049573336 0.67600006
-0.032834288 0.049573336 0.67600006
-0.031546667 0.049573336 0.67600006
-0.03025905 0.049573336 0.67600006
-0.028928574 0.049500003 0.67500001
-0.027642859 0.049500003 0.67500001
-0.026240002 0.049280003 0.67200005
-0.024737144 0.048840005 0.66600001
-0.057553336 0.051086672 0.67900002
-0.056260005 0.051086672 0.67900002
-0.05496667 0.051086672 0.67900002
-0.053673338 0.051086672 0.67900002
-0.05230286 0.051011432 0.67800003
-0.051011432 0.051011432 0.67800003
-0.049720004 0.051011432 0.67800003
-0.048285719 0.050860956 0.67600006
-0.046998098 0.050860956 0.67600006
-0.04564286 0.050785717 0.67500001
-0.044357147 0.050785717 0.67500001
-0.04307143 0.050785717 0.67500001
-0.04184762 0.050860956 0.67600006
-0.040560003 0.050860956 0.67600006
-0.039388575 0.051011432 0.67800003
-0.038097147 0.051011432 0.67800003
-0.036805715 0.051011432 0.67800003
-0.035566669 0.051086672 0.67900002
-0.034273334 0.051086672 0.67900002
-0.032980002 0.051086672 0.67900002
-0.031640001 0.051011432 0.67800003
-0.030348573 0.051011432 0.67800003
-0.02897143 0.050860956 0.67600006
-0.027683811 0.050860956 0.67600006
-0.026044764 0.050183814 0.66700006
-0.024737144 0.050108574 0.66600001
-0.057638098 0.052457146 0.68000001
-0.056342863 0.052457146 0.68000001
-0.05496667 0.052380003 0.67900002
-0.053673338 0.052380003 0.67900002
-0.052380003 0.052380003 0.67900002
-0.051086672 0.052380003 0.67900002
-0.049720004 0.05230286 0.67800003
-0.048428576 0.05230286 0.67800003
-0.047137145 0.05230286 0.67800003
-0.045845717 0.05230286 0.67800003
-0.044422861 0.052148573 0.67600006
-0.043262862 0.05230286 0.67800003
-0.04197143 0.05230286 0.67800003
-0.040680002 0.05230286 0.67800003
-0.039388575 0.05230286 0.67800003
-0.038153335 0.052380003 0.67900002
-0.036860004 0.052380003 0.67900002
-0.035566669 0.052380003 0.67900002
-0.034273334 0.052380003 0.67900002
-0.032980002 0.052380003 0.67900002
-0.031686667 0.052380003 0.67900002
-0.030393336 0.052380003 0.67900002
-0.029100003 0.052380003 0.67900002
-0.027806668 0.052380003 0.67900002
-0.026122859 0.051608574 0.66900003
-0.024774287 0.051454291 0.66700006
-0.057638098 0.053752385 0.68000001
-0.056342863 0.053752385 0.68000001
-0.055047624 0.053752385 0.68000001
-0.053673338 0.053673338 0.67900002
-0.052380003 0.053673338 0.67900002
-0.051086672 0.053673338 0.67900002
-0.049720004 0.053594287 0.67800003
-0.048428576 0.053594287 0.67800003
-0.047137145 0.053594287 0.67800003
-0.045845717 0.053594287 0.67800003
-0.044422861 0.053436194 0.67600006
-0.043326668 0.053673338 0.67900002
-0.04197143 0.053594287 0.67800003
-0.040740002 0.053673338 0.67900002
-0.039446671 0.053673338 0.67900002
-0.038209528 0.053752385 0.68000001
-0.036914289 0.053752385 0.68000001
-0.03561905 0.053752385 0.68000001
-0.034323812 0.053752385 0.68000001
-0.033028573 0.053752385 0.68000001
-0.031733334 0.053752385 0.68000001
-0.030393336 0.053673338 0.67900002
-0.029100003 0.053673338 0.67900002
-0.027806668 0.053673338 0.67900002
-0.026044764 0.052724764 0.66700006
-0.057638098 0.055047624 0.68000001
-0.056342863 0.055047624 0.68000001
-0.055047624 0.055047624 0.68000001
-0.053673338 0.05496667 0.67900002
-0.052380003 0.05496667 0.67900002
-0.051086672 0.05496667 0.67900002
-0.049720004 0.054885719 0.67800003
-0.048500001 0.05496667 0.67900002
-0.04720667 0.05496667 0.67900002
-0.045845717 0.054885719 0.67800003
-0.044554289 0.054885719 0.67800003
-0.043326668 0.05496667 0.67900002
-0.04197143 0.054885719 0.67800003
-0.040740002 0.05496667 0.67900002
-0.039504763 0.055047624 0.68000001
-0.038209528 0.055047624 0.68000001
-0.037022859 0.055209529 0.68200004
-0.03561905 0.055047624 0.68000001
-0.034424763 0.055209529 0.68200004
-0.033028573 0.055047624 0.68000001
-0.031733334 0.055047624 0.68000001
-0.030438097 0.055047624 0.68000001
-0.029142858 0.055047624 0.68000001
-0.027847622 0.055047624 0.68000001
-0.026630478 0.055209529 0.68200004
-0.02533143 0.055209529 0.68200004
-0.057638098 0.056342863 0.68000001
-0.056342863 0.056342863 0.68000001
-0.055047624 0.056342863 0.68000001
-0.053752385 0.056342863 0.68000001
-0.052457146 0.056342863 0.68000001
-0.051086672 0.056260005 0.67900002
-0.049793337 0.056260005 0.67900002
-0.048428576 0.056177147 0.67800003
-0.047137145 0.056177147 0.67800003
-0.045845717 0.056177147 0.67800003
-0.044554289 0.056177147 0.67800003
-0.043262862 0.056177147 0.67800003
-0.04197143 0.056177147 0.67800003
-0.040740002 0.056260005 0.67900002
-0.039504763 0.056342863 0.68000001
-0.038321909 0.056508575 0.68200004
-0.037077144 0.056591433 0.68300003
-0.035776194 0.056591433 0.68300003
-0.034475241 0.056591433 0.68300003
-0.033125717 0.056508575 0.68200004
-0.031826667 0.056508575 0.68200004
-0.030527622 0.056508575 0.68200004
-0.029228574 0.056508575 0.68200004
-0.027929526 0.056508575 0.68200004
-0.026669526 0.056591433 0.68300003
-0.056342863 0.057638098 0.68000001
-0.055047624 0.057638098 0.68000001
-0.053752385 0.057638098 0.68000001
-0.052457146 0.057638098 0.68000001
-0.051161908 0.057638098 0.68000001
-0.049866669 0.057638098 0.68000001
-0.048500001 0.057553336 0.67900002
-0.04720667 0.057553336 0.67900002
-0.045913335 0.057553336 0.67900002
-0.044554289 0.057468574 0.67800003
-0.043326668 0.057553336 0.67900002
-0.042033337 0.057553336 0.67900002
-0.040800001 0.057638098 0.68000001
-0.039620955 0.057807624 0.68200004
-0.038321909 0.057807624 0.68200004
-0.037077144 0.057892386 0.68300003
-0.035776194 0.057892386 0.68300003
-0.034475241 0.057892386 0.68300003
-0.033174288 0.057892386 0.68300003
-0.031873334 0.057892386 0.68300003
-0.030572383 0.057892386 0.68300003
-0.029228574 0.057807624 0.68200004
-0.027970478 0.057892386 0.68300003
-0.026669526 0.057892386 0.68300003
-0.056508575 0.05910667 0.68200004
-0.055209529 0.05910667 0.68200004
-0.053910479 0.05910667 0.68200004
-0.052611433 0.05910667 0.68200004
-0.051312383 0.05910667 0.68200004
-0.050013337 0.05910667 0.68200004
-0.04857143 0.058933336 0.68000001
-0.047276195 0.058933336 0.68000001
-0.045980956 0.058933336 0.68000001
-0.044685718 0.058933336 0.68000001
-0.043390479 0.058933336 0.68000001
-0.04221905 0.05910667 0.68200004
-0.040980004 0.059193335 0.68300003
-0.03967905 0.059193335 0.68300003
-0.038378097 0.059193335 0.68300003
-0.037131432 0.059280004 0.68400002
-0.035828575 0.059280004 0.68400002
-0.034525715 0.059280004 0.68400002
-0.033222858 0.059280004 0.68400002
-0.031920001 0.059280004 0.68400002
-0.030572383 0.059193335 0.68300003
-0.029271431 0.059193335 0.68300003
-0.027970478 0.059193335 0.68300003
-0.026669526 0.059193335 0.68300003
-0.056591433 0.060494289 0.68300003
-0.055290479 0.060494289 0.68300003
-0.053989526 0.060494289 0.68300003
-0.05276572 0.060582861 0.68400002
-0.051387623 0.060494289 0.68300003
-0.05008667 0.060494289 0.68300003
-0.048714288 0.06040572 0.68200004
-0.047276195 0.060228575 0.68000001
-0.045980956 0.060228575 0.68000001
-0.044685718 0.060228575 0.68000001
-0.043390479 0.060228575 0.68000001
-0.04221905 0.06040572 0.68200004
-0.040920004 0.06040572 0.68200004
-0.03967905 0.060494289 0.68300003
-0.038378097 0.060494289 0.68300003
-0.037131432 0.060582861 0.68400002
-0.035828575 0.060582861 0.68400002
-0.034525715 0.060582861 0.68400002
-0.033222858 0.060582861 0.68400002
-0.031873334 0.060494289 0.68300003
-0.030572383 0.060494289 0.68300003
-0.029271431 0.060494289 0.68300003
-0.027970478 0.060494289 0.68300003
-0.05667429 0.061885718 0.68400002
-0.055371433 0.061885718 0.68400002
-0.05422667 0.062066671 0.68600005
-0.052920002 0.062066671 0.68600005
-0.051613338 0.062066671 0.68600005
-0.050160002 0.061885718 0.68400002
-0.048857145 0.061885718 0.68400002
-0.047484767 0.061795242 0.68300003
-0.046183813 0.061795242 0.68300003
-0.04488286 0.061795242 0.68300003
-0.043581907 0.061795242 0.68300003
-0.042280953 0.061795242 0.68300003
-0.041040003 0.061885718 0.68400002
-0.039737146 0.061885718 0.68400002
-0.038434289 0.061885718 0.68400002
-0.037240002 0.062066671 0.68600005
-0.035933334 0.062066671 0.68600005
-0.03462667 0.062066671 0.68600005
-0.033222858 0.061885718 0.68400002
-0.031920001 0.061885718 0.68400002
-0.030617144 0.061885718 0.68400002
-0.029314287 0.061885718 0.68400002
-0.02801143 0.061885718 0.68400002
-0.026708573 0.061885718 0.68400002
-0.056840003 0.063373335 0.68600005
-0.055533338 0.063373335 0.68600005
-0.05422667 0.063373335 0.68600005
-0.052920002 0.063373335 0.68600005
-0.051613338 0.063373335 0.68600005
-0.05030667 0.063373335 0.68600005
-0.049000002 0.063373335 0.68600005
-0.047554288 0.063188575 0.68400002
-0.046183813 0.063096195 0.68300003
-0.04488286 0.063096195 0.68300003
-0.043581907 0.063096195 0.68300003
-0.04234286 0.063188575 0.68400002
-0.041040003 0.063188575 0.68400002
-0.039737146 0.063188575 0.68400002
-0.03854667 0.063373335 0.68600005
-0.037240002 0.063373335 0.68600005
-0.035933334 0.063373335 0.68600005
-0.034525715 0.063188575 0.68400002
-0.033320002 0.063373335 0.68600005
-0.032013334 0.063373335 0.68600005
-0.030617144 0.063188575 0.68400002
-0.029314287 0.063188575 0.68400002
-0.02801143 0.063188575 0.68400002
-0.026708573 0.063188575 0.68400002
-0.05692286 0.06477429 0.68700004
-0.055533338 0.064680003 0.68600005
-0.054305717 0.06477429 0.68700004
-0.052997146 0.06477429 0.68700004
-0.051688574 0.06477429 0.68700004
-0.05030667 0.064680003 0.68600005
-0.049000002 0.064680003 0.68600005
-0.047554288 0.064491436 0.68400002
-0.046251431 0.064491436 0.68400002
-0.044948574 0.064491436 0.68400002
-0.043645717 0.064491436 0.68400002
-0.04246667 0.064680003 0.68600005
-0.041160002 0.064680003 0.68600005
-0.039853334 0.064680003 0.68600005
-0.038602859 0.06477429 0.68700004
-0.037294287 0.06477429 0.68700004
-0.035985716 0.06477429 0.68700004
-0.034677144 0.06477429 0.68700004
-0.033320002 0.064680003 0.68600005
-0.032013334 0.064680003 0.68600005
-0.030706668 0.064680003 0.68600005
-0.029400002 0.064680003 0.68600005
-0.028093334 0.064680003 0.68600005
-0.026786668 0.064680003 0.68600005
-0.025480002 0.064680003 0.68600005
-0.05667429 0.065794289 0.68400002
-0.055533338 0.065986671 0.68600005
-0.054305717 0.066082865 0.68700004
-0.052997146 0.066082865 0.68700004
-0.051688574 0.066082865 0.68700004
-0.05030667 0.065986671 0.68600005
-0.049000002 0.065986671 0.68600005
-0.047693338 0.065986671 0.68600005
-0.046251431 0.065794289 0.68400002
-0.045080002 0.065986671 0.68600005
-0.043645717 0.065794289 0.68400002
-0.04246667 0.065986671 0.68600005
-0.041160002 0.065986671 0.68600005
-0.039853334 0.065986671 0.68600005
-0.03854667 0.065986671 0.68600005
-0.037294287 0.066082865 0.68700004
-0.035985716 0.066082865 0.68700004
-0.034677144 0.066082865 0.68700004
-0.033368573 0.066082865 0.68700004
-0.032060001 0.066082865 0.68700004
-0.030706668 0.065986671 0.68600005
-0.02944286 0.066082865 0.68700004
-0.028134288 0.066082865 0.68700004
-0.026786668 0.065986671 0.68600005
-0.025517145 0.066082865 0.68700004
-0.056840003 0.067293338 0.68600005
-0.055614289 0.067391433 0.68700004
-0.054305717 0.067391433 0.68700004
-0.052997146 0.067391433 0.68700004
-0.051688574 0.067391433 0.68700004
-0.050380003 0.067391433 0.68700004
-0.049071431 0.067391433 0.68700004
-0.047693338 0.067293338 0.68600005
-0.04638667 0.067293338 0.68600005
-0.045080002 0.067293338 0.68600005
-0.043773334 0.067293338 0.68600005
-0.04246667 0.067293338 0.68600005
-0.041160002 0.067293338 0.68600005
-0.039853334 0.067293338 0.68600005
-0.03854667 0.067293338 0.68600005
-0.037294287 0.067391433 0.68700004
-0.036090478 0.067587622 0.68900001
-0.034677144 0.067391433 0.68700004
-0.033368573 0.067391433 0.68700004
-0.032153334 0.067587622 0.68900001
-0.030751431 0.067391433 0.68700004
-0.02944286 0.067391433 0.68700004
-0.028134288 0.067391433 0.68700004
-0.026825717 0.067391433 0.68700004
-0.025591429 0.067587622 0.68900001
-0.024279049 0.067587622 0.68900001
-0.057088576 0.068900004 0.68900001
-0.055776194 0.068900004 0.68900001
-0.054463815 0.068900004 0.68900001
-0.052997146 0.068700008 0.68700004
-0.05183905 0.068900004 0.68900001
-0.050380003 0.068700008 0.68700004
-0.049214289 0.068900004 0.68900001
-0.047693338 0.068600006 0.68600005
-0.04638667 0.068600006 0.68600005
-0.045145717 0.068700008 0.68700004
-0.043773334 0.068600006 0.68600005
-0.042528573 0.068700008 0.68700004
-0.041160002 0.068600006 0.68600005
-0.039853334 0.068600006 0.68600005
-0.03854667 0.068600006 0.68600005
-0.037294287 0.068700008 0.68700004
-0.036090478 0.068900004 0.68900001
-0.034677144 0.068700008 0.68700004
-0.033465717 0.068900004 0.68900001
-0.032153334 0.068900004 0.68900001
-0.030751431 0.068700008 0.68700004
-0.029528573 0.068900004 0.68900001
-0.028216192 0.068900004 0.68900001
-0.026825717 0.068700008 0.68700004
-0.025591429 0.068900004 0.68900001
-0.024279049 0.068900004 0.68900001
-0.05692286 0.070008576 0.68700004
-0.055857148 0.070314288 0.69000006
-0.054463815 0.070212387 0.68900001
-0.053151432 0.070212387 0.68900001
-0.05183905 0.070212387 0.68900001
-0.050526671 0.070212387 0.68900001
-0.049214289 0.070212387 0.68900001
-0.047901906 0.070212387 0.68900001
-0.046454288 0.070008576 0.68700004
-0.045277145 0.070212387 0.68900001
-0.043964766 0.070212387 0.68900001
-0.042528573 0.070008576 0.68700004
-0.041220002 0.070008576 0.68700004
-0.03991143 0.070008576 0.68700004
-0.038602859 0.070008576 0.68700004
-0.037402861 0.070212387 0.68900001
-0.036090478 0.070212387 0.68900001
-0.034778096 0.070212387 0.68900001
-0.033465717 0.070212387 0.68900001
-0.032153334 0.070212387 0.68900001
-0.030840954 0.070212387 0.68900001
-0.029571431 0.070314288 0.69000006
-0.028216192 0.070212387 0.68900001
-0.026903812 0.070212387 0.68900001
-0.025628572 0.070314288 0.69000006
-0.024314288 0.070314288 0.69000006
-0.057171434 0.071628578 0.69000006
-0.055857148 0.071628578 0.69000006
-0.054542862 0.071628578 0.69000006
-0.053228576 0.071628578 0.69000006
-0.05191429 0.071628578 0.69000006
-0.050600003 0.071628578 0.69000006
-0.049285717 0.071628578 0.69000006
-0.047901906 0.071524769 0.68900001
-0.046589527 0.071524769 0.68900001
-0.045277145 0.071524769 0.68900001
-0.043964766 0.071524769 0.68900001
-0.042528573 0.071317151 0.68700004
-0.041220002 0.071317151 0.68700004
-0.03991143 0.071317151 0.68700004
-0.038602859 0.071317151 0.68700004
-0.037402861 0.071524769 0.68900001
-0.036090478 0.071524769 0.68900001
-0.034778096 0.071524769 0.68900001
-0.033465717 0.071524769 0.68900001
-0.032153334 0.071524769 0.68900001
-0.030840954 0.071524769 0.68900001
-0.029571431 0.071628578 0.69000006
-0.028216192 0.071524769 0.68900001
-0.026825717 0.071317151 0.68700004
-0.025628572 0.071628578 0.69000006
-0.024314288 0.071628578 0.69000006
-0.058570482 0.073048577 0.69100004
-0.057254288 0.073048577 0.69100004
-0.055938099 0.073048577 0.69100004
-0.054542862 0.07294286 0.69000006
-0.053228576 0.07294286 0.69000006
-0.05191429 0.07294286 0.69000006
-0.050600003 0.07294286 0.69000006
-0.049285717 0.07294286 0.69000006
-0.047971431 0.07294286 0.69000006
-0.046589527 0.072837144 0.68900001
-0.045342859 0.07294286 0.69000006
-0.043964766 0.072837144 0.68900001
-0.042652383 0.072837144 0.68900001
-0.041220002 0.072625719 0.68700004
-0.03991143 0.072625719 0.68700004
-0.038602859 0.072625719 0.68700004
-0.037402861 0.072837144 0.68900001
-0.036090478 0.072837144 0.68900001
-0.034778096 0.072837144 0.68900001
-0.033465717 0.072837144 0.68900001
-0.032153334 0.072837144 0.68900001
-0.030885717 0.07294286 0.69000006
-0.029571431 0.07294286 0.69000006
-0.028257145 0.07294286 0.69000006
-0.026942858 0.07294286 0.69000006
-0.025628572 0.07294286 0.69000006
-0.024314288 0.07294286 0.69000006
-0.023033334 0.073048577 0.69100004
-0.058570482 0.074364766 0.69100004
-0.057254288 0.074364766 0.69100004
-0.055938099 0.074364766 0.69100004
-0.054621909 0.074364766 0.69100004
-0.053305719 0.074364766 0.69100004
-0.05191429 0.07425715 0.69000006
-0.050673336 0.074364766 0.69100004
-0.049357146 0.074364766 0.69100004
-0.047971431 0.07425715 0.69000006
-0.046657145 0.07425715 0.69000006
-0.045342859 0.07425715 0.69000006
-0.044028573 0.07425715 0.69000006
-0.042652383 0.074149527 0.68900001
-0.041340001 0.074149527 0.68900001
-0.03991143 0.073934294 0.68700004
-0.03871524 0.074149527 0.68900001
-0.037402861 0.074149527 0.68900001
-0.03614286 0.07425715 0.69000006
-0.034828573 0.07425715 0.69000006
-0.033514287 0.07425715 0.69000006
-0.032200001 0.07425715 0.69000006
-0.030885717 0.07425715 0.69000006
-0.029571431 0.07425715 0.69000006
-0.028257145 0.07425715 0.69000006
-0.026942858 0.07425715 0.69000006
-0.025665715 0.074364766 0.69100004
-0.024349526 0.074364766 0.69100004
-0.023033334 0.074364766 0.69100004
-0.058740005 0.075900003 0.69300002
-0.057420004 0.075900003 0.69300002
-0.056100003 0.075900003 0.69300002
-0.054780003 0.075900003 0.69300002
-0.053460002 0.075900003 0.69300002
-0.051989526 0.075680956 0.69100004
-0.050820004 0.075900003 0.69300002
-0.049357146 0.075680956 0.69100004
-0.048040956 0.075680956 0.69100004
-0.046860002 0.075900003 0.69300002
-0.045408573 0.075680956 0.69100004
-0.044092383 0.075680956 0.69100004
-0.042776193 0.075680956 0.69100004
-0.041400004 0.075571433 0.69000006
-0.040085718 0.075571433 0.69000006
-0.038771432 0.075571433 0.69000006
-0.037457146 0.075571433 0.69000006
-0.03614286 0.075571433 0.69000006
-0.034828573 0.075571433 0.69000006
-0.033514287 0.075571433 0.69000006
-0.032200001 0.075571433 0.69000006
-0.030885717 0.075571433 0.69000006
-0.029571431 0.075571433 0.69000006
-0.028257145 0.075571433 0.69000006
-0.026942858 0.075571433 0.69000006
-0.025665715 0.075680956 0.69100004
-0.024420002 0.075900003 0.69300002
-0.023033334 0.075680956 0.69100004
-0.057420004 0.077220008 0.69300002
-0.056100003 0.077220008 0.69300002
-0.05485905 0.077331431 0.69400001
-0.053537145 0.077331431 0.69400001
-0.052140005 0.077220008 0.69300002
-0.050820004 0.077220008 0.69300002
-0.049500003 0.077220008 0.69300002
-0.048180003 0.077220008 0.69300002
-0.046927623 0.077331431 0.69400001
-0.045540001 0.077220008 0.69300002
-0.044220004 0.077220008 0.69300002
-0.042900003 0.077220008 0.69300002
-0.041460004 0.076997146 0.69100004
-0.040143814 0.076997146 0.69100004
-0.038771432 0.076885723 0.69000006
-0.037511431 0.076997146 0.69100004
-0.036195241 0.076997146 0.69100004
-0.034879051 0.076997146 0.69100004
-0.033562858 0.076997146 0.69100004
-0.032200001 0.076885723 0.69000006
-0.030885717 0.076885723 0.69000006
-0.029614288 0.076997146 0.69100004
-0.028257145 0.076885723 0.69000006
-0.026981907 0.076997146 0.69100004
-0.025665715 0.076997146 0.69100004
-0.024420002 0.077220008 0.69300002
-0.057502862 0.078653336 0.69400001
-0.056180958 0.078653336 0.69400001
-0.05485905 0.078653336 0.69400001
-0.053537145 0.078653336 0.69400001
-0.052140005 0.078540005 0.69300002
-0.050893337 0.078653336 0.69400001
-0.049500003 0.078540005 0.69300002
-0.048180003 0.078540005 0.69300002
-0.046927623 0.078653336 0.69400001
-0.045605719 0.078653336 0.69400001
-0.044220004 0.078540005 0.69300002
-0.042961907 0.078653336 0.69400001
-0.041580003 0.078540005 0.69300002
-0.040260002 0.078540005 0.69300002
-0.03882762 0.078313336 0.69100004
-0.037511431 0.078313336 0.69100004
-0.036300004 0.078540005 0.69300002
-0.034879051 0.078313336 0.69100004
-0.033562858 0.078313336 0.69100004
-0.032246668 0.078313336 0.69100004
-0.030930478 0.078313336 0.69100004
-0.029614288 0.078313336 0.69100004
-0.028298097 0.078313336 0.69100004
-0.026981907 0.078313336 0.69100004
-0.025740001 0.078540005 0.69300002
-0.024420002 0.078540005 0.69300002
-0.056261908 0.080090478 0.69500005
-0.0549381 0.080090478 0.69500005
-0.053614289 0.080090478 0.69500005
-0.052215241 0.07997524 0.69400001
-0.050893337 0.07997524 0.69400001
-0.049571432 0.07997524 0.69400001
-0.048249528 0.07997524 0.69400001
-0.046995241 0.080090478 0.69500005
-0.045671433 0.080090478 0.69500005
-0.044283811 0.07997524 0.69400001
-0.042961907 0.07997524 0.69400001
-0.041640002 0.07997524 0.69400001
-0.040318098 0.07997524 0.69400001
-0.038940001 0.079860002 0.69300002
-0.037620004 0.079860002 0.69300002
-0.036352385 0.07997524 0.69400001
-0.034980003 0.079860002 0.69300002
-0.033660002 0.079860002 0.69300002
-0.032246668 0.079629526 0.69100004
-0.030930478 0.079629526 0.69100004
-0.029614288 0.079629526 0.69100004
-0.028298097 0.079629526 0.69100004
-0.027060002 0.079860002 0.69300002
-0.025740001 0.079860002 0.69300002
-0.024420002 0.079860002 0.69300002
-0.0549381 0.08141429 0.69500005
-0.053614289 0.08141429 0.69500005
-0.052290481 0.08141429 0.69500005
-0.050966669 0.08141429 0.69500005
-0.049642861 0.08141429 0.69500005
-0.048319049 0.08141429 0.69500005
-0.046995241 0.08141429 0.69500005
-0.045671433 0.08141429 0.69500005
-0.044347622 0.08141429 0.69500005
-0.043023814 0.08141429 0.69500005
-0.041700002 0.08141429 0.69500005
-0.040376194 0.08141429 0.69500005
-0.038996194 0.081297152 0.69400001
-0.037674289 0.081297152 0.69400001
-0.036404766 0.08141429 0.69500005
-0.035080954 0.08141429 0.69500005
-0.033708572 0.081297152 0.69400001
-0.032386668 0.081297152 0.69400001
-0.031109527 0.08141429 0.69500005
-0.029785717 0.08141429 0.69500005
-0.028380001 0.081180006 0.69300002
-0.027060002 0.081180006 0.69300002
-0.055096194 0.082976192 0.69700003
-0.053768575 0.082976192 0.69700003
-0.052290481 0.082738101 0.69500005
-0.050966669 0.082738101 0.69500005
-0.049642861 0.082738101 0.69500005
-0.048319049 0.082738101 0.69500005
-0.046995241 0.082738101 0.69500005
-0.045671433 0.082738101 0.69500005
-0.044347622 0.082738101 0.69500005
-0.043147624 0.082976192 0.69700003
-0.041700002 0.082738101 0.69500005
-0.040376194 0.082738101 0.69500005
-0.039052382 0.082738101 0.69500005
-0.037728574 0.082738101 0.69500005
-0.036404766 0.082738101 0.69500005
-0.035080954 0.082738101 0.69500005
-0.033757146 0.082738101 0.69500005
-0.032433335 0.082738101 0.69500005
-0.031109527 0.082738101 0.69500005
-0.02987143 0.082976192 0.69700003
-0.028461907 0.082738101 0.69500005
-0.027060002 0.082500003 0.69300002
-0.055175241 0.084424764 0.69800001
-0.053768575 0.084303819 0.69700003
-0.052290481 0.084061913 0.69500005
-0.051113337 0.084303819 0.69700003
-0.049785718 0.084303819 0.69700003
-0.048458099 0.084303819 0.69700003
-0.046995241 0.084061913 0.69500005
-0.045671433 0.084061913 0.69500005
-0.044347622 0.084061913 0.69500005
-0.043147624 0.084303819 0.69700003
-0.041820005 0.084303819 0.69700003
-0.040492382 0.084303819 0.69700003
-0.039052382 0.084061913 0.69500005
-0.037728574 0.084061913 0.69500005
-0.036404766 0.084061913 0.69500005
-0.035080954 0.084061913 0.69500005
-0.033757146 0.084061913 0.69500005
-0.032433335 0.084061913 0.69500005
-0.031109527 0.084061913 0.69500005
-0.029785717 0.084061913 0.69500005
-0.028461907 0.084061913 0.69500005
-0.027138097 0.084061913 0.69500005
-0.055175241 0.08575429 0.69800001
-0.053768575 0.085631438 0.69700003
-0.052440956 0.085631438 0.69700003
-0.051113337 0.085631438 0.69700003
-0.049785718 0.085631438 0.69700003
-0.048458099 0.085631438 0.69700003
-0.04713048 0.085631438 0.69700003
-0.045802861 0.085631438 0.69700003
-0.044347622 0.085385717 0.69500005
-0.043147624 0.085631438 0.69700003
-0.041820005 0.085631438 0.69700003
-0.040492382 0.085631438 0.69700003
-0.039052382 0.085385717 0.69500005
-0.037728574 0.085385717 0.69500005
-0.036509525 0.085631438 0.69700003
-0.035080954 0.085385717 0.69500005
-0.033757146 0.085385717 0.69500005
-0.032433335 0.085385717 0.69500005
-0.031199049 0.085631438 0.69700003
-0.02987143 0.085631438 0.69700003
-0.028543811 0.085631438 0.69700003
-0.027216192 0.085631438 0.69700003
-0.055096194 0.086959057 0.69700003
-0.053768575 0.086959057 0.69700003
-0.052440956 0.086959057 0.69700003
-0.051113337 0.086959057 0.69700003
-0.049785718 0.086959057 0.69700003
-0.048458099 0.086959057 0.69700003
-0.04713048 0.086959057 0.69700003
-0.045671433 0.086709529 0.69500005
-0.044347622 0.086709529 0.69500005
-0.043147624 0.086959057 0.69700003
-0.041820005 0.086959057 0.69700003
-0.040492382 0.086959057 0.69700003
-0.039052382 0.086709529 0.69500005
-0.037728574 0.086709529 0.69500005
-0.036509525 0.086959057 0.69700003
-0.035080954 0.086709529 0.69500005
-0.033757146 0.086709529 0.69500005
-0.032526668 0.086959057 0.69700003
-0.031199049 0.086959057 0.69700003
-0.02987143 0.086959057 0.69700003
-0.028543811 0.086959057 0.69700003
-0.027216192 0.086959057 0.69700003
-0.055096194 0.088286676 0.69700003
-0.053768575 0.088286676 0.69700003
-0.052440956 0.088286676 0.69700003
-0.05118667 0.088413343 0.69800001
-0.049785718 0.088286676 0.69700003
-0.048458099 0.088286676 0.69700003
-0.04713048 0.088286676 0.69700003
-0.045802861 0.088286676 0.69700003
-0.044347622 0.088033341 0.69500005
-0.043147624 0.088286676 0.69700003
-0.041820005 0.088286676 0.69700003
-0.040492382 0.088286676 0.69700003
-0.039164763 0.088286676 0.69700003
-0.037728574 0.088033341 0.69500005
-0.036509525 0.088286676 0.69700003
-0.035181906 0.088286676 0.69700003
-0.033854287 0.088286676 0.69700003
-0.032526668 0.088286676 0.69700003
-0.031199049 0.088286676 0.69700003
-0.02987143 0.088286676 0.69700003
-0.028584763 0.088413343 0.69800001
-0.027255239 0.088413343 0.69800001
-0.055096194 0.089614294 0.69700003
-0.053768575 0.089614294 0.69700003
-0.052440956 0.089614294 0.69700003
-0.05118667 0.089742862 0.69800001
-0.049785718 0.089614294 0.69700003
-0.048458099 0.089614294 0.69700003
-0.04713048 0.089614294 0.69700003
-0.045802861 0.089614294 0.69700003
-0.044475242 0.089614294 0.69700003
-0.043147624 0.089614294 0.69700003
-0.041820005 0.089614294 0.69700003
-0.040492382 0.089614294 0.69700003
-0.039164763 0.089614294 0.69700003
-0.037837144 0.089614294 0.69700003
-0.036509525 0.089614294 0.69700003
-0.035181906 0.089614294 0.69700003
-0.033854287 0.089614294 0.69700003
-0.032526668 0.089614294 0.69700003
-0.031199049 0.089614294 0.69700003
-0.02987143 0.089614294 0.69700003
-0.028543811 0.089614294 0.69700003
-0.027216192 0.089614294 0.69700003
-0.055333339 0.091333337 0.70000005
-0.054000005 0.091333337 0.70000005
-0.052516192 0.091072388 0.69800001
-0.051333338 0.091333337 0.70000005
-0.049857147 0.091072388 0.69800001
-0.048527621 0.091072388 0.69800001
-0.047198098 0.091072388 0.69800001
-0.045868576 0.091072388 0.69800001
-0.044539049 0.091072388 0.69800001
-0.043147624 0.090941913 0.69700003
-0.041880004 0.091072388 0.69800001
-0.04066667 0.091333337 0.70000005
-0.039220955 0.091072388 0.69800001
-0.037891433 0.091072388 0.69800001
-0.036561906 0.091072388 0.69800001
-0.035232384 0.091072388 0.69800001
-0.033902861 0.091072388 0.69800001
-0.032666668 0.091333337 0.70000005
-0.031333335 0.091333337 0.70000005
-0.030042859 0.091463819 0.70100003
-0.028707622 0.091463819 0.70100003
-0.027450478 0.091724768 0.70300001
-0.055333339 0.092666671 0.70000005
-0.054000005 0.092666671 0.70000005
-0.052666672 0.092666671 0.70000005
-0.051333338 0.092666671 0.70000005
-0.050000004 0.092666671 0.70000005
-0.048666671 0.092666671 0.70000005
-0.047333337 0.092666671 0.70000005
-0.046000004 0.092666671 0.70000005
-0.04466667 0.092666671 0.70000005
-0.043333337 0.092666671 0.70000005
-0.042000003 0.092666671 0.70000005
-0.040724766 0.092799053 0.70100003
-0.039389525 0.092799053 0.70100003
-0.038000003 0.092666671 0.70000005
-0.036666669 0.092666671 0.70000005
-0.035333335 0.092666671 0.70000005
-0.034000002 0.092666671 0.70000005
-0.032713335 0.092799053 0.70100003
-0.031378098 0.092799053 0.70100003
-0.030042859 0.092799053 0.70100003
-0.028789526 0.093063816 0.70300001
-0.027450478 0.093063816 0.70300001
-0.055412386 0.094134293 0.70100003
-0.054077145 0.094134293 0.70100003
-0.052741908 0.094134293 0.70100003
-0.05140667 0.094134293 0.70100003
-0.050071433 0.094134293 0.70100003
-0.048736192 0.094134293 0.70100003
-0.047333337 0.094000004 0.70000005
-0.046000004 0.094000004 0.70000005
-0.044730481 0.094134293 0.70100003
-0.04339524 0.094134293 0.70100003
-0.042180002 0.094402865 0.70300001
-0.040840954 0.094402865 0.70300001
-0.039501909 0.094402865 0.70300001
-0.038054287 0.094134293 0.70100003
-0.03671905 0.094134293 0.70100003
-0.035383813 0.094134293 0.70100003
-0.034048572 0.094134293 0.70100003
-0.032806668 0.094402865 0.70300001
-0.03146762 0.094402865 0.70300001
-0.030128574 0.094402865 0.70300001
-0.028789526 0.094402865 0.70300001
-0.027489526 0.094537146 0.70400006
-0.055412386 0.095469527 0.70100003
-0.054077145 0.095469527 0.70100003
-0.052741908 0.095469527 0.70100003
-0.05140667 0.095469527 0.70100003
-0.050071433 0.095469527 0.70100003
-0.048736192 0.095469527 0.70100003
-0.047400955 0.095469527 0.70100003
-0.046065718 0.095469527 0.70100003
-0.044730481 0.095469527 0.70100003
-0.043580957 0.095878102 0.70400006
-0.042240001 0.095878102 0.70400006
-0.040899049 0.095878102 0.70400006
-0.039558098 0.095878102 0.70400006
-0.038162861 0.095741913 0.70300001
-0.036823813 0.095741913 0.70300001
-0.035484765 0.095741913 0.70300001
-0.034145717 0.095741913 0.70300001
-0.032806668 0.095741913 0.70300001
-0.03146762 0.095741913 0.70300001
-0.030128574 0.095741913 0.70300001
-0.028830478 0.095878102 0.70400006
-0.027489526 0.095878102 0.70400006
-0.055412386 0.096804768 0.70100003
-0.054077145 0.096804768 0.70100003
-0.052741908 0.096804768 0.70100003
-0.05140667 0.096804768 0.70100003
-0.050071433 0.096804768 0.70100003
-0.048736192 0.096804768 0.70100003
-0.047400955 0.096804768 0.70100003
-0.046065718 0.096804768 0.70100003
-0.044858098 0.097080961 0.70300001
-0.043580957 0.097219057 0.70400006
-0.042300005 0.097357146 0.70500004
-0.040957145 0.097357146 0.70500004
-0.039558098 0.097219057 0.70400006
-0.038217146 0.097219057 0.70400006
-0.036823813 0.097080961 0.70300001
-0.035484765 0.097080961 0.70300001
-0.034145717 0.097080961 0.70300001
-0.032853335 0.097219057 0.70400006
-0.031512383 0.097219057 0.70400006
-0.03017143 0.097219057 0.70400006
-0.028830478 0.097219057 0.70400006
-0.027528573 0.097357146 0.70500004
-0.026185716 0.097357146 0.70500004
-0.057476193 0.099400006 0.71000004
-0.055570479 0.098420009 0.70300001
-0.054077145 0.098140009 0.70100003
-0.052741908 0.098140009 0.70100003
-0.051553335 0.098420009 0.70300001
-0.050214291 0.098420009 0.70300001
-0.048875242 0.098420009 0.70300001
-0.047400955 0.098140009 0.70100003
-0.046197146 0.098420009 0.70300001
-0.044921909 0.098560005 0.70400006
-0.04364286 0.098700009 0.70500004
-0.042420004 0.09898001 0.70700002
-0.040957145 0.098700009 0.70500004
-0.03961429 0.098700009 0.70500004
-0.038271431 0.098700009 0.70500004
-0.036928575 0.098700009 0.70500004
-0.035535239 0.098560005 0.70400006
-0.034194287 0.098560005 0.70400006
-0.032853335 0.098560005 0.70400006
-0.031557146 0.098700009 0.70500004
-0.03017143 0.098560005 0.70400006
-0.02887143 0.098700009 0.70500004
-0.027606668 0.09898001 0.70700002
-0.026260002 0.09898001 0.70700002
-0.057476193 0.10075239 0.71000004
-0.055570479 0.099759057 0.70300001
-0.054231431 0.099759057 0.70300001
-0.052892383 0.099759057 0.70300001
-0.051553335 0.099759057 0.70300001
-0.050214291 0.099759057 0.70300001
-0.048875242 0.099759057 0.70300001
-0.047536194 0.099759057 0.70300001
-0.04626286 0.099900961 0.70400006
-0.044985719 0.10004286 0.70500004
-0.04376667 0.10032667 0.70700002
-0.042420004 0.10032667 0.70700002
-0.041073337 0.10032667 0.70700002
-0.039726671 0.10032667 0.70700002
-0.038380001 0.10032667 0.70700002
-0.037033334 0.10032667 0.70700002
-0.035686668 0.10032667 0.70700002
-0.034340002 0.10032667 0.70700002
-0.032900002 0.10004286 0.70500004
-0.031557146 0.10004286 0.70500004
-0.030214287 0.10004286 0.70500004
-0.028953334 0.10032667 0.70700002
-0.027606668 0.10032667 0.70700002
-0.026260002 0.10032667 0.70700002
-0.024913335 0.10032667 0.70700002
-0.056202862 0.10224858 0.71100003
-0.054617148 0.10181715 0.708
-0.052892383 0.10109811 0.70300001
-0.051553335 0.10109811 0.70300001
-0.050214291 0.10109811 0.70300001
-0.048944764 0.10124191 0.70400006
-0.047603812 0.10124191 0.70400006
-0.04626286 0.10124191 0.70400006
-0.044985719 0.10138572 0.70500004
-0.04376667 0.10167334 0.70700002
-0.042420004 0.10167334 0.70700002
-0.041073337 0.10167334 0.70700002
-0.039726671 0.10167334 0.70700002
-0.038434289 0.10181715 0.708
-0.037085716 0.10181715 0.708
-0.035838097 0.10210477 0.71000004
-0.034388572 0.10181715 0.708
-0.033040002 0.10181715 0.708
-0.031646669 0.10167334 0.70700002
-0.030300003 0.10167334 0.70700002
-0.028953334 0.10167334 0.70700002
-0.027606668 0.10167334 0.70700002
-0.026260002 0.10167334 0.70700002
-0.024913335 0.10167334 0.70700002
-0.056123812 0.10345715 0.71000004
-0.054617148 0.10316572 0.708
-0.053042859 0.10272858 0.70500004
-0.051846672 0.10302 0.70700002
-0.050500002 0.10302 0.70700002
-0.049014289 0.10272858 0.70500004
-0.047671434 0.10272858 0.70500004
-0.046328574 0.10272858 0.70500004
-0.045113336 0.10302 0.70700002
-0.043828573 0.10316572 0.708
-0.042480003 0.10316572 0.708
-0.041131433 0.10316572 0.708
-0.039782859 0.10316572 0.708
-0.038434289 0.10316572 0.708
-0.037190478 0.10345715 0.71000004
-0.035838097 0.10345715 0.71000004
-0.034388572 0.10316572 0.708
-0.033040002 0.10316572 0.708
-0.031646669 0.10302 0.70700002
-0.030300003 0.10302 0.70700002
-0.028953334 0.10302 0.70700002
-0.027606668 0.10302 0.70700002
-0.026297145 0.10316572 0.708
-0.024948573 0.10316572 0.708
-0.053268574 0.10451429 0.708
-0.051920004 0.10451429 0.708
-0.05057143 0.10451429 0.708
-0.049153335 0.10436668 0.70700002
-0.047806669 0.10436668 0.70700002
-0.046460003 0.10436668 0.70700002
-0.045113336 0.10436668 0.70700002
-0.043828573 0.10451429 0.708
-0.042480003 0.10451429 0.708
-0.041131433 0.10451429 0.708
-0.033040002 0.10451429 0.708
-0.031691432 0.10451429 0.708
-0.030300003 0.10436668 0.70700002
-0.028953334 0.10436668 0.70700002
-0.027606668 0.10436668 0.70700002
-0.026297145 0.10451429 0.708
-0.024948573 0.10451429 0.708
0.17121716 0.1079562 0.72200006
