# .PCD v0.7 - Point Cloud Data file format
VERSION 0.7
FIELDS x y z
SIZE 4 4 4
TYPE F F F
COUNT 1 1 1
WIDTH 1343
HEIGHT 1
VIEWPOINT 0 0 0 1 0 0 0
POINTS 1343
DATA ascii
-0.063682862 0.018488573 0.71900004
-0.061028574 0.018514287 0.72000003
-0.048685718 0.018514287 0.72000003
-0.04731429 0.018514287 0.72000003
-0.045942862 0.018514287 0.72000003
-0.044571433 0.018514287 0.72000003
-0.043200001 0.018514287 0.72000003
-0.041828573 0.018514287 0.72000003
-0.040457144 0.018514287 0.72000003
-0.039085716 0.018514287 0.72000003
-0.037714288 0.018514287 0.72000003
-0.036342859 0.018514287 0.72000003
-0.034971431 0.018514287 0.72000003
-0.033600003 0.018514287 0.72000003
-0.032228574 0.018514287 0.72000003
-0.030857146 0.018514287 0.72000003
-0.029485716 0.018514287 0.72000003
-0.028114287 0.018514287 0.72000003
-0.026817145 0.018565716 0.72200006
-0.025441907 0.018565716 0.72200006
-0.024066668 0.018565716 0.72200006
-0.022722859 0.01859143 0.72300005
-0.021316191 0.018565716 0.72200006
-0.019940954 0.018565716 0.72200006
-0.018565716 0.018565716 0.72200006
-0.017119048 0.018488573 0.71900004
-0.096161909 0.024249526 0.87800002
-0.09470477 0.024304764 0.88000005
-0.076008573 0.019858096 0.71900004
-0.074639052 0.019858096 0.71900004
-0.073269531 0.019858096 0.71900004
-0.072000004 0.019885715 0.72000003
-0.070628576 0.019885715 0.72000003
-0.069257148 0.019885715 0.72000003
-0.067885719 0.019885715 0.72000003
-0.066514291 0.019885715 0.72000003
-0.065142862 0.019885715 0.72000003
-0.063771434 0.019885715 0.72000003
-0.062400006 0.019885715 0.72000003
-0.061028574 0.019885715 0.72000003
-0.059657145 0.019885715 0.72000003
-0.052946672 0.019940954 0.72200006
-0.050057147 0.019885715 0.72000003
-0.048685718 0.019885715 0.72000003
-0.04731429 0.019885715 0.72000003
-0.045942862 0.019885715 0.72000003
-0.044571433 0.019885715 0.72000003
-0.043200001 0.019885715 0.72000003
-0.041828573 0.019885715 0.72000003
-0.040457144 0.019885715 0.72000003
-0.039085716 0.019885715 0.72000003
-0.037714288 0.019885715 0.72000003
-0.036342859 0.019885715 0.72000003
-0.034971431 0.019885715 0.72000003
-0.033600003 0.019885715 0.72000003
-0.032228574 0.019885715 0.72000003
-0.030857146 0.019885715 0.72000003
-0.029567622 0.019940954 0.72200006
-0.028192382 0.019940954 0.72200006
-0.026817145 0.019940954 0.72200006
-0.025441907 0.019940954 0.72200006
-0.024066668 0.019940954 0.72200006
-0.022722859 0.019968573 0.72300005
-0.021316191 0.019940954 0.72200006
-0.019940954 0.019940954 0.72200006
-0.018514287 0.019885715 0.72000003
-0.017142858 0.019885715 0.72000003
-0.01577143 0.019885715 0.72000003
-0.078090481 0.021050477 0.71300006
-0.07673239 0.021050477 0.71300006
-0.075691432 0.02113905 0.71600002
-0.074431434 0.021168573 0.71700001
-0.073269531 0.021227621 0.71900004
-0.072000004 0.021257143 0.72000003
-0.070824765 0.021316191 0.72200006
-0.069449529 0.021316191 0.72200006
-0.068074293 0.021316191 0.72200006
-0.06669905 0.021316191 0.72200006
-0.065142862 0.021257143 0.72000003
-0.063771434 0.021257143 0.72000003
-0.062400006 0.021257143 0.72000003
-0.061028574 0.021257143 0.72000003
-0.059657145 0.021257143 0.72000003
-0.058447622 0.021316191 0.72200006
-0.057072386 0.021316191 0.72200006
-0.055697147 0.021316191 0.72200006
-0.054321907 0.021316191 0.72200006
-0.052946672 0.021316191 0.72200006
-0.051571433 0.021316191 0.72200006
-0.050057147 0.021257143 0.72000003
-0.048685718 0.021257143 0.72000003
-0.04731429 0.021257143 0.72000003
-0.045942862 0.021257143 0.72000003
-0.044571433 0.021257143 0.72000003
-0.043200001 0.021257143 0.72000003
-0.041828573 0.021257143 0.72000003
-0.040457144 0.021257143 0.72000003
-0.039085716 0.021257143 0.72000003
-0.037714288 0.021257143 0.72000003
-0.036342859 0.021257143 0.72000003
-0.034971431 0.021257143 0.72000003
-0.033600003 0.021257143 0.72000003
-0.032228574 0.021257143 0.72000003
-0.030942859 0.021316191 0.72200006
-0.029567622 0.021316191 0.72200006
-0.028192382 0.021316191 0.72200006
-0.026817145 0.021316191 0.72200006
-0.025477145 0.021345716 0.72300005
-0.024100002 0.021345716 0.72300005
-0.022722859 0.021345716 0.72300005
-0.021345716 0.021345716 0.72300005
-0.019940954 0.021316191 0.72200006
-0.018565716 0.021316191 0.72200006
-0.017142858 0.021257143 0.72000003
-0.01577143 0.021257143 0.72000003
-0.074120007 0.022440001 0.71400005
-0.073371433 0.022628574 0.72000003
-0.072200008 0.022691431 0.72200006
-0.070922859 0.022722859 0.72300005
-0.069545716 0.022722859 0.72300005
-0.068168573 0.022722859 0.72300005
-0.06679143 0.022722859 0.72300005
-0.065323815 0.022691431 0.72200006
-0.063948579 0.022691431 0.72200006
-0.062573336 0.022691431 0.72200006
-0.0611981 0.022691431 0.72200006
-0.059822861 0.022691431 0.72200006
-0.058447622 0.022691431 0.72200006
-0.057151433 0.022722859 0.72300005
-0.055697147 0.022691431 0.72200006
-0.054321907 0.022691431 0.72200006
-0.052946672 0.022691431 0.72200006
-0.051571433 0.022691431 0.72200006
-0.050196193 0.022691431 0.72200006
-0.048820954 0.022691431 0.72200006
-0.047445718 0.022691431 0.72200006
-0.046070479 0.022691431 0.72200006
-0.04469524 0.022691431 0.72200006
-0.043320004 0.022691431 0.72200006
-0.041944765 0.022691431 0.72200006
-0.040569525 0.022691431 0.72200006
-0.03919429 0.022691431 0.72200006
-0.03781905 0.022691431 0.72200006
-0.036443811 0.022691431 0.72200006
-0.035068575 0.022691431 0.72200006
-0.033693336 0.022691431 0.72200006
-0.03236286 0.022722859 0.72300005
-0.030985717 0.022722859 0.72300005
-0.029608574 0.022722859 0.72300005
-0.028231431 0.022722859 0.72300005
-0.026854288 0.022722859 0.72300005
-0.025477145 0.022722859 0.72300005
-0.024100002 0.022722859 0.72300005
-0.022722859 0.022722859 0.72300005
-0.021345716 0.022722859 0.72300005
-0.019968573 0.022722859 0.72300005
-0.01859143 0.022722859 0.72300005
-0.017190477 0.022691431 0.72200006
-0.015837144 0.022722859 0.72300005
-0.014500001 0.022785716 0.72500002
-0.073677145 0.024100002 0.72300005
-0.072300002 0.024100002 0.72300005
-0.070922859 0.024100002 0.72300005
-0.069738097 0.024166668 0.72500002
-0.068357147 0.024166668 0.72500002
-0.06679143 0.024100002 0.72300005
-0.065414287 0.024100002 0.72300005
-0.064037144 0.024100002 0.72300005
-0.062660001 0.024100002 0.72300005
-0.061282862 0.024100002 0.72300005
-0.059905719 0.024100002 0.72300005
-0.058528576 0.024100002 0.72300005
-0.057151433 0.024100002 0.72300005
-0.05577429 0.024100002 0.72300005
-0.054397147 0.024100002 0.72300005
-0.053020004 0.024100002 0.72300005
-0.051642861 0.024100002 0.72300005
-0.050196193 0.024066668 0.72200006
-0.048820954 0.024066668 0.72200006
-0.047511432 0.024100002 0.72300005
-0.046134289 0.024100002 0.72300005
-0.044757146 0.024100002 0.72300005
-0.043380003 0.024100002 0.72300005
-0.04200286 0.024100002 0.72300005
-0.040625717 0.024100002 0.72300005
-0.039248575 0.024100002 0.72300005
-0.037871432 0.024100002 0.72300005
-0.036494289 0.024100002 0.72300005
-0.035117146 0.024100002 0.72300005
-0.033740003 0.024100002 0.72300005
-0.03236286 0.024100002 0.72300005
-0.030985717 0.024100002 0.72300005
-0.029608574 0.024100002 0.72300005
-0.028231431 0.024100002 0.72300005
-0.026854288 0.024100002 0.72300005
-0.02554762 0.024166668 0.72500002
-0.024100002 0.024100002 0.72300005
-0.022722859 0.024100002 0.72300005
-0.021345716 0.024100002 0.72300005
-0.020023812 0.024166668 0.72500002
-0.018642858 0.024166668 0.72500002
-0.017214287 0.024100002 0.72300005
-0.015837144 0.024100002 0.72300005
-0.014500001 0.024166668 0.72500002
-0.073677145 0.025477145 0.72300005
-0.072500005 0.02554762 0.72500002
-0.071119055 0.02554762 0.72500002
-0.069738097 0.02554762 0.72500002
-0.068357147 0.02554762 0.72500002
-0.066976197 0.02554762 0.72500002
-0.065595239 0.02554762 0.72500002
-0.064214289 0.02554762 0.72500002
-0.062833339 0.02554762 0.72500002
-0.061452385 0.02554762 0.72500002
-0.060071431 0.02554762 0.72500002
-0.058528576 0.025477145 0.72300005
-0.057151433 0.025477145 0.72300005
-0.05577429 0.025477145 0.72300005
-0.054397147 0.025477145 0.72300005
-0.053020004 0.025477145 0.72300005
-0.051642861 0.025477145 0.72300005
-0.050265718 0.025477145 0.72300005
-0.048888575 0.025477145 0.72300005
-0.047511432 0.025477145 0.72300005
-0.046134289 0.025477145 0.72300005
-0.044757146 0.025477145 0.72300005
-0.043500002 0.02554762 0.72500002
-0.04200286 0.025477145 0.72300005
-0.040625717 0.025477145 0.72300005
-0.039248575 0.025477145 0.72300005
-0.037871432 0.025477145 0.72300005
-0.036494289 0.025477145 0.72300005
-0.035117146 0.025477145 0.72300005
-0.033740003 0.025477145 0.72300005
-0.03236286 0.025477145 0.72300005
-0.030985717 0.025477145 0.72300005
-0.029608574 0.025477145 0.72300005
-0.028231431 0.025477145 0.72300005
-0.026854288 0.025477145 0.72300005
-0.025477145 0.025477145 0.72300005
-0.024100002 0.025477145 0.72300005
-0.022722859 0.025477145 0.72300005
-0.021345716 0.025477145 0.72300005
-0.020023812 0.02554762 0.72500002
-0.018642858 0.02554762 0.72500002
-0.017214287 0.025477145 0.72300005
-0.015837144 0.025477145 0.72300005
-0.014500001 0.02554762 0.72500002
-0.073880956 0.026928574 0.72500002
-0.072500005 0.026928574 0.72500002
-0.071119055 0.026928574 0.72500002
-0.069738097 0.026928574 0.72500002
-0.068451434 0.026965717 0.72600001
-0.067068577 0.026965717 0.72600001
-0.065595239 0.026928574 0.72500002
-0.064214289 0.026928574 0.72500002
-0.062833339 0.026928574 0.72500002
-0.061452385 0.026928574 0.72500002
-0.060071431 0.026928574 0.72500002
-0.058690481 0.026928574 0.72500002
-0.057309527 0.026928574 0.72500002
-0.055928577 0.026928574 0.72500002
-0.054547623 0.026928574 0.72500002
-0.053166669 0.026928574 0.72500002
-0.051785719 0.026928574 0.72500002
-0.050404765 0.026928574 0.72500002
-0.049023814 0.026928574 0.72500002
-0.047642861 0.026928574 0.72500002
-0.046261907 0.026928574 0.72500002
-0.044880956 0.026928574 0.72500002
-0.043500002 0.026928574 0.72500002
-0.042119049 0.026928574 0.72500002
-0.040738098 0.026928574 0.72500002
-0.039248575 0.026854288 0.72300005
-0.037976194 0.026928574 0.72500002
-0.03659524 0.026928574 0.72500002
-0.035214286 0.026928574 0.72500002
-0.033740003 0.026854288 0.72300005
-0.032452382 0.026928574 0.72500002
-0.03107143 0.026928574 0.72500002
-0.029690478 0.026928574 0.72500002
-0.028309526 0.026928574 0.72500002
-0.026928574 0.026928574 0.72500002
-0.02554762 0.026928574 0.72500002
-0.024166668 0.026928574 0.72500002
-0.022785716 0.026928574 0.72500002
-0.021404764 0.026928574 0.72500002
-0.020023812 0.026928574 0.72500002
-0.018642858 0.026928574 0.72500002
-0.017214287 0.026854288 0.72300005
-0.015880954 0.026928574 0.72500002
-0.014520001 0.026965717 0.72600001
-0.072500005 0.028309526 0.72500002
-0.071119055 0.028309526 0.72500002
-0.069738097 0.028309526 0.72500002
-0.068451434 0.028348573 0.72600001
-0.067068577 0.028348573 0.72600001
-0.065595239 0.028309526 0.72500002
-0.064214289 0.028309526 0.72500002
-0.062833339 0.028309526 0.72500002
-0.061452385 0.028309526 0.72500002
-0.060154289 0.028348573 0.72600001
-0.058690481 0.028309526 0.72500002
-0.057309527 0.028309526 0.72500002
-0.055928577 0.028309526 0.72500002
-0.054547623 0.028309526 0.72500002
-0.053166669 0.028309526 0.72500002
-0.051785719 0.028309526 0.72500002
-0.050404765 0.028309526 0.72500002
-0.049023814 0.028309526 0.72500002
-0.047642861 0.028309526 0.72500002
-0.046261907 0.028309526 0.72500002
-0.044880956 0.028309526 0.72500002
-0.043500002 0.028309526 0.72500002
-0.042119049 0.028309526 0.72500002
-0.040738098 0.028309526 0.72500002
-0.039357144 0.028309526 0.72500002
-0.037976194 0.028309526 0.72500002
-0.03659524 0.028309526 0.72500002
-0.035214286 0.028309526 0.72500002
-0.033833336 0.028309526 0.72500002
-0.032452382 0.028309526 0.72500002
-0.03107143 0.028309526 0.72500002
-0.029690478 0.028309526 0.72500002
-0.028309526 0.028309526 0.72500002
-0.026928574 0.028309526 0.72500002
-0.02554762 0.028309526 0.72500002
-0.024166668 0.028309526 0.72500002
-0.022817144 0.028348573 0.72600001
-0.021434287 0.028348573 0.72600001
-0.020051429 0.028348573 0.72600001
-0.018668573 0.028348573 0.72600001
-0.017261906 0.028309526 0.72500002
-0.015880954 0.028309526 0.72500002
-0.014580001 0.028465716 0.72900003
-0.071217149 0.02973143 0.72600001
-0.069738097 0.029690478 0.72500002
-0.068451434 0.02973143 0.72600001
-0.067068577 0.02973143 0.72600001
-0.065685719 0.02973143 0.72600001
-0.064302862 0.02973143 0.72600001
-0.062920004 0.02973143 0.72600001
-0.061537147 0.02973143 0.72600001
-0.060154289 0.02973143 0.72600001
-0.058771431 0.02973143 0.72600001
-0.057388574 0.02973143 0.72600001
-0.056005716 0.02973143 0.72600001
-0.054622862 0.02973143 0.72600001
-0.053166669 0.029690478 0.72500002
-0.051857147 0.02973143 0.72600001
-0.05047429 0.02973143 0.72600001
-0.049023814 0.029690478 0.72500002
-0.047642861 0.029690478 0.72500002
-0.046325717 0.02973143 0.72600001
-0.04494286 0.02973143 0.72600001
-0.043560002 0.02973143 0.72600001
-0.042119049 0.029690478 0.72500002
-0.040738098 0.029690478 0.72500002
-0.039357144 0.029690478 0.72500002
-0.037976194 0.029690478 0.72500002
-0.03659524 0.029690478 0.72500002
-0.035214286 0.029690478 0.72500002
-0.033833336 0.029690478 0.72500002
-0.032452382 0.029690478 0.72500002
-0.03107143 0.029690478 0.72500002
-0.029690478 0.029690478 0.72500002
-0.028348573 0.02973143 0.72600001
-0.026965717 0.02973143 0.72600001
-0.025582859 0.02973143 0.72600001
-0.024200002 0.02973143 0.72600001
-0.022880001 0.029813336 0.72800004
-0.021493334 0.029813336 0.72800004
-0.020106668 0.029813336 0.72800004
-0.018720001 0.029813336 0.72800004
-0.017285716 0.02973143 0.72600001
-0.015902858 0.02973143 0.72600001
-0.071413338 0.031200003 0.72800004
-0.069834292 0.031114288 0.72600001
-0.068640001 0.031200003 0.72800004
-0.067068577 0.031114288 0.72600001
-0.065685719 0.031114288 0.72600001
-0.064302862 0.031114288 0.72600001
-0.062920004 0.031114288 0.72600001
-0.061537147 0.031114288 0.72600001
-0.060154289 0.031114288 0.72600001
-0.058771431 0.031114288 0.72600001
-0.057388574 0.031114288 0.72600001
-0.056005716 0.031114288 0.72600001
-0.054622862 0.031114288 0.72600001
-0.053240005 0.031114288 0.72600001
-0.051857147 0.031114288 0.72600001
-0.05047429 0.031114288 0.72600001
-0.049091432 0.031114288 0.72600001
-0.047708575 0.031114288 0.72600001
-0.046325717 0.031114288 0.72600001
-0.04494286 0.031114288 0.72600001
-0.043560002 0.031114288 0.72600001
-0.042177144 0.031114288 0.72600001
-0.040794287 0.031114288 0.72600001
-0.039357144 0.03107143 0.72500002
-0.037976194 0.03107143 0.72500002
-0.03659524 0.03107143 0.72500002
-0.035214286 0.03107143 0.72500002
-0.033833336 0.03107143 0.72500002
-0.031199049 0.02987143 0.69700003
-0.02987143 0.02987143 0.69700003
-0.028543811 0.02987143 0.69700003
-0.027216192 0.02987143 0.69700003
-0.025888573 0.02987143 0.69700003
-0.024560954 0.02987143 0.69700003
-0.023233335 0.02987143 0.69700003
-0.020578096 0.02987143 0.69700003
-0.019250477 0.02987143 0.69700003
-0.017922858 0.02987143 0.69700003
-0.01654762 0.029785717 0.69500005
-0.071027622 0.031199049 0.69700003
-0.071217149 0.032497145 0.72600001
-0.069834292 0.032497145 0.72600001
-0.068451434 0.032497145 0.72600001
-0.067068577 0.032497145 0.72600001
-0.065685719 0.032497145 0.72600001
-0.064302862 0.032497145 0.72600001
-0.062920004 0.032497145 0.72600001
-0.061537147 0.032497145 0.72600001
-0.060320005 0.032586668 0.72800004
-0.058771431 0.032497145 0.72600001
-0.057388574 0.032497145 0.72600001
-0.056005716 0.032497145 0.72600001
-0.054622862 0.032497145 0.72600001
-0.053240005 0.032497145 0.72600001
-0.051857147 0.032497145 0.72600001
-0.05047429 0.032497145 0.72600001
-0.049091432 0.032497145 0.72600001
-0.047708575 0.032497145 0.72600001
-0.046453338 0.032586668 0.72800004
-0.04506667 0.032586668 0.72800004
-0.043680001 0.032586668 0.72800004
-0.042177144 0.032497145 0.72600001
-0.040794287 0.032497145 0.72600001
-0.039411429 0.032497145 0.72600001
-0.037976194 0.032452382 0.72500002
-0.035080954 0.031109527 0.69500005
-0.033757146 0.031109527 0.69500005
-0.032526668 0.031199049 0.69700003
-0.031199049 0.031199049 0.69700003
-0.02987143 0.031199049 0.69700003
-0.028543811 0.031199049 0.69700003
-0.027216192 0.031199049 0.69700003
-0.025888573 0.031199049 0.69700003
-0.024560954 0.031199049 0.69700003
-0.023233335 0.031199049 0.69700003
-0.021905717 0.031199049 0.69700003
-0.020578096 0.031199049 0.69700003
-0.019250477 0.031199049 0.69700003
-0.017922858 0.031199049 0.69700003
-0.01654762 0.031109527 0.69500005
-0.015180001 0.031020002 0.69300002
-0.07245905 0.032573335 0.69800001
-0.071027622 0.032526668 0.69700003
-0.069800004 0.032573335 0.69800001
-0.068470478 0.032573335 0.69800001
-0.067140959 0.032573335 0.69800001
-0.066000007 0.032666668 0.70000005
-0.065685719 0.033880003 0.72600001
-0.064302862 0.033880003 0.72600001
-0.063093334 0.033973336 0.72800004
-0.06170667 0.033973336 0.72800004
-0.060402863 0.034020003 0.72900003
-0.058771431 0.033880003 0.72600001
-0.057388574 0.033880003 0.72600001
-0.056005716 0.033880003 0.72600001
-0.054622862 0.033880003 0.72600001
-0.053240005 0.033880003 0.72600001
-0.051857147 0.033880003 0.72600001
-0.05047429 0.033880003 0.72600001
-0.049091432 0.033880003 0.72600001
-0.047708575 0.033880003 0.72600001
-0.046453338 0.033973336 0.72800004
-0.04506667 0.033973336 0.72800004
-0.043560002 0.033880003 0.72600001
-0.042177144 0.033880003 0.72600001
-0.040794287 0.033880003 0.72600001
-0.037728574 0.032433335 0.69500005
-0.036352385 0.032386668 0.69400001
-0.035080954 0.032433335 0.69500005
-0.033757146 0.032433335 0.69500005
-0.032433335 0.032433335 0.69500005
-0.031199049 0.032526668 0.69700003
-0.02987143 0.032526668 0.69700003
-0.028543811 0.032526668 0.69700003
-0.027255239 0.032573335 0.69800001
-0.025925716 0.032573335 0.69800001
-0.024596192 0.032573335 0.69800001
-0.023266668 0.032573335 0.69800001
-0.021937145 0.032573335 0.69800001
-0.02060762 0.032573335 0.69800001
-0.019278096 0.032573335 0.69800001
-0.017922858 0.032526668 0.69700003
-0.01652381 0.032386668 0.69400001
-0.015180001 0.032340001 0.69300002
-0.075900003 0.033660002 0.69300002
-0.074687622 0.033708572 0.69400001
-0.073365718 0.033708572 0.69400001
-0.072147623 0.033757146 0.69500005
-0.070823811 0.033757146 0.69500005
-0.069700003 0.033854287 0.69700003
-0.068372384 0.033854287 0.69700003
-0.067140959 0.033902861 0.69800001
-0.066000007 0.034000002 0.70000005
-0.064481907 0.033902861 0.69800001
-0.063152388 0.033902861 0.69800001
-0.062088575 0.034048572 0.70100003
-0.060753338 0.034048572 0.70100003
-0.059333336 0.034000002 0.70000005
-0.058000002 0.034000002 0.70000005
-0.056423813 0.033854287 0.69700003
-0.055096194 0.033854287 0.69700003
-0.053768575 0.033854287 0.69700003
-0.052440956 0.033854287 0.69700003
-0.050966669 0.033757146 0.69500005
-0.049785718 0.033854287 0.69700003
-0.048319049 0.033757146 0.69500005
-0.046995241 0.033757146 0.69500005
-0.045802861 0.033854287 0.69700003
-0.044347622 0.033757146 0.69500005
-0.043023814 0.033757146 0.69500005
-0.041700002 0.033757146 0.69500005
-0.040376194 0.033757146 0.69500005
-0.039164763 0.033854287 0.69700003
-0.037837144 0.033854287 0.69700003
-0.036509525 0.033854287 0.69700003
-0.035080954 0.033757146 0.69500005
-0.033757146 0.033757146 0.69500005
-0.032526668 0.033854287 0.69700003
-0.031199049 0.033854287 0.69700003
-0.02987143 0.033854287 0.69700003
-0.028584763 0.033902861 0.69800001
-0.027255239 0.033902861 0.69800001
-0.025925716 0.033902861 0.69800001
-0.024596192 0.033902861 0.69800001
-0.023266668 0.033902861 0.69800001
-0.021937145 0.033902861 0.69800001
-0.02060762 0.033902861 0.69800001
-0.019278096 0.033902861 0.69800001
-0.017948573 0.033902861 0.69800001
-0.01654762 0.033757146 0.69500005
-0.015180001 0.033660002 0.69300002
-0.076009527 0.035030477 0.69400001
-0.074795246 0.035080954 0.69500005
-0.073471434 0.035080954 0.69500005
-0.072147623 0.035080954 0.69500005
-0.070823811 0.035080954 0.69500005
-0.069700003 0.035181906 0.69700003
-0.068372384 0.035181906 0.69700003
-0.067044765 0.035181906 0.69700003
-0.065811433 0.035232384 0.69800001
-0.064481907 0.035232384 0.69800001
-0.063152388 0.035232384 0.69800001
-0.061822861 0.035232384 0.69800001
-0.060666669 0.035333335 0.70000005
-0.059079051 0.035181906 0.69700003
-0.058000002 0.035333335 0.70000005
-0.056423813 0.035181906 0.69700003
-0.055096194 0.035181906 0.69700003
-0.053845719 0.035232384 0.69800001
-0.052440956 0.035181906 0.69700003
-0.051113337 0.035181906 0.69700003
-0.049785718 0.035181906 0.69700003
-0.048458099 0.035181906 0.69700003
-0.04713048 0.035181906 0.69700003
-0.045802861 0.035181906 0.69700003
-0.044539049 0.035232384 0.69800001
-0.043147624 0.035181906 0.69700003
-0.041820005 0.035181906 0.69700003
-0.040492382 0.035181906 0.69700003
-0.039164763 0.035181906 0.69700003
-0.037837144 0.035181906 0.69700003
-0.036509525 0.035181906 0.69700003
-0.035232384 0.035232384 0.69800001
-0.033854287 0.035181906 0.69700003
-0.032573335 0.035232384 0.69800001
-0.031243812 0.035232384 0.69800001
-0.029914288 0.035232384 0.69800001
-0.028584763 0.035232384 0.69800001
-0.027333336 0.035333335 0.70000005
-0.026000002 0.035333335 0.70000005
-0.024666669 0.035333335 0.70000005
-0.023333335 0.035333335 0.70000005
-0.022000002 0.035333335 0.70000005
-0.020666668 0.035333335 0.70000005
-0.019360954 0.035383813 0.70100003
-0.018025715 0.035383813 0.70100003
-0.016666668 0.035333335 0.70000005
-0.015333334 0.035333335 0.70000005
-0.077331431 0.036352385 0.69400001
-0.076009527 0.036352385 0.69400001
-0.074795246 0.036404766 0.69500005
-0.073471434 0.036404766 0.69500005
-0.072147623 0.036404766 0.69500005
-0.071027622 0.036509525 0.69700003
-0.069700003 0.036509525 0.69700003
-0.068372384 0.036509525 0.69700003
-0.067044765 0.036509525 0.69700003
-0.065811433 0.036561906 0.69800001
-0.064481907 0.036561906 0.69800001
-0.063152388 0.036561906 0.69800001
-0.061822861 0.036561906 0.69800001
-0.060753338 0.03671905 0.70100003
-0.059333336 0.036666669 0.70000005
-0.058000002 0.036666669 0.70000005
-0.056504767 0.036561906 0.69800001
-0.055096194 0.036509525 0.69700003
-0.053845719 0.036561906 0.69800001
-0.052516192 0.036561906 0.69800001
-0.05118667 0.036561906 0.69800001
-0.049857147 0.036561906 0.69800001
-0.048458099 0.036509525 0.69700003
-0.04713048 0.036509525 0.69700003
-0.045868576 0.036561906 0.69800001
-0.04466667 0.036666669 0.70000005
-0.043209527 0.036561906 0.69800001
-0.041880004 0.036561906 0.69800001
-0.040550478 0.036561906 0.69800001
-0.039220955 0.036561906 0.69800001
-0.037891433 0.036561906 0.69800001
-0.036561906 0.036561906 0.69800001
-0.035232384 0.036561906 0.69800001
-0.033854287 0.036509525 0.69700003
-0.032666668 0.036666669 0.70000005
-0.031333335 0.036666669 0.70000005
-0.030042859 0.03671905 0.70100003
-0.028666668 0.036666669 0.70000005
-0.027333336 0.036666669 0.70000005
-0.026000002 0.036666669 0.70000005
-0.024666669 0.036666669 0.70000005
-0.023333335 0.036666669 0.70000005
-0.022000002 0.036666669 0.70000005
-0.020696191 0.03671905 0.70100003
-0.019360954 0.03671905 0.70100003
-0.018025715 0.03671905 0.70100003
-0.016666668 0.036666669 0.70000005
-0.015333334 0.036666669 0.70000005
-0.078653336 0.037674289 0.69400001
-0.077331431 0.037674289 0.69400001
-0.076009527 0.037674289 0.69400001
-0.074795246 0.037728574 0.69500005
-0.073471434 0.037728574 0.69500005
-0.072355241 0.037837144 0.69700003
-0.071027622 0.037837144 0.69700003
-0.069700003 0.037837144 0.69700003
-0.068470478 0.037891433 0.69800001
-0.067140959 0.037891433 0.69800001
-0.066000007 0.038000003 0.70000005
-0.064666674 0.038000003 0.70000005
-0.06333334 0.038000003 0.70000005
-0.062000003 0.038000003 0.70000005
-0.060753338 0.038054287 0.70100003
-0.059418101 0.038054287 0.70100003
-0.05808286 0.038054287 0.70100003
-0.056666672 0.038000003 0.70000005
-0.055175241 0.037891433 0.69800001
-0.054000005 0.038000003 0.70000005
-0.052666672 0.038000003 0.70000005
-0.051333338 0.038000003 0.70000005
-0.049857147 0.037891433 0.69800001
-0.048527621 0.037891433 0.69800001
-0.047198098 0.037891433 0.69800001
-0.046000004 0.038000003 0.70000005
-0.044730481 0.038054287 0.70100003
-0.043333337 0.038000003 0.70000005
-0.041880004 0.037891433 0.69800001
-0.040550478 0.037891433 0.69800001
-0.039220955 0.037891433 0.69800001
-0.037891433 0.037891433 0.69800001
-0.036666669 0.038000003 0.70000005
-0.035333335 0.038000003 0.70000005
-0.034000002 0.038000003 0.70000005
-0.032713335 0.038054287 0.70100003
-0.031378098 0.038054287 0.70100003
-0.030042859 0.038054287 0.70100003
-0.028707622 0.038054287 0.70100003
-0.027372383 0.038054287 0.70100003
-0.026037145 0.038054287 0.70100003
-0.024701906 0.038054287 0.70100003
-0.023366667 0.038054287 0.70100003
-0.02203143 0.038054287 0.70100003
-0.020696191 0.038054287 0.70100003
-0.019360954 0.038054287 0.70100003
-0.018025715 0.038054287 0.70100003
-0.016666668 0.038000003 0.70000005
-0.015333334 0.038000003 0.70000005
-0.077331431 0.038996194 0.69400001
-0.07611905 0.039052382 0.69500005
-0.074795246 0.039052382 0.69500005
-0.07368286 0.039164763 0.69700003
-0.072355241 0.039164763 0.69700003
-0.071129531 0.039220955 0.69800001
-0.069800004 0.039220955 0.69800001
-0.068666674 0.039333336 0.70000005
-0.067333341 0.039333336 0.70000005
-0.066094287 0.039389525 0.70100003
-0.064759053 0.039389525 0.70100003
-0.063423812 0.039389525 0.70100003
-0.062088575 0.039389525 0.70100003
-0.060753338 0.039389525 0.70100003
-0.059418101 0.039389525 0.70100003
-0.05808286 0.039389525 0.70100003
-0.056747623 0.039389525 0.70100003
-0.055333339 0.039333336 0.70000005
-0.054077145 0.039389525 0.70100003
-0.052666672 0.039333336 0.70000005
-0.051333338 0.039333336 0.70000005
-0.050000004 0.039333336 0.70000005
-0.048666671 0.039333336 0.70000005
-0.047400955 0.039389525 0.70100003
-0.046065718 0.039389525 0.70100003
-0.044730481 0.039389525 0.70100003
-0.04339524 0.039389525 0.70100003
-0.042000003 0.039333336 0.70000005
-0.04066667 0.039333336 0.70000005
-0.039333336 0.039333336 0.70000005
-0.038000003 0.039333336 0.70000005
-0.036666669 0.039333336 0.70000005
-0.035333335 0.039333336 0.70000005
-0.034048572 0.039389525 0.70100003
-0.032713335 0.039389525 0.70100003
-0.031378098 0.039389525 0.70100003
-0.030042859 0.039389525 0.70100003
-0.028707622 0.039389525 0.70100003
-0.027372383 0.039389525 0.70100003
-0.026037145 0.039389525 0.70100003
-0.024701906 0.039389525 0.70100003
-0.023366667 0.039389525 0.70100003
-0.02203143 0.039389525 0.70100003
-0.020696191 0.039389525 0.70100003
-0.019416193 0.039501909 0.70300001
-0.018077144 0.039501909 0.70300001
-0.016690478 0.039389525 0.70100003
-0.015355239 0.039389525 0.70100003
-0.014020001 0.039389525 0.70100003
-0.077442862 0.040376194 0.69500005
-0.07611905 0.040376194 0.69500005
-0.075010478 0.040492382 0.69700003
-0.073788576 0.040550478 0.69800001
-0.07245905 0.040550478 0.69800001
-0.071129531 0.040550478 0.69800001
-0.070000008 0.04066667 0.70000005
-0.068666674 0.04066667 0.70000005
-0.067333341 0.04066667 0.70000005
-0.066000007 0.04066667 0.70000005
-0.064666674 0.04066667 0.70000005
-0.06333334 0.04066667 0.70000005
-0.062088575 0.040724766 0.70100003
-0.060753338 0.040724766 0.70100003
-0.059333336 0.04066667 0.70000005
-0.05808286 0.040724766 0.70100003
-0.056747623 0.040724766 0.70100003
-0.055333339 0.04066667 0.70000005
-0.054077145 0.040724766 0.70100003
-0.052741908 0.040724766 0.70100003
-0.051333338 0.04066667 0.70000005
-0.049857147 0.040550478 0.69800001
-0.048736192 0.040724766 0.70100003
-0.047400955 0.040724766 0.70100003
-0.046065718 0.040724766 0.70100003
-0.044730481 0.040724766 0.70100003
-0.04339524 0.040724766 0.70100003
-0.042060003 0.040724766 0.70100003
-0.04066667 0.04066667 0.70000005
-0.039333336 0.04066667 0.70000005
-0.038000003 0.04066667 0.70000005
-0.036666669 0.04066667 0.70000005
-0.035383813 0.040724766 0.70100003
-0.034048572 0.040724766 0.70100003
-0.032713335 0.040724766 0.70100003
-0.03146762 0.040840954 0.70300001
-0.030128574 0.040840954 0.70300001
-0.028789526 0.040840954 0.70300001
-0.027450478 0.040840954 0.70300001
-0.02611143 0.040840954 0.70300001
-0.024701906 0.040724766 0.70100003
-0.023366667 0.040724766 0.70100003
-0.022094287 0.040840954 0.70300001
-0.020755239 0.040840954 0.70300001
-0.019416193 0.040840954 0.70300001
-0.018077144 0.040840954 0.70300001
-0.016690478 0.040724766 0.70100003
-0.015355239 0.040724766 0.70100003
-0.014020001 0.040724766 0.70100003
-0.07611905 0.041700002 0.69500005
-0.075010478 0.041820005 0.69700003
-0.073788576 0.041880004 0.69800001
-0.07245905 0.041880004 0.69800001
-0.071333341 0.042000003 0.70000005
-0.070000008 0.042000003 0.70000005
-0.068666674 0.042000003 0.70000005
-0.067333341 0.042000003 0.70000005
-0.066094287 0.042060003 0.70100003
-0.064759053 0.042060003 0.70100003
-0.063423812 0.042060003 0.70100003
-0.062088575 0.042060003 0.70100003
-0.060753338 0.042060003 0.70100003
-0.059333336 0.042000003 0.70000005
-0.05808286 0.042060003 0.70100003
-0.056747623 0.042060003 0.70100003
-0.055333339 0.042000003 0.70000005
-0.054077145 0.042060003 0.70100003
-0.052741908 0.042060003 0.70100003
-0.051333338 0.042000003 0.70000005
-0.050000004 0.042000003 0.70000005
-0.048736192 0.042060003 0.70100003
-0.047536194 0.042180002 0.70300001
-0.046065718 0.042060003 0.70100003
-0.044858098 0.042180002 0.70300001
-0.04351905 0.042180002 0.70300001
-0.042060003 0.042060003 0.70100003
-0.040724766 0.042060003 0.70100003
-0.039333336 0.042000003 0.70000005
-0.038000003 0.042000003 0.70000005
-0.03671905 0.042060003 0.70100003
-0.035383813 0.042060003 0.70100003
-0.034048572 0.042060003 0.70100003
-0.032806668 0.042180002 0.70300001
-0.03146762 0.042180002 0.70300001
-0.030128574 0.042180002 0.70300001
-0.028789526 0.042180002 0.70300001
-0.027450478 0.042180002 0.70300001
-0.02611143 0.042180002 0.70300001
-0.024772383 0.042180002 0.70300001
-0.023433335 0.042180002 0.70300001
-0.022094287 0.042180002 0.70300001
-0.020755239 0.042180002 0.70300001
-0.01944381 0.042240001 0.70400006
-0.018102858 0.042240001 0.70400006
-0.016738096 0.042180002 0.70300001
-0.015399049 0.042180002 0.70300001
-0.014020001 0.042060003 0.70100003
-0.076338097 0.043147624 0.69700003
-0.075118102 0.043209527 0.69800001
-0.074000008 0.043333337 0.70000005
-0.072666675 0.043333337 0.70000005
-0.071333341 0.043333337 0.70000005
-0.070100002 0.04339524 0.70100003
-0.068764769 0.04339524 0.70100003
-0.067333341 0.043333337 0.70000005
-0.066094287 0.04339524 0.70100003
-0.064759053 0.04339524 0.70100003
-0.063423812 0.04339524 0.70100003
-0.062088575 0.04339524 0.70100003
-0.060753338 0.04339524 0.70100003
-0.059333336 0.043333337 0.70000005
-0.05808286 0.04339524 0.70100003
-0.056747623 0.04339524 0.70100003
-0.055333339 0.043333337 0.70000005
-0.054077145 0.04339524 0.70100003
-0.052741908 0.04339524 0.70100003
-0.051333338 0.043333337 0.70000005
-0.050000004 0.043333337 0.70000005
-0.048875242 0.04351905 0.70300001
-0.047536194 0.04351905 0.70300001
-0.046197146 0.04351905 0.70300001
-0.044858098 0.04351905 0.70300001
-0.04351905 0.04351905 0.70300001
-0.042060003 0.04339524 0.70100003
-0.040724766 0.04339524 0.70100003
-0.039389525 0.04339524 0.70100003
-0.038054287 0.04339524 0.70100003
-0.03671905 0.04339524 0.70100003
-0.035484765 0.04351905 0.70300001
-0.034145717 0.04351905 0.70300001
-0.032806668 0.04351905 0.70300001
-0.03146762 0.04351905 0.70300001
-0.03017143 0.043580957 0.70400006
-0.028830478 0.043580957 0.70400006
-0.027489526 0.043580957 0.70400006
-0.026148573 0.043580957 0.70400006
-0.024807621 0.043580957 0.70400006
-0.023466669 0.043580957 0.70400006
-0.022125715 0.043580957 0.70400006
-0.020784764 0.043580957 0.70400006
-0.01944381 0.043580957 0.70400006
-0.018128572 0.04364286 0.70500004
-0.016761906 0.043580957 0.70400006
-0.015420954 0.043580957 0.70400006
-0.014080001 0.043580957 0.70400006
-0.07611905 0.044347622 0.69500005
-0.075010478 0.044475242 0.69700003
-0.073788576 0.044539049 0.69800001
-0.072666675 0.04466667 0.70000005
-0.071333341 0.04466667 0.70000005
-0.070100002 0.044730481 0.70100003
-0.068764769 0.044730481 0.70100003
-0.067429528 0.044730481 0.70100003
-0.066094287 0.044730481 0.70100003
-0.064759053 0.044730481 0.70100003
-0.06333334 0.04466667 0.70000005
-0.062088575 0.044730481 0.70100003
-0.060753338 0.044730481 0.70100003
-0.059418101 0.044730481 0.70100003
-0.05808286 0.044730481 0.70100003
-0.056747623 0.044730481 0.70100003
-0.055412386 0.044730481 0.70100003
-0.054077145 0.044730481 0.70100003
-0.052741908 0.044730481 0.70100003
-0.05140667 0.044730481 0.70100003
-0.050071433 0.044730481 0.70100003
-0.048875242 0.044858098 0.70300001
-0.047536194 0.044858098 0.70300001
-0.046197146 0.044858098 0.70300001
-0.044858098 0.044858098 0.70300001
-0.04351905 0.044858098 0.70300001
-0.042180002 0.044858098 0.70300001
-0.040840954 0.044858098 0.70300001
-0.039501909 0.044858098 0.70300001
-0.038162861 0.044858098 0.70300001
-0.036823813 0.044858098 0.70300001
-0.035484765 0.044858098 0.70300001
-0.034145717 0.044858098 0.70300001
-0.032806668 0.044858098 0.70300001
-0.03146762 0.044858098 0.70300001
-0.030128574 0.044858098 0.70300001
-0.028830478 0.044921909 0.70400006
-0.027450478 0.044858098 0.70300001
-0.026148573 0.044921909 0.70400006
-0.024807621 0.044921909 0.70400006
-0.023466669 0.044921909 0.70400006
-0.022157144 0.044985719 0.70500004
-0.020814287 0.044985719 0.70500004
-0.019471429 0.044985719 0.70500004
-0.018128572 0.044985719 0.70500004
-0.016761906 0.044921909 0.70400006
-0.015420954 0.044921909 0.70400006
-0.014100001 0.044985719 0.70500004
-0.012757144 0.044985719 0.70500004
-0.075010478 0.045802861 0.69700003
-0.074000008 0.046000004 0.70000005
-0.072666675 0.046000004 0.70000005
-0.071435243 0.046065718 0.70100003
-0.070100002 0.046065718 0.70100003
-0.068764769 0.046065718 0.70100003
-0.067429528 0.046065718 0.70100003
-0.066094287 0.046065718 0.70100003
-0.064759053 0.046065718 0.70100003
-0.063423812 0.046065718 0.70100003
-0.062088575 0.046065718 0.70100003
-0.060753338 0.046065718 0.70100003
-0.059418101 0.046065718 0.70100003
-0.05808286 0.046065718 0.70100003
-0.056747623 0.046065718 0.70100003
-0.055412386 0.046065718 0.70100003
-0.054077145 0.046065718 0.70100003
-0.052741908 0.046065718 0.70100003
-0.05140667 0.046065718 0.70100003
-0.050071433 0.046065718 0.70100003
-0.048875242 0.046197146 0.70300001
-0.047536194 0.046197146 0.70300001
-0.046197146 0.046197146 0.70300001
-0.044921909 0.04626286 0.70400006
-0.04351905 0.046197146 0.70300001
-0.042180002 0.046197146 0.70300001
-0.040840954 0.046197146 0.70300001
-0.039501909 0.046197146 0.70300001
-0.038162861 0.046197146 0.70300001
-0.036823813 0.046197146 0.70300001
-0.035484765 0.046197146 0.70300001
-0.034145717 0.046197146 0.70300001
-0.032806668 0.046197146 0.70300001
-0.031512383 0.04626286 0.70400006
-0.03017143 0.04626286 0.70400006
-0.028830478 0.04626286 0.70400006
-0.027489526 0.04626286 0.70400006
-0.026185716 0.046328574 0.70500004
-0.024842858 0.046328574 0.70500004
-0.023500001 0.046328574 0.70500004
-0.022157144 0.046328574 0.70500004
-0.020814287 0.046328574 0.70500004
-0.019526668 0.046460003 0.70700002
-0.018180002 0.046460003 0.70700002
-0.016785715 0.046328574 0.70500004
-0.015442858 0.046328574 0.70500004
-0.014100001 0.046328574 0.70500004
-0.012793334 0.046460003 0.70700002
-0.075010478 0.04713048 0.69700003
-0.074000008 0.047333337 0.70000005
-0.072666675 0.047333337 0.70000005
-0.071435243 0.047400955 0.70100003
-0.070100002 0.047400955 0.70100003
-0.068764769 0.047400955 0.70100003
-0.067429528 0.047400955 0.70100003
-0.066282861 0.047536194 0.70300001
-0.064943813 0.047536194 0.70300001
-0.063604765 0.047536194 0.70300001
-0.06226572 0.047536194 0.70300001
-0.060926672 0.047536194 0.70300001
-0.059587624 0.047536194 0.70300001
-0.058248576 0.047536194 0.70300001
-0.056909528 0.047536194 0.70300001
-0.055412386 0.047400955 0.70100003
-0.054077145 0.047400955 0.70100003
-0.052741908 0.047400955 0.70100003
-0.05140667 0.047400955 0.70100003
-0.050071433 0.047400955 0.70100003
-0.048875242 0.047536194 0.70300001
-0.047536194 0.047536194 0.70300001
-0.046197146 0.047536194 0.70300001
-0.044858098 0.047536194 0.70300001
-0.04351905 0.047536194 0.70300001
-0.042240001 0.047603812 0.70400006
-0.040840954 0.047536194 0.70300001
-0.039501909 0.047536194 0.70300001
-0.038162861 0.047536194 0.70300001
-0.036823813 0.047536194 0.70300001
-0.035535239 0.047603812 0.70400006
-0.034194287 0.047603812 0.70400006
-0.032853335 0.047603812 0.70400006
-0.031512383 0.047603812 0.70400006
-0.030214287 0.047671434 0.70500004
-0.02887143 0.047671434 0.70500004
-0.027528573 0.047671434 0.70500004
-0.026185716 0.047671434 0.70500004
-0.024842858 0.047671434 0.70500004
-0.023500001 0.047671434 0.70500004
-0.022220001 0.047806669 0.70700002
-0.020873334 0.047806669 0.70700002
-0.019554287 0.04787429 0.708
-0.018180002 0.047806669 0.70700002
-0.016785715 0.047671434 0.70500004
-0.015442858 0.047671434 0.70500004
-0.014100001 0.047671434 0.70500004
-0.012793334 0.047806669 0.70700002
-0.011446668 0.047806669 0.70700002
-0.074105717 0.048736192 0.70100003
-0.072770484 0.048736192 0.70100003
-0.071435243 0.048736192 0.70100003
-0.070300005 0.048875242 0.70300001
-0.068960957 0.048875242 0.70300001
-0.067621909 0.048875242 0.70300001
-0.066282861 0.048875242 0.70300001
-0.064943813 0.048875242 0.70300001
-0.063604765 0.048875242 0.70300001
-0.06226572 0.048875242 0.70300001
-0.060926672 0.048875242 0.70300001
-0.059587624 0.048875242 0.70300001
-0.058248576 0.048875242 0.70300001
-0.056909528 0.048875242 0.70300001
-0.055570479 0.048875242 0.70300001
-0.054231431 0.048875242 0.70300001
-0.052741908 0.048736192 0.70100003
-0.05140667 0.048736192 0.70100003
-0.050071433 0.048736192 0.70100003
-0.048875242 0.048875242 0.70300001
-0.047536194 0.048875242 0.70300001
-0.046197146 0.048875242 0.70300001
-0.044921909 0.048944764 0.70400006
-0.043580957 0.048944764 0.70400006
-0.042240001 0.048944764 0.70400006
-0.040899049 0.048944764 0.70400006
-0.039558098 0.048944764 0.70400006
-0.038217146 0.048944764 0.70400006
-0.036876194 0.048944764 0.70400006
-0.035535239 0.048944764 0.70400006
-0.034194287 0.048944764 0.70400006
-0.032900002 0.049014289 0.70500004
-0.031557146 0.049014289 0.70500004
-0.030214287 0.049014289 0.70500004
-0.02887143 0.049014289 0.70500004
-0.027606668 0.049153335 0.70700002
-0.026185716 0.049014289 0.70500004
-0.024948573 0.04922286 0.708
-0.023600001 0.04922286 0.708
-0.022220001 0.049153335 0.70700002
-0.020873334 0.049153335 0.70700002
-0.019554287 0.04922286 0.708
-0.018205715 0.04922286 0.708
-0.016833335 0.049153335 0.70700002
-0.015442858 0.049014289 0.70500004
-0.014100001 0.049014289 0.70500004
-0.012757144 0.049014289 0.70500004
-0.011414287 0.049014289 0.70500004
-0.073081911 0.050285719 0.70400006
-0.071740955 0.050285719 0.70400006
-0.070500001 0.050357144 0.70500004
-0.069059052 0.050285719 0.70400006
-0.067814291 0.050357144 0.70500004
-0.066471435 0.050357144 0.70500004
-0.065128572 0.050357144 0.70500004
-0.063785717 0.050357144 0.70500004
-0.062354289 0.050285719 0.70400006
-0.061013337 0.050285719 0.70400006
-0.059757147 0.050357144 0.70500004
-0.058414288 0.050357144 0.70500004
-0.056990478 0.050285719 0.70400006
-0.055728573 0.050357144 0.70500004
-0.054308575 0.050285719 0.70400006
-0.052967623 0.050285719 0.70400006
-0.051626671 0.050285719 0.70400006
-0.050357144 0.050357144 0.70500004
-0.048875242 0.050214291 0.70300001
-0.047603812 0.050285719 0.70400006
-0.04626286 0.050285719 0.70400006
-0.044985719 0.050357144 0.70500004
-0.04364286 0.050357144 0.70500004
-0.042300005 0.050357144 0.70500004
-0.040957145 0.050357144 0.70500004
-0.039726671 0.050500002 0.70700002
-0.038380001 0.050500002 0.70700002
-0.037033334 0.050500002 0.70700002
-0.035686668 0.050500002 0.70700002
-0.034242861 0.050357144 0.70500004
-0.032900002 0.050357144 0.70500004
-0.031646669 0.050500002 0.70700002
-0.030342858 0.05057143 0.708
-0.028994288 0.05057143 0.708
-0.027645716 0.05057143 0.708
-0.026371431 0.050714288 0.71000004
-0.025054287 0.050785717 0.71100003
-0.023700001 0.050785717 0.71100003
-0.022251431 0.05057143 0.708
-0.020902859 0.05057143 0.708
-0.019609526 0.050714288 0.71000004
-0.018257145 0.050714288 0.71000004
-0.016857143 0.05057143 0.708
-0.015486668 0.050500002 0.70700002
-0.014140001 0.050500002 0.70700002
-0.012793334 0.050500002 0.70700002
-0.011446668 0.050500002 0.70700002
-0.07318572 0.051700003 0.70500004
-0.071842864 0.051700003 0.70500004
-0.070700005 0.051846672 0.70700002
-0.069353335 0.051846672 0.70700002
-0.067814291 0.051700003 0.70500004
-0.066471435 0.051700003 0.70500004
-0.065128572 0.051700003 0.70500004
-0.063785717 0.051700003 0.70500004
-0.062442861 0.051700003 0.70500004
-0.061100002 0.051700003 0.70500004
-0.059757147 0.051700003 0.70500004
-0.058414288 0.051700003 0.70500004
-0.057071432 0.051700003 0.70500004
-0.055728573 0.051700003 0.70500004
-0.054385718 0.051700003 0.70500004
-0.053042859 0.051700003 0.70500004
-0.051700003 0.051700003 0.70500004
-0.050357144 0.051700003 0.70500004
-0.048875242 0.051553335 0.70300001
-0.047536194 0.051553335 0.70300001
-0.04626286 0.051626671 0.70400006
-0.044921909 0.051626671 0.70400006
-0.04364286 0.051700003 0.70500004
-0.042300005 0.051700003 0.70500004
-0.040957145 0.051700003 0.70500004
-0.039726671 0.051846672 0.70700002
-0.038380001 0.051846672 0.70700002
-0.037033334 0.051846672 0.70700002
-0.035686668 0.051846672 0.70700002
-0.034340002 0.051846672 0.70700002
-0.032993335 0.051846672 0.70700002
-0.031691432 0.051920004 0.708
-0.030428573 0.052066669 0.71000004
-0.029076193 0.052066669 0.71000004
-0.027723812 0.052066669 0.71000004
-0.026408574 0.052140005 0.71100003
-0.025054287 0.052140005 0.71100003
-0.023700001 0.052140005 0.71100003
-0.022251431 0.051920004 0.708
-0.020961907 0.052066669 0.71000004
-0.019637143 0.052140005 0.71100003
-0.018257145 0.052066669 0.71000004
-0.016857143 0.051920004 0.708
-0.015508573 0.051920004 0.708
-0.014140001 0.051846672 0.70700002
-0.012793334 0.051846672 0.70700002
-0.011446668 0.051846672 0.70700002
-0.073393337 0.053193338 0.70700002
-0.072046675 0.053193338 0.70700002
-0.070700005 0.053193338 0.70700002
-0.069353335 0.053193338 0.70700002
-0.068006672 0.053193338 0.70700002
-0.066660002 0.053193338 0.70700002
-0.065313339 0.053193338 0.70700002
-0.063966669 0.053193338 0.70700002
-0.062442861 0.053042859 0.70500004
-0.061100002 0.053042859 0.70500004
-0.059757147 0.053042859 0.70500004
-0.058414288 0.053042859 0.70500004
-0.057071432 0.053042859 0.70500004
-0.055728573 0.053042859 0.70500004
-0.054385718 0.053042859 0.70500004
-0.053193338 0.053193338 0.70700002
-0.051846672 0.053193338 0.70700002
-0.050500002 0.053193338 0.70700002
-0.049014289 0.053042859 0.70500004
-0.047603812 0.052967623 0.70400006
-0.04626286 0.052967623 0.70400006
-0.044985719 0.053042859 0.70500004
-0.04364286 0.053042859 0.70500004
-0.042300005 0.053042859 0.70500004
-0.040957145 0.053042859 0.70500004
-0.039726671 0.053193338 0.70700002
-0.038380001 0.053193338 0.70700002
-0.037033334 0.053193338 0.70700002
-0.035686668 0.053193338 0.70700002
-0.034340002 0.053193338 0.70700002
-0.033040002 0.053268574 0.708
-0.031691432 0.053268574 0.708
-0.030471431 0.05349429 0.71100003
-0.029117145 0.05349429 0.71100003
-0.027840953 0.053644765 0.71300006
-0.02648286 0.053644765 0.71300006
-0.025124764 0.053644765 0.71300006
-0.023766669 0.053644765 0.71300006
-0.022408573 0.053644765 0.71300006
-0.021050477 0.053644765 0.71300006
-0.019692382 0.053644765 0.71300006
-0.018282859 0.05349429 0.71100003
-0.016904764 0.05341905 0.71000004
-0.015508573 0.053268574 0.708
-0.014160001 0.053268574 0.708
-0.012793334 0.053193338 0.70700002
-0.011446668 0.053193338 0.70700002
-0.073393337 0.054540005 0.70700002
-0.072046675 0.054540005 0.70700002
-0.070800006 0.054617148 0.708
-0.069353335 0.054540005 0.70700002
-0.068006672 0.054540005 0.70700002
-0.066660002 0.054540005 0.70700002
-0.065313339 0.054540005 0.70700002
-0.063966669 0.054540005 0.70700002
-0.062620007 0.054540005 0.70700002
-0.061273336 0.054540005 0.70700002
-0.05992667 0.054540005 0.70700002
-0.058580004 0.054540005 0.70700002
-0.057233337 0.054540005 0.70700002
-0.055886671 0.054540005 0.70700002
-0.054540005 0.054540005 0.70700002
-0.053193338 0.054540005 0.70700002
-0.051846672 0.054540005 0.70700002
-0.050500002 0.054540005 0.70700002
-0.049153335 0.054540005 0.70700002
-0.047806669 0.054540005 0.70700002
-0.046328574 0.054385718 0.70500004
-0.044985719 0.054385718 0.70500004
-0.04364286 0.054385718 0.70500004
-0.042300005 0.054385718 0.70500004
-0.040957145 0.054385718 0.70500004
-0.039726671 0.054540005 0.70700002
-0.038434289 0.054617148 0.708
-0.037085716 0.054617148 0.708
-0.035737146 0.054617148 0.708
-0.034388572 0.054617148 0.708
-0.033180002 0.054848574 0.71100003
-0.03191524 0.055002861 0.71300006
-0.030557144 0.055002861 0.71300006
-0.029199049 0.055002861 0.71300006
-0.027840953 0.055002861 0.71300006
-0.02648286 0.055002861 0.71300006
-0.025124764 0.055002861 0.71300006
-0.023766669 0.055002861 0.71300006
-0.022408573 0.055002861 0.71300006
-0.02099143 0.054848574 0.71100003
-0.019692382 0.055002861 0.71300006
-0.018282859 0.054848574 0.71100003
-0.016904764 0.054771431 0.71000004
-0.015552382 0.054771431 0.71000004
-0.014160001 0.054617148 0.708
-0.012793334 0.054540005 0.70700002
-0.011446668 0.054540005 0.70700002
-0.073497146 0.055965718 0.708
-0.072148576 0.055965718 0.708
-0.070800006 0.055965718 0.708
-0.069451436 0.055965718 0.708
-0.068006672 0.055886671 0.70700002
-0.066754289 0.055965718 0.708
-0.065405719 0.055965718 0.708
-0.064057149 0.055965718 0.708
-0.062620007 0.055886671 0.70700002
-0.061273336 0.055886671 0.70700002
-0.05992667 0.055886671 0.70700002
-0.058580004 0.055886671 0.70700002
-0.057233337 0.055886671 0.70700002
-0.055886671 0.055886671 0.70700002
-0.054540005 0.055886671 0.70700002
-0.053193338 0.055886671 0.70700002
-0.051920004 0.055965718 0.708
-0.050500002 0.055886671 0.70700002
-0.049153335 0.055886671 0.70700002
-0.047806669 0.055886671 0.70700002
-0.046460003 0.055886671 0.70700002
-0.045177147 0.055965718 0.708
-0.043828573 0.055965718 0.708
-0.042300005 0.055728573 0.70500004
-0.041073337 0.055886671 0.70700002
-0.039726671 0.055886671 0.70700002
-0.038434289 0.055965718 0.708
-0.037190478 0.056123812 0.71000004
-0.035838097 0.056123812 0.71000004
-0.034485716 0.056123812 0.71000004
-0.033180002 0.056202862 0.71100003
-0.03191524 0.056360956 0.71300006
-0.030557144 0.056360956 0.71300006
-0.029199049 0.056360956 0.71300006
-0.027840953 0.056360956 0.71300006
-0.02648286 0.056360956 0.71300006
-0.025124764 0.056360956 0.71300006
-0.023766669 0.056360956 0.71300006
-0.022345716 0.056202862 0.71100003
-0.021050477 0.056360956 0.71300006
-0.019692382 0.056360956 0.71300006
-0.018334286 0.056360956 0.71300006
-0.016928572 0.056202862 0.71100003
-0.015552382 0.056123812 0.71000004
-0.014160001 0.055965718 0.708
-0.01281143 0.055965718 0.708
-0.073497146 0.057314288 0.708
-0.072148576 0.057314288 0.708
-0.070800006 0.057314288 0.708
-0.069451436 0.057314288 0.708
-0.068102859 0.057314288 0.708
-0.066754289 0.057314288 0.708
-0.065405719 0.057314288 0.708
-0.064057149 0.057314288 0.708
-0.062708579 0.057314288 0.708
-0.061273336 0.057233337 0.70700002
-0.060011432 0.057314288 0.708
-0.058580004 0.057233337 0.70700002
-0.057314288 0.057314288 0.708
-0.055886671 0.057233337 0.70700002
-0.054617148 0.057314288 0.708
-0.053268574 0.057314288 0.708
-0.051920004 0.057314288 0.708
-0.05057143 0.057314288 0.708
-0.04922286 0.057314288 0.708
-0.04787429 0.057314288 0.708
-0.046525717 0.057314288 0.708
-0.045304764 0.057476193 0.71000004
-0.043828573 0.057314288 0.708
-0.042480003 0.057314288 0.708
-0.041131433 0.057314288 0.708
-0.039782859 0.057314288 0.708
-0.038542859 0.057476193 0.71000004
-0.03724286 0.057557147 0.71100003
-0.035888575 0.057557147 0.71100003
-0.034534287 0.057557147 0.71100003
