# .PCD v0.7 - Point Cloud Data file format
VERSION 0.7
FIELDS x y z
SIZE 4 4 4
TYPE F F F
COUNT 1 1 1
WIDTH 1340
HEIGHT 1
VIEWPOINT 0 0 0 1 0 0 0
POINTS 1340
DATA ascii
-0.063571431 0.049285717 0.75000006
-0.067857146 0.050714288 0.75000006
-0.066251434 0.050579052 0.74800003
-0.064826667 0.050579052 0.74800003
-0.063571431 0.050714288 0.75000006
-0.06214286 0.050714288 0.75000006
-0.06071429 0.050714288 0.75000006
-0.058732383 0.050240956 0.74300003
-0.057317145 0.050240956 0.74300003
-0.070997149 0.052351434 0.75300002
-0.06956286 0.052351434 0.75300002
-0.067857146 0.052142862 0.75000006
-0.066251434 0.052003812 0.74800003
-0.064826667 0.052003812 0.74800003
-0.063571431 0.052142862 0.75000006
-0.06189429 0.051934291 0.74700004
-0.060309529 0.05179524 0.74500006
-0.058732383 0.051656194 0.74300003
-0.057317145 0.051656194 0.74300003
-0.055000003 0.052142862 0.75000006
-0.05371429 0.052281909 0.75200003
-0.052281909 0.052281909 0.75200003
-0.050849527 0.052281909 0.75200003
-0.049417146 0.052281909 0.75200003
-0.047984764 0.052281909 0.75200003
-0.046552382 0.052281909 0.75200003
-0.045000002 0.052142862 0.75000006
-0.043571431 0.052142862 0.75000006
-0.04203048 0.052003812 0.74800003
-0.040551431 0.051934291 0.74700004
-0.039128575 0.051934291 0.74700004
-0.037604764 0.05179524 0.74500006
-0.036185715 0.05179524 0.74500006
-0.034673337 0.051656194 0.74300003
-0.032057144 0.052003812 0.74800003
-0.030632382 0.052003812 0.74800003
-0.029207621 0.052003812 0.74800003
-0.027857145 0.052142862 0.75000006
-0.026428573 0.052142862 0.75000006
-0.025000002 0.052142862 0.75000006
-0.02357143 0.052142862 0.75000006
-0.02223143 0.052351434 0.75300002
-0.020769525 0.052281909 0.75200003
-0.016494287 0.052351434 0.75300002
-0.015040001 0.052281909 0.75200003
-0.013625715 0.052351434 0.75300002
-0.069285721 0.053571433 0.75000006
-0.067857146 0.053571433 0.75000006
-0.066162862 0.053357147 0.74700004
-0.064740002 0.053357147 0.74700004
-0.063147627 0.053214289 0.74500006
-0.061728574 0.053214289 0.74500006
-0.060309529 0.053214289 0.74500006
-0.058732383 0.053071432 0.74300003
-0.057317145 0.053071432 0.74300003
-0.055000003 0.053571433 0.75000006
-0.053571433 0.053571433 0.75000006
-0.052281909 0.05371429 0.75200003
-0.050714288 0.053571433 0.75000006
-0.049285717 0.053571433 0.75000006
-0.047857147 0.053571433 0.75000006
-0.046428576 0.053571433 0.75000006
-0.044880003 0.053428575 0.74800003
-0.043455239 0.053428575 0.74800003
-0.041861907 0.053214289 0.74500006
-0.040442862 0.053214289 0.74500006
-0.039128575 0.053357147 0.74700004
-0.037604764 0.053214289 0.74500006
-0.036185715 0.053214289 0.74500006
-0.03476667 0.053214289 0.74500006
-0.033347622 0.053214289 0.74500006
-0.032014288 0.053357147 0.74700004
-0.030632382 0.053428575 0.74800003
-0.029207621 0.053428575 0.74800003
-0.027745716 0.053357147 0.74700004
-0.026358098 0.053428575 0.74800003
-0.024933334 0.053428575 0.74800003
-0.02357143 0.053571433 0.75000006
-0.022142859 0.053571433 0.75000006
-0.020714287 0.053571433 0.75000006
-0.019285716 0.053571433 0.75000006
-0.017809525 0.053428575 0.74800003
-0.016472382 0.05371429 0.75200003
-0.015000001 0.053571433 0.75000006
-0.013571429 0.053571433 0.75000006
-0.012142858 0.053571433 0.75000006
-0.069285721 0.055000003 0.75000006
-0.067676194 0.054853339 0.74800003
-0.065985717 0.054633338 0.74500006
-0.064393334 0.05448667 0.74300003
-0.062978096 0.05448667 0.74300003
-0.061562862 0.05448667 0.74300003
-0.060147624 0.05448667 0.74300003
-0.058653336 0.054413337 0.74200004
-0.057240006 0.054413337 0.74200004
-0.055901907 0.05448667 0.74300003
-0.054633338 0.054633338 0.74500006
-0.053428575 0.054853339 0.74800003
-0.052142862 0.055000003 0.75000006
-0.050714288 0.055000003 0.75000006
-0.049154289 0.054853339 0.74800003
-0.047729526 0.054853339 0.74800003
-0.046304766 0.054853339 0.74800003
-0.044820003 0.054780003 0.74700004
-0.043397147 0.054780003 0.74700004
-0.041861907 0.054633338 0.74500006
-0.040442862 0.054633338 0.74500006
-0.039023813 0.054633338 0.74500006
-0.037604764 0.054633338 0.74500006
-0.036185715 0.054633338 0.74500006
-0.03476667 0.054633338 0.74500006
-0.033347622 0.054633338 0.74500006
-0.031928573 0.054633338 0.74500006
-0.03059143 0.054780003 0.74700004
-0.029168574 0.054780003 0.74700004
-0.027745716 0.054780003 0.74700004
-0.026252383 0.054633338 0.74500006
-0.024900002 0.054780003 0.74700004
-0.023508573 0.054853339 0.74800003
-0.022083811 0.054853339 0.74800003
-0.020659048 0.054853339 0.74800003
-0.019234287 0.054853339 0.74800003
-0.017785715 0.054780003 0.74700004
-0.016362859 0.054780003 0.74700004
-0.014960001 0.054853339 0.74800003
-0.013535239 0.054853339 0.74800003
-0.012110477 0.054853339 0.74800003
-0.010714286 0.055000003 0.75000006
-0.070054293 0.055901907 0.74300003
-0.068639055 0.055901907 0.74300003
-0.067223817 0.055901907 0.74300003
-0.065808579 0.055901907 0.74300003
-0.064306669 0.055826671 0.74200004
-0.062893339 0.055826671 0.74200004
-0.061480004 0.055826671 0.74200004
-0.06006667 0.055826671 0.74200004
-0.058495242 0.055676196 0.74000001
-0.057085719 0.055676196 0.74000001
-0.055676196 0.055676196 0.74000001
-0.054413337 0.055826671 0.74200004
-0.053428575 0.056278098 0.74800003
-0.052003812 0.056278098 0.74800003
-0.050579052 0.056278098 0.74800003
-0.049154289 0.056278098 0.74800003
-0.047729526 0.056278098 0.74800003
-0.046304766 0.056278098 0.74800003
-0.044820003 0.056202862 0.74700004
-0.043397147 0.056202862 0.74700004
-0.041861907 0.056052383 0.74500006
-0.040442862 0.056052383 0.74500006
-0.039023813 0.056052383 0.74500006
-0.037604764 0.056052383 0.74500006
-0.036185715 0.056052383 0.74500006
-0.03476667 0.056052383 0.74500006
-0.033347622 0.056052383 0.74500006
-0.031928573 0.056052383 0.74500006
-0.03059143 0.056202862 0.74700004
-0.029168574 0.056202862 0.74700004
-0.027745716 0.056202862 0.74700004
-0.026252383 0.056052383 0.74500006
-0.024900002 0.056202862 0.74700004
-0.023477145 0.056202862 0.74700004
-0.022054287 0.056202862 0.74700004
-0.020576192 0.056052383 0.74500006
-0.019208573 0.056202862 0.74700004
-0.017738096 0.056052383 0.74500006
-0.01631905 0.056052383 0.74500006
-0.014940001 0.056202862 0.74700004
-0.013517144 0.056202862 0.74700004
-0.012094286 0.056202862 0.74700004
-0.010685715 0.056278098 0.74800003
-0.069677144 0.057008576 0.73900002
-0.068269528 0.057008576 0.73900002
-0.066861913 0.057008576 0.73900002
-0.065454289 0.057008576 0.73900002
-0.064133339 0.057085719 0.74000001
-0.06263905 0.057008576 0.73900002
-0.061314289 0.057085719 0.74000001
-0.059823815 0.057008576 0.73900002
-0.058416195 0.057008576 0.73900002
-0.057008576 0.057008576 0.73900002
-0.055600956 0.057008576 0.73900002
-0.054193337 0.057008576 0.73900002
-0.052857146 0.057085719 0.74000001
-0.051586669 0.057240006 0.74200004
-0.050173335 0.057240006 0.74200004
-0.048957147 0.057471432 0.74500006
-0.047538098 0.057471432 0.74500006
-0.046304766 0.057702862 0.74800003
-0.044700004 0.057471432 0.74500006
-0.043280955 0.057471432 0.74500006
-0.041749526 0.057317145 0.74300003
-0.040334288 0.057317145 0.74300003
-0.03891905 0.057317145 0.74300003
-0.037503812 0.057317145 0.74300003
-0.036088575 0.057317145 0.74300003
-0.034673337 0.057317145 0.74300003
-0.033258099 0.057317145 0.74300003
-0.031928573 0.057471432 0.74500006
-0.030509526 0.057471432 0.74500006
-0.029090479 0.057471432 0.74500006
-0.02767143 0.057471432 0.74500006
-0.026252383 0.057471432 0.74500006
-0.024833335 0.057471432 0.74500006
-0.023414288 0.057471432 0.74500006
-0.021995239 0.057471432 0.74500006
-0.020576192 0.057471432 0.74500006
-0.019157143 0.057471432 0.74500006
-0.017690478 0.057317145 0.74300003
-0.016275238 0.057317145 0.74300003
-0.014900001 0.057471432 0.74500006
-0.013480953 0.057471432 0.74500006
-0.012061905 0.057471432 0.74500006
-0.069677144 0.058416195 0.73900002
-0.068269528 0.058416195 0.73900002
-0.06668096 0.058258098 0.73700005
-0.065277144 0.058258098 0.73700005
-0.064046673 0.058416195 0.73900002
-0.06263905 0.058416195 0.73900002
-0.061231434 0.058416195 0.73900002
-0.059823815 0.058416195 0.73900002
-0.058416195 0.058416195 0.73900002
-0.057008576 0.058416195 0.73900002
-0.055600956 0.058416195 0.73900002
-0.054193337 0.058416195 0.73900002
-0.052785717 0.058416195 0.73900002
-0.051378097 0.058416195 0.73900002
-0.050038099 0.058495242 0.74000001
-0.048628576 0.058495242 0.74000001
-0.047219049 0.058495242 0.74000001
-0.045995243 0.058732383 0.74300003
-0.044580001 0.058732383 0.74300003
-0.043164764 0.058732383 0.74300003
-0.041693337 0.058653336 0.74200004
-0.040280003 0.058653336 0.74200004
-0.038866669 0.058653336 0.74200004
-0.037453335 0.058653336 0.74200004
-0.036040001 0.058653336 0.74200004
-0.03462667 0.058653336 0.74200004
-0.033213336 0.058653336 0.74200004
-0.031800002 0.058653336 0.74200004
-0.03038667 0.058653336 0.74200004
-0.029012382 0.058732383 0.74300003
-0.027597144 0.058732383 0.74300003
-0.026181906 0.058732383 0.74300003
-0.024766669 0.058732383 0.74300003
-0.023351431 0.058732383 0.74300003
-0.021936191 0.058732383 0.74300003
-0.020520953 0.058732383 0.74300003
-0.019105716 0.058732383 0.74300003
-0.017666668 0.058653336 0.74200004
-0.016253334 0.058653336 0.74200004
-0.014860001 0.058732383 0.74300003
-0.013444763 0.058732383 0.74300003
-0.012029525 0.058732383 0.74300003
-0.010614286 0.058732383 0.74300003
-0.06901715 0.059257146 0.73200005
-0.067992382 0.059580956 0.73600006
-0.066590481 0.059580956 0.73600006
-0.065011434 0.059419051 0.73400003
-0.06361334 0.059419051 0.73400003
-0.062469527 0.05966191 0.73700005
-0.061231434 0.059823815 0.73900002
-0.05966191 0.05966191 0.73700005
-0.058179051 0.059580956 0.73600006
-0.057008576 0.059823815 0.73900002
-0.05545048 0.05966191 0.73700005
-0.054046672 0.05966191 0.73700005
-0.05264286 0.05966191 0.73700005
-0.051239051 0.05966191 0.73700005
-0.049767621 0.059580956 0.73600006
-0.048365716 0.059580956 0.73600006
-0.046836194 0.059419051 0.73400003
-0.045561906 0.059580956 0.73600006
-0.044340003 0.059823815 0.73900002
-0.042932384 0.059823815 0.73900002
-0.041580956 0.059904765 0.74000001
-0.04017143 0.059904765 0.74000001
-0.038709525 0.059823815 0.73900002
-0.037352383 0.059904765 0.74000001
-0.03594286 0.059904765 0.74000001
-0.034533337 0.059904765 0.74000001
-0.03312381 0.059904765 0.74000001
-0.031714287 0.059904765 0.74000001
-0.030304763 0.059904765 0.74000001
-0.02889524 0.059904765 0.74000001
-0.027560001 0.06006667 0.74200004
-0.026146669 0.06006667 0.74200004
-0.024733335 0.06006667 0.74200004
-0.023320001 0.06006667 0.74200004
-0.021906668 0.06006667 0.74200004
-0.020493334 0.06006667 0.74200004
-0.019080002 0.06006667 0.74200004
-0.017619049 0.059904765 0.74000001
-0.016209524 0.059904765 0.74000001
-0.014800001 0.059904765 0.74000001
-0.013390477 0.059904765 0.74000001
-0.011932381 0.05966191 0.73700005
-0.010528572 0.05966191 0.73700005
-0.06901715 0.060651433 0.73200005
-0.067622863 0.060651433 0.73200005
-0.066228576 0.060651433 0.73200005
-0.064834289 0.060651433 0.73200005
-0.063440003 0.060651433 0.73200005
-0.062045719 0.060651433 0.73200005
-0.060651433 0.060651433 0.73200005
-0.059419051 0.060817149 0.73400003
-0.058020957 0.060817149 0.73400003
-0.056777146 0.060982861 0.73600006
-0.055224765 0.060817149 0.73400003
-0.053973336 0.060982861 0.73600006
-0.052428573 0.060817149 0.73400003
-0.051030479 0.060817149 0.73400003
-0.049632385 0.060817149 0.73400003
-0.048234288 0.060817149 0.73400003
-0.046708573 0.060651433 0.73200005
-0.0454381 0.060817149 0.73400003
-0.044160005 0.060982861 0.73600006
-0.042816192 0.061065719 0.73700005
-0.041412383 0.061065719 0.73700005
-0.040117145 0.061231434 0.73900002
-0.038709525 0.061231434 0.73900002
-0.037301905 0.061231434 0.73900002
-0.03589429 0.061231434 0.73900002
-0.03448667 0.061231434 0.73900002
-0.03307905 0.061231434 0.73900002
-0.031671431 0.061231434 0.73900002
-0.030263811 0.061231434 0.73900002
-0.028856192 0.061231434 0.73900002
-0.027374288 0.061065719 0.73700005
-0.026076192 0.061314289 0.74000001
-0.024666669 0.061314289 0.74000001
-0.023257144 0.061314289 0.74000001
-0.021847621 0.061314289 0.74000001
-0.020438097 0.061314289 0.74000001
-0.019028572 0.061314289 0.74000001
-0.017595239 0.061231434 0.73900002
-0.016187619 0.061231434 0.73900002
-0.014740001 0.061065719 0.73700005
-0.013336191 0.061065719 0.73700005
-0.011916191 0.060982861 0.73600006
-0.010514286 0.060982861 0.73600006
-0.0091123814 0.060982861 0.73600006
-0.06901715 0.062045719 0.73200005
-0.067622863 0.062045719 0.73200005
-0.066228576 0.062045719 0.73200005
-0.064745717 0.061960958 0.73100001
-0.063353337 0.061960958 0.73100001
-0.061960958 0.061960958 0.73100001
-0.060568575 0.061960958 0.73100001
-0.059257146 0.062045719 0.73200005
-0.057862859 0.062045719 0.73200005
-0.056468576 0.062045719 0.73200005
-0.055074289 0.062045719 0.73200005
-0.053680003 0.062045719 0.73200005
-0.052285716 0.062045719 0.73200005
-0.050891433 0.062045719 0.73200005
-0.049497146 0.062045719 0.73200005
-0.048102859 0.062045719 0.73200005
-0.046708573 0.062045719 0.73200005
-0.04531429 0.062045719 0.73200005
-0.043920003 0.062045719 0.73200005
-0.042641908 0.062215243 0.73400003
-0.041243814 0.062215243 0.73400003
-0.03995429 0.062384766 0.73600006
-0.038552385 0.062384766 0.73600006
-0.037200954 0.062469527 0.73700005
-0.035797145 0.062469527 0.73700005
-0.034393337 0.062469527 0.73700005
-0.032989524 0.062469527 0.73700005
-0.03154286 0.062384766 0.73600006
-0.030140955 0.062384766 0.73600006
-0.02873905 0.062384766 0.73600006
-0.027337145 0.062384766 0.73600006
-0.025970478 0.062469527 0.73700005
-0.024566669 0.062469527 0.73700005
-0.023225715 0.06263905 0.73900002
-0.021818096 0.06263905 0.73900002
-0.020410478 0.06263905 0.73900002
-0.019002859 0.06263905 0.73900002
-0.01754762 0.062469527 0.73700005
-0.01614381 0.062469527 0.73700005
-0.014740001 0.062469527 0.73700005
-0.013318096 0.062384766 0.73600006
-0.01188381 0.062215243 0.73400003
-0.010514286 0.062384766 0.73600006
-0.0091123814 0.062384766 0.73600006
-0.0076895244 0.062215243 0.73400003
-0.068922862 0.063353337 0.73100001
-0.067530483 0.063353337 0.73100001
-0.066138096 0.063353337 0.73100001
-0.064568579 0.063180007 0.72900003
-0.063180007 0.063180007 0.72900003
-0.061791431 0.063180007 0.72900003
-0.060402863 0.063180007 0.72900003
-0.059014291 0.063180007 0.72900003
-0.057625718 0.063180007 0.72900003
-0.056237146 0.063180007 0.72900003
-0.054848574 0.063180007 0.72900003
-0.05360667 0.063353337 0.73100001
-0.052214291 0.063353337 0.73100001
-0.050682861 0.063180007 0.72900003
-0.049429528 0.063353337 0.73100001
-0.048037145 0.063353337 0.73100001
-0.046644766 0.063353337 0.73100001
-0.045252383 0.063353337 0.73100001
-0.043920003 0.063440003 0.73200005
-0.042525716 0.063440003 0.73200005
-0.041131433 0.063440003 0.73200005
-0.039845716 0.06361334 0.73400003
-0.038447622 0.06361334 0.73400003
-0.03715048 0.063786671 0.73600006
-0.03565143 0.06361334 0.73400003
-0.03434667 0.063786671 0.73600006
-0.032855239 0.06361334 0.73400003
-0.031457145 0.06361334 0.73400003
-0.030059049 0.06361334 0.73400003
-0.028660955 0.06361334 0.73400003
-0.027262859 0.06361334 0.73400003
-0.025864763 0.06361334 0.73400003
-0.024533335 0.063786671 0.73600006
-0.02313143 0.063786671 0.73600006
-0.02175905 0.063873336 0.73700005
-0.02032762 0.063786671 0.73600006
-0.018925715 0.063786671 0.73600006
-0.017476192 0.06361334 0.73400003
-0.016121905 0.063786671 0.73600006
-0.014680001 0.06361334 0.73400003
-0.013281906 0.06361334 0.73400003
-0.01188381 0.06361334 0.73400003
-0.010514286 0.063786671 0.73600006
-0.0090876194 0.06361334 0.73400003
-0.0076895244 0.06361334 0.73400003
-0.071511433 0.064568579 0.72900003
-0.07012286 0.064568579 0.72900003
-0.068640001 0.064480007 0.72800004
-0.067253336 0.064480007 0.72800004
-0.065866672 0.064480007 0.72800004
-0.064302862 0.064302862 0.72600001
-0.062920004 0.064302862 0.72600001
-0.061537147 0.064302862 0.72600001
-0.060154289 0.064302862 0.72600001
-0.058771431 0.064302862 0.72600001
-0.057388574 0.064302862 0.72600001
-0.056005716 0.064302862 0.72600001
-0.054622862 0.064302862 0.72600001
-0.053240005 0.064302862 0.72600001
-0.052000005 0.064480007 0.72800004
-0.050613336 0.064480007 0.72800004
-0.049226671 0.064480007 0.72800004
-0.047905717 0.064568579 0.72900003
-0.046517145 0.064568579 0.72900003
-0.045128573 0.064568579 0.72900003
-0.043740004 0.064568579 0.72900003
-0.042351432 0.064568579 0.72900003
-0.04096286 0.064568579 0.72900003
-0.039682861 0.064745717 0.73100001
-0.038290478 0.064745717 0.73100001
-0.036898099 0.064745717 0.73100001
-0.035505716 0.064745717 0.73100001
-0.034160003 0.064834289 0.73200005
-0.032720953 0.064745717 0.73100001
-0.031328574 0.064745717 0.73100001
-0.029936193 0.064745717 0.73100001
-0.028543811 0.064745717 0.73100001
-0.02715143 0.064745717 0.73100001
-0.025794288 0.064834289 0.73200005
-0.024400001 0.064834289 0.73200005
-0.023005717 0.064834289 0.73200005
-0.02161143 0.064834289 0.73200005
-0.020217145 0.064834289 0.73200005
-0.018822858 0.064834289 0.73200005
-0.017404763 0.064745717 0.73100001
-0.016012382 0.064745717 0.73100001
-0.01462 0.064745717 0.73100001
-0.01322762 0.064745717 0.73100001
-0.011835239 0.064745717 0.73100001
-0.010442858 0.064745717 0.73100001
-0.0090628574 0.064834289 0.73200005
-0.0076895244 0.065011434 0.73400003
-0.071511433 0.065957144 0.72900003
-0.07012286 0.065957144 0.72900003
-0.068451434 0.065685719 0.72600001
-0.067253336 0.065866672 0.72800004
-0.065685719 0.065685719 0.72600001
-0.064302862 0.065685719 0.72600001
-0.062833339 0.065595239 0.72500002
-0.061452385 0.065595239 0.72500002
-0.060071431 0.065595239 0.72500002
-0.058690481 0.065595239 0.72500002
-0.057309527 0.065595239 0.72500002
-0.055928577 0.065595239 0.72500002
-0.054547623 0.065595239 0.72500002
-0.053166669 0.065595239 0.72500002
-0.051785719 0.065595239 0.72500002
-0.05047429 0.065685719 0.72600001
-0.049091432 0.065685719 0.72600001
-0.047708575 0.065685719 0.72600001
-0.046325717 0.065685719 0.72600001
-0.04494286 0.065685719 0.72600001
-0.043740004 0.065957144 0.72900003
-0.042351432 0.065957144 0.72900003
-0.04096286 0.065957144 0.72900003
-0.039520003 0.065866672 0.72800004
-0.038028575 0.065685719 0.72600001
-0.036645718 0.065685719 0.72600001
-0.03526286 0.065685719 0.72600001
-0.033880003 0.065685719 0.72600001
-0.032631431 0.065957144 0.72900003
-0.031242859 0.065957144 0.72900003
-0.029854288 0.065957144 0.72900003
-0.028543811 0.066138096 0.73100001
-0.02715143 0.066138096 0.73100001
-0.025759049 0.066138096 0.73100001
-0.024366667 0.066138096 0.73100001
-0.022974288 0.066138096 0.73100001
-0.02161143 0.066228576 0.73200005
-0.020217145 0.066228576 0.73200005
-0.018797144 0.066138096 0.73100001
-0.017357145 0.065957144 0.72900003
-0.016012382 0.066138096 0.73100001
-0.01462 0.066138096 0.73100001
-0.01322762 0.066138096 0.73100001
-0.011835239 0.066138096 0.73100001
-0.010442858 0.066138096 0.73100001
-0.0090504764 0.066138096 0.73100001
-0.069738097 0.066976197 0.72500002
-0.068357147 0.066976197 0.72500002
-0.067068577 0.067068577 0.72600001
-0.065595239 0.066976197 0.72500002
-0.064214289 0.066976197 0.72500002
-0.062660001 0.06679143 0.72300005
-0.061282862 0.06679143 0.72300005
-0.059905719 0.06679143 0.72300005
-0.058528576 0.06679143 0.72300005
-0.057151433 0.06679143 0.72300005
-0.05577429 0.06679143 0.72300005
-0.054397147 0.06679143 0.72300005
-0.053020004 0.06679143 0.72300005
-0.051571433 0.06669905 0.72200006
-0.050196193 0.06669905 0.72200006
-0.048888575 0.06679143 0.72300005
-0.047511432 0.06679143 0.72300005
-0.046134289 0.06679143 0.72300005
-0.04469524 0.06669905 0.72200006
-0.043380003 0.06679143 0.72300005
-0.042119049 0.066976197 0.72500002
-0.040738098 0.066976197 0.72500002
-0.039411429 0.067068577 0.72600001
-0.037976194 0.066976197 0.72500002
-0.03659524 0.066976197 0.72500002
-0.03526286 0.067068577 0.72600001
-0.033880003 0.067068577 0.72600001
-0.032586668 0.067253336 0.72800004
-0.031200003 0.067253336 0.72800004
-0.029813336 0.067253336 0.72800004
-0.028348573 0.067068577 0.72600001
-0.026965717 0.067068577 0.72600001
-0.025688574 0.067345716 0.72900003
-0.024300002 0.067345716 0.72900003
-0.022911429 0.067345716 0.72900003
-0.021522859 0.067345716 0.72900003
-0.020134287 0.067345716 0.72900003
-0.018720001 0.067253336 0.72800004
-0.017357145 0.067345716 0.72900003
-0.015968572 0.067345716 0.72900003
-0.014580001 0.067345716 0.72900003
-0.01319143 0.067345716 0.72900003
-0.011802858 0.067345716 0.72900003
-0.010442858 0.067530483 0.73100001
-0.0090504764 0.067530483 0.73100001
-0.069545716 0.068168573 0.72300005
-0.068168573 0.068168573 0.72300005
-0.066976197 0.068357147 0.72500002
-0.065595239 0.068357147 0.72500002
-0.064037144 0.068168573 0.72300005
-0.062573336 0.068074293 0.72200006
-0.0611981 0.068074293 0.72200006
-0.059822861 0.068074293 0.72200006
-0.058447622 0.068074293 0.72200006
-0.057072386 0.068074293 0.72200006
-0.055697147 0.068074293 0.72200006
-0.054321907 0.068074293 0.72200006
-0.052800003 0.067885719 0.72000003
-0.051428575 0.067885719 0.72000003
-0.050057147 0.067885719 0.72000003
-0.048685718 0.067885719 0.72000003
-0.04731429 0.067885719 0.72000003
-0.045942862 0.067885719 0.72000003
-0.044571433 0.067885719 0.72000003
-0.043200001 0.067885719 0.72000003
-0.041944765 0.068074293 0.72200006
-0.040625717 0.068168573 0.72300005
-0.039248575 0.068168573 0.72300005
-0.037871432 0.068168573 0.72300005
-0.036494289 0.068168573 0.72300005
-0.035214286 0.068357147 0.72500002
-0.033880003 0.068451434 0.72600001
-0.032497145 0.068451434 0.72600001
-0.031114288 0.068451434 0.72600001
-0.02973143 0.068451434 0.72600001
-0.028348573 0.068451434 0.72600001
-0.026965717 0.068451434 0.72600001
-0.025582859 0.068451434 0.72600001
-0.024200002 0.068451434 0.72600001
-0.022817144 0.068451434 0.72600001
-0.021434287 0.068451434 0.72600001
-0.020106668 0.068640001 0.72800004
-0.018668573 0.068451434 0.72600001
-0.017333334 0.068640001 0.72800004
-0.015946668 0.068640001 0.72800004
-0.014560001 0.068640001 0.72800004
-0.013173334 0.068640001 0.72800004
-0.011802858 0.068734288 0.72900003
-0.010442858 0.068922862 0.73100001
-0.0090504764 0.068922862 0.73100001
-0.0076580956 0.068922862 0.73100001
-0.069257148 0.069257148 0.72000003
-0.067885719 0.069257148 0.72000003
-0.066514291 0.069257148 0.72000003
-0.065323815 0.069449529 0.72200006
-0.063771434 0.069257148 0.72000003
-0.062400006 0.069257148 0.72000003
-0.061028574 0.069257148 0.72000003
-0.059657145 0.069257148 0.72000003
-0.058285717 0.069257148 0.72000003
-0.056914289 0.069257148 0.72000003
-0.05554286 0.069257148 0.72000003
-0.054171432 0.069257148 0.72000003
-0.052726671 0.069160961 0.71900004
-0.051357146 0.069160961 0.71900004
-0.049848575 0.068968579 0.71700001
-0.048618097 0.069160961 0.71900004
-0.047248576 0.069160961 0.71900004
-0.045879051 0.069160961 0.71900004
-0.044509526 0.069160961 0.71900004
-0.043140002 0.069160961 0.71900004
-0.041770481 0.069160961 0.71900004
-0.040457144 0.069257148 0.72000003
-0.039085716 0.069257148 0.72000003
-0.037661906 0.069160961 0.71900004
-0.03619143 0.068968579 0.71700001
-0.033600003 0.069257148 0.72000003
-0.032452382 0.069738097 0.72500002
-0.030985717 0.069545716 0.72300005
-0.029690478 0.069738097 0.72500002
-0.028309526 0.069738097 0.72500002
-0.026928574 0.069738097 0.72500002
-0.025477145 0.069545716 0.72300005
-0.024100002 0.069545716 0.72300005
-0.022785716 0.069738097 0.72500002
-0.021404764 0.069738097 0.72500002
-0.020023812 0.069738097 0.72500002
-0.018642858 0.069738097 0.72500002
-0.017285716 0.069834292 0.72600001
-0.015880954 0.069738097 0.72500002
-0.014520001 0.069834292 0.72600001
-0.013137144 0.069834292 0.72600001
-0.011754286 0.069834292 0.72600001
-0.010371429 0.069834292 0.72600001
-0.067791432 0.070530482 0.71900004
-0.066421911 0.070530482 0.71900004
-0.065052383 0.070530482 0.71900004
-0.063682862 0.070530482 0.71900004
-0.062313337 0.070530482 0.71900004
-0.060943812 0.070530482 0.71900004
-0.059574291 0.070530482 0.71900004
-0.058204766 0.070530482 0.71900004
-0.056677148 0.070334293 0.71700001
-0.055311434 0.070334293 0.71700001
-0.053945716 0.070334293 0.71700001
-0.05250667 0.070236199 0.71600002
-0.051000003 0.070040002 0.71400005
-0.04977905 0.070236199 0.71600002
-0.04841524 0.070236199 0.71600002
-0.047117148 0.070334293 0.71700001
-0.04575143 0.070334293 0.71700001
-0.044385716 0.070334293 0.71700001
-0.043020003 0.070334293 0.71700001
-0.041596193 0.070236199 0.71600002
-0.040288575 0.070334293 0.71700001
-0.038868573 0.070236199 0.71600002
-0.037504766 0.070236199 0.71600002
-0.036140956 0.070236199 0.71600002
-0.034680001 0.070040002 0.71400005
-0.033460002 0.070334293 0.71700001
-0.032094289 0.070334293 0.71700001
-0.030728573 0.070334293 0.71700001
-0.029444763 0.070530482 0.71900004
-0.028075241 0.070530482 0.71900004
-0.026742859 0.070628576 0.72000003
-0.02537143 0.070628576 0.72000003
-0.024000002 0.070628576 0.72000003
-0.022628574 0.070628576 0.72000003
-0.021257143 0.070628576 0.72000003
-0.019940954 0.070824765 0.72200006
-0.018488573 0.070530482 0.71900004
-0.017119048 0.070530482 0.71900004
-0.015815239 0.070824765 0.72200006
-0.014460001 0.070922859 0.72300005
-0.013064763 0.070824765 0.72200006
-0.011689524 0.070824765 0.72200006
-0.010242858 0.070334293 0.71700001
-0.070236199 0.071600005 0.71600002
-0.067508578 0.071600005 0.71600002
-0.066144764 0.071600005 0.71600002
-0.064780958 0.071600005 0.71600002
-0.063240007 0.071400002 0.71400005
-0.061880004 0.071400002 0.71400005
-0.060520004 0.071400002 0.71400005
-0.059160005 0.071400002 0.71400005
-0.057800002 0.071400002 0.71400005
-0.056598101 0.071600005 0.71600002
-0.055234291 0.071600005 0.71600002
-0.053870481 0.071600005 0.71600002
-0.052360002 0.071400002 0.71400005
-0.051000003 0.071400002 0.71400005
-0.049640004 0.071400002 0.71400005
-0.048280004 0.071400002 0.71400005
-0.047051433 0.071600005 0.71600002
-0.045560002 0.071400002 0.71400005
-0.044323813 0.071600005 0.71600002
-0.042960003 0.071600005 0.71600002
-0.041596193 0.071600005 0.71600002
-0.040232383 0.071600005 0.71600002
-0.038760003 0.071400002 0.71400005
-0.037400004 0.071400002 0.71400005
-0.036040001 0.071400002 0.71400005
-0.034680001 0.071400002 0.71400005
-0.033413336 0.071600005 0.71600002
-0.032049526 0.071600005 0.71600002
-0.030685715 0.071600005 0.71600002
-0.029362859 0.071700007 0.71700001
-0.027997145 0.071700007 0.71700001
-0.02663143 0.071700007 0.71700001
-0.025336193 0.071900003 0.71900004
-0.023966668 0.071900003 0.71900004
-0.022534287 0.071700007 0.71700001
-0.021227621 0.071900003 0.71900004
-0.019858096 0.071900003 0.71900004
-0.01841143 0.071600005 0.71600002
-0.01707143 0.071700007 0.71700001
-0.015705716 0.071700007 0.71700001
-0.014340001 0.071700007 0.71700001
-0.012974286 0.071700007 0.71700001
-0.011608572 0.071700007 0.71700001
-0.010242858 0.071700007 0.71700001
-0.070236199 0.072963811 0.71600002
-0.068872385 0.072963811 0.71600002
-0.067320004 0.072760008 0.71400005
-0.065867625 0.072658099 0.71300006
-0.064509526 0.072658099 0.71300006
-0.063151434 0.072658099 0.71300006
-0.061793339 0.072658099 0.71300006
-0.060435243 0.072658099 0.71300006
-0.059077147 0.072658099 0.71300006
-0.057800002 0.072760008 0.71400005
-0.056440003 0.072760008 0.71400005
-0.055080004 0.072760008 0.71400005
-0.053720005 0.072760008 0.71400005
-0.05228667 0.072658099 0.71300006
-0.050928574 0.072658099 0.71300006
-0.049570478 0.072658099 0.71300006
-0.048212383 0.072658099 0.71300006
-0.046920002 0.072760008 0.71400005
-0.045560002 0.072760008 0.71400005
-0.044200003 0.072760008 0.71400005
-0.042840004 0.072760008 0.71400005
-0.041480001 0.072760008 0.71400005
-0.040120002 0.072760008 0.71400005
-0.038760003 0.072760008 0.71400005
-0.037347622 0.072658099 0.71300006
-0.035989527 0.072658099 0.71300006
-0.034631431 0.072658099 0.71300006
-0.033320002 0.072760008 0.71400005
-0.031960003 0.072760008 0.71400005
-0.030600002 0.072760008 0.71400005
-0.029240001 0.072760008 0.71400005
-0.027958097 0.072963811 0.71600002
-0.026594287 0.072963811 0.71600002
-0.025230478 0.072963811 0.71600002
-0.023800002 0.072760008 0.71400005
-0.022440001 0.072760008 0.71400005
-0.02113905 0.072963811 0.71600002
-0.01977524 0.072963811 0.71600002
-0.018360002 0.072760008 0.71400005
-0.017047619 0.072963811 0.71600002
-0.015640002 0.072760008 0.71400005
-0.014320001 0.072963811 0.71600002
-0.012956192 0.072963811 0.71600002
-0.011592382 0.072963811 0.71600002
-0.010228572 0.072963811 0.71600002
-0.06703715 0.073808573 0.71100003
-0.065405719 0.073497146 0.708
-0.064328574 0.073808573 0.71100003
-0.062885717 0.073704764 0.71000004
-0.061533336 0.073704764 0.71000004
-0.06026572 0.073808573 0.71100003
-0.058911432 0.073808573 0.71100003
-0.057557147 0.073808573 0.71100003
-0.056202862 0.073808573 0.71100003
-0.055002861 0.074016199 0.71300006
-0.053644765 0.074016199 0.71300006
-0.05228667 0.074016199 0.71300006
-0.050928574 0.074016199 0.71300006
-0.049431432 0.073808573 0.71100003
-0.048077147 0.073808573 0.71100003
-0.046854287 0.074016199 0.71300006
-0.045496192 0.074016199 0.71300006
-0.0441381 0.074016199 0.71300006
-0.042780004 0.074016199 0.71300006
-0.041480001 0.074120007 0.71400005
-0.040063813 0.074016199 0.71300006
-0.038705718 0.074016199 0.71300006
-0.037347622 0.074016199 0.71300006
-0.035888575 0.073808573 0.71100003
-0.034631431 0.074016199 0.71300006
-0.033273336 0.074016199 0.71300006
-0.03191524 0.074016199 0.71300006
-0.030557144 0.074016199 0.71300006
-0.029199049 0.074016199 0.71300006
-0.027840953 0.074016199 0.71300006
-0.02648286 0.074016199 0.71300006
-0.025160002 0.074120007 0.71400005
-0.023766669 0.074016199 0.71300006
-0.022408573 0.074016199 0.71300006
-0.021080002 0.074120007 0.71400005
-0.019720001 0.074120007 0.71400005
-0.018334286 0.074016199 0.71300006
-0.017000001 0.074120007 0.71400005
-0.015618096 0.074016199 0.71300006
-0.014260001 0.074016199 0.71300006
-0.012901906 0.074016199 0.71300006
-0.01154381 0.074016199 0.71300006
-0.010185715 0.074016199 0.71300006
-0.066754289 0.074845716 0.708
-0.065405719 0.074845716 0.708
-0.064057149 0.074845716 0.708
-0.062708579 0.074845716 0.708
-0.061360005 0.074845716 0.708
-0.060180955 0.075057149 0.71000004
-0.058828574 0.075057149 0.71000004
-0.057476193 0.075057149 0.71000004
-0.056123812 0.075057149 0.71000004
-0.054771431 0.075057149 0.71000004
-0.05349429 0.075162865 0.71100003
-0.052140005 0.075162865 0.71100003
-0.050785717 0.075162865 0.71100003
-0.049361907 0.075057149 0.71000004
-0.048009526 0.075057149 0.71000004
-0.046657145 0.075057149 0.71000004
-0.045304764 0.075057149 0.71000004
-0.0441381 0.07537429 0.71300006
-0.042780004 0.07537429 0.71300006
-0.041421909 0.07537429 0.71300006
-0.040063813 0.07537429 0.71300006
-0.038597144 0.075162865 0.71100003
-0.03724286 0.075162865 0.71100003
-0.035737146 0.074845716 0.708
-0.034534287 0.075162865 0.71100003
-0.033133335 0.075057149 0.71000004
-0.031825718 0.075162865 0.71100003
-0.030471431 0.075162865 0.71100003
-0.029117145 0.075162865 0.71100003
-0.027762858 0.075162865 0.71100003
-0.026408574 0.075162865 0.71100003
-0.025124764 0.07537429 0.71300006
-0.023766669 0.07537429 0.71300006
-0.022345716 0.075162865 0.71100003
-0.02099143 0.075162865 0.71100003
-0.019692382 0.07537429 0.71300006
-0.018282859 0.075162865 0.71100003
-0.016976191 0.07537429 0.71300006
-0.015574287 0.075162865 0.71100003
-0.014220001 0.075162865 0.71100003
-0.012901906 0.07537429 0.71300006
-0.01154381 0.07537429 0.71300006
-0.010157144 0.075162865 0.71100003
-0.068006672 0.07608667 0.70700002
-0.066660002 0.07608667 0.70700002
-0.065313339 0.07608667 0.70700002
-0.063785717 0.07587143 0.70500004
-0.062442861 0.07587143 0.70500004
-0.061100002 0.07587143 0.70500004
-0.059757147 0.07587143 0.70500004
-0.058580004 0.07608667 0.70700002
-0.057233337 0.07608667 0.70700002
-0.055886671 0.07608667 0.70700002
-0.054540005 0.07608667 0.70700002
-0.053193338 0.07608667 0.70700002
-0.051920004 0.076194294 0.708
-0.050500002 0.07608667 0.70700002
-0.049153335 0.07608667 0.70700002
-0.047671434 0.07587143 0.70500004
-0.046328574 0.07587143 0.70500004
-0.045113336 0.07608667 0.70700002
-0.04376667 0.07608667 0.70700002
-0.042420004 0.07608667 0.70700002
-0.041073337 0.07608667 0.70700002
-0.039782859 0.076194294 0.708
-0.038434289 0.076194294 0.708
-0.037033334 0.07608667 0.70700002
-0.035686668 0.07608667 0.70700002
-0.034340002 0.07608667 0.70700002
-0.032993335 0.07608667 0.70700002
-0.031646669 0.07608667 0.70700002
-0.030300003 0.07608667 0.70700002
-0.028994288 0.076194294 0.708
-0.027645716 0.076194294 0.708
-0.026297145 0.076194294 0.708
-0.024948573 0.076194294 0.708
-0.023666669 0.076409526 0.71000004
-0.022251431 0.076194294 0.708
-0.020902859 0.076194294 0.708
-0.019609526 0.076409526 0.71000004
-0.018205715 0.076194294 0.708
-0.016857143 0.076194294 0.708
-0.015508573 0.076194294 0.708
-0.014160001 0.076194294 0.708
-0.01284762 0.076409526 0.71000004
-0.011462858 0.076194294 0.708
-0.010114286 0.076194294 0.708
-0.0087657152 0.076194294 0.708
-0.065128572 0.077214293 0.70500004
-0.063695244 0.07710477 0.70400006
-0.062354289 0.07710477 0.70400006
-0.060926672 0.076995246 0.70300001
-0.059672385 0.07710477 0.70400006
-0.058331434 0.07710477 0.70400006
-0.057071432 0.077214293 0.70500004
-0.055728573 0.077214293 0.70500004
-0.054308575 0.07710477 0.70400006
-0.053042859 0.077214293 0.70500004
-0.051626671 0.07710477 0.70400006
-0.050357144 0.077214293 0.70500004
-0.048875242 0.076995246 0.70300001
-0.047603812 0.07710477 0.70400006
-0.04626286 0.07710477 0.70400006
-0.044921909 0.07710477 0.70400006
-0.043580957 0.07710477 0.70400006
-0.042240001 0.07710477 0.70400006
-0.040957145 0.077214293 0.70500004
-0.03961429 0.077214293 0.70500004
-0.038271431 0.077214293 0.70500004
-0.036928575 0.077214293 0.70500004
-0.035585716 0.077214293 0.70500004
-0.034194287 0.07710477 0.70400006
-0.032853335 0.07710477 0.70400006
-0.031557146 0.077214293 0.70500004
-0.030214287 0.077214293 0.70500004
-0.028953334 0.07743334 0.70700002
-0.027528573 0.077214293 0.70500004
-0.026260002 0.07743334 0.70700002
-0.024948573 0.077542864 0.708
-0.023600001 0.077542864 0.708
-0.022251431 0.077542864 0.708
-0.020902859 0.077542864 0.708
-0.019554287 0.077542864 0.708
-0.018180002 0.07743334 0.70700002
-0.016833335 0.07743334 0.70700002
-0.015508573 0.077542864 0.708
-0.014140001 0.07743334 0.70700002
-0.01281143 0.077542864 0.708
-0.011446668 0.07743334 0.70700002
-0.010100001 0.07743334 0.70700002
-0.0087533342 0.07743334 0.70700002
-0.064943813 0.078334294 0.70300001
-0.063423812 0.078111432 0.70100003
-0.06226572 0.078334294 0.70300001
-0.060753338 0.078111432 0.70100003
-0.059418101 0.078111432 0.70100003
-0.058248576 0.078334294 0.70300001
-0.056990478 0.078445718 0.70400006
-0.055570479 0.078334294 0.70300001
-0.054231431 0.078334294 0.70300001
-0.052892383 0.078334294 0.70300001
-0.051553335 0.078334294 0.70300001
-0.050214291 0.078334294 0.70300001
-0.048875242 0.078334294 0.70300001
-0.047536194 0.078334294 0.70300001
-0.046197146 0.078334294 0.70300001
-0.044858098 0.078334294 0.70300001
-0.04351905 0.078334294 0.70300001
-0.042240001 0.078445718 0.70400006
-0.040899049 0.078445718 0.70400006
-0.03961429 0.078557149 0.70500004
-0.038271431 0.078557149 0.70500004
-0.036928575 0.078557149 0.70500004
-0.035535239 0.078445718 0.70400006
-0.034194287 0.078445718 0.70400006
-0.032853335 0.078445718 0.70400006
-0.031512383 0.078445718 0.70400006
-0.03017143 0.078445718 0.70400006
-0.02887143 0.078557149 0.70500004
-0.027489526 0.078445718 0.70400006
-0.026185716 0.078557149 0.70500004
-0.024842858 0.078557149 0.70500004
-0.023500001 0.078557149 0.70500004
-0.022220001 0.078780003 0.70700002
-0.020873334 0.078780003 0.70700002
-0.019526668 0.078780003 0.70700002
-0.018180002 0.078780003 0.70700002
-0.016833335 0.078780003 0.70700002
-0.015486668 0.078780003 0.70700002
-0.014140001 0.078780003 0.70700002
-0.012793334 0.078780003 0.70700002
-0.011446668 0.078780003 0.70700002
-0.010071429 0.078557149 0.70500004
-0.0087285722 0.078557149 0.70500004
-0.063152388 0.079106674 0.69800001
-0.062000003 0.079333335 0.70000005
-0.060666669 0.079333335 0.70000005
-0.059333336 0.079333335 0.70000005
-0.058000002 0.079333335 0.70000005
-0.056747623 0.079446673 0.70100003
-0.055412386 0.079446673 0.70100003
-0.054077145 0.079446673 0.70100003
-0.052741908 0.079446673 0.70100003
-0.05140667 0.079446673 0.70100003
-0.050071433 0.079446673 0.70100003
-0.048666671 0.079333335 0.70000005
-0.047333337 0.079333335 0.70000005
-0.046065718 0.079446673 0.70100003
-0.044730481 0.079446673 0.70100003
-0.04339524 0.079446673 0.70100003
-0.042060003 0.079446673 0.70100003
-0.040840954 0.079673335 0.70300001
-0.039501909 0.079673335 0.70300001
-0.038162861 0.079673335 0.70300001
-0.036823813 0.079673335 0.70300001
-0.035484765 0.079673335 0.70300001
-0.034048572 0.079446673 0.70100003
-0.032806668 0.079673335 0.70300001
-0.03146762 0.079673335 0.70300001
-0.030128574 0.079673335 0.70300001
-0.028830478 0.079786673 0.70400006
-0.027450478 0.079673335 0.70300001
-0.026148573 0.079786673 0.70400006
-0.024807621 0.079786673 0.70400006
-0.023466669 0.079786673 0.70400006
-0.022125715 0.079786673 0.70400006
-0.020814287 0.079900004 0.70500004
-0.019471429 0.079900004 0.70500004
-0.018128572 0.079900004 0.70500004
-0.016785715 0.079900004 0.70500004
-0.015442858 0.079900004 0.70500004
-0.014080001 0.079786673 0.70400006
-0.012739048 0.079786673 0.70400006
-0.011398096 0.079786673 0.70400006
-0.010042857 0.079673335 0.70300001
-0.0087038102 0.079673335 0.70300001
-0.070796192 0.084815241 0.73600006
-0.064389527 0.080320954 0.69700003
-0.062880956 0.080090478 0.69500005
-0.061734289 0.080320954 0.69700003
-0.06040667 0.080320954 0.69700003
-0.059079051 0.080320954 0.69700003
-0.057751432 0.080320954 0.69700003
-0.056423813 0.080320954 0.69700003
-0.055175241 0.080436192 0.69800001
-0.053845719 0.080436192 0.69800001
-0.052516192 0.080436192 0.69800001
-0.05118667 0.080436192 0.69800001
-0.049857147 0.080436192 0.69800001
-0.048458099 0.080320954 0.69700003
-0.04713048 0.080320954 0.69700003
-0.046000004 0.080666669 0.70000005
-0.04466667 0.080666669 0.70000005
-0.04339524 0.080781907 0.70100003
-0.042000003 0.080666669 0.70000005
-0.040724766 0.080781907 0.70100003
-0.039333336 0.080666669 0.70000005
-0.038000003 0.080666669 0.70000005
-0.036666669 0.080666669 0.70000005
-0.035333335 0.080666669 0.70000005
-0.034000002 0.080666669 0.70000005
-0.032666668 0.080666669 0.70000005
-0.031378098 0.080781907 0.70100003
-0.030042859 0.080781907 0.70100003
-0.028789526 0.081012383 0.70300001
-0.027450478 0.081012383 0.70300001
-0.02611143 0.081012383 0.70300001
-0.024807621 0.081127621 0.70400006
-0.023433335 0.081012383 0.70300001
-0.022125715 0.081127621 0.70400006
-0.020784764 0.081127621 0.70400006
-0.01944381 0.081127621 0.70400006
-0.018102858 0.081127621 0.70400006
-0.016761906 0.081127621 0.70400006
-0.015399049 0.081012383 0.70300001
-0.014060001 0.081012383 0.70300001
-0.012720954 0.081012383 0.70300001
-0.011349524 0.080781907 0.70100003
-0.010014286 0.080781907 0.70100003
-0.0086666672 0.080666669 0.70000005
-0.06939429 0.08621715 0.73600006
-0.064112388 0.081297152 0.69400001
-0.062790483 0.081297152 0.69400001
-0.061557148 0.08141429 0.69500005
-0.060233336 0.08141429 0.69500005
-0.058909528 0.08141429 0.69500005
-0.057585716 0.08141429 0.69500005
-0.056504767 0.081765719 0.69800001
-0.055175241 0.081765719 0.69800001
-0.053768575 0.081648573 0.69700003
-0.052440956 0.081648573 0.69700003
-0.051113337 0.081648573 0.69700003
-0.049857147 0.081765719 0.69800001
-0.048458099 0.081648573 0.69700003
-0.04713048 0.081648573 0.69700003
-0.045802861 0.081648573 0.69700003
-0.044475242 0.081648573 0.69700003
-0.043147624 0.081648573 0.69700003
-0.041880004 0.081765719 0.69800001
-0.040492382 0.081648573 0.69700003
-0.039164763 0.081648573 0.69700003
-0.037837144 0.081648573 0.69700003
-0.036509525 0.081648573 0.69700003
-0.035232384 0.081765719 0.69800001
-0.033854287 0.081648573 0.69700003
-0.032573335 0.081765719 0.69800001
-0.031243812 0.081765719 0.69800001
-0.030000001 0.082000002 0.70000005
-0.028707622 0.082117148 0.70100003
-0.027372383 0.082117148 0.70100003
-0.02611143 0.082351431 0.70300001
-0.024772383 0.082351431 0.70300001
-0.023433335 0.082351431 0.70300001
-0.02203143 0.082117148 0.70100003
-0.020755239 0.082351431 0.70300001
-0.019416193 0.082351431 0.70300001
-0.018025715 0.082117148 0.70100003
-0.016690478 0.082117148 0.70100003
-0.015355239 0.082117148 0.70100003
-0.014000001 0.082000002 0.70000005
-0.012666668 0.082000002 0.70000005
-0.011300953 0.081765719 0.69800001
-0.0099714296 0.081765719 0.69800001
-0.0086419052 0.081765719 0.69800001
-0.071805716 0.087142862 0.73200005
-0.070411436 0.087142862 0.73200005
-0.069205716 0.087380961 0.73400003
-0.067807622 0.087380961 0.73400003
-0.066409528 0.087380961 0.73400003
-0.065011434 0.087380961 0.73400003
-0.060233336 0.082738101 0.69500005
-0.058824766 0.082619056 0.69400001
-0.057502862 0.082619056 0.69400001
-0.056261908 0.082738101 0.69500005
-0.0549381 0.082738101 0.69500005
-0.053537145 0.082619056 0.69400001
-0.052215241 0.082619056 0.69400001
-0.051113337 0.082976192 0.69700003
-0.049785718 0.082976192 0.69700003
-0.048458099 0.082976192 0.69700003
-0.04713048 0.082976192 0.69700003
-0.045802861 0.082976192 0.69700003
-0.044475242 0.082976192 0.69700003
-0.043147624 0.082976192 0.69700003
-0.041820005 0.082976192 0.69700003
-0.040376194 0.082738101 0.69500005
-0.039164763 0.082976192 0.69700003
-0.037728574 0.082738101 0.69500005
-0.036404766 0.082738101 0.69500005
-0.035080954 0.082738101 0.69500005
-0.033854287 0.082976192 0.69700003
-0.032433335 0.082738101 0.69500005
-0.031199049 0.082976192 0.69700003
-0.02987143 0.082976192 0.69700003
-0.028666668 0.083333336 0.70000005
-0.027333336 0.083333336 0.70000005
-0.026000002 0.083333336 0.70000005
-0.024701906 0.083452389 0.70100003
-0.023333335 0.083333336 0.70000005
-0.02203143 0.083452389 0.70100003
-0.020696191 0.083452389 0.70100003
-0.019360954 0.083452389 0.70100003
-0.018000001 0.083333336 0.70000005
-0.016666668 0.083333336 0.70000005
-0.015333334 0.083333336 0.70000005
-0.013960001 0.083095245 0.69800001
-0.012612382 0.082976192 0.69700003
-0.011252382 0.082738101 0.69500005
-0.009928572 0.082738101 0.69500005
-0.0086047621 0.082738101 0.69500005
-0.073400006 0.088779055 0.73400003
-0.072001912 0.088779055 0.73400003
-0.070603818 0.088779055 0.73400003
-0.069205716 0.088779055 0.73400003
-0.067807622 0.088779055 0.73400003
-0.066590481 0.08902096 0.73600006
-0.065011434 0.088779055 0.73400003
-0.06361334 0.088779055 0.73400003
-0.058824766 0.08394096 0.69400001
-0.057502862 0.08394096 0.69400001
-0.056180958 0.08394096 0.69400001
-0.05485905 0.08394096 0.69400001
-0.053460002 0.083820008 0.69300002
-0.051989526 0.083578102 0.69100004
-0.050893337 0.08394096 0.69400001
-0.049571432 0.08394096 0.69400001
-0.048319049 0.084061913 0.69500005
-0.046995241 0.084061913 0.69500005
-0.045671433 0.084061913 0.69500005
-0.044347622 0.084061913 0.69500005
-0.043147624 0.084303819 0.69700003
-0.041700002 0.084061913 0.69500005
-0.040376194 0.084061913 0.69500005
-0.039052382 0.084061913 0.69500005
-0.037674289 0.08394096 0.69400001
-0.036352385 0.08394096 0.69400001
-0.035080954 0.084061913 0.69500005
-0.033708572 0.08394096 0.69400001
-0.032340001 0.083820008 0.69300002
-0.031020002 0.083820008 0.69300002
-0.029785717 0.084061913 0.69500005
-0.028543811 0.084303819 0.69700003
-0.027216192 0.084303819 0.69700003
-0.025888573 0.084303819 0.69700003
-0.024596192 0.084424764 0.69800001
-0.023266668 0.084424764 0.69800001
-0.021937145 0.084424764 0.69800001
-0.02060762 0.084424764 0.69800001
-0.019250477 0.084303819 0.69700003
-0.01787143 0.084061913 0.69500005
-0.01654762 0.084061913 0.69500005
-0.01522381 0.084061913 0.69500005
-0.013900001 0.084061913 0.69500005
-0.012558096 0.08394096 0.69400001
-0.011236191 0.08394096 0.69400001
-0.0099142864 0.08394096 0.69400001
-0.0085923811 0.08394096 0.69400001
-0.073400006 0.090177149 0.73400003
-0.072001912 0.090177149 0.73400003
-0.070411436 0.089931436 0.73200005
-0.06901715 0.089931436 0.73200005
-0.067807622 0.090177149 0.73400003
-0.066409528 0.090177149 0.73400003
-0.065011434 0.090177149 0.73400003
-0.055938099 0.084894292 0.69100004
-0.054621909 0.084894292 0.69100004
-0.053228576 0.084771432 0.69000006
-0.05191429 0.084771432 0.69000006
-0.050600003 0.084771432 0.69000006
-0.049285717 0.084771432 0.69000006
-0.048249528 0.085262865 0.69400001
-0.046927623 0.085262865 0.69400001
-0.045605719 0.085262865 0.69400001
-0.044283811 0.085262865 0.69400001
-0.043023814 0.085385717 0.69500005
-0.041700002 0.085385717 0.69500005
-0.040376194 0.085385717 0.69500005
-0.038996194 0.085262865 0.69400001
-0.037674289 0.085262865 0.69400001
-0.036195241 0.084894292 0.69100004
-0.034980003 0.085140005 0.69300002
-0.033660002 0.085140005 0.69300002
-0.032246668 0.084894292 0.69100004
-0.030930478 0.084894292 0.69100004
-0.029614288 0.084894292 0.69100004
-0.028380001 0.085140005 0.69300002
-0.027138097 0.085385717 0.69500005
-0.025814287 0.085385717 0.69500005
-0.024560954 0.085631438 0.69700003
-0.023233335 0.085631438 0.69700003
-0.021905717 0.085631438 0.69700003
-0.020578096 0.085631438 0.69700003
-0.019250477 0.085631438 0.69700003
-0.017845716 0.085262865 0.69400001
-0.01652381 0.085262865 0.69400001
-0.01522381 0.085385717 0.69500005
-0.01388 0.085262865 0.69400001
-0.01254 0.085140005 0.69300002
-0.011220001 0.085140005 0.69300002
-0.0099000009 0.085140005 0.69300002
-0.0085800001 0.085140005 0.69300002
-0.070411436 0.091325723 0.73200005
-0.06901715 0.091325723 0.73200005
-0.054542862 0.086085722 0.69000006
-0.053151432 0.085960954 0.68900001
-0.05183905 0.085960954 0.68900001
-0.042961907 0.086584769 0.69400001
-0.041460004 0.086210482 0.69100004
-0.040143814 0.086210482 0.69100004
-0.03882762 0.086210482 0.69100004
-0.037511431 0.086210482 0.69100004
-0.036195241 0.086210482 0.69100004
-0.034879051 0.086210482 0.69100004
-0.033660002 0.086460009 0.69300002
-0.032246668 0.086210482 0.69100004
-0.030930478 0.086210482 0.69100004
-0.029614288 0.086210482 0.69100004
-0.028298097 0.086210482 0.69100004
-0.026981907 0.086210482 0.69100004
-0.025759049 0.091200955 0.73100001
-0.023166668 0.086709529 0.69500005
-0.021842858 0.086709529 0.69500005
-0.02051905 0.086709529 0.69500005
-0.01919524 0.086709529 0.69500005
-0.017820001 0.086460009 0.69300002
-0.01652381 0.086584769 0.69400001
-0.015201906 0.086584769 0.69400001
-0.01388 0.086584769 0.69400001
-0.01254 0.086460009 0.69300002
-0.01118762 0.086210482 0.69100004
-0.0098714288 0.086210482 0.69100004
-0.035505716 0.092593342 0.73100001
-0.034113336 0.092593342 0.73100001
-0.030930478 0.087526672 0.69100004
-0.029813336 0.09221334 0.72800004
-0.028426668 0.09221334 0.72800004
-0.027040001 0.09221334 0.72800004
-0.019167621 0.087906674 0.69400001
-0.017768573 0.087526672 0.69100004
-0.016500002 0.087780006 0.69300002
-0.015180001 0.087780006 0.69300002
-0.013820001 0.087526672 0.69100004
-0.01250381 0.087526672 0.69100004
-0.010371429 0.091960005 0.72600001
-0.0090257153 0.092340007 0.72900003
-0.034020003 0.09372858 0.72900003
-0.032586668 0.093600005 0.72800004
-0.031200003 0.093600005 0.72800004
-0.029813336 0.093600005 0.72800004
-0.028426668 0.093600005 0.72800004
-0.026965717 0.093342863 0.72600001
-0.025653334 0.093600005 0.72800004
-0.017742859 0.088714294 0.69000006
-0.017285716 0.093342863 0.72600001
-0.015902858 0.093342863 0.72600001
-0.014500001 0.093214288 0.72500002
-0.013119048 0.093214288 0.72500002
-0.011738096 0.093214288 0.72500002
-0.010371429 0.093342863 0.72600001
-0.0090133343 0.093600005 0.72800004
-0.031114288 0.094725721 0.72600001
-0.02973143 0.094725721 0.72600001
-0.028348573 0.094725721 0.72600001
-0.026965717 0.094725721 0.72600001
-0.017285716 0.094725721 0.72600001
