# .PCD v0.7 - Point Cloud Data file format
VERSION 0.7
FIELDS x y z
SIZE 4 4 4
TYPE F F F
COUNT 1 1 1
WIDTH 1385
HEIGHT 1
VIEWPOINT 0 0 0 1 0 0 0
POINTS 1385
DATA ascii
0.043209527 0.031243812 0.69800001
0.039389525 0.032713335 0.70100003
0.040724766 0.032713335 0.70100003
0.042000003 0.032666668 0.70000005
0.043209527 0.032573335 0.69800001
0.044539049 0.032573335 0.69800001
0.039501909 0.034145717 0.70300001
0.040724766 0.034048572 0.70100003
0.042060003 0.034048572 0.70100003
0.043333337 0.034000002 0.70000005
0.044539049 0.033902861 0.69800001
0.045671433 0.033757146 0.69500005
0.046927623 0.033708572 0.69400001
0.048040956 0.033562858 0.69100004
0.039726671 0.035686668 0.70700002
0.041073337 0.035686668 0.70700002
0.042180002 0.035484765 0.70300001
0.04339524 0.035383813 0.70100003
0.04466667 0.035333335 0.70000005
0.045671433 0.035080954 0.69500005
0.046927623 0.035030477 0.69400001
0.04776286 0.034677144 0.68700004
0.049214289 0.034778096 0.68900001
0.039726671 0.037033334 0.70700002
0.041073337 0.037033334 0.70700002
0.042300005 0.036928575 0.70500004
0.04364286 0.036928575 0.70500004
0.044283811 0.036352385 0.69400001
0.045605719 0.036352385 0.69400001
0.046724766 0.036195241 0.69100004
0.04776286 0.035985716 0.68700004
0.049071431 0.035985716 0.68700004
0.039726671 0.038380001 0.70700002
0.041073337 0.038380001 0.70700002
0.042300005 0.038271431 0.70500004
0.04364286 0.038271431 0.70500004
0.044092383 0.037511431 0.69100004
0.045408573 0.037511431 0.69100004
0.046657145 0.037457146 0.69000006
0.047693338 0.037240002 0.68600005
0.049000002 0.037240002 0.68600005
0.050160002 0.037131432 0.68400002
0.051462859 0.037131432 0.68400002
0.039726671 0.039726671 0.70700002
0.041073337 0.039726671 0.70700002
0.042300005 0.03961429 0.70500004
0.043580957 0.039558098 0.70400006
0.044921909 0.039558098 0.70400006
0.045408573 0.03882762 0.69100004
0.046724766 0.03882762 0.69100004
0.047693338 0.03854667 0.68600005
0.048857145 0.038434289 0.68400002
0.05008667 0.038378097 0.68300003
0.051387623 0.038378097 0.68300003
0.052688576 0.038378097 0.68300003
0.039726671 0.041073337 0.70700002
0.041073337 0.041073337 0.70700002
0.042300005 0.040957145 0.70500004
0.043580957 0.040899049 0.70400006
0.044730481 0.040724766 0.70100003
0.045671433 0.040376194 0.69500005
0.046860002 0.040260002 0.69300002
0.047693338 0.039853334 0.68600005
0.048785716 0.03967905 0.68300003
0.050013337 0.039620955 0.68200004
0.051161908 0.039504763 0.68000001
0.052457146 0.039504763 0.68000001
0.053436194 0.039272383 0.67600006
0.022600001 0.040680002 0.67800003
0.039726671 0.042420004 0.70700002
0.041073337 0.042420004 0.70700002
0.042300005 0.042300005 0.70500004
0.04351905 0.042180002 0.70300001
0.044858098 0.042180002 0.70300001
0.045540001 0.041580003 0.69300002
0.046724766 0.041460004 0.69100004
0.047693338 0.041160002 0.68600005
0.048714288 0.040920004 0.68200004
0.049866669 0.040800001 0.68000001
0.051086672 0.040740002 0.67900002
0.052148573 0.040560003 0.67600006
0.053436194 0.040560003 0.67600006
0.05464286 0.040500004 0.67500001
0.02137143 0.04209524 0.68000001
0.022600001 0.04197143 0.67800003
0.039782859 0.043828573 0.708
0.041073337 0.04376667 0.70700002
0.042300005 0.04364286 0.70500004
0.04351905 0.04351905 0.70300001
0.044858098 0.04351905 0.70300001
0.045408573 0.042776193 0.69100004
0.046657145 0.04271429 0.69000006
0.04776286 0.042528573 0.68700004
0.048857145 0.04234286 0.68400002
0.049866669 0.04209524 0.68000001
0.051086672 0.042033337 0.67900002
0.052148573 0.04184762 0.67600006
0.053357147 0.041785717 0.67500001
0.05464286 0.041785717 0.67500001
0.055928577 0.041785717 0.67500001
0.021308573 0.043262862 0.67800003
0.022600001 0.043262862 0.67800003
0.039782859 0.045177147 0.708
0.041073337 0.045113336 0.70700002
0.042300005 0.044985719 0.70500004
0.043580957 0.044921909 0.70400006
0.044921909 0.044921909 0.70400006
0.045540001 0.044220004 0.69300002
0.046657145 0.044028573 0.69000006
0.04776286 0.043837145 0.68700004
0.048857145 0.043645717 0.68400002
0.050013337 0.0435181 0.68200004
0.051086672 0.043326668 0.67900002
0.052148573 0.043135241 0.67600006
0.053357147 0.04307143 0.67500001
0.05464286 0.04307143 0.67500001
0.055928577 0.04307143 0.67500001
0.018836191 0.044817146 0.68200004
0.020076191 0.044685718 0.68000001
0.02137143 0.044685718 0.68000001
0.022600001 0.044554289 0.67800003
0.02389143 0.044554289 0.67800003
0.039726671 0.046460003 0.70700002
0.041073337 0.046460003 0.70700002
0.042240001 0.04626286 0.70400006
0.04351905 0.046197146 0.70300001
0.044858098 0.046197146 0.70300001
0.045671433 0.045671433 0.69500005
0.046657145 0.045342859 0.69000006
0.047693338 0.045080002 0.68600005
0.048857145 0.044948574 0.68400002
0.050013337 0.044817146 0.68200004
0.051161908 0.044685718 0.68000001
0.052148573 0.044422861 0.67600006
0.053357147 0.044357147 0.67500001
0.054561909 0.044291433 0.67400002
0.055845719 0.044291433 0.67400002
0.057129528 0.044291433 0.67400002
0.018836191 0.046116192 0.68200004
0.020135239 0.046116192 0.68200004
0.021434287 0.046116192 0.68200004
0.022633335 0.045913335 0.67900002
0.041073337 0.047806669 0.70700002
0.042300005 0.047671434 0.70500004
0.04351905 0.047536194 0.70300001
0.04466667 0.047333337 0.70000005
0.045671433 0.046995241 0.69500005
0.046860002 0.046860002 0.69300002
0.04776286 0.046454288 0.68700004
0.048857145 0.046251431 0.68400002
0.05008667 0.046183813 0.68300003
0.051161908 0.045980956 0.68000001
0.052148573 0.045710478 0.67600006
0.053357147 0.04564286 0.67500001
0.054561909 0.045575242 0.67400002
0.055845719 0.045575242 0.67400002
0.056960005 0.045440003 0.67200005
0.058240004 0.045440003 0.67200005
0.018780954 0.047276195 0.68000001
0.020076191 0.047276195 0.68000001
0.021308573 0.047137145 0.67800003
0.022600001 0.047137145 0.67800003
0.023785716 0.046928573 0.67500001
0.025034288 0.046859052 0.67400002
0.039951432 0.049431432 0.71100003
0.041131433 0.04922286 0.708
0.042300005 0.049014289 0.70500004
0.043580957 0.048944764 0.70400006
0.04466667 0.048666671 0.70000005
0.045671433 0.048319049 0.69500005
0.046724766 0.048040956 0.69100004
0.04776286 0.04776286 0.68700004
0.049000002 0.047693338 0.68600005
0.05008667 0.047484767 0.68300003
0.051312383 0.047415242 0.68200004
0.052071434 0.046928573 0.67500001
0.053357147 0.046928573 0.67500001
0.054400004 0.046720002 0.67200005
0.055680003 0.046720002 0.67200005
0.056960005 0.046720002 0.67200005
0.058240004 0.046720002 0.67200005
0.018753335 0.048500001 0.67900002
0.020017143 0.048428576 0.67800003
0.021245716 0.048285719 0.67600006
0.022500001 0.04821429 0.67500001
0.023750478 0.048142862 0.67400002
0.024960002 0.048000004 0.67200005
0.026044764 0.047642861 0.66700006
0.027274288 0.047571432 0.66600001
0.037504766 0.05114286 0.71600002
0.038760003 0.051000003 0.71400005
0.040063813 0.050928574 0.71300006
0.041305717 0.050785717 0.71100003
0.042600002 0.050714288 0.71000004
0.04364286 0.050357144 0.70500004
0.044921909 0.050285719 0.70400006
0.04626286 0.050285719 0.70400006
0.046657145 0.049285717 0.69000006
0.047971431 0.049285717 0.69000006
0.049071431 0.049071431 0.68700004
0.050160002 0.048857145 0.68400002
0.051387623 0.048785716 0.68300003
0.052688576 0.048785716 0.68300003
0.053436194 0.048285719 0.67600006
0.05464286 0.04821429 0.67500001
0.054685719 0.04714286 0.66000003
0.018753335 0.049793337 0.67900002
0.019958096 0.049573336 0.67600006
0.021245716 0.049573336 0.67600006
0.022500001 0.049500003 0.67500001
0.023750478 0.049426671 0.67400002
0.024960002 0.049280003 0.67200005
0.026044764 0.048913337 0.66700006
0.02731524 0.048913337 0.66700006
0.037504766 0.05250667 0.71600002
0.038760003 0.052360002 0.71400005
0.040063813 0.05228667 0.71300006
0.041421909 0.05228667 0.71300006
0.042600002 0.052066669 0.71000004
0.04364286 0.051700003 0.70500004
0.044921909 0.051626671 0.70400006
0.04626286 0.051626671 0.70400006
0.047603812 0.051626671 0.70400006
0.047901906 0.050526671 0.68900001
0.049071431 0.050380003 0.68700004
0.05030667 0.05030667 0.68600005
0.051462859 0.050160002 0.68400002
0.05276572 0.050160002 0.68400002
0.05185524 0.04810667 0.65600002
0.053266671 0.048253335 0.65800005
0.054685719 0.048400003 0.66000003
0.05594286 0.048400003 0.66000003
0.019958096 0.050860956 0.67600006
0.021214288 0.050785717 0.67500001
0.022466669 0.050710481 0.67400002
0.023680001 0.050560005 0.67200005
0.024922859 0.050484765 0.671
0.026044764 0.050183814 0.66700006
0.02715143 0.049882859 0.66300005
0.028157145 0.049431432 0.65700001
0.02931905 0.049280956 0.65500003
0.030566668 0.049280956 0.65500003
0.031717144 0.049130481 0.65300006
0.037504766 0.053870481 0.71600002
0.038705718 0.053644765 0.71300006
0.040063813 0.053644765 0.71300006
0.041305717 0.05349429 0.71100003
0.042660002 0.05349429 0.71100003
0.04376667 0.053193338 0.70700002
0.044985719 0.053042859 0.70500004
0.046328574 0.053042859 0.70500004
0.047901906 0.05183905 0.68900001
0.049071431 0.051688574 0.68700004
0.050160002 0.051462859 0.68400002
0.051387623 0.051387623 0.68300003
0.052611433 0.051312383 0.68200004
0.05185524 0.049356192 0.65600002
0.053266671 0.049506672 0.65800005
0.054520003 0.049506672 0.65800005
0.05594286 0.049657147 0.66000003
0.057026669 0.049506672 0.65800005
0.014259049 0.060788576 0.78800005
0.018753335 0.052380003 0.67900002
0.020017143 0.05230286 0.67800003
0.021245716 0.052148573 0.67600006
0.022466669 0.05199429 0.67400002
0.023644764 0.05176286 0.671
0.024774287 0.051454291 0.66700006
0.025966669 0.051300004 0.66500002
0.027110478 0.051068574 0.66200006
0.028200002 0.050760005 0.65800005
0.02931905 0.050528575 0.65500003
0.030566668 0.050528575 0.65500003
0.031717144 0.050374288 0.65300006
0.038705718 0.055002861 0.71300006
0.039951432 0.054848574 0.71100003
0.041247621 0.054771431 0.71000004
0.042600002 0.054771431 0.71000004
0.043828573 0.054617148 0.708
0.045113336 0.054540005 0.70700002
0.046460003 0.054540005 0.70700002
0.048009526 0.054771431 0.71000004
0.047554288 0.05276572 0.68400002
0.048857145 0.05276572 0.68400002
0.050160002 0.05276572 0.68400002
0.049280956 0.050528575 0.65500003
0.050605718 0.050605718 0.65600002
0.05185524 0.050605718 0.65600002
0.053185716 0.050682861 0.65700001
0.054437146 0.050682861 0.65700001
0.055688575 0.050682861 0.65700001
0.056940004 0.050682861 0.65700001
0.021182859 0.0532781 0.67400002
0.022466669 0.0532781 0.67400002
0.023644764 0.053040955 0.671
0.024885716 0.052961908 0.67000002
0.026005715 0.052645717 0.66600001
0.027274288 0.052645717 0.66600001
0.02807143 0.051776193 0.65500003
0.029229525 0.051618099 0.65300006
0.030473335 0.051618099 0.65300006
0.031668574 0.051539052 0.65200001
0.038597144 0.056202862 0.71100003
0.03989524 0.056123812 0.71000004
0.041247621 0.056123812 0.71000004
0.042480003 0.055965718 0.708
0.043828573 0.055965718 0.708
0.045304764 0.056123812 0.71000004
0.046657145 0.056123812 0.71000004
0.048009526 0.056123812 0.71000004
0.047554288 0.054068577 0.68400002
0.048857145 0.054068577 0.68400002
0.04810667 0.05185524 0.65600002
0.049431432 0.051934291 0.65700001
0.050605718 0.05185524 0.65600002
0.05185524 0.05185524 0.65600002
0.053185716 0.051934291 0.65700001
0.054437146 0.051934291 0.65700001
0.055688575 0.051934291 0.65700001
0.056940004 0.051934291 0.65700001
0.019958096 0.054723814 0.67600006
0.021214288 0.05464286 0.67500001
0.022466669 0.054561909 0.67400002
0.023680001 0.054400004 0.67200005
0.024960002 0.054400004 0.67200005
0.026240002 0.054400004 0.67200005
0.026741907 0.052861907 0.65300006
0.027985716 0.052861907 0.65300006
0.029229525 0.052861907 0.65300006
0.030473335 0.052861907 0.65300006
0.031668574 0.052780956 0.65200001
0.034047622 0.052619051 0.65000004
0.038597144 0.057557147 0.71100003
0.041247621 0.057476193 0.71000004
0.042600002 0.057476193 0.71000004
0.043952383 0.057476193 0.71000004
0.045304764 0.057476193 0.71000004
0.046722859 0.057557147 0.71100003
0.048009526 0.057476193 0.71000004
0.045607623 0.053104766 0.65600002
0.046857145 0.053104766 0.65600002
0.048180003 0.053185716 0.65700001
0.049431432 0.053185716 0.65700001
0.050605718 0.053104766 0.65600002
0.05185524 0.053104766 0.65600002
0.053104766 0.053104766 0.65600002
0.054354288 0.053104766 0.65600002
0.055603813 0.053104766 0.65600002
0.056853335 0.053104766 0.65600002
0.058191434 0.053185716 0.65700001
0.018725716 0.056177147 0.67800003
0.019958096 0.056011431 0.67600006
0.021214288 0.055928577 0.67500001
0.022466669 0.055845719 0.67400002
0.023750478 0.055845719 0.67400002
0.024960002 0.055680003 0.67200005
0.026240002 0.055680003 0.67200005
0.026741907 0.054105718 0.65300006
0.027985716 0.054105718 0.65300006
0.029229525 0.054105718 0.65300006
0.030473335 0.054105718 0.65300006
0.031717144 0.054105718 0.65300006
0.032960955 0.054105718 0.65300006
0.034204762 0.054105718 0.65300006
0.035448574 0.054105718 0.65300006
0.036692385 0.054105718 0.65300006
0.039180003 0.054105718 0.65300006
0.043952383 0.058828574 0.71000004
0.045368575 0.058911432 0.71100003
0.046722859 0.058911432 0.71100003
0.044290479 0.054271434 0.65500003
0.045538098 0.054271434 0.65500003
0.046857145 0.054354288 0.65600002
0.04810667 0.054354288 0.65600002
0.049356192 0.054354288 0.65600002
0.050605718 0.054354288 0.65600002
0.05185524 0.054354288 0.65600002
0.053104766 0.054354288 0.65600002
0.054437146 0.054437146 0.65700001
0.055603813 0.054354288 0.65600002
0.056940004 0.054437146 0.65700001
0.058191434 0.054437146 0.65700001
0.059442863 0.054437146 0.65700001
0.019958096 0.057299051 0.67600006
0.021214288 0.05721429 0.67500001
0.022466669 0.057129528 0.67400002
0.023644764 0.05687524 0.671
0.024922859 0.05687524 0.671
0.026200954 0.05687524 0.671
0.026823811 0.055519052 0.65500003
0.02807143 0.055519052 0.65500003
0.029229525 0.055349529 0.65300006
0.030473335 0.055349529 0.65300006
0.031717144 0.055349529 0.65300006
0.032960955 0.055349529 0.65300006
0.034204762 0.055349529 0.65300006
0.035448574 0.055349529 0.65300006
0.036692385 0.055349529 0.65300006
0.037936192 0.055349529 0.65300006
0.039180003 0.055349529 0.65300006
0.04042381 0.055349529 0.65300006
0.041667622 0.055349529 0.65300006
0.043042861 0.055519052 0.65500003
0.04415524 0.055349529 0.65300006
0.045538098 0.055519052 0.65500003
0.046785716 0.055519052 0.65500003
0.04810667 0.055603813 0.65600002
0.049356192 0.055603813 0.65600002
0.050605718 0.055603813 0.65600002
0.05185524 0.055603813 0.65600002
0.053104766 0.055603813 0.65600002
0.054437146 0.055688575 0.65700001
0.055603813 0.055603813 0.65600002
0.056940004 0.055688575 0.65700001
0.058280002 0.055773336 0.65800005
0.059533339 0.055773336 0.65800005
0.019958096 0.058586672 0.67600006
0.021245716 0.058586672 0.67600006
0.022400001 0.058240004 0.67200005
0.023644764 0.058153339 0.671
0.024922859 0.058153339 0.671
0.026864763 0.056853335 0.65600002
0.028114287 0.056853335 0.65600002
0.02931905 0.05676667 0.65500003
0.030473335 0.056593336 0.65300006
0.031717144 0.056593336 0.65300006
0.032960955 0.056593336 0.65300006
0.034204762 0.056593336 0.65300006
0.035448574 0.056593336 0.65300006
0.036692385 0.056593336 0.65300006
0.037936192 0.056593336 0.65300006
0.039180003 0.056593336 0.65300006
0.04042381 0.056593336 0.65300006
0.041667622 0.056593336 0.65300006
0.043042861 0.05676667 0.65500003
0.044290479 0.05676667 0.65500003
0.045538098 0.05676667 0.65500003
0.046785716 0.05676667 0.65500003
0.04810667 0.056853335 0.65600002
0.049356192 0.056853335 0.65600002
0.050605718 0.056853335 0.65600002
0.05185524 0.056853335 0.65600002
0.053185716 0.056940004 0.65700001
0.054437146 0.056940004 0.65700001
0.055688575 0.056940004 0.65700001
0.056940004 0.056940004 0.65700001
0.058280002 0.057026669 0.65800005
0.059533339 0.057026669 0.65800005
0.060971431 0.057200003 0.66000003
0.019958096 0.059874289 0.67600006
0.022333335 0.059342861 0.67000002
0.023609525 0.059342861 0.67000002
0.024885716 0.059342861 0.67000002
0.025693335 0.058280002 0.65800005
0.026905715 0.058191434 0.65700001
0.028157145 0.058191434 0.65700001
0.02931905 0.058014289 0.65500003
0.030566668 0.058014289 0.65500003
0.031717144 0.057837147 0.65300006
0.032960955 0.057837147 0.65300006
0.034204762 0.057837147 0.65300006
0.035448574 0.057837147 0.65300006
0.036692385 0.057837147 0.65300006
0.037936192 0.057837147 0.65300006
0.039180003 0.057837147 0.65300006
0.04042381 0.057837147 0.65300006
0.041667622 0.057837147 0.65300006
0.043042861 0.058014289 0.65500003
0.044290479 0.058014289 0.65500003
0.045538098 0.058014289 0.65500003
0.046857145 0.058102861 0.65600002
0.04810667 0.058102861 0.65600002
0.049356192 0.058102861 0.65600002
0.050605718 0.058102861 0.65600002
0.05185524 0.058102861 0.65600002
0.053185716 0.058191434 0.65700001
0.054437146 0.058191434 0.65700001
0.055688575 0.058191434 0.65700001
0.057026669 0.058280002 0.65800005
0.058280002 0.058280002 0.65800005
0.059714291 0.058457147 0.66000003
0.060971431 0.058457147 0.66000003
0.022333335 0.060619052 0.67000002
0.023609525 0.060619052 0.67000002
0.024885716 0.060619052 0.67000002
0.02577143 0.059714291 0.66000003
0.026946668 0.059533339 0.65800005
0.028200002 0.059533339 0.65800005
0.029363811 0.059352383 0.65600002
0.030566668 0.059261907 0.65500003
0.031717144 0.059080955 0.65300006
0.032960955 0.059080955 0.65300006
0.034204762 0.059080955 0.65300006
0.035448574 0.059080955 0.65300006
0.036692385 0.059080955 0.65300006
0.037936192 0.059080955 0.65300006
0.039180003 0.059080955 0.65300006
0.04042381 0.059080955 0.65300006
0.041795243 0.059261907 0.65500003
0.043042861 0.059261907 0.65500003
0.044290479 0.059261907 0.65500003
0.045607623 0.059352383 0.65600002
0.046857145 0.059352383 0.65600002
0.048180003 0.059442863 0.65700001
0.049431432 0.059442863 0.65700001
0.050682861 0.059442863 0.65700001
0.051934291 0.059442863 0.65700001
0.053266671 0.059533339 0.65800005
0.054520003 0.059533339 0.65800005
0.055773336 0.059533339 0.65800005
0.057200003 0.059714291 0.66000003
0.058457147 0.059714291 0.66000003
0.059804767 0.059804767 0.66100001
0.061063815 0.059804767 0.66100001
0.022333335 0.061895244 0.67000002
0.023609525 0.061895244 0.67000002
0.024774287 0.061618101 0.66700006
0.02577143 0.060971431 0.66000003
0.027028574 0.060971431 0.66000003
0.028200002 0.060786672 0.65800005
0.029408574 0.060694288 0.65700001
0.030566668 0.060509529 0.65500003
0.031814288 0.060509529 0.65500003
0.032960955 0.060324766 0.65300006
0.034204762 0.060324766 0.65300006
0.035448574 0.060324766 0.65300006
0.036692385 0.060324766 0.65300006
0.038052384 0.060509529 0.65500003
0.039300002 0.060509529 0.65500003
0.040547621 0.060509529 0.65500003
0.041795243 0.060509529 0.65500003
0.043108575 0.060601909 0.65600002
0.044358097 0.060601909 0.65600002
0.045677144 0.060694288 0.65700001
0.046928573 0.060694288 0.65700001
0.048180003 0.060694288 0.65700001
0.049506672 0.060786672 0.65800005
0.050760005 0.060786672 0.65800005
0.052013338 0.060786672 0.65800005
0.053266671 0.060786672 0.65800005
0.054685719 0.060971431 0.66000003
0.05594286 0.060971431 0.66000003
0.057286669 0.061063815 0.66100001
0.05854572 0.061063815 0.66100001
0.059895243 0.061156195 0.66200006
0.061156195 0.061156195 0.66200006
0.022333335 0.063171431 0.67000002
0.023574287 0.063077144 0.66900003
0.024774287 0.062888578 0.66700006
0.026005715 0.06279429 0.66600001
0.027028574 0.062228575 0.66000003
0.028200002 0.062040005 0.65800005
0.029408574 0.061945718 0.65700001
0.030613335 0.061851434 0.65600002
0.031814288 0.061757147 0.65500003
0.033061907 0.061757147 0.65500003
0.034309525 0.061757147 0.65500003
0.035448574 0.061568577 0.65300006
0.036804765 0.061757147 0.65500003
0.038052384 0.061757147 0.65500003
0.039360002 0.061851434 0.65600002
0.040609527 0.061851434 0.65600002
0.041859049 0.061851434 0.65600002
0.043174289 0.061945718 0.65700001
0.044425718 0.061945718 0.65700001
0.045746669 0.062040005 0.65800005
0.047000002 0.062040005 0.65800005
0.048253335 0.062040005 0.65800005
0.049506672 0.062040005 0.65800005
0.050914288 0.062228575 0.66000003
0.052171431 0.062228575 0.66000003
0.053428575 0.062228575 0.66000003
0.054768573 0.062322862 0.66100001
0.056027621 0.062322862 0.66100001
0.057286669 0.062322862 0.66100001
0.058634289 0.062417146 0.66200006
0.059895243 0.062417146 0.66200006
0.061156195 0.062417146 0.66200006
0.062511429 0.062511429 0.66300005
0.021057144 0.064447626 0.67000002
0.022300001 0.064351432 0.66900003
0.023574287 0.064351432 0.66900003
0.024737144 0.064062864 0.66600001
0.025888573 0.063774288 0.66300005
0.027028574 0.063485719 0.66000003
0.028285716 0.063485719 0.66000003
0.029453335 0.063293338 0.65800005
0.030660002 0.063197143 0.65700001
0.031862859 0.063100956 0.65600002
0.033112384 0.063100956 0.65600002
0.034361906 0.063100956 0.65600002
0.035611432 0.063100956 0.65600002
0.036917146 0.063197143 0.65700001
0.038168576 0.063197143 0.65700001
0.039420001 0.063197143 0.65700001
0.040671431 0.063197143 0.65700001
0.04198667 0.063293338 0.65800005
0.043240003 0.063293338 0.65800005
0.044493336 0.063293338 0.65800005
0.045885716 0.063485719 0.66000003
0.04714286 0.063485719 0.66000003
0.048400003 0.063485719 0.66000003
0.049657147 0.063485719 0.66000003
0.050991431 0.063581906 0.66100001
0.052171431 0.063485719 0.66000003
0.053509526 0.063581906 0.66100001
0.054768573 0.063581906 0.66100001
0.056027621 0.063581906 0.66100001
0.057373337 0.063678101 0.66200006
0.058634289 0.063678101 0.66200006
0.059895243 0.063678101 0.66200006
0.061248574 0.063774288 0.66300005
0.022333335 0.065723814 0.67000002
0.023574287 0.06562572 0.66900003
0.024737144 0.065331429 0.66600001
0.025966669 0.065233335 0.66500002
0.027069526 0.064840958 0.66100001
0.028285716 0.064742863 0.66000003
0.029453335 0.064546674 0.65800005
0.030660002 0.064448573 0.65700001
0.031911429 0.064448573 0.65700001
0.033162858 0.064448573 0.65700001
0.034414288 0.064448573 0.65700001
0.035665717 0.064448573 0.65700001
0.036917146 0.064448573 0.65700001
0.038226668 0.064546674 0.65800005
0.039480001 0.064546674 0.65800005
0.040733337 0.064546674 0.65800005
0.04198667 0.064546674 0.65800005
0.043371432 0.064742863 0.66000003
0.044696193 0.064840958 0.66100001
0.045955241 0.064840958 0.66100001
0.047214288 0.064840958 0.66100001
0.048546668 0.064939052 0.66200006
0.049807623 0.064939052 0.66200006
0.051068574 0.064939052 0.66200006
0.052329529 0.064939052 0.66200006
0.05359048 0.064939052 0.66200006
0.054851431 0.064939052 0.66200006
0.056112386 0.064939052 0.66200006
0.057373337 0.064939052 0.66200006
0.058634289 0.064939052 0.66200006
0.05998572 0.065037146 0.66300005
0.061248574 0.065037146 0.66300005
0.023609525 0.067000002 0.67000002
0.024737144 0.066600002 0.66600001
0.026005715 0.066600002 0.66600001
0.02715143 0.066300005 0.66300005
0.028328573 0.066100001 0.66100001
0.02954286 0.066000007 0.66000003
0.030706668 0.065800004 0.65800005
0.031911429 0.065700002 0.65700001
0.033213336 0.065800004 0.65800005
0.034466669 0.065800004 0.65800005
0.035720002 0.065800004 0.65800005
0.036973335 0.065800004 0.65800005
0.038226668 0.065800004 0.65800005
0.039480001 0.065800004 0.65800005
0.040733337 0.065800004 0.65800005
0.042114288 0.066000007 0.66000003
0.043437146 0.066100001 0.66100001
0.044696193 0.066100001 0.66100001
0.046024766 0.066200003 0.66200006
0.047285717 0.066200003 0.66200006
0.048546668 0.066200003 0.66200006
0.049807623 0.066200003 0.66200006
0.051068574 0.066200003 0.66200006
0.052329529 0.066200003 0.66200006
0.05359048 0.066200003 0.66200006
0.054934289 0.066300005 0.66300005
0.056112386 0.066200003 0.66200006
0.057460003 0.066300005 0.66300005
0.058722861 0.066300005 0.66300005
0.05998572 0.066300005 0.66300005
0.061248574 0.066300005 0.66300005
0.024737144 0.067868575 0.66600001
0.026005715 0.067868575 0.66600001
0.02715143 0.067562863 0.66300005
0.028371431 0.067460954 0.66200006
0.029587621 0.067359053 0.66100001
0.030800002 0.067257144 0.66000003
0.031960003 0.06705334 0.65800005
0.033213336 0.06705334 0.65800005
0.034466669 0.06705334 0.65800005
0.035720002 0.06705334 0.65800005
0.036973335 0.06705334 0.65800005
0.038226668 0.06705334 0.65800005
0.039600004 0.067257144 0.66000003
0.040857144 0.067257144 0.66000003
0.042114288 0.067257144 0.66000003
0.043437146 0.067359053 0.66100001
0.044763811 0.067460954 0.66200006
0.046024766 0.067460954 0.66200006
0.047285717 0.067460954 0.66200006
0.048620004 0.067562863 0.66300005
0.049882859 0.067562863 0.66300005
0.051145718 0.067562863 0.66300005
0.052408576 0.067562863 0.66300005
0.053671431 0.067562863 0.66300005
0.054934289 0.067562863 0.66300005
0.056197148 0.067562863 0.66300005
0.057460003 0.067562863 0.66300005
0.058722861 0.067562863 0.66300005
0.05998572 0.067562863 0.66300005
0.061248574 0.067562863 0.66300005
0.024737144 0.069137149 0.66600001
0.025966669 0.06903334 0.66500002
0.02715143 0.068825722 0.66300005
0.028371431 0.068721913 0.66200006
0.029587621 0.068618096 0.66100001
0.030846668 0.068618096 0.66100001
0.032057144 0.068514287 0.66000003
0.033314288 0.068514287 0.66000003
0.034466669 0.06830667 0.65800005
0.035828575 0.068514287 0.66000003
0.037085716 0.068514287 0.66000003
0.03834286 0.068514287 0.66000003
0.039600004 0.068514287 0.66000003
0.040857144 0.068514287 0.66000003
0.042178098 0.068618096 0.66100001
0.043437146 0.068618096 0.66100001
0.044763811 0.068721913 0.66200006
0.046024766 0.068721913 0.66200006
0.047285717 0.068721913 0.66200006
0.048620004 0.068825722 0.66300005
0.049882859 0.068825722 0.66300005
0.051145718 0.068825722 0.66300005
0.052408576 0.068825722 0.66300005
0.053833336 0.06903334 0.66500002
0.055100005 0.06903334 0.66500002
0.056366671 0.06903334 0.66500002
0.057633337 0.06903334 0.66500002
0.058900002 0.06903334 0.66500002
0.060166672 0.06903334 0.66500002
0.025966669 0.070300005 0.66500002
0.02715143 0.070088573 0.66300005
0.028414287 0.070088573 0.66300005
0.029632382 0.069982864 0.66200006
0.030846668 0.069877148 0.66100001
0.032057144 0.069771431 0.66000003
0.033314288 0.069771431 0.66000003
0.034571432 0.069771431 0.66000003
0.035828575 0.069771431 0.66000003
0.037085716 0.069771431 0.66000003
0.03834286 0.069771431 0.66000003
0.039660003 0.069877148 0.66100001
0.040919051 0.069877148 0.66100001
0.042241909 0.069982864 0.66200006
0.04350286 0.069982864 0.66200006
0.044763811 0.069982864 0.66200006
0.046024766 0.069982864 0.66200006
0.047357146 0.070088573 0.66300005
0.048766669 0.070300005 0.66500002
0.050033338 0.070300005 0.66500002
0.051377147 0.070405722 0.66600001
0.052645717 0.070405722 0.66600001
0.05391429 0.070405722 0.66600001
0.055182859 0.070405722 0.66600001
0.056451432 0.070405722 0.66600001
0.057720006 0.070405722 0.66600001
0.058988575 0.070405722 0.66600001
0.060166672 0.070300005 0.66500002
0.025966669 0.071566671 0.66500002
0.02715143 0.071351431 0.66300005
0.028414287 0.071351431 0.66300005
0.029632382 0.071243815 0.66200006
0.030893335 0.071243815 0.66200006
0.032105718 0.071136191 0.66100001
0.033364765 0.071136191 0.66100001
0.034571432 0.071028575 0.66000003
0.035828575 0.071028575 0.66000003
0.037141908 0.071136191 0.66100001
0.03834286 0.071028575 0.66000003
0.039660003 0.071136191 0.66100001
0.040980954 0.071243815 0.66200006
0.042241909 0.071243815 0.66200006
0.04350286 0.071243815 0.66200006
0.044763811 0.071243815 0.66200006
0.046094287 0.071351431 0.66300005
0.047500003 0.071566671 0.66500002
0.048766669 0.071566671 0.66500002
0.050033338 0.071566671 0.66500002
0.051377147 0.071674287 0.66600001
0.052645717 0.071674287 0.66600001
0.05391429 0.071674287 0.66600001
0.055265717 0.071781911 0.66700006
0.056451432 0.071674287 0.66600001
0.057720006 0.071674287 0.66600001
0.058988575 0.071674287 0.66600001
0.025966669 0.072833337 0.66500002
0.027233334 0.072833337 0.66500002
0.028414287 0.07261429 0.66300005
0.029677145 0.07261429 0.66300005
0.030940002 0.07261429 0.66300005
0.032154288 0.072504766 0.66200006
0.033415239 0.072504766 0.66200006
0.034676194 0.072504766 0.66200006
0.035937145 0.072504766 0.66200006
0.037198097 0.072504766 0.66200006
0.038459051 0.072504766 0.66200006
0.039720003 0.072504766 0.66200006
0.041042861 0.07261429 0.66300005
0.042305715 0.07261429 0.66300005
0.043700002 0.072833337 0.66500002
0.044966668 0.072833337 0.66500002
0.046302859 0.07294286 0.66600001
0.047571432 0.07294286 0.66600001
0.048840005 0.07294286 0.66600001
0.050183814 0.073052384 0.66700006
0.051454291 0.073052384 0.66700006
0.052724764 0.073052384 0.66700006
0.05399524 0.073052384 0.66700006
0.055265717 0.073052384 0.66700006
0.056536194 0.073052384 0.66700006
0.057806671 0.073052384 0.66700006
0.059077147 0.073052384 0.66700006
0.01631905 0.083014295 0.74500006
0.017738096 0.083014295 0.74500006
0.027233334 0.074100003 0.66500002
0.028500002 0.074100003 0.66500002
0.029677145 0.073877148 0.66300005
0.030940002 0.073877148 0.66300005
0.032202858 0.073877148 0.66300005
0.033415239 0.073765717 0.66200006
0.034676194 0.073765717 0.66200006
0.035937145 0.073765717 0.66200006
0.037198097 0.073765717 0.66200006
0.038459051 0.073765717 0.66200006
0.039720003 0.073765717 0.66200006
0.041042861 0.073877148 0.66300005
0.042433336 0.074100003 0.66500002
0.043700002 0.074100003 0.66500002
0.045034289 0.074211434 0.66600001
0.046302859 0.074211434 0.66600001
0.047642861 0.074322864 0.66700006
0.048913337 0.074322864 0.66700006
0.050183814 0.074322864 0.66700006
0.051454291 0.074322864 0.66700006
0.052882861 0.074545719 0.66900003
0.054157145 0.074545719 0.66900003
0.055431433 0.074545719 0.66900003
0.056705717 0.074545719 0.66900003
0.057806671 0.074322864 0.66700006
0.059254289 0.074545719 0.66900003
0.060528576 0.074545719 0.66900003
0.016275238 0.084206671 0.74300003
0.027233334 0.075366668 0.66500002
0.028500002 0.075366668 0.66500002
0.029677145 0.075140007 0.66300005
0.030940002 0.075140007 0.66300005
0.032202858 0.075140007 0.66300005
0.033415239 0.075026669 0.66200006
0.034676194 0.075026669 0.66200006
0.035937145 0.075026669 0.66200006
0.037254289 0.075140007 0.66300005
0.038517144 0.075140007 0.66300005
0.039780002 0.075140007 0.66300005
0.041166671 0.075366668 0.66500002
0.042497147 0.075480007 0.66600001
0.043765716 0.075480007 0.66600001
0.045034289 0.075480007 0.66600001
0.046372384 0.075593337 0.66700006
0.047642861 0.075593337 0.66700006
0.048913337 0.075593337 0.66700006
0.050183814 0.075593337 0.66700006
0.051454291 0.075593337 0.66700006
0.052882861 0.075820006 0.66900003
0.054157145 0.075820006 0.66900003
0.055431433 0.075820006 0.66900003
0.056705717 0.075820006 0.66900003
0.057980005 0.075820006 0.66900003
0.059342861 0.075933337 0.67000002
0.060619052 0.075933337 0.67000002
0.016275238 0.085621908 0.74300003
0.027233334 0.076633342 0.66500002
0.028500002 0.076633342 0.66500002
0.029677145 0.076402865 0.66300005
0.030940002 0.076402865 0.66300005
0.032202858 0.076402865 0.66300005
0.033415239 0.076287627 0.66200006
0.034728575 0.076402865 0.66300005
0.035937145 0.076287627 0.66200006
0.037254289 0.076402865 0.66300005
0.038517144 0.076402865 0.66300005
0.039900001 0.076633342 0.66500002
0.041166671 0.076633342 0.66500002
0.042497147 0.07674858 0.66600001
0.043765716 0.07674858 0.66600001
0.045101907 0.076863818 0.66700006
0.046372384 0.076863818 0.66700006
0.047642861 0.076863818 0.66700006
0.049060002 0.077094294 0.66900003
0.05033429 0.077094294 0.66900003
0.051608574 0.077094294 0.66900003
0.052882861 0.077094294 0.66900003
0.0542381 0.077209532 0.67000002
0.055514291 0.077209532 0.67000002
0.056705717 0.077094294 0.66900003
0.057980005 0.077094294 0.66900003
0.059254289 0.077094294 0.66900003
0.027233334 0.077900007 0.66500002
0.028500002 0.077900007 0.66500002
0.029766669 0.077900007 0.66500002
0.031033335 0.077900007 0.66500002
0.032202858 0.077665716 0.66300005
0.033465717 0.077665716 0.66300005
0.034728575 0.077665716 0.66300005
0.03599143 0.077665716 0.66300005
0.037254289 0.077665716 0.66300005
0.038633335 0.077900007 0.66500002
0.039900001 0.077900007 0.66500002
0.041228574 0.078017145 0.66600001
0.042497147 0.078017145 0.66600001
0.04383143 0.078134291 0.66700006
0.045101907 0.078134291 0.66700006
0.046372384 0.078134291 0.66700006
0.047785718 0.078368574 0.66900003
0.049060002 0.078368574 0.66900003
0.05033429 0.078368574 0.66900003
0.051608574 0.078368574 0.66900003
0.052882861 0.078368574 0.66900003
0.0542381 0.07848572 0.67000002
0.055514291 0.07848572 0.67000002
0.056790479 0.07848572 0.67000002
0.05806667 0.07848572 0.67000002
0.059431434 0.078602865 0.671
0.060709529 0.078602865 0.671
0.027274288 0.079285719 0.66600001
0.028542859 0.079285719 0.66600001
0.029766669 0.079166673 0.66500002
0.031033335 0.079166673 0.66500002
0.032300003 0.079166673 0.66500002
0.033465717 0.078928575 0.66300005
0.034833334 0.079166673 0.66500002
0.03599143 0.078928575 0.66300005
0.03736667 0.079166673 0.66500002
0.038691431 0.079285719 0.66600001
0.039960004 0.079285719 0.66600001
0.041228574 0.079285719 0.66600001
0.042560954 0.079404764 0.66700006
0.04383143 0.079404764 0.66700006
0.045101907 0.079404764 0.66700006
0.046372384 0.079404764 0.66700006
0.047785718 0.079642862 0.66900003
0.049060002 0.079642862 0.66900003
0.05033429 0.079642862 0.66900003
0.051608574 0.079642862 0.66900003
0.052961908 0.079761907 0.67000002
0.05431905 0.07988096 0.671
0.055597145 0.07988096 0.671
0.05687524 0.07988096 0.671
0.058153339 0.07988096 0.671
0.059520002 0.080000006 0.67200005
0.027397145 0.08091715 0.66900003
0.028585717 0.080675244 0.66700006
0.029811431 0.080554292 0.66600001
0.031033335 0.080433339 0.66500002
0.032300003 0.080433339 0.66500002
0.033566669 0.080433339 0.66500002
0.034833334 0.080433339 0.66500002
0.03599143 0.080191433 0.66300005
0.03736667 0.080433339 0.66500002
0.038691431 0.080554292 0.66600001
0.039960004 0.080554292 0.66600001
0.041228574 0.080554292 0.66600001
0.042560954 0.080675244 0.66700006
0.04383143 0.080675244 0.66700006
0.045101907 0.080675244 0.66700006
0.04651143 0.08091715 0.66900003
0.047785718 0.08091715 0.66900003
0.049060002 0.08091715 0.66900003
0.05033429 0.08091715 0.66900003
0.051685717 0.081038103 0.67000002
0.052961908 0.081038103 0.67000002
0.05431905 0.081159055 0.671
0.055680003 0.081280008 0.67200005
0.05687524 0.081159055 0.671
0.058240004 0.081280008 0.67200005
0.059697147 0.081521913 0.67400002
0.027438097 0.08231429 0.67000002
0.02867143 0.082191437 0.66900003
0.029856192 0.081945717 0.66700006
0.031080002 0.081822865 0.66600001
0.032348573 0.081822865 0.66600001
0.033566669 0.081700005 0.66500002
0.034885716 0.081822865 0.66600001
0.036100004 0.081700005 0.66500002
0.03736667 0.081700005 0.66500002
0.038691431 0.081822865 0.66600001
0.040020004 0.081945717 0.66700006
0.041290481 0.081945717 0.66700006
0.042560954 0.081945717 0.66700006
0.04383143 0.081945717 0.66700006
0.045101907 0.081945717 0.66700006
0.04651143 0.082191437 0.66900003
0.047785718 0.082191437 0.66900003
0.049060002 0.082191437 0.66900003
0.05033429 0.082191437 0.66900003
0.051685717 0.08231429 0.67000002
0.052961908 0.08231429 0.67000002
0.054400004 0.082560003 0.67200005
0.055680003 0.082560003 0.67200005
0.056960005 0.082560003 0.67200005
0.058413338 0.082805723 0.67400002
0.059697147 0.082805723 0.67400002
0.023750478 0.084089532 0.67400002
0.024960002 0.083840005 0.67200005
0.026318097 0.084089532 0.67400002
0.027479049 0.083715245 0.671
0.028714288 0.083590485 0.67000002
0.029990477 0.083590485 0.67000002
0.031126669 0.083216198 0.66700006
0.032397144 0.083216198 0.66700006
0.033617146 0.08309143 0.66600001
0.034938097 0.083216198 0.66700006
0.036208574 0.083216198 0.66700006
0.03747905 0.083216198 0.66700006
0.038749527 0.083216198 0.66700006
0.040020004 0.083216198 0.66700006
0.041290481 0.083216198 0.66700006
0.042688575 0.083465718 0.66900003
0.043962859 0.083465718 0.66900003
0.045237146 0.083465718 0.66900003
0.04651143 0.083465718 0.66900003
0.047857147 0.083590485 0.67000002
0.049133338 0.083590485 0.67000002
0.050409526 0.083590485 0.67000002
0.05176286 0.083715245 0.671
0.053040955 0.083715245 0.671
0.054400004 0.083840005 0.67200005
0.055845719 0.084089532 0.67400002
0.057129528 0.084089532 0.67400002
0.058500003 0.084214292 0.67500001
0.05978572 0.084214292 0.67500001
0.023680001 0.085120007 0.67200005
0.024960002 0.085120007 0.67200005
0.026240002 0.085120007 0.67200005
0.027479049 0.08499334 0.671
0.028714288 0.084866673 0.67000002
0.030035241 0.08499334 0.671
0.031220002 0.084740005 0.66900003
0.032494288 0.084740005 0.66900003
0.03366762 0.084486671 0.66700006
0.03504286 0.084740005 0.66900003
0.036317144 0.084740005 0.66900003
0.03764762 0.084866673 0.67000002
0.038865715 0.084740005 0.66900003
0.040140003 0.084740005 0.66900003
0.041414287 0.084740005 0.66900003
0.042688575 0.084740005 0.66900003
0.043962859 0.084740005 0.66900003
0.045237146 0.084740005 0.66900003
0.046580955 0.084866673 0.67000002
0.047857147 0.084866673 0.67000002
0.04920667 0.08499334 0.671
0.050484765 0.08499334 0.671
0.051840004 0.085120007 0.67200005
0.053120002 0.085120007 0.67200005
0.054561909 0.085373342 0.67400002
0.055845719 0.085373342 0.67400002
0.057129528 0.085373342 0.67400002
0.058500003 0.085500002 0.67500001
0.05978572 0.085500002 0.67500001
0.023680001 0.086400002 0.67200005
0.024960002 0.086400002 0.67200005
0.026240002 0.086400002 0.67200005
0.027479049 0.086271435 0.671
0.028757146 0.086271435 0.671
0.030035241 0.086271435 0.671
0.031266667 0.08614286 0.67000002
0.032542858 0.08614286 0.67000002
0.03381905 0.08614286 0.67000002
0.035095241 0.08614286 0.67000002
0.036425717 0.086271435 0.671
0.037703812 0.086271435 0.671
0.038981907 0.086271435 0.671
0.040200002 0.08614286 0.67000002
0.041476194 0.08614286 0.67000002
0.042752385 0.08614286 0.67000002
0.044028573 0.08614286 0.67000002
0.045304764 0.08614286 0.67000002
0.046580955 0.08614286 0.67000002
0.047928575 0.086271435 0.671
0.04920667 0.086271435 0.671
0.050560005 0.086400002 0.67200005
0.051840004 0.086400002 0.67200005
0.0532781 0.086657152 0.67400002
0.054561909 0.086657152 0.67400002
0.055928577 0.086785719 0.67500001
0.05721429 0.086785719 0.67500001
0.058500003 0.086785719 0.67500001
0.05978572 0.086785719 0.67500001
0.027479049 0.08754953 0.671
0.028757146 0.08754953 0.671
0.030080002 0.087680005 0.67200005
0.031313334 0.08754953 0.671
0.032542858 0.087419055 0.67000002
0.03381905 0.087419055 0.67000002
0.035147622 0.08754953 0.671
0.036480002 0.087680005 0.67200005
0.037703812 0.08754953 0.671
0.038981907 0.08754953 0.671
0.040260002 0.08754953 0.671
0.041538097 0.08754953 0.671
0.042880002 0.087680005 0.67200005
0.044160005 0.087680005 0.67200005
0.045440003 0.087680005 0.67200005
0.046720002 0.087680005 0.67200005
0.048142862 0.087940961 0.67400002
0.049426671 0.087940961 0.67400002
0.050710481 0.087940961 0.67400002
0.05199429 0.087940961 0.67400002
0.053357147 0.088071436 0.67500001
0.05464286 0.088071436 0.67500001
0.055928577 0.088071436 0.67500001
0.057299051 0.08820191 0.67600006
0.058586672 0.08820191 0.67600006
0.060051434 0.088462859 0.67800003
0.026161907 0.088695243 0.67000002
0.027479049 0.088827625 0.671
0.028800001 0.088960007 0.67200005
0.030080002 0.088960007 0.67200005
0.031313334 0.088827625 0.671
0.032591432 0.088827625 0.671
0.033869527 0.088827625 0.671
0.035200004 0.088960007 0.67200005
0.036480002 0.088960007 0.67200005
0.037760001 0.088960007 0.67200005
0.039040003 0.088960007 0.67200005
0.040260002 0.088827625 0.671
0.041600004 0.088960007 0.67200005
0.042880002 0.088960007 0.67200005
0.044160005 0.088960007 0.67200005
0.045440003 0.088960007 0.67200005
0.046859052 0.089224771 0.67400002
0.048142862 0.089224771 0.67400002
0.049500003 0.089357145 0.67500001
0.050785717 0.089357145 0.67500001
0.052071434 0.089357145 0.67500001
0.053357147 0.089357145 0.67500001
0.054723814 0.089489527 0.67600006
0.056011431 0.089489527 0.67600006
0.057468574 0.089754291 0.67800003
0.058760002 0.089754291 0.67800003
0.060051434 0.089754291 0.67800003
0.027479049 0.09010572 0.671
0.028757146 0.09010572 0.671
0.030080002 0.090240009 0.67200005
0.031313334 0.09010572 0.671
0.032591432 0.09010572 0.671
0.033920001 0.090240009 0.67200005
0.035200004 0.090240009 0.67200005
0.036480002 0.090240009 0.67200005
0.037760001 0.090240009 0.67200005
0.039040003 0.090240009 0.67200005
0.040320002 0.090240009 0.67200005
0.041600004 0.090240009 0.67200005
0.042880002 0.090240009 0.67200005
0.044160005 0.090240009 0.67200005
0.045575242 0.09050858 0.67400002
0.046859052 0.09050858 0.67400002
0.04821429 0.090642862 0.67500001
0.049500003 0.090642862 0.67500001
0.050785717 0.090642862 0.67500001
0.052071434 0.090642862 0.67500001
0.053436194 0.090777151 0.67600006
0.054723814 0.090777151 0.67600006
0.056011431 0.090777151 0.67600006
0.057468574 0.091045722 0.67800003
0.058760002 0.091045722 0.67800003
0.060140003 0.091180004 0.67900002
0.027479049 0.091383815 0.671
0.028800001 0.091520004 0.67200005
0.030080002 0.091520004 0.67200005
0.03136 0.091520004 0.67200005
0.032640003 0.091520004 0.67200005
0.033920001 0.091520004 0.67200005
0.035200004 0.091520004 0.67200005
0.036588576 0.09179239 0.67400002
0.037760001 0.091520004 0.67200005
0.039156195 0.09179239 0.67400002
0.040320002 0.091520004 0.67200005
0.041723814 0.09179239 0.67400002
0.043007623 0.09179239 0.67400002
0.044291433 0.09179239 0.67400002
0.045575242 0.09179239 0.67400002
0.046998098 0.092064768 0.67600006
0.048285719 0.092064768 0.67600006
0.049573336 0.092064768 0.67600006
0.050860956 0.092064768 0.67600006
0.052148573 0.092064768 0.67600006
0.053594287 0.092337146 0.67800003
0.054885719 0.092337146 0.67800003
0.056177147 0.092337146 0.67800003
0.057468574 0.092337146 0.67800003
0.058846671 0.092473343 0.67900002
0.060140003 0.092473343 0.67900002
0.027479049 0.09266191 0.671
0.028800001 0.092800006 0.67200005
0.030080002 0.092800006 0.67200005
0.03136 0.092800006 0.67200005
0.032640003 0.092800006 0.67200005
0.033920001 0.092800006 0.67200005
0.035200004 0.092800006 0.67200005
0.036480002 0.092800006 0.67200005
0.037760001 0.092800006 0.67200005
0.039156195 0.093076199 0.67400002
0.040440004 0.093076199 0.67400002
0.041723814 0.093076199 0.67400002
0.043007623 0.093076199 0.67400002
0.044291433 0.093076199 0.67400002
0.04564286 0.093214288 0.67500001
0.046998098 0.093352385 0.67600006
0.048285719 0.093352385 0.67600006
0.049720004 0.093628578 0.67800003
0.051011432 0.093628578 0.67800003
0.05230286 0.093628578 0.67800003
0.053594287 0.093628578 0.67800003
0.054885719 0.093628578 0.67800003
0.056177147 0.093628578 0.67800003
0.057468574 0.093628578 0.67800003
0.058846671 0.093766674 0.67900002
0.060140003 0.093766674 0.67900002
0.027520001 0.094080009 0.67200005
0.028800001 0.094080009 0.67200005
0.030080002 0.094080009 0.67200005
0.03136 0.094080009 0.67200005
0.032640003 0.094080009 0.67200005
0.033920001 0.094080009 0.67200005
0.035200004 0.094080009 0.67200005
0.036588576 0.094360009 0.67400002
0.037760001 0.094080009 0.67200005
0.039156195 0.094360009 0.67400002
0.040440004 0.094360009 0.67400002
0.041723814 0.094360009 0.67400002
0.043007623 0.094360009 0.67400002
0.044357147 0.094500005 0.67500001
0.04564286 0.094500005 0.67500001
0.046998098 0.094640009 0.67600006
0.048428576 0.094920009 0.67800003
0.049720004 0.094920009 0.67800003
0.051011432 0.094920009 0.67800003
0.052380003 0.095060006 0.67900002
0.053673338 0.095060006 0.67900002
0.05496667 0.095060006 0.67900002
0.056260005 0.095060006 0.67900002
0.057553336 0.095060006 0.67900002
0.058846671 0.095060006 0.67900002
0.028800001 0.095360003 0.67200005
0.030080002 0.095360003 0.67200005
0.03136 0.095360003 0.67200005
0.032737143 0.095643818 0.67400002
0.034020953 0.095643818 0.67400002
0.035200004 0.095360003 0.67200005
0.036588576 0.095643818 0.67400002
0.037760001 0.095360003 0.67200005
0.039156195 0.095643818 0.67400002
0.040440004 0.095643818 0.67400002
0.041723814 0.095643818 0.67400002
0.04307143 0.095785722 0.67500001
0.044357147 0.095785722 0.67500001
0.045710478 0.095927626 0.67600006
0.047137145 0.096211433 0.67800003
0.048428576 0.096211433 0.67800003
0.049720004 0.096211433 0.67800003
0.051086672 0.096353337 0.67900002
0.052380003 0.096353337 0.67900002
0.053673338 0.096353337 0.67900002
0.05496667 0.096353337 0.67900002
0.056342863 0.096495241 0.68000001
0.057553336 0.096353337 0.67900002
0.058846671 0.096353337 0.67900002
0.028885717 0.096927628 0.67400002
0.030169526 0.096927628 0.67400002
0.031453334 0.096927628 0.67400002
0.032737143 0.096927628 0.67400002
0.034020953 0.096927628 0.67400002
0.035304762 0.096927628 0.67400002
0.036588576 0.096927628 0.67400002
0.037872385 0.096927628 0.67400002
0.039156195 0.096927628 0.67400002
0.040440004 0.096927628 0.67400002
0.041723814 0.096927628 0.67400002
0.04307143 0.097071432 0.67500001
0.044422861 0.097215243 0.67600006
0.045710478 0.097215243 0.67600006
0.047137145 0.097502865 0.67800003
0.048428576 0.097502865 0.67800003
0.049793337 0.097646676 0.67900002
0.051086672 0.097646676 0.67900002
0.052380003 0.097646676 0.67900002
0.053752385 0.09779048 0.68000001
0.055047624 0.09779048 0.68000001
0.056342863 0.09779048 0.68000001
0.057553336 0.097646676 0.67900002
0.058846671 0.097646676 0.67900002
0.028885717 0.098211437 0.67400002
0.030169526 0.098211437 0.67400002
0.031500001 0.098357148 0.67500001
0.032785717 0.098357148 0.67500001
0.034071431 0.098357148 0.67500001
0.035304762 0.098211437 0.67400002
0.036642861 0.098357148 0.67500001
0.037872385 0.098211437 0.67400002
0.039214287 0.098357148 0.67500001
0.040500004 0.098357148 0.67500001
0.041785717 0.098357148 0.67500001
0.043135241 0.098502867 0.67600006
0.044554289 0.098794289 0.67800003
0.045845717 0.098794289 0.67800003
0.047137145 0.098794289 0.67800003
0.048500001 0.098940007 0.67900002
0.049793337 0.098940007 0.67900002
0.051161908 0.099085718 0.68000001
0.052457146 0.099085718 0.68000001
0.053752385 0.099085718 0.68000001
0.055047624 0.099085718 0.68000001
0.056342863 0.099085718 0.68000001
0.057638098 0.099085718 0.68000001
0.026474288 0.10008572 0.67800003
0.027683811 0.099790484 0.67600006
0.02897143 0.099790484 0.67600006
0.030214287 0.099642865 0.67500001
0.031546667 0.099790484 0.67600006
0.032785717 0.099642865 0.67500001
0.034071431 0.099642865 0.67500001
0.035304762 0.099495247 0.67400002
0.036642861 0.099642865 0.67500001
0.037928574 0.099642865 0.67500001
0.039272383 0.099790484 0.67600006
0.040560003 0.099790484 0.67600006
0.04184762 0.099790484 0.67600006
0.043262862 0.10008572 0.67800003
0.044620004 0.10023334 0.67900002
0.045913335 0.10023334 0.67900002
0.04720667 0.10023334 0.67900002
0.048500001 0.10023334 0.67900002
0.049866669 0.10038096 0.68000001
0.051161908 0.10038096 0.68000001
0.052611433 0.10067619 0.68200004
0.053910479 0.10067619 0.68200004
0.055209529 0.10067619 0.68200004
0.056508575 0.10067619 0.68200004
0.057807624 0.10067619 0.68200004
0.026474288 0.10137715 0.67800003
0.027765715 0.10137715 0.67800003
0.029057145 0.10137715 0.67800003
0.030348573 0.10137715 0.67800003
0.031640001 0.10137715 0.67800003
0.032834288 0.1010781 0.67600006
0.034121908 0.1010781 0.67600006
0.035357144 0.10092857 0.67500001
0.036697146 0.1010781 0.67600006
0.037984766 0.1010781 0.67600006
0.039388575 0.10137715 0.67800003
0.040740002 0.10152667 0.67900002
0.04209524 0.1016762 0.68000001
0.0435181 0.10197525 0.68200004
0.044817146 0.10197525 0.68200004
0.045980956 0.1016762 0.68000001
0.047276195 0.1016762 0.68000001
0.04857143 0.1016762 0.68000001
0.050013337 0.10197525 0.68200004
0.051312383 0.10197525 0.68200004
0.052611433 0.10197525 0.68200004
0.053989526 0.10212477 0.68300003
0.055290479 0.10212477 0.68300003
0.056591433 0.10212477 0.68300003
0.057892386 0.10212477 0.68300003
0.025220001 0.10282001 0.67900002
0.026513334 0.10282001 0.67900002
0.027806668 0.10282001 0.67900002
0.029100003 0.10282001 0.67900002
0.030393336 0.10282001 0.67900002
0.031686667 0.10282001 0.67900002
0.032980002 0.10282001 0.67900002
0.03422286 0.10266858 0.67800003
0.035514288 0.10266858 0.67800003
0.036860004 0.10282001 0.67900002
0.038153335 0.10282001 0.67900002
0.039620955 0.10327429 0.68200004
0.040920004 0.10327429 0.68200004
0.04221905 0.10327429 0.68200004
0.0435181 0.10327429 0.68200004
0.044817146 0.10327429 0.68200004
