# .PCD v0.7 - Point Cloud Data file format
VERSION 0.7
FIELDS x y z
SIZE 4 4 4
TYPE F F F
COUNT 1 1 1
WIDTH 1403
HEIGHT 1
VIEWPOINT 0 0 0 1 0 0 0
POINTS 1403
DATA ascii
0.071091436 0.07230667 0.63800001
0.07185334 0.07185334 0.634
0.07306096 0.07185334 0.634
0.074268579 0.07185334 0.634
0.075476192 0.07185334 0.634
0.076562859 0.071740001 0.63300002
0.077891432 0.07185334 0.634
0.078974292 0.071740001 0.63300002
0.080180004 0.071740001 0.63300002
0.081385717 0.071740001 0.63300002
0.082460955 0.071626671 0.63200003
0.083532386 0.07151334 0.63100004
0.08446572 0.071286671 0.62900001
0.085663818 0.071286671 0.62900001
0.086723812 0.07117334 0.62800002
0.088060006 0.071286671 0.62900001
0.089116193 0.07117334 0.62800002
0.090312384 0.07117334 0.62800002
0.091362864 0.071060002 0.62700003
0.092557147 0.071060002 0.62700003
0.093751438 0.071060002 0.62700003
0.094945721 0.071060002 0.62700003
0.095986672 0.070946671 0.62600005
0.040238097 0.07490477 0.65000004
0.041476194 0.07490477 0.65000004
0.04271429 0.07490477 0.65000004
0.043952383 0.07490477 0.65000004
0.045051433 0.074674293 0.648
0.046285719 0.074674293 0.648
0.047520004 0.074674293 0.648
0.04867905 0.074559055 0.64700001
0.049911432 0.074559055 0.64700001
0.051143814 0.074559055 0.64700001
0.052376192 0.074559055 0.64700001
0.053525716 0.074443817 0.64600003
0.054671433 0.074328579 0.64500004
0.055900004 0.074328579 0.64500004
0.057040002 0.074213341 0.64400005
0.05826667 0.074213341 0.64400005
0.059308574 0.073982865 0.64200002
0.060531434 0.073982865 0.64200002
0.061658099 0.073867626 0.64100003
0.062780954 0.073752388 0.64000005
0.063900001 0.07363715 0.63900006
0.065117151 0.07363715 0.63900006
0.066334292 0.07363715 0.63900006
0.067551434 0.07363715 0.63900006
0.068768576 0.07363715 0.63900006
0.069876194 0.073521912 0.63800001
0.071091436 0.073521912 0.63800001
0.07196667 0.073176198 0.63500005
0.073176198 0.073176198 0.63500005
0.074268579 0.07306096 0.634
0.075476192 0.07306096 0.634
0.076683812 0.07306096 0.634
0.077891432 0.07306096 0.634
0.079099052 0.07306096 0.634
0.080180004 0.072945721 0.63300002
0.081385717 0.072945721 0.63300002
0.082460955 0.072830483 0.63200003
0.083532386 0.072715245 0.63100004
0.084734291 0.072715245 0.63100004
0.085663818 0.072484769 0.62900001
0.086861908 0.072484769 0.62900001
0.088060006 0.072484769 0.62900001
0.089116193 0.072369531 0.62800002
0.090312384 0.072369531 0.62800002
0.091508575 0.072369531 0.62800002
0.092557147 0.072254293 0.62700003
0.093900956 0.072369531 0.62800002
0.095097147 0.072369531 0.62800002
0.096293338 0.072369531 0.62800002
0.040300004 0.076260008 0.65100002
0.041540004 0.076260008 0.65100002
0.042780004 0.076260008 0.65100002
0.044020005 0.076260008 0.65100002
0.04519048 0.076142862 0.65000004
0.046428576 0.076142862 0.65000004
0.047520004 0.075908579 0.648
0.04875429 0.075908579 0.648
0.049911432 0.075791433 0.64700001
0.051143814 0.075791433 0.64700001
0.052376192 0.075791433 0.64700001
0.053525716 0.075674288 0.64600003
0.054671433 0.07555715 0.64500004
0.055900004 0.07555715 0.64500004
0.057040002 0.075440004 0.64400005
0.05826667 0.075440004 0.64400005
0.059493337 0.075440004 0.64400005
0.060531434 0.075205721 0.64200002
0.061658099 0.075088575 0.64100003
0.062780954 0.07497143 0.64000005
0.064000003 0.07497143 0.64000005
0.065117151 0.074854292 0.63900006
0.066334292 0.074854292 0.63900006
0.067551434 0.074854292 0.63900006
0.068768576 0.074854292 0.63900006
0.069985718 0.074854292 0.63900006
0.071091436 0.074737146 0.63800001
0.07230667 0.074737146 0.63800001
0.073291436 0.074502863 0.63600004
0.074385718 0.074385718 0.63500005
0.075595245 0.074385718 0.63500005
0.076683812 0.074268579 0.634
0.077891432 0.074268579 0.634
0.079099052 0.074268579 0.634
0.080180004 0.074151434 0.63300002
0.081385717 0.074151434 0.63300002
0.082591437 0.074151434 0.63300002
0.083664767 0.074034289 0.63200003
0.084734291 0.07391715 0.63100004
0.085663818 0.07368286 0.62900001
0.086861908 0.07368286 0.62900001
0.088060006 0.07368286 0.62900001
0.089258105 0.07368286 0.62900001
0.090312384 0.073565722 0.62800002
0.091508575 0.073565722 0.62800002
0.092704765 0.073565722 0.62800002
0.093900956 0.073565722 0.62800002
0.09524858 0.07368286 0.62900001
0.040361907 0.077619053 0.65200001
0.041603811 0.077619053 0.65200001
0.042845719 0.077619053 0.65200001
0.044020005 0.077500008 0.65100002
0.045260005 0.077500008 0.65100002
0.046428576 0.077380955 0.65000004
0.047666669 0.077380955 0.65000004
0.04875429 0.077142864 0.648
0.049988575 0.077142864 0.648
0.051143814 0.077023812 0.64700001
0.052376192 0.077023812 0.64700001
0.053525716 0.076904766 0.64600003
0.054756194 0.076904766 0.64600003
0.055986669 0.076904766 0.64600003
0.057128575 0.076785721 0.64500004
0.05826667 0.076666668 0.64400005
0.059493337 0.076666668 0.64400005
0.060531434 0.076428577 0.64200002
0.06175429 0.076428577 0.64200002
0.062780954 0.076190479 0.64000005
0.064000003 0.076190479 0.64000005
0.065219052 0.076190479 0.64000005
0.066438101 0.076190479 0.64000005
0.067551434 0.076071434 0.63900006
0.068768576 0.076071434 0.63900006
0.069985718 0.076071434 0.63900006
0.071202859 0.076071434 0.63900006
0.07230667 0.075952388 0.63800001
0.073291436 0.07571429 0.63600004
0.074502863 0.07571429 0.63600004
0.075595245 0.075595245 0.63500005
0.076804765 0.075595245 0.63500005
0.078014292 0.075595245 0.63500005
0.079099052 0.075476192 0.634
0.080306672 0.075476192 0.634
0.081385717 0.075357147 0.63300002
0.082591437 0.075357147 0.63300002
0.083797149 0.075357147 0.63300002
0.08486858 0.075238101 0.63200003
0.086072385 0.075238101 0.63200003
0.087138101 0.075119056 0.63100004
0.088340007 0.075119056 0.63100004
0.089541912 0.075119056 0.63100004
0.090456195 0.074880958 0.62900001
0.091654293 0.074880958 0.62900001
0.092852384 0.074880958 0.62900001
0.093900956 0.074761912 0.62800002
0.095551431 0.075119056 0.63100004
0.096753336 0.075119056 0.63100004
0.040361907 0.078860961 0.65200001
0.041603811 0.078860961 0.65200001
0.042845719 0.078860961 0.65200001
0.044087622 0.078860961 0.65200001
0.045260005 0.078740008 0.65100002
0.046500005 0.078740008 0.65100002
0.047666669 0.078619055 0.65000004
0.048904765 0.078619055 0.65000004
0.049988575 0.07837715 0.648
0.051222861 0.07837715 0.648
0.052376192 0.078256197 0.64700001
0.053608574 0.078256197 0.64700001
0.054840956 0.078256197 0.64700001
0.055986669 0.078135245 0.64600003
0.057217147 0.078135245 0.64600003
0.058357146 0.078014292 0.64500004
0.059493337 0.077893339 0.64400005
0.060720004 0.077893339 0.64400005
0.06175429 0.077651434 0.64200002
0.06297715 0.077651434 0.64200002
0.064100005 0.077530481 0.64100003
0.065219052 0.077409528 0.64000005
0.066438101 0.077409528 0.64000005
0.067551434 0.077288575 0.63900006
0.068768576 0.077288575 0.63900006
0.069985718 0.077288575 0.63900006
0.071202859 0.077288575 0.63900006
0.07230667 0.077167623 0.63800001
0.073521912 0.077167623 0.63800001
0.074502863 0.076925717 0.63600004
0.07571429 0.076925717 0.63600004
0.076804765 0.076804765 0.63500005
0.078014292 0.076804765 0.63500005
0.079099052 0.076683812 0.634
0.080306672 0.076683812 0.634
0.081514291 0.076683812 0.634
0.082591437 0.076562859 0.63300002
0.083797149 0.076562859 0.63300002
0.085002862 0.076562859 0.63300002
0.086072385 0.076441906 0.63200003
0.087276198 0.076441906 0.63200003
0.088480003 0.076441906 0.63200003
0.089541912 0.076320961 0.63100004
0.090743817 0.076320961 0.63100004
0.091654293 0.076079056 0.62900001
0.092852384 0.076079056 0.62900001
0.094050482 0.076079056 0.62900001
0.095551431 0.076320961 0.63100004
0.041603811 0.080102861 0.65200001
0.042911433 0.080225721 0.65300006
0.04415524 0.080225721 0.65300006
0.045329526 0.080102861 0.65200001
0.04657143 0.080102861 0.65200001
0.047740005 0.079980008 0.65100002
0.048980001 0.079980008 0.65100002
0.050142862 0.079857148 0.65000004
0.051222861 0.079611436 0.648
0.052457146 0.079611436 0.648
0.053608574 0.079488575 0.64700001
0.054840956 0.079488575 0.64700001
0.056073338 0.079488575 0.64700001
0.057217147 0.079365723 0.64600003
0.058447622 0.079365723 0.64600003
0.059585717 0.079242863 0.64500004
0.060720004 0.079120003 0.64400005
0.061946671 0.079120003 0.64400005
0.06297715 0.07887429 0.64200002
0.064100005 0.078751437 0.64100003
0.065320954 0.078751437 0.64100003
0.066438101 0.078628577 0.64000005
0.06765715 0.078628577 0.64000005
0.068768576 0.078505717 0.63900006
0.069985718 0.078505717 0.63900006
0.071202859 0.078505717 0.63900006
0.07230667 0.078382865 0.63800001
0.073521912 0.078382865 0.63800001
0.074502863 0.078137144 0.63600004
0.07571429 0.078137144 0.63600004
0.076804765 0.078014292 0.63500005
0.078014292 0.078014292 0.63500005
0.079099052 0.077891432 0.634
0.080306672 0.077891432 0.634
0.081514291 0.077891432 0.634
0.082721911 0.077891432 0.634
0.083929531 0.077891432 0.634
0.085137151 0.077891432 0.634
0.086208574 0.077768579 0.63300002
0.087414294 0.077768579 0.63300002
0.088620007 0.077768579 0.63300002
0.089683816 0.077645719 0.63200003
0.090887628 0.077645719 0.63200003
0.091945723 0.077522859 0.63100004
0.093147628 0.077522859 0.63100004
0.094349533 0.077522859 0.63100004
0.095702864 0.077645719 0.63200003
0.09706001 0.077768579 0.63300002
0.041795243 0.081719056 0.65500003
0.043042861 0.081719056 0.65500003
0.04415524 0.081469528 0.65300006
0.045399051 0.081469528 0.65300006
0.04657143 0.081344768 0.65200001
0.047813337 0.081344768 0.65200001
0.049055241 0.081344768 0.65200001
0.050220001 0.081220008 0.65100002
0.051380955 0.081095241 0.65000004
0.052457146 0.080845721 0.648
0.053608574 0.080720961 0.64700001
0.054840956 0.080720961 0.64700001
0.056073338 0.080720961 0.64700001
0.057217147 0.080596194 0.64600003
0.058447622 0.080596194 0.64600003
0.059585717 0.080471434 0.64500004
0.060720004 0.080346674 0.64400005
0.061946671 0.080346674 0.64400005
0.06297715 0.080097146 0.64200002
0.064200006 0.080097146 0.64200002
0.065320954 0.079972386 0.64100003
0.06654191 0.079972386 0.64100003
0.067762859 0.079972386 0.64100003
0.068876192 0.079847626 0.64000005
0.070095241 0.079847626 0.64000005
0.071202859 0.079722859 0.63900006
0.072420008 0.079722859 0.63900006
0.07363715 0.079722859 0.63900006
0.074737146 0.079598099 0.63800001
0.075952388 0.079598099 0.63800001
0.076925717 0.079348579 0.63600004
0.078137144 0.079348579 0.63600004
0.079223812 0.079223812 0.63500005
0.080433339 0.079223812 0.63500005
0.081642866 0.079223812 0.63500005
0.082852386 0.079223812 0.63500005
0.084061913 0.079223812 0.63500005
0.085137151 0.079099052 0.634
0.086344771 0.079099052 0.634
0.087552384 0.079099052 0.634
0.088620007 0.078974292 0.63300002
0.08982572 0.078974292 0.63300002
0.091031432 0.078974292 0.63300002
0.092237152 0.078974292 0.63300002
0.093295246 0.078849532 0.63200003
0.094499052 0.078849532 0.63200003
0.09585429 0.078974292 0.63300002
0.09706001 0.078974292 0.63300002
0.098420955 0.079099052 0.634
0.041859049 0.083093338 0.65600002
0.043108575 0.083093338 0.65600002
0.044290479 0.08296667 0.65500003
0.045399051 0.082713336 0.65300006
0.046642859 0.082713336 0.65300006
0.04788667 0.082713336 0.65300006
0.049055241 0.082586668 0.65200001
0.050220001 0.082460009 0.65100002
0.051380955 0.082333341 0.65000004
0.052457146 0.082080007 0.648
0.053691432 0.082080007 0.648
0.054925717 0.082080007 0.648
0.056073338 0.081953339 0.64700001
0.05730572 0.081953339 0.64700001
0.058447622 0.081826672 0.64600003
0.0596781 0.081826672 0.64600003
0.060814291 0.081700005 0.64500004
0.062042862 0.081700005 0.64500004
0.063173339 0.081573337 0.64400005
0.064200006 0.081320003 0.64200002
0.065422863 0.081320003 0.64200002
0.066645719 0.081320003 0.64200002
0.067762859 0.081193335 0.64100003
0.068983816 0.081193335 0.64100003
0.070095241 0.081066675 0.64000005
0.07131429 0.081066675 0.64000005
0.072420008 0.080940008 0.63900006
0.07363715 0.080940008 0.63900006
0.074737146 0.080813341 0.63800001
0.075952388 0.080813341 0.63800001
0.077167623 0.080813341 0.63800001
0.078382865 0.080813341 0.63800001
0.079348579 0.080560006 0.63600004
0.080560006 0.080560006 0.63600004
0.081771433 0.080560006 0.63600004
0.082852386 0.080433339 0.63500005
0.084061913 0.080433339 0.63500005
0.085271433 0.080433339 0.63500005
0.086344771 0.080306672 0.634
0.087552384 0.080306672 0.634
0.088760003 0.080306672 0.634
0.089967623 0.080306672 0.634
0.091031432 0.080180004 0.63300002
0.092237152 0.080180004 0.63300002
0.093442865 0.080180004 0.63300002
0.094499052 0.080053337 0.63200003
0.09585429 0.080180004 0.63300002
0.09706001 0.080180004 0.63300002
0.098420955 0.080306672 0.634
0.040671431 0.084471434 0.65700001
0.04192286 0.084471434 0.65700001
0.043108575 0.08434286 0.65600002
0.044358097 0.08434286 0.65600002
0.045538098 0.084214292 0.65500003
0.046642859 0.083957151 0.65300006
0.04788667 0.083957151 0.65300006
0.049130481 0.083957151 0.65300006
0.050297145 0.083828576 0.65200001
0.051460002 0.083700009 0.65100002
0.052619051 0.083571434 0.65000004
0.053857148 0.083571434 0.65000004
0.054925717 0.083314292 0.648
0.056160003 0.083314292 0.648
0.05730572 0.083185717 0.64700001
0.058538098 0.083185717 0.64700001
0.05977048 0.083185717 0.64700001
0.060908575 0.08305715 0.64600003
0.062139053 0.08305715 0.64600003
0.063271433 0.082928576 0.64500004
0.064400002 0.082800008 0.64400005
0.065422863 0.082542859 0.64200002
0.066645719 0.082542859 0.64200002
0.067868575 0.082542859 0.64200002
0.069091432 0.082542859 0.64200002
0.070204765 0.082414292 0.64100003
0.071425721 0.082414292 0.64100003
0.072533339 0.082285717 0.64000005
0.07363715 0.08215715 0.63900006
0.074854292 0.08215715 0.63900006
0.075952388 0.082028575 0.63800001
0.077167623 0.082028575 0.63800001
0.078382865 0.082028575 0.63800001
0.079598099 0.082028575 0.63800001
0.080560006 0.081771433 0.63600004
0.081771433 0.081771433 0.63600004
0.082982861 0.081771433 0.63600004
0.084194288 0.081771433 0.63600004
0.085137151 0.081514291 0.634
0.08648096 0.081642866 0.63500005
0.087552384 0.081514291 0.634
0.088760003 0.081514291 0.634
0.089967623 0.081514291 0.634
0.091031432 0.081385717 0.63300002
0.092237152 0.081385717 0.63300002
0.093442865 0.081385717 0.63300002
0.094648577 0.081385717 0.63300002
0.09585429 0.081385717 0.63300002
0.097213343 0.081514291 0.634
0.098420955 0.081514291 0.634
0.04198667 0.085853338 0.65800005
0.043174289 0.085722864 0.65700001
0.044425718 0.085722864 0.65700001
0.045677144 0.085722864 0.65700001
0.046857145 0.085592389 0.65600002
0.048033338 0.085461907 0.65500003
0.049280956 0.085461907 0.65500003
0.050374288 0.085200958 0.65300006
0.051539052 0.085070483 0.65200001
0.052700002 0.084940009 0.65100002
0.05402286 0.085070483 0.65200001
0.055180002 0.084940009 0.65100002
0.056333337 0.084809527 0.65000004
0.057571433 0.084809527 0.65000004
0.058628574 0.084548578 0.648
0.05986286 0.084548578 0.648
0.061097145 0.084548578 0.648
0.062235244 0.084418103 0.64700001
0.063369527 0.084287621 0.64600003
0.064500004 0.084157147 0.64500004
0.065626673 0.084026672 0.64400005
0.066853337 0.084026672 0.64400005
0.067868575 0.083765723 0.64200002
0.069091432 0.083765723 0.64200002
0.070314288 0.083765723 0.64200002
0.071537144 0.083765723 0.64200002
0.072760008 0.083765723 0.64200002
0.073867626 0.083635241 0.64100003
0.07497143 0.083504766 0.64000005
0.076071434 0.083374292 0.63900006
0.077288575 0.083374292 0.63900006
0.078505717 0.083374292 0.63900006
0.079598099 0.083243817 0.63800001
0.080813341 0.083243817 0.63800001
0.082028575 0.083243817 0.63800001
0.082982861 0.082982861 0.63600004
0.084194288 0.082982861 0.63600004
0.085137151 0.082721911 0.634
0.086344771 0.082721911 0.634
0.087552384 0.082721911 0.634
0.088900007 0.082852386 0.63500005
0.089967623 0.082721911 0.634
0.091031432 0.082591437 0.63300002
0.092382863 0.082721911 0.634
0.093590483 0.082721911 0.634
0.094798103 0.082721911 0.634
0.096005723 0.082721911 0.634
0.097213343 0.082721911 0.634
0.098576196 0.082852386 0.63500005
0.10194953 0.083635241 0.64100003
0.042114288 0.087371431 0.66000003
0.043240003 0.087106675 0.65800005
0.044493336 0.087106675 0.65800005
0.045677144 0.086974293 0.65700001
0.046928573 0.086974293 0.65700001
0.04810667 0.086841911 0.65600002
0.049356192 0.086841911 0.65600002
0.050528575 0.086709529 0.65500003
0.051618099 0.086444765 0.65300006
0.052780956 0.086312383 0.65200001
0.05402286 0.086312383 0.65200001
0.055264767 0.086312383 0.65200001
0.056420002 0.086180009 0.65100002
0.057571433 0.086047627 0.65000004
0.058809526 0.086047627 0.65000004
0.05986286 0.085782863 0.648
0.061097145 0.085782863 0.648
0.062235244 0.085650481 0.64700001
0.063467622 0.085650481 0.64700001
0.064600006 0.085518099 0.64600003
0.065626673 0.085253336 0.64400005
0.066853337 0.085253336 0.64400005
0.068080008 0.085253336 0.64400005
0.069306672 0.085253336 0.64400005
0.070314288 0.084988579 0.64200002
0.071537144 0.084988579 0.64200002
0.072760008 0.084988579 0.64200002
0.073982865 0.084988579 0.64200002
0.075088575 0.084856197 0.64100003
0.076071434 0.084591433 0.63900006
0.077288575 0.084591433 0.63900006
0.078382865 0.084459051 0.63800001
0.079598099 0.084459051 0.63800001
0.080813341 0.084459051 0.63800001
0.082028575 0.084459051 0.63800001
0.082982861 0.084194288 0.63600004
0.084194288 0.084194288 0.63600004
0.085137151 0.083929531 0.634
0.086344771 0.083929531 0.634
0.087552384 0.083929531 0.634
0.088900007 0.084061913 0.63500005
0.089967623 0.083929531 0.634
0.091175243 0.083929531 0.634
0.092382863 0.083929531 0.634
0.093590483 0.083929531 0.634
0.094798103 0.083929531 0.634
0.096005723 0.083929531 0.634
0.097366676 0.084061913 0.63500005
0.098731436 0.084194288 0.63600004
0.10057144 0.084723815 0.64000005
0.10365334 0.085253336 0.64400005
0.038459051 0.088897146 0.66200006
0.042114288 0.088628575 0.66000003
0.043371432 0.088628575 0.66000003
0.044493336 0.088360004 0.65800005
0.045746669 0.088360004 0.65800005
0.046928573 0.088225722 0.65700001
0.048180003 0.088225722 0.65700001
0.049431432 0.088225722 0.65700001
0.050605718 0.088091433 0.65600002
0.051618099 0.08768858 0.65300006
0.052861907 0.08768858 0.65300006
0.054105718 0.08768858 0.65300006
0.055264767 0.087554291 0.65200001
0.056506671 0.087554291 0.65200001
0.057660002 0.087420009 0.65100002
0.058809526 0.08728572 0.65000004
0.060047623 0.08728572 0.65000004
0.061285719 0.08728572 0.65000004
0.062331434 0.087017149 0.648
0.063565716 0.087017149 0.648
0.064700007 0.086882859 0.64700001
0.065728575 0.086614288 0.64500004
0.066853337 0.086480007 0.64400005
0.068080008 0.086480007 0.64400005
0.069306672 0.086480007 0.64400005
0.070533335 0.086480007 0.64400005
0.071760006 0.086480007 0.64400005
0.07298667 0.086480007 0.64400005
0.073982865 0.086211435 0.64200002
0.075205721 0.086211435 0.64200002
0.076190479 0.085942864 0.64000005
0.077409528 0.085942864 0.64000005
0.078382865 0.085674293 0.63800001
0.079722859 0.085808575 0.63900006
0.080813341 0.085674293 0.63800001
0.082028575 0.085674293 0.63800001
0.083243817 0.085674293 0.63800001
0.084194288 0.085405722 0.63600004
0.085405722 0.085405722 0.63600004
0.08648096 0.085271433 0.63500005
0.08769048 0.085271433 0.63500005
0.088900007 0.085271433 0.63500005
0.089967623 0.085137151 0.634
0.091175243 0.085137151 0.634
0.092382863 0.085137151 0.634
0.093590483 0.085137151 0.634
0.094798103 0.085137151 0.634
0.096157148 0.085271433 0.63500005
0.097366676 0.085271433 0.63500005
0.099041909 0.085674293 0.63800001
0.10057144 0.085942864 0.64000005
0.10365334 0.086480007 0.64400005
0.038459051 0.090158097 0.66200006
0.039660003 0.090021908 0.66100001
0.040919051 0.090021908 0.66100001
0.042178098 0.090021908 0.66100001
0.043371432 0.089885719 0.66000003
0.044628575 0.089885719 0.66000003
0.045746669 0.089613341 0.65800005
0.046928573 0.089477152 0.65700001
0.048180003 0.089477152 0.65700001
0.049431432 0.089477152 0.65700001
0.050605718 0.089340955 0.65600002
0.051618099 0.088932388 0.65300006
0.052861907 0.088932388 0.65300006
0.054105718 0.088932388 0.65300006
0.055349529 0.088932388 0.65300006
0.056506671 0.088796198 0.65200001
0.057660002 0.088660009 0.65100002
0.058900002 0.088660009 0.65100002
0.060140003 0.088660009 0.65100002
0.061285719 0.088523813 0.65000004
0.062331434 0.088251434 0.648
0.063565716 0.088251434 0.648
0.064700007 0.088115245 0.64700001
0.065830484 0.087979056 0.64600003
0.066957146 0.087842859 0.64500004
0.068185717 0.087842859 0.64500004
0.069414288 0.087842859 0.64500004
0.070642859 0.087842859 0.64500004
0.071760006 0.08770667 0.64400005
0.07298667 0.08770667 0.64400005
0.073982865 0.087434292 0.64200002
0.075205721 0.087434292 0.64200002
0.076309532 0.087298103 0.64100003
0.077409528 0.087161914 0.64000005
0.078628577 0.087161914 0.64000005
0.079722859 0.087025717 0.63900006
0.080813341 0.086889528 0.63800001
0.082028575 0.086889528 0.63800001
0.083243817 0.086889528 0.63800001
0.084194288 0.086617149 0.63600004
0.085405722 0.086617149 0.63600004
0.08648096 0.08648096 0.63500005
0.08769048 0.08648096 0.63500005
0.088900007 0.08648096 0.63500005
0.089967623 0.086344771 0.634
0.091175243 0.086344771 0.634
0.092382863 0.086344771 0.634
0.093590483 0.086344771 0.634
0.094798103 0.086344771 0.634
0.096157148 0.08648096 0.63500005
0.097520009 0.086617149 0.63600004
0.098731436 0.086617149 0.63600004
0.10041429 0.087025717 0.63900006
0.10194953 0.087298103 0.64100003
0.10365334 0.08770667 0.64400005
0.038459051 0.091419056 0.66200006
0.039660003 0.09128096 0.66100001
0.040919051 0.09128096 0.66100001
0.042178098 0.09128096 0.66100001
0.043437146 0.09128096 0.66100001
0.044628575 0.091142863 0.66000003
0.045885716 0.091142863 0.66000003
0.047000002 0.09086667 0.65800005
0.048180003 0.090728581 0.65700001
0.049431432 0.090728581 0.65700001
0.050605718 0.090590484 0.65600002
0.051776193 0.090452388 0.65500003
0.052861907 0.090176195 0.65300006
0.054105718 0.090176195 0.65300006
0.055349529 0.090176195 0.65300006
0.056506671 0.090038098 0.65200001
0.057748575 0.090038098 0.65200001
0.058900002 0.089900009 0.65100002
0.060140003 0.089900009 0.65100002
0.061380003 0.089900009 0.65100002
0.062523812 0.089761913 0.65000004
0.063565716 0.08948572 0.648
0.064800002 0.08948572 0.648
0.065932386 0.089347623 0.64700001
0.067060955 0.089209527 0.64600003
0.068291433 0.089209527 0.64600003
0.069521911 0.089209527 0.64600003
0.070752382 0.089209527 0.64600003
0.071760006 0.088933341 0.64400005
0.07298667 0.088933341 0.64400005
0.074213341 0.088933341 0.64400005
0.075205721 0.088657148 0.64200002
0.076428577 0.088657148 0.64200002
0.077530481 0.088519052 0.64100003
0.078628577 0.088380955 0.64000005
0.079722859 0.088242866 0.63900006
0.080940008 0.088242866 0.63900006
0.082028575 0.08810477 0.63800001
0.083243817 0.08810477 0.63800001
0.084459051 0.08810477 0.63800001
0.085405722 0.087828577 0.63600004
0.08648096 0.08769048 0.63500005
0.08769048 0.08769048 0.63500005
0.088900007 0.08769048 0.63500005
0.090109527 0.08769048 0.63500005
0.091319054 0.08769048 0.63500005
0.092528574 0.08769048 0.63500005
0.093738101 0.08769048 0.63500005
0.094947629 0.08769048 0.63500005
0.096308574 0.087828577 0.63600004
0.097826675 0.08810477 0.63800001
0.098731436 0.087828577 0.63600004
0.10041429 0.088242866 0.63900006
0.10194953 0.088519052 0.64100003
0.038459051 0.092680007 0.66200006
0.039720003 0.092680007 0.66200006
0.040980954 0.092680007 0.66200006
0.042241909 0.092680007 0.66200006
0.043437146 0.092540003 0.66100001
0.044696193 0.092540003 0.66100001
0.045955241 0.092540003 0.66100001
0.047000002 0.092120007 0.65800005
0.048180003 0.091980003 0.65700001
0.049431432 0.091980003 0.65700001
0.050605718 0.091840006 0.65600002
0.051776193 0.091700003 0.65500003
0.053023811 0.091700003 0.65500003
0.054105718 0.091420002 0.65300006
0.055349529 0.091420002 0.65300006
0.056593336 0.091420002 0.65300006
0.057748575 0.091280006 0.65200001
0.058990479 0.091280006 0.65200001
0.060232386 0.091280006 0.65200001
0.061380003 0.091140009 0.65100002
0.062523812 0.091000006 0.65000004
0.063761912 0.091000006 0.65000004
0.064800002 0.090720005 0.648
0.065932386 0.090580009 0.64700001
0.067060955 0.090440005 0.64600003
0.068291433 0.090440005 0.64600003
0.069414288 0.090300009 0.64500004
0.070642859 0.090300009 0.64500004
0.07187143 0.090300009 0.64500004
0.07298667 0.090160005 0.64400005
0.074213341 0.090160005 0.64400005
0.075440004 0.090160005 0.64400005
0.076428577 0.089880005 0.64200002
0.077651434 0.089880005 0.64200002
0.078751437 0.089740008 0.64100003
0.079847626 0.089600004 0.64000005
0.081066675 0.089600004 0.64000005
0.08215715 0.089460008 0.63900006
0.083243817 0.089320004 0.63800001
0.084459051 0.089320004 0.63800001
0.085674293 0.089320004 0.63800001
0.086617149 0.089040004 0.63600004
0.087828577 0.089040004 0.63600004
0.089040004 0.089040004 0.63600004
0.090251431 0.089040004 0.63600004
0.091462865 0.089040004 0.63600004
0.092674293 0.089040004 0.63600004
0.093738101 0.088900007 0.63500005
0.095097147 0.089040004 0.63600004
0.096611433 0.089320004 0.63800001
0.097826675 0.089320004 0.63800001
0.099041909 0.089320004 0.63800001
0.10041429 0.089460008 0.63900006
0.037254289 0.094082862 0.66300005
0.038517144 0.094082862 0.66300005
0.039720003 0.093940958 0.66200006
0.041042861 0.094082862 0.66300005
0.042241909 0.093940958 0.66200006
0.04350286 0.093940958 0.66200006
0.044763811 0.093940958 0.66200006
0.045955241 0.093799055 0.66100001
0.047000002 0.093373336 0.65800005
0.048253335 0.093373336 0.65800005
0.049431432 0.093231432 0.65700001
0.050605718 0.093089528 0.65600002
0.051776193 0.092947625 0.65500003
0.053023811 0.092947625 0.65500003
0.054271434 0.092947625 0.65500003
0.055519052 0.092947625 0.65500003
0.05676667 0.092947625 0.65500003
0.057837147 0.092663817 0.65300006
0.058990479 0.092521913 0.65200001
0.060232386 0.092521913 0.65200001
0.06147429 0.092521913 0.65200001
0.062620007 0.09238001 0.65100002
0.063761912 0.092238098 0.65000004
0.064800002 0.091954291 0.648
0.066034287 0.091954291 0.648
0.067164764 0.091812387 0.64700001
0.068397149 0.091812387 0.64700001
0.069521911 0.091670483 0.64600003
0.070752382 0.091670483 0.64600003
0.07187143 0.09152858 0.64500004
0.073100008 0.09152858 0.64500004
0.074213341 0.091386676 0.64400005
0.075440004 0.091386676 0.64400005
0.076428577 0.091102861 0.64200002
0.077651434 0.091102861 0.64200002
0.078751437 0.090960957 0.64100003
0.079972386 0.090960957 0.64100003
0.080940008 0.09067715 0.63900006
0.08215715 0.09067715 0.63900006
0.083243817 0.090535246 0.63800001
0.084459051 0.090535246 0.63800001
0.085674293 0.090535246 0.63800001
0.086889528 0.090535246 0.63800001
0.087828577 0.090251431 0.63600004
0.089320004 0.090535246 0.63800001
0.090251431 0.090251431 0.63600004
0.091462865 0.090251431 0.63600004
0.092674293 0.090251431 0.63600004
0.09388572 0.090251431 0.63600004
0.095097147 0.090251431 0.63600004
0.096611433 0.090535246 0.63800001
0.097826675 0.090535246 0.63800001
0.099041909 0.090535246 0.63800001
0.10041429 0.09067715 0.63900006
0.037254289 0.095345721 0.66300005
0.038517144 0.095345721 0.66300005
0.039720003 0.09520191 0.66200006
0.040980954 0.09520191 0.66200006
0.042241909 0.09520191 0.66200006
0.04350286 0.09520191 0.66200006
0.044763811 0.09520191 0.66200006
0.045955241 0.095058098 0.66100001
0.047214288 0.095058098 0.66100001
0.048253335 0.094626673 0.65800005
0.049431432 0.094482861 0.65700001
0.050682861 0.094482861 0.65700001
0.05185524 0.09433905 0.65600002
0.053104766 0.09433905 0.65600002
0.054271434 0.094195247 0.65500003
0.055519052 0.094195247 0.65500003
0.05676667 0.094195247 0.65500003
0.057837147 0.093907624 0.65300006
0.058990479 0.093763813 0.65200001
0.060232386 0.093763813 0.65200001
0.06147429 0.093763813 0.65200001
0.062620007 0.09362001 0.65100002
0.063761912 0.093476199 0.65000004
0.065000005 0.093476199 0.65000004
0.066034287 0.093188576 0.648
0.067164764 0.093044765 0.64700001
0.068397149 0.093044765 0.64700001
0.069629528 0.093044765 0.64700001
0.070861906 0.093044765 0.64700001
0.071982861 0.092900962 0.64600003
0.073100008 0.092757151 0.64500004
0.074328579 0.092757151 0.64500004
0.07555715 0.092757151 0.64500004
0.076666668 0.092613339 0.64400005
0.077651434 0.092325717 0.64200002
0.07887429 0.092325717 0.64200002
0.079972386 0.092181914 0.64100003
0.081066675 0.092038102 0.64000005
0.08215715 0.091894291 0.63900006
0.083374292 0.091894291 0.63900006
0.084591433 0.091894291 0.63900006
0.085674293 0.09175048 0.63800001
0.086889528 0.09175048 0.63800001
0.08810477 0.09175048 0.63800001
0.089320004 0.09175048 0.63800001
0.090251431 0.091462865 0.63600004
0.09175048 0.09175048 0.63800001
0.092965722 0.09175048 0.63800001
0.09388572 0.091462865 0.63600004
0.095097147 0.091462865 0.63600004
0.096611433 0.09175048 0.63800001
0.097826675 0.09175048 0.63800001
0.099041909 0.09175048 0.63800001
0.10041429 0.091894291 0.63900006
0.03747905 0.097191438 0.66700006
0.038517144 0.096608579 0.66300005
0.039780002 0.096608579 0.66300005
0.041042861 0.096608579 0.66300005
0.042305715 0.096608579 0.66300005
0.04350286 0.096462861 0.66200006
0.044763811 0.096462861 0.66200006
0.046024766 0.096462861 0.66200006
0.047285717 0.096462861 0.66200006
0.048400003 0.096171431 0.66000003
0.049506672 0.095880009 0.65800005
0.050760005 0.095880009 0.65800005
0.051934291 0.095734291 0.65700001
0.053185716 0.095734291 0.65700001
0.054354288 0.09558858 0.65600002
0.055603813 0.09558858 0.65600002
0.05676667 0.095442861 0.65500003
0.057837147 0.095151432 0.65300006
0.059080955 0.095151432 0.65300006
0.060232386 0.095005721 0.65200001
0.06147429 0.095005721 0.65200001
0.062620007 0.09486001 0.65100002
0.063860007 0.09486001 0.65100002
0.065000005 0.094714291 0.65000004
0.066238098 0.094714291 0.65000004
0.067268573 0.094422862 0.648
0.068502858 0.094422862 0.648
0.069737144 0.094422862 0.648
0.070861906 0.094277151 0.64700001
0.072094291 0.094277151 0.64700001
0.073213339 0.094131432 0.64600003
0.074559055 0.094277151 0.64700001
0.075674288 0.094131432 0.64600003
0.076785721 0.093985721 0.64500004
0.077893339 0.093840003 0.64400005
0.079120003 0.093840003 0.64400005
0.080097146 0.093548581 0.64200002
0.081193335 0.093402863 0.64100003
0.082414292 0.093402863 0.64100003
0.083504766 0.093257152 0.64000005
0.084591433 0.093111433 0.63900006
0.085808575 0.093111433 0.63900006
0.087025717 0.093111433 0.63900006
0.08810477 0.092965722 0.63800001
0.089320004 0.092965722 0.63800001
0.090535246 0.092965722 0.63800001
0.09175048 0.092965722 0.63800001
0.092965722 0.092965722 0.63800001
0.094180956 0.092965722 0.63800001
0.095097147 0.092674293 0.63600004
0.096611433 0.092965722 0.63800001
0.097826675 0.092965722 0.63800001
0.099041909 0.092965722 0.63800001
0.10041429 0.093111433 0.63900006
0.10115429 0.092674293 0.63600004
0.10220477 0.092528574 0.63500005
0.03747905 0.098461911 0.66700006
0.038691431 0.098314293 0.66600001
0.039780002 0.097871438 0.66300005
0.041042861 0.097871438 0.66300005
0.042305715 0.097871438 0.66300005
0.043568574 0.097871438 0.66300005
0.044831432 0.097871438 0.66300005
0.046094287 0.097871438 0.66300005
0.047285717 0.097723819 0.66200006
0.048473336 0.097576194 0.66100001
0.049506672 0.097133338 0.65800005
0.050760005 0.097133338 0.65800005
0.051934291 0.09698572 0.65700001
0.053185716 0.09698572 0.65700001
0.054437146 0.09698572 0.65700001
0.055603813 0.096838102 0.65600002
0.056853335 0.096838102 0.65600002
0.057837147 0.096395247 0.65300006
0.059080955 0.096395247 0.65300006
0.060324766 0.096395247 0.65300006
0.06147429 0.096247628 0.65200001
0.062716193 0.096247628 0.65200001
0.063860007 0.09610001 0.65100002
0.065100007 0.09610001 0.65100002
0.066238098 0.095952384 0.65000004
0.067476198 0.095952384 0.65000004
0.068502858 0.095657147 0.648
0.069737144 0.095657147 0.648
0.070971437 0.095657147 0.648
0.072205722 0.095657147 0.648
0.07332667 0.095509529 0.64700001
0.074559055 0.095509529 0.64700001
0.075791433 0.095509529 0.64700001
0.076904766 0.095361911 0.64600003
0.077893339 0.095066674 0.64400005
0.079120003 0.095066674 0.64400005
0.080346674 0.095066674 0.64400005
0.081320003 0.094771437 0.64200002
0.082414292 0.094623819 0.64100003
0.083635241 0.094623819 0.64100003
0.084723815 0.094476193 0.64000005
0.085942864 0.094476193 0.64000005
0.087025717 0.094328575 0.63900006
0.088242866 0.094328575 0.63900006
0.089460008 0.094328575 0.63900006
0.09067715 0.094328575 0.63900006
0.09175048 0.094180956 0.63800001
0.092965722 0.094180956 0.63800001
0.094180956 0.094180956 0.63800001
0.095396198 0.094180956 0.63800001
0.096611433 0.094180956 0.63800001
0.097826675 0.094180956 0.63800001
0.099041909 0.094180956 0.63800001
0.10041429 0.094328575 0.63900006
0.10115429 0.09388572 0.63600004
0.10220477 0.093738101 0.63500005
0.038633335 0.09943334 0.66500002
0.039900001 0.09943334 0.66500002
0.041228574 0.099582866 0.66600001
0.042497147 0.099582866 0.66600001
0.043765716 0.099582866 0.66600001
0.044966668 0.09943334 0.66500002
0.046233337 0.09943334 0.66500002
0.047357146 0.099134289 0.66300005
0.048620004 0.099134289 0.66300005
0.049732383 0.098835245 0.66100001
0.050991431 0.098835245 0.66100001
0.052171431 0.098685719 0.66000003
0.053266671 0.098386675 0.65800005
0.054520003 0.098386675 0.65800005
0.055688575 0.098237149 0.65700001
0.056940004 0.098237149 0.65700001
0.058014289 0.097938098 0.65500003
0.059261907 0.097938098 0.65500003
0.060324766 0.097639054 0.65300006
0.061568577 0.097639054 0.65300006
0.062812388 0.097639054 0.65300006
0.063958101 0.097489528 0.65200001
0.065200001 0.097489528 0.65200001
0.066441908 0.097489528 0.65200001
0.067683816 0.097489528 0.65200001
0.068820007 0.09734001 0.65100002
0.070060007 0.09734001 0.65100002
0.071190484 0.097190484 0.65000004
0.072428577 0.097190484 0.65000004
0.073440008 0.096891433 0.648
0.074674293 0.096891433 0.648
0.075908579 0.096891433 0.648
0.077023812 0.096741915 0.64700001
0.078135245 0.096592389 0.64600003
0.079365723 0.096592389 0.64600003
0.080471434 0.096442863 0.64500004
0.081573337 0.096293338 0.64400005
0.082542859 0.095994294 0.64200002
0.083765723 0.095994294 0.64200002
0.084856197 0.095844768 0.64100003
0.086077146 0.095844768 0.64100003
0.087298103 0.095844768 0.64100003
0.088519052 0.095844768 0.64100003
0.089600004 0.095695242 0.64000005
0.09067715 0.095545724 0.63900006
0.091894291 0.095545724 0.63900006
0.093111433 0.095545724 0.63900006
0.094328575 0.095545724 0.63900006
0.095545724 0.095545724 0.63900006
0.096611433 0.095396198 0.63800001
0.097980008 0.095545724 0.63900006
0.099197149 0.095545724 0.63900006
0.038691431 0.10085143 0.66600001
0.039960004 0.10085143 0.66600001
0.041228574 0.10085143 0.66600001
0.042497147 0.10085143 0.66600001
0.043765716 0.10085143 0.66600001
0.045034289 0.10085143 0.66600001
0.046302859 0.10085143 0.66600001
0.047500003 0.10070001 0.66500002
0.048546668 0.10024572 0.66200006
0.049732383 0.10009429 0.66100001
0.050991431 0.10009429 0.66100001
0.052250478 0.10009429 0.66100001
0.053428575 0.099942863 0.66000003
0.054685719 0.099942863 0.66000003
0.055773336 0.099640004 0.65800005
0.056940004 0.099488579 0.65700001
0.058191434 0.099488579 0.65700001
0.059352383 0.099337146 0.65600002
0.060509529 0.09918572 0.65500003
0.061568577 0.098882861 0.65300006
0.062812388 0.098882861 0.65300006
0.064056195 0.098882861 0.65300006
0.065300003 0.098882861 0.65300006
0.066441908 0.098731436 0.65200001
0.067683816 0.098731436 0.65200001
0.068820007 0.098580003 0.65100002
0.070167623 0.098731436 0.65200001
0.071300007 0.098580003 0.65100002
0.072540008 0.098580003 0.65100002
0.073666669 0.098428577 0.65000004
0.07490477 0.098428577 0.65000004
0.075908579 0.098125719 0.648
0.077142864 0.098125719 0.648
0.078256197 0.097974293 0.64700001
0.079488575 0.097974293 0.64700001
0.080596194 0.09782286 0.64600003
0.081573337 0.097520009 0.64400005
0.082800008 0.097520009 0.64400005
0.083765723 0.09721715 0.64200002
0.084988579 0.09721715 0.64200002
0.086077146 0.097065717 0.64100003
0.087434292 0.09721715 0.64200002
0.088519052 0.097065717 0.64100003
0.089740008 0.097065717 0.64100003
0.090960957 0.097065717 0.64100003
0.092038102 0.096914291 0.64000005
0.093257152 0.096914291 0.64000005
0.094476193 0.096914291 0.64000005
0.095545724 0.096762866 0.63900006
0.096762866 0.096762866 0.63900006
0.097980008 0.096762866 0.63900006
0.099197149 0.096762866 0.63900006
0.10072858 0.097065717 0.64100003
0.039960004 0.10212 0.66600001
0.041290481 0.10227334 0.66700006
0.042560954 0.10227334 0.66700006
0.04383143 0.10227334 0.66700006
0.045034289 0.10212 0.66600001
0.046302859 0.10212 0.66600001
0.047500003 0.10196667 0.66500002
0.048766669 0.10196667 0.66500002
0.049807623 0.10150667 0.66200006
0.051068574 0.10150667 0.66200006
0.052329529 0.10150667 0.66200006
0.053509526 0.10135334 0.66100001
0.054768573 0.10135334 0.66100001
0.055773336 0.10089334 0.65800005
0.057026669 0.10089334 0.65800005
0.058191434 0.10074001 0.65700001
0.059442863 0.10074001 0.65700001
0.060601909 0.10058668 0.65600002
0.061757147 0.10043334 0.65500003
0.063004769 0.10043334 0.65500003
0.064252384 0.10043334 0.65500003
0.065300003 0.10012668 0.65300006
0.066543818 0.10012668 0.65300006
0.067787625 0.10012668 0.65300006
0.068925716 0.099973343 0.65200001
0.070167623 0.099973343 0.65200001
0.071409531 0.099973343 0.65200001
0.072651431 0.099973343 0.65200001
0.073780008 0.099820003 0.65100002
0.07490477 0.09966667 0.65000004
0.076142862 0.09966667 0.65000004
0.077142864 0.099360004 0.648
0.07837715 0.099360004 0.648
0.079488575 0.099206671 0.64700001
0.080720961 0.099206671 0.64700001
0.081826672 0.099053338 0.64600003
0.082928576 0.098900005 0.64500004
0.084026672 0.098746672 0.64400005
0.085253336 0.098746672 0.64400005
0.086211435 0.098440006 0.64200002
0.087434292 0.098440006 0.64200002
0.088657148 0.098440006 0.64200002
0.089880005 0.098440006 0.64200002
0.090960957 0.098286673 0.64100003
0.092325717 0.098440006 0.64200002
0.093548581 0.098440006 0.64200002
0.094771437 0.098440006 0.64200002
0.095844768 0.098286673 0.64100003
0.097065717 0.098286673 0.64100003
0.098286673 0.098286673 0.64100003
0.099507622 0.098286673 0.64100003
0.10072858 0.098286673 0.64100003
0.040020004 0.10354382 0.66700006
0.041290481 0.10354382 0.66700006
0.042560954 0.10354382 0.66700006
0.04383143 0.10354382 0.66700006
0.045101907 0.10354382 0.66700006
0.046372384 0.10354382 0.66700006
0.047571432 0.10338858 0.66600001
0.048840005 0.10338858 0.66600001
0.050033338 0.10323334 0.66500002
0.051068574 0.10276762 0.66200006
0.052329529 0.10276762 0.66200006
0.05359048 0.10276762 0.66200006
0.054851431 0.10276762 0.66200006
0.056027621 0.10261239 0.66100001
0.057200003 0.10245715 0.66000003
0.058280002 0.10214667 0.65800005
0.059533339 0.10214667 0.65800005
0.060694288 0.10199144 0.65700001
0.061945718 0.10199144 0.65700001
0.063197143 0.10199144 0.65700001
0.064350478 0.1018362 0.65600002
0.065500006 0.10168096 0.65500003
0.066543818 0.10137048 0.65300006
0.067787625 0.10137048 0.65300006
0.069031432 0.10137048 0.65300006
0.070167623 0.10121524 0.65200001
0.071409531 0.10121524 0.65200001
0.072651431 0.10121524 0.65200001
0.073780008 0.10106 0.65100002
0.075020008 0.10106 0.65100002
0.076142862 0.10090477 0.65000004
0.077380955 0.10090477 0.65000004
0.07837715 0.10059429 0.648
0.079611436 0.10059429 0.648
0.080720961 0.10043906 0.64700001
0.081953339 0.10043906 0.64700001
0.083185717 0.10043906 0.64700001
0.084287621 0.10028382 0.64600003
0.085518099 0.10028382 0.64600003
0.086614288 0.10012858 0.64500004
0.08770667 0.099973343 0.64400005
0.088933341 0.099973343 0.64400005
0.090160005 0.099973343 0.64400005
0.091102861 0.099662863 0.64200002
0.092325717 0.099662863 0.64200002
0.093548581 0.099662863 0.64200002
0.094771437 0.099662863 0.64200002
0.095994294 0.099662863 0.64200002
0.09721715 0.099662863 0.64200002
0.098440006 0.099662863 0.64200002
0.099662863 0.099662863 0.64200002
0.10088572 0.099662863 0.64200002
0.040020004 0.10481429 0.66700006
0.041414287 0.10512858 0.66900003
0.042688575 0.10512858 0.66900003
0.04383143 0.10481429 0.66700006
0.045101907 0.10481429 0.66700006
0.046372384 0.10481429 0.66700006
0.047642861 0.10481429 0.66700006
0.048840005 0.10465715 0.66600001
0.050033338 0.1045 0.66500002
0.051300004 0.1045 0.66500002
0.052408576 0.10418572 0.66300005
0.05359048 0.10402858 0.66200006
0.054851431 0.10402858 0.66200006
0.056027621 0.10387143 0.66100001
0.057286669 0.10387143 0.66100001
0.058457147 0.10371429 0.66000003
0.059533339 0.10340001 0.65800005
0.060786672 0.10340001 0.65800005
0.062040005 0.10340001 0.65800005
0.063197143 0.10324287 0.65700001
0.064448573 0.10324287 0.65700001
0.065600008 0.10308572 0.65600002
0.06684953 0.10308572 0.65600002
0.067787625 0.10261429 0.65300006
0.069242865 0.10292858 0.65500003
0.07027524 0.10261429 0.65300006
0.071519054 0.10261429 0.65300006
0.072651431 0.10245715 0.65200001
0.073893338 0.10245715 0.65200001
0.075020008 0.1023 0.65100002
0.076260008 0.1023 0.65100002
0.077380955 0.10214286 0.65000004
0.078619055 0.10214286 0.65000004
0.079611436 0.10182858 0.648
0.080845721 0.10182858 0.648
0.081953339 0.10167143 0.64700001
0.083185717 0.10167143 0.64700001
0.084418103 0.10167143 0.64700001
0.085518099 0.10151429 0.64600003
0.086614288 0.10135715 0.64500004
0.087842859 0.10135715 0.64500004
0.088933341 0.10120001 0.64400005
0.090160005 0.10120001 0.64400005
0.091386676 0.10120001 0.64400005
0.092325717 0.10088572 0.64200002
0.093548581 0.10088572 0.64200002
0.094771437 0.10088572 0.64200002
0.095994294 0.10088572 0.64200002
0.09721715 0.10088572 0.64200002
0.098440006 0.10088572 0.64200002
0.099662863 0.10088572 0.64200002
0.10088572 0.10088572 0.64200002
0.041414287 0.10640287 0.66900003
0.042688575 0.10640287 0.66900003
0.043962859 0.10640287 0.66900003
0.045237146 0.10640287 0.66900003
0.04651143 0.10640287 0.66900003
0.047642861 0.10608477 0.66700006
0.048913337 0.10608477 0.66700006
0.050183814 0.10608477 0.66700006
0.051300004 0.10576668 0.66500002
0.052408576 0.10544858 0.66300005
0.05359048 0.10528953 0.66200006
0.054851431 0.10528953 0.66200006
0.056027621 0.10513049 0.66100001
0.057286669 0.10513049 0.66100001
0.058457147 0.10497144 0.66000003
0.059714291 0.10497144 0.66000003
0.060786672 0.10465334 0.65800005
0.062040005 0.10465334 0.65800005
0.063293338 0.10465334 0.65800005
0.064448573 0.1044943 0.65700001
0.065600008 0.10433525 0.65600002
0.06684953 0.10433525 0.65600002
0.068099052 0.10433525 0.65600002
0.069348574 0.10433525 0.65600002
0.070490479 0.1041762 0.65500003
0.071738102 0.1041762 0.65500003
0.072762862 0.1038581 0.65300006
0.074006669 0.1038581 0.65300006
0.075250484 0.1038581 0.65300006
0.076377146 0.10369905 0.65200001
0.077500008 0.10354 0.65100002
0.078740008 0.10354 0.65100002
0.079611436 0.10306286 0.648
0.080845721 0.10306286 0.648
0.081953339 0.10290381 0.64700001
0.083314292 0.10306286 0.648
0.084418103 0.10290381 0.64700001
0.085650481 0.10290381 0.64700001
0.086748578 0.10274477 0.64600003
0.087842859 0.10258572 0.64500004
0.088933341 0.10242667 0.64400005
0.090160005 0.10242667 0.64400005
0.091386676 0.10242667 0.64400005
0.092613339 0.10242667 0.64400005
0.093840003 0.10242667 0.64400005
0.095066674 0.10242667 0.64400005
0.096293338 0.10242667 0.64400005
0.097520009 0.10242667 0.64400005
0.098746672 0.10242667 0.64400005
0.099662863 0.10210858 0.64200002
0.10088572 0.10210858 0.64200002
0.041476194 0.1078381 0.67000002
0.042752385 0.1078381 0.67000002
0.043962859 0.10767715 0.66900003
0.045237146 0.10767715 0.66900003
0.04651143 0.10767715 0.66900003
0.047785718 0.10767715 0.66900003
0.048913337 0.10735524 0.66700006
0.050183814 0.10735524 0.66700006
0.051377147 0.10719429 0.66600001
0.05256667 0.10703334 0.66500002
0.053671431 0.10671143 0.66300005
0.054851431 0.10655048 0.66200006
0.056112386 0.10655048 0.66200006
0.057286669 0.10638953 0.66100001
0.05854572 0.10638953 0.66100001
0.059804767 0.10638953 0.66100001
0.060971431 0.10622858 0.66000003
0.062228575 0.10622858 0.66000003
0.063293338 0.10590667 0.65800005
0.064546674 0.10590667 0.65800005
0.065700002 0.10574572 0.65700001
0.066951431 0.10574572 0.65700001
0.068202861 0.10574572 0.65700001
0.069348574 0.10558477 0.65600002
0.070598103 0.10558477 0.65600002
0.071847625 0.10558477 0.65600002
0.072762862 0.10510191 0.65300006
0.074006669 0.10510191 0.65300006
0.075250484 0.10510191 0.65300006
0.076377146 0.10494096 0.65200001
0.077619053 0.10494096 0.65200001
0.078740008 0.10478 0.65100002
0.079980008 0.10478 0.65100002
0.081220008 0.10478 0.65100002
0.082080007 0.10429715 0.648
0.083185717 0.1041362 0.64700001
0.084418103 0.1041362 0.64700001
0.085650481 0.1041362 0.64700001
0.086748578 0.10397524 0.64600003
0.087842859 0.10381429 0.64500004
0.089071438 0.10381429 0.64500004
0.090160005 0.10365334 0.64400005
0.09152858 0.10381429 0.64500004
0.092757151 0.10381429 0.64500004
0.093840003 0.10365334 0.64400005
0.095066674 0.10365334 0.64400005
0.096293338 0.10365334 0.64400005
0.097520009 0.10365334 0.64400005
0.098746672 0.10365334 0.64400005
0.099973343 0.10365334 0.64400005
0.10120001 0.10365334 0.64400005
0.041476194 0.10911429 0.67000002
0.042752385 0.10911429 0.67000002
0.043962859 0.10895143 0.66900003
0.045237146 0.10895143 0.66900003
0.04651143 0.10895143 0.66900003
0.047785718 0.10895143 0.66900003
0.049060002 0.10895143 0.66900003
0.050183814 0.10862572 0.66700006
0.051377147 0.10846286 0.66600001
0.05256667 0.10830001 0.66500002
0.053671431 0.10797429 0.66300005
0.054851431 0.10781144 0.66200006
0.056112386 0.10781144 0.66200006
0.057286669 0.10764858 0.66100001
0.05854572 0.10764858 0.66100001
0.059804767 0.10764858 0.66100001
0.061063815 0.10764858 0.66100001
0.062322862 0.10764858 0.66100001
0.063485719 0.10748572 0.66000003
0.064546674 0.10716001 0.65800005
0.065800004 0.10716001 0.65800005
0.066951431 0.10699715 0.65700001
0.068202861 0.10699715 0.65700001
0.06945429 0.10699715 0.65700001
0.070705719 0.10699715 0.65700001
0.071847625 0.10683429 0.65600002
0.073097147 0.10683429 0.65600002
0.074346669 0.10683429 0.65600002
0.07548096 0.10667144 0.65500003
0.076494291 0.10634572 0.65300006
0.077619053 0.10618287 0.65200001
0.078860961 0.10618287 0.65200001
0.080102861 0.10618287 0.65200001
0.081344768 0.10618287 0.65200001
0.082333341 0.10585715 0.65000004
0.083314292 0.10553144 0.648
0.084548578 0.10553144 0.648
0.085650481 0.10536858 0.64700001
0.086882859 0.10536858 0.64700001
0.087979056 0.10520572 0.64600003
0.089071438 0.10504287 0.64500004
0.090160005 0.10488001 0.64400005
0.09152858 0.10504287 0.64500004
0.092757151 0.10504287 0.64500004
0.093985721 0.10504287 0.64500004
0.095066674 0.10488001 0.64400005
0.096293338 0.10488001 0.64400005
0.097671434 0.10504287 0.64500004
0.098900005 0.10504287 0.64500004
0.099973343 0.10488001 0.64400005
0.10120001 0.10488001 0.64400005
0.041476194 0.11039048 0.67000002
0.042752385 0.11039048 0.67000002
0.044028573 0.11039048 0.67000002
0.045237146 0.11022572 0.66900003
0.04651143 0.11022572 0.66900003
0.047785718 0.11022572 0.66900003
0.049060002 0.11022572 0.66900003
0.05033429 0.11022572 0.66900003
0.051454291 0.1098962 0.66700006
0.05256667 0.10956667 0.66500002
0.053671431 0.10923715 0.66300005
0.054934289 0.10923715 0.66300005
0.056112386 0.10907239 0.66200006
0.057373337 0.10907239 0.66200006
0.058634289 0.10907239 0.66200006
0.059895243 0.10907239 0.66200006
0.061156195 0.10907239 0.66200006
0.062417146 0.10907239 0.66200006
0.063678101 0.10907239 0.66200006
0.064840958 0.10890763 0.66100001
0.066000007 0.10874286 0.66000003
0.06705334 0.10841334 0.65800005
0.068202861 0.10824858 0.65700001
0.06945429 0.10824858 0.65700001
0.070705719 0.10824858 0.65700001
0.071957149 0.10824858 0.65700001
0.073097147 0.10808381 0.65600002
0.074346669 0.10808381 0.65600002
0.075596198 0.10808381 0.65600002
0.076494291 0.10758953 0.65300006
0.077738099 0.10758953 0.65300006
0.078860961 0.10742477 0.65200001
0.080102861 0.10742477 0.65200001
0.081344768 0.10742477 0.65200001
0.082586668 0.10742477 0.65200001
0.083571434 0.10709524 0.65000004
0.084548578 0.10676572 0.648
0.085782863 0.10676572 0.648
0.087017149 0.10676572 0.648
0.088115245 0.10660096 0.64700001
0.089209527 0.1064362 0.64600003
