# .PCD v0.7 - Point Cloud Data file format
VERSION 0.7
FIELDS x y z
SIZE 4 4 4
TYPE F F F
COUNT 1 1 1
WIDTH 1371
HEIGHT 1
VIEWPOINT 0 0 0 1 0 0 0
POINTS 1371
DATA ascii
-0.11123144 0.053989526 0.68300003
-0.10993049 0.053989526 0.68300003
-0.10862953 0.053989526 0.68300003
-0.10748572 0.054068577 0.68400002
-0.10618287 0.054068577 0.68400002
-0.10488001 0.054068577 0.68400002
-0.10357715 0.054068577 0.68400002
-0.10257334 0.05422667 0.68600005
-0.10126667 0.05422667 0.68600005
-0.10010572 0.054305717 0.68700004
-0.09879715 0.054305717 0.68700004
-0.097488575 0.054305717 0.68700004
-0.096180007 0.054305717 0.68700004
-0.094871432 0.054305717 0.68700004
-0.093835242 0.054463815 0.68900001
-0.09252286 0.054463815 0.68900001
-0.091342866 0.054542862 0.69000006
-0.090159051 0.054621909 0.69100004
-0.088842861 0.054621909 0.69100004
-0.14356953 0.054723814 0.67600006
-0.14228192 0.054723814 0.67600006
-0.1409943 0.054723814 0.67600006
-0.13970667 0.054723814 0.67600006
-0.13841906 0.054723814 0.67600006
-0.13753715 0.054885719 0.67800003
-0.13624573 0.054885719 0.67800003
-0.13495429 0.054885719 0.67800003
-0.13386001 0.05496667 0.67900002
-0.13237144 0.054885719 0.67800003
-0.13127334 0.05496667 0.67900002
-0.12978858 0.054885719 0.67800003
-0.12868668 0.05496667 0.67900002
-0.12739334 0.05496667 0.67900002
-0.1261 0.05496667 0.67900002
-0.12480667 0.05496667 0.67900002
-0.12369525 0.055047624 0.68000001
-0.12240001 0.055047624 0.68000001
-0.12110477 0.055047624 0.68000001
-0.11980953 0.055047624 0.68000001
-0.11851429 0.055047624 0.68000001
-0.11756381 0.055209529 0.68200004
-0.11626477 0.055209529 0.68200004
-0.11513429 0.055290479 0.68300003
-0.11400001 0.055371433 0.68400002
-0.11253238 0.055290479 0.68300003
-0.11139429 0.055371433 0.68400002
-0.11009143 0.055371433 0.68400002
-0.10878858 0.055371433 0.68400002
-0.10748572 0.055371433 0.68400002
-0.10618287 0.055371433 0.68400002
-0.10488001 0.055371433 0.68400002
-0.10357715 0.055371433 0.68400002
-0.10257334 0.055533338 0.68600005
-0.10126667 0.055533338 0.68600005
-0.10010572 0.055614289 0.68700004
-0.09879715 0.055614289 0.68700004
-0.097488575 0.055614289 0.68700004
-0.096180007 0.055614289 0.68700004
-0.094871432 0.055614289 0.68700004
-0.093835242 0.055776194 0.68900001
-0.09252286 0.055776194 0.68900001
-0.091342866 0.055857148 0.69000006
-0.090028577 0.055857148 0.69000006
-0.089100003 0.056100003 0.69300002
-0.087780006 0.056100003 0.69300002
-0.086709529 0.056261908 0.69500005
-0.085385717 0.056261908 0.69500005
-0.14335716 0.055928577 0.67500001
-0.14228192 0.056011431 0.67600006
-0.1409943 0.056011431 0.67600006
-0.13970667 0.056011431 0.67600006
-0.13841906 0.056011431 0.67600006
-0.13753715 0.056177147 0.67800003
-0.13624573 0.056177147 0.67800003
-0.13515334 0.056260005 0.67900002
-0.13386001 0.056260005 0.67900002
-0.13256668 0.056260005 0.67900002
-0.13127334 0.056260005 0.67900002
-0.12998001 0.056260005 0.67900002
-0.12868668 0.056260005 0.67900002
-0.12739334 0.056260005 0.67900002
-0.1261 0.056260005 0.67900002
-0.12499049 0.056342863 0.68000001
-0.12369525 0.056342863 0.68000001
-0.12240001 0.056342863 0.68000001
-0.12110477 0.056342863 0.68000001
-0.12016191 0.056508575 0.68200004
-0.11886287 0.056508575 0.68200004
-0.11756381 0.056508575 0.68200004
-0.11643524 0.056591433 0.68300003
-0.11513429 0.056591433 0.68300003
-0.11400001 0.05667429 0.68400002
-0.11269715 0.05667429 0.68400002
-0.11139429 0.05667429 0.68400002
-0.11009143 0.05667429 0.68400002
-0.10878858 0.05667429 0.68400002
-0.10748572 0.05667429 0.68400002
-0.10649334 0.056840003 0.68600005
-0.10518667 0.056840003 0.68600005
-0.10388001 0.056840003 0.68600005
-0.10257334 0.056840003 0.68600005
-0.10126667 0.056840003 0.68600005
-0.10010572 0.05692286 0.68700004
-0.09879715 0.05692286 0.68700004
-0.097488575 0.05692286 0.68700004
-0.096180007 0.05692286 0.68700004
-0.095147625 0.057088576 0.68900001
-0.093835242 0.057088576 0.68900001
-0.092657149 0.057171434 0.69000006
-0.091475241 0.057254288 0.69100004
-0.090159051 0.057254288 0.69100004
-0.089100003 0.057420004 0.69300002
-0.087780006 0.057420004 0.69300002
-0.14356953 0.057299051 0.67600006
-0.14228192 0.057299051 0.67600006
-0.14141144 0.057468574 0.67800003
-0.14012001 0.057468574 0.67800003
-0.13882858 0.057468574 0.67800003
-0.13753715 0.057468574 0.67800003
-0.13644667 0.057553336 0.67900002
-0.13515334 0.057553336 0.67900002
-0.13386001 0.057553336 0.67900002
-0.13256668 0.057553336 0.67900002
-0.13127334 0.057553336 0.67900002
-0.12998001 0.057553336 0.67900002
-0.12868668 0.057553336 0.67900002
-0.12758096 0.057638098 0.68000001
-0.12628572 0.057638098 0.68000001
-0.12499049 0.057638098 0.68000001
-0.12369525 0.057638098 0.68000001
-0.12240001 0.057638098 0.68000001
-0.12146096 0.057807624 0.68200004
-0.12016191 0.057807624 0.68200004
-0.11886287 0.057807624 0.68200004
-0.11756381 0.057807624 0.68200004
-0.11643524 0.057892386 0.68300003
-0.11513429 0.057892386 0.68300003
-0.11400001 0.057977147 0.68400002
-0.11269715 0.057977147 0.68400002
-0.11139429 0.057977147 0.68400002
-0.11009143 0.057977147 0.68400002
-0.10878858 0.057977147 0.68400002
-0.10780001 0.05814667 0.68600005
-0.10649334 0.05814667 0.68600005
-0.10518667 0.05814667 0.68600005
-0.10388001 0.05814667 0.68600005
-0.10257334 0.05814667 0.68600005
-0.10126667 0.05814667 0.68600005
-0.10010572 0.058231432 0.68700004
-0.09879715 0.058231432 0.68700004
-0.097488575 0.058231432 0.68700004
-0.096460007 0.058400955 0.68900001
-0.095147625 0.058400955 0.68900001
-0.093971431 0.058485717 0.69000006
-0.092791438 0.058570482 0.69100004
-0.091475241 0.058570482 0.69100004
-0.090420008 0.058740005 0.69300002
-0.089228578 0.058824766 0.69400001
-0.087906674 0.058824766 0.69400001
-0.086584769 0.058824766 0.69400001
-0.1439943 0.058760002 0.67800003
-0.14270286 0.058760002 0.67800003
-0.14162001 0.058846671 0.67900002
-0.14032668 0.058846671 0.67900002
-0.13903335 0.058846671 0.67900002
-0.13774002 0.058846671 0.67900002
-0.13644667 0.058846671 0.67900002
-0.13535239 0.058933336 0.68000001
-0.13405715 0.058933336 0.68000001
-0.13276191 0.058933336 0.68000001
-0.13146667 0.058933336 0.68000001
-0.13017143 0.058933336 0.68000001
-0.12887619 0.058933336 0.68000001
-0.12758096 0.058933336 0.68000001
-0.12628572 0.058933336 0.68000001
-0.12499049 0.058933336 0.68000001
-0.12405906 0.05910667 0.68200004
-0.12240001 0.058933336 0.68000001
-0.12146096 0.05910667 0.68200004
-0.12016191 0.05910667 0.68200004
-0.11903715 0.059193335 0.68300003
-0.1177362 0.059193335 0.68300003
-0.11643524 0.059193335 0.68300003
-0.11530287 0.059280004 0.68400002
-0.11433334 0.059453338 0.68600005
-0.11302667 0.059453338 0.68600005
-0.11172001 0.059453338 0.68600005
-0.11041334 0.059453338 0.68600005
-0.10910667 0.059453338 0.68600005
-0.10780001 0.059453338 0.68600005
-0.10649334 0.059453338 0.68600005
-0.10518667 0.059453338 0.68600005
-0.10388001 0.059453338 0.68600005
-0.10272286 0.059540004 0.68700004
-0.10126667 0.059453338 0.68600005
-0.10010572 0.059540004 0.68700004
-0.099084765 0.059713338 0.68900001
-0.09777239 0.059713338 0.68900001
-0.096460007 0.059713338 0.68900001
-0.095285721 0.059800003 0.69000006
-0.094107628 0.059886672 0.69100004
-0.093060009 0.060060006 0.69300002
-0.091740005 0.060060006 0.69300002
-0.090550482 0.060146671 0.69400001
-0.089228578 0.060146671 0.69400001
-0.087906674 0.060146671 0.69400001
-0.086709529 0.060233336 0.69500005
-0.1439943 0.060051434 0.67800003
-0.14270286 0.060051434 0.67800003
-0.14162001 0.060140003 0.67900002
-0.14032668 0.060140003 0.67900002
-0.13903335 0.060140003 0.67900002
-0.13774002 0.060140003 0.67900002
-0.13644667 0.060140003 0.67900002
-0.13535239 0.060228575 0.68000001
-0.13405715 0.060228575 0.68000001
-0.13276191 0.060228575 0.68000001
-0.13146667 0.060228575 0.68000001
-0.13017143 0.060228575 0.68000001
-0.12887619 0.060228575 0.68000001
-0.12758096 0.060228575 0.68000001
-0.12665716 0.06040572 0.68200004
-0.1253581 0.06040572 0.68200004
-0.12405906 0.06040572 0.68200004
-0.12276001 0.06040572 0.68200004
-0.12163906 0.060494289 0.68300003
-0.1203381 0.060494289 0.68300003
-0.11903715 0.060494289 0.68300003
-0.11790858 0.060582861 0.68400002
-0.11660572 0.060582861 0.68400002
-0.11564001 0.060760003 0.68600005
-0.11433334 0.060760003 0.68600005
-0.11302667 0.060760003 0.68600005
-0.11188287 0.060848575 0.68700004
-0.11057429 0.060848575 0.68700004
-0.10910667 0.060760003 0.68600005
-0.10780001 0.060760003 0.68600005
-0.10649334 0.060760003 0.68600005
-0.10518667 0.060760003 0.68600005
-0.10388001 0.060760003 0.68600005
-0.10272286 0.060848575 0.68700004
-0.10126667 0.060760003 0.68600005
-0.10010572 0.060848575 0.68700004
-0.099084765 0.06102572 0.68900001
-0.09777239 0.06102572 0.68900001
-0.096460007 0.06102572 0.68900001
-0.095285721 0.061114289 0.69000006
-0.094107628 0.061202861 0.69100004
-0.092791438 0.061202861 0.69100004
-0.091475241 0.061202861 0.69100004
-0.090420008 0.061380003 0.69300002
-0.089100003 0.061380003 0.69300002
-0.087906674 0.061468575 0.69400001
-0.086584769 0.061468575 0.69400001
-0.14420667 0.061433338 0.67900002
-0.14291334 0.061433338 0.67900002
-0.14182858 0.061523814 0.68000001
-0.14053334 0.061523814 0.68000001
-0.1392381 0.061523814 0.68000001
-0.13794287 0.061523814 0.68000001
-0.13664763 0.061523814 0.68000001
-0.13535239 0.061523814 0.68000001
-0.13405715 0.061523814 0.68000001
-0.13276191 0.061523814 0.68000001
-0.13146667 0.061523814 0.68000001
-0.13017143 0.061523814 0.68000001
-0.12925525 0.061704766 0.68200004
-0.12814382 0.061795242 0.68300003
-0.12702858 0.061885718 0.68400002
-0.12572572 0.061885718 0.68400002
-0.12442286 0.061885718 0.68400002
-0.12312001 0.061885718 0.68400002
-0.12181715 0.061885718 0.68400002
-0.1205143 0.061885718 0.68400002
-0.11921144 0.061885718 0.68400002
-0.11790858 0.061885718 0.68400002
-0.11694667 0.062066671 0.68600005
-0.11580858 0.062157147 0.68700004
-0.11450001 0.062157147 0.68700004
-0.11352096 0.062338099 0.68900001
-0.11220858 0.062338099 0.68900001
-0.1108962 0.062338099 0.68900001
-0.10958382 0.062338099 0.68900001
-0.10795715 0.062157147 0.68700004
-0.10664858 0.062157147 0.68700004
-0.10564668 0.062338099 0.68900001
-0.10433429 0.062338099 0.68900001
-0.10302191 0.062338099 0.68900001
-0.10170953 0.062338099 0.68900001
-0.10039715 0.062338099 0.68900001
-0.099228576 0.062428575 0.69000006
-0.097914293 0.062428575 0.69000006
-0.096600004 0.062428575 0.69000006
-0.095423818 0.062519051 0.69100004
-0.094107628 0.062519051 0.69100004
-0.093060009 0.062700003 0.69300002
-0.091740005 0.062700003 0.69300002
-0.090550482 0.062790483 0.69400001
-0.089100003 0.062700003 0.69300002
-0.087906674 0.062790483 0.69400001
-0.14420667 0.062726669 0.67900002
-0.14291334 0.062726669 0.67900002
-0.14182858 0.062819049 0.68000001
-0.14053334 0.062819049 0.68000001
-0.1392381 0.062819049 0.68000001
-0.13794287 0.062819049 0.68000001
-0.13664763 0.062819049 0.68000001
-0.13575049 0.063003816 0.68200004
-0.13445143 0.063003816 0.68200004
-0.1331524 0.063003816 0.68200004
-0.13146667 0.062819049 0.68000001
-0.13055429 0.063003816 0.68200004
-0.12944476 0.063096195 0.68300003
-0.12814382 0.063096195 0.68300003
-0.12702858 0.063188575 0.68400002
-0.12572572 0.063188575 0.68400002
-0.12442286 0.063188575 0.68400002
-0.12312001 0.063188575 0.68400002
-0.12181715 0.063188575 0.68400002
-0.1205143 0.063188575 0.68400002
-0.11921144 0.063188575 0.68400002
-0.11790858 0.063188575 0.68400002
-0.11660572 0.063188575 0.68400002
-0.11580858 0.063465722 0.68700004
-0.11450001 0.063465722 0.68700004
-0.11352096 0.063650481 0.68900001
-0.11237144 0.063742861 0.69000006
-0.1108962 0.063650481 0.68900001
-0.10958382 0.063650481 0.68900001
-0.10827143 0.063650481 0.68900001
-0.10695905 0.063650481 0.68900001
-0.10564668 0.063650481 0.68900001
-0.10433429 0.063650481 0.68900001
-0.10302191 0.063650481 0.68900001
-0.10170953 0.063650481 0.68900001
-0.10054287 0.063742861 0.69000006
-0.099372387 0.063835241 0.69100004
-0.098056197 0.063835241 0.69100004
-0.096740007 0.063835241 0.69100004
-0.095700003 0.064020008 0.69300002
-0.094380006 0.064020008 0.69300002
-0.093060009 0.064020008 0.69300002
-0.091740005 0.064020008 0.69300002
-0.090550482 0.064112388 0.69400001
-0.089100003 0.064020008 0.69300002
-0.087780006 0.064020008 0.69300002
-0.14484382 0.064302862 0.68200004
-0.14312382 0.064114287 0.68000001
-0.1424543 0.064397149 0.68300003
-0.14094667 0.064302862 0.68200004
-0.13964763 0.064302862 0.68200004
-0.13794287 0.064114287 0.68000001
-0.13704953 0.064302862 0.68200004
-0.13594954 0.064397149 0.68300003
-0.13445143 0.064302862 0.68200004
-0.1331524 0.064302862 0.68200004
-0.13185334 0.064302862 0.68200004
-0.13055429 0.064302862 0.68200004
-0.12944476 0.064397149 0.68300003
-0.12814382 0.064397149 0.68300003
-0.12702858 0.064491436 0.68400002
-0.12609334 0.064680003 0.68600005
-0.12442286 0.064491436 0.68400002
-0.12312001 0.064491436 0.68400002
-0.12181715 0.064491436 0.68400002
-0.1205143 0.064491436 0.68400002
-0.11921144 0.064491436 0.68400002
-0.11790858 0.064491436 0.68400002
-0.11660572 0.064491436 0.68400002
-0.11483334 0.064962864 0.68900001
-0.11352096 0.064962864 0.68900001
-0.11237144 0.065057144 0.69000006
-0.11105715 0.065057144 0.69000006
-0.10974286 0.065057144 0.69000006
-0.10827143 0.064962864 0.68900001
-0.10695905 0.064962864 0.68900001
-0.10580001 0.065057144 0.69000006
-0.10448572 0.065057144 0.69000006
-0.10317144 0.065057144 0.69000006
-0.10185715 0.065057144 0.69000006
-0.10068858 0.065151431 0.69100004
-0.099372387 0.065151431 0.69100004
-0.098056197 0.065151431 0.69100004
-0.096740007 0.065151431 0.69100004
-0.095700003 0.065340005 0.69300002
-0.094516195 0.065434292 0.69400001
-0.093194291 0.065434292 0.69400001
-0.091872387 0.065434292 0.69400001
-0.090680957 0.065528579 0.69500005
-0.089357145 0.065528579 0.69500005
-0.1478743 0.065794289 0.68400002
-0.14657144 0.065794289 0.68400002
-0.1450562 0.065698102 0.68300003
-0.14375524 0.065698102 0.68300003
-0.1424543 0.065698102 0.68300003
-0.14115334 0.065698102 0.68300003
-0.13985239 0.065698102 0.68300003
-0.13855144 0.065698102 0.68300003
-0.13725048 0.065698102 0.68300003
-0.13594954 0.065698102 0.68300003
-0.13464858 0.065698102 0.68300003
-0.13334763 0.065698102 0.68300003
-0.13185334 0.065601908 0.68200004
-0.13074572 0.065698102 0.68300003
-0.12963429 0.065794289 0.68400002
-0.12833144 0.065794289 0.68400002
-0.12740001 0.065986671 0.68600005
-0.12609334 0.065986671 0.68600005
-0.12478667 0.065986671 0.68600005
-0.12348001 0.065986671 0.68600005
-0.12217334 0.065986671 0.68600005
-0.12086667 0.065986671 0.68600005
-0.11825334 0.065986671 0.68600005
-0.11631429 0.066371433 0.69000006
-0.11368572 0.066371433 0.69000006
-0.11237144 0.066371433 0.69000006
-0.11105715 0.066371433 0.69000006
-0.10974286 0.066371433 0.69000006
-0.10842858 0.066371433 0.69000006
-0.10711429 0.066371433 0.69000006
-0.10580001 0.066371433 0.69000006
-0.10448572 0.066371433 0.69000006
-0.10317144 0.066371433 0.69000006
-0.10200477 0.06646762 0.69100004
-0.10098001 0.066660002 0.69300002
-0.099660009 0.066660002 0.69300002
-0.098340005 0.066660002 0.69300002
-0.097020008 0.066660002 0.69300002
-0.0958381 0.066756196 0.69400001
-0.094516195 0.066756196 0.69400001
-0.09332858 0.066852383 0.69500005
-0.092004769 0.066852383 0.69500005
-0.090680957 0.066852383 0.69500005
-0.089357145 0.066852383 0.69500005
-0.14765811 0.066999055 0.68300003
-0.14657144 0.06709715 0.68400002
-0.14526857 0.06709715 0.68400002
-0.14396572 0.06709715 0.68400002
-0.14266287 0.06709715 0.68400002
-0.14136001 0.06709715 0.68400002
-0.14005715 0.06709715 0.68400002
-0.13875429 0.06709715 0.68400002
-0.13745144 0.06709715 0.68400002
-0.13614859 0.06709715 0.68400002
-0.13484572 0.06709715 0.68400002
-0.13354287 0.06709715 0.68400002
-0.13204667 0.066999055 0.68300003
-0.13093714 0.06709715 0.68400002
-0.12963429 0.06709715 0.68400002
-0.12833144 0.06709715 0.68400002
-0.12740001 0.067293338 0.68600005
-0.12609334 0.067293338 0.68600005
-0.12478667 0.067293338 0.68600005
-0.12366001 0.067391433 0.68700004
-0.12217334 0.067293338 0.68600005
-0.11956001 0.067293338 0.68600005
-0.11500001 0.067685716 0.69000006
-0.11368572 0.067685716 0.69000006
-0.11237144 0.067685716 0.69000006
-0.11105715 0.067685716 0.69000006
-0.10974286 0.067685716 0.69000006
-0.10842858 0.067685716 0.69000006
-0.10726953 0.067783818 0.69100004
-0.10595334 0.067783818 0.69100004
-0.10463715 0.067783818 0.69100004
-0.10332096 0.067783818 0.69100004
-0.1023 0.067980006 0.69300002
-0.10098001 0.067980006 0.69300002
-0.099660009 0.067980006 0.69300002
-0.098340005 0.067980006 0.69300002
-0.097160004 0.068078101 0.69400001
-0.0958381 0.068078101 0.69400001
-0.094652385 0.068176195 0.69500005
-0.09332858 0.068176195 0.69500005
-0.092004769 0.068176195 0.69500005
-0.090680957 0.068176195 0.69500005
-0.089357145 0.068176195 0.69500005
-0.1478743 0.068400003 0.68400002
-0.14657144 0.068400003 0.68400002
-0.14526857 0.068400003 0.68400002
-0.14396572 0.068400003 0.68400002
-0.14308001 0.068600006 0.68600005
-0.14136001 0.068400003 0.68400002
-0.14005715 0.068400003 0.68400002
-0.13875429 0.068400003 0.68400002
-0.13745144 0.068400003 0.68400002
-0.13654667 0.068600006 0.68600005
-0.13484572 0.068400003 0.68400002
-0.13354287 0.068400003 0.68400002
-0.13224001 0.068400003 0.68400002
-0.13093714 0.068400003 0.68400002
-0.13001335 0.068600006 0.68600005
-0.12870668 0.068600006 0.68600005
-0.12758572 0.068700008 0.68700004
-0.12664478 0.068900004 0.68900001
-0.12533239 0.068900004 0.68900001
-0.12402001 0.068900004 0.68900001
-0.12235144 0.068700008 0.68700004
-0.11385048 0.069100007 0.69100004
-0.11253429 0.069100007 0.69100004
-0.1112181 0.069100007 0.69100004
-0.10990191 0.069100007 0.69100004
-0.10858572 0.069100007 0.69100004
-0.10726953 0.069100007 0.69100004
-0.10595334 0.069100007 0.69100004
-0.10494 0.069300003 0.69300002
-0.10362001 0.069300003 0.69300002
-0.1023 0.069300003 0.69300002
-0.10112572 0.069400005 0.69400001
-0.099803813 0.069400005 0.69400001
-0.098481908 0.069400005 0.69400001
-0.097160004 0.069400005 0.69400001
-0.095976196 0.069500007 0.69500005
-0.094652385 0.069500007 0.69500005
-0.09332858 0.069500007 0.69500005
-0.092004769 0.069500007 0.69500005
-0.090941913 0.069700003 0.69700003
-0.089228578 0.069400005 0.69400001
-0.087906674 0.069400005 0.69400001
-0.086959057 0.069700003 0.69700003
-0.085631438 0.069700003 0.69700003
-0.14830668 0.069906674 0.68600005
-0.14700001 0.069906674 0.68600005
-0.14569335 0.069906674 0.68600005
-0.14438668 0.069906674 0.68600005
-0.14308001 0.069906674 0.68600005
-0.14177334 0.069906674 0.68600005
-0.14046668 0.069906674 0.68600005
-0.13916001 0.069906674 0.68600005
-0.13785334 0.069906674 0.68600005
-0.13654667 0.069906674 0.68600005
-0.13524 0.069906674 0.68600005
-0.13393334 0.069906674 0.68600005
-0.13262668 0.069906674 0.68600005
-0.13132001 0.069906674 0.68600005
-0.13020286 0.070008576 0.68700004
-0.1288943 0.070008576 0.68700004
-0.12795715 0.070212387 0.68900001
-0.12664478 0.070212387 0.68900001
-0.12533239 0.070212387 0.68900001
-0.12402001 0.070212387 0.68900001
-0.12270763 0.070212387 0.68900001
-0.12025715 0.070314288 0.69000006
-0.11516667 0.070416197 0.69100004
-0.11385048 0.070416197 0.69100004
-0.11253429 0.070416197 0.69100004
-0.1112181 0.070416197 0.69100004
-0.10990191 0.070416197 0.69100004
-0.10858572 0.070416197 0.69100004
-0.10758001 0.070620008 0.69300002
-0.10626001 0.070620008 0.69300002
-0.10494 0.070620008 0.69300002
-0.10362001 0.070620008 0.69300002
-0.10244763 0.070721909 0.69400001
-0.10112572 0.070721909 0.69400001
-0.099803813 0.070721909 0.69400001
-0.09862382 0.070823811 0.69500005
-0.097300008 0.070823811 0.69500005
-0.096252389 0.071027622 0.69700003
-0.09492477 0.071027622 0.69700003
-0.093597151 0.071027622 0.69700003
-0.092269532 0.071027622 0.69700003
-0.090941913 0.071027622 0.69700003
-0.089357145 0.070823811 0.69500005
-0.088033341 0.070823811 0.69500005
-0.086709529 0.070823811 0.69500005
-0.085262865 0.070721909 0.69400001
0.16417049 0.078772388 0.77300006
-0.14830668 0.071213335 0.68600005
-0.14700001 0.071213335 0.68600005
-0.14569335 0.071213335 0.68600005
-0.14438668 0.071213335 0.68600005
-0.14308001 0.071213335 0.68600005
-0.14177334 0.071213335 0.68600005
-0.14046668 0.071213335 0.68600005
-0.13916001 0.071213335 0.68600005
-0.13785334 0.071213335 0.68600005
-0.13654667 0.071213335 0.68600005
-0.13524 0.071213335 0.68600005
-0.13393334 0.071213335 0.68600005
-0.13262668 0.071213335 0.68600005
-0.13151143 0.071317151 0.68700004
-0.13020286 0.071317151 0.68700004
-0.1288943 0.071317151 0.68700004
-0.12795715 0.071524769 0.68900001
-0.12682858 0.071628578 0.69000006
-0.1255143 0.071628578 0.69000006
-0.12402001 0.071524769 0.68900001
-0.12288572 0.071628578 0.69000006
-0.12157144 0.071628578 0.69000006
-0.11911525 0.071732387 0.69100004
-0.11779906 0.071732387 0.69100004
-0.11648286 0.071732387 0.69100004
-0.11516667 0.071732387 0.69100004
-0.11385048 0.071732387 0.69100004
-0.11253429 0.071732387 0.69100004
-0.1112181 0.071732387 0.69100004
-0.10990191 0.071732387 0.69100004
-0.10890001 0.071940005 0.69300002
-0.10758001 0.071940005 0.69300002
-0.10641334 0.072043814 0.69400001
-0.10509144 0.072043814 0.69400001
-0.10376953 0.072043814 0.69400001
-0.10244763 0.072043814 0.69400001
-0.10127144 0.072147623 0.69500005
-0.099947624 0.072147623 0.69500005
-0.09862382 0.072147623 0.69500005
-0.097580008 0.072355241 0.69700003
-0.096252389 0.072355241 0.69700003
-0.09492477 0.072355241 0.69700003
-0.093597151 0.072355241 0.69700003
-0.092401914 0.07245905 0.69800001
-0.091072388 0.07245905 0.69800001
-0.089614294 0.072355241 0.69700003
-0.087906674 0.072043814 0.69400001
-0.086584769 0.072043814 0.69400001
-0.085140005 0.071940005 0.69300002
-0.14830668 0.072520003 0.68600005
-0.14700001 0.072520003 0.68600005
-0.14569335 0.072520003 0.68600005
-0.14459716 0.072625719 0.68700004
-0.14328858 0.072625719 0.68700004
-0.14177334 0.072520003 0.68600005
-0.14046668 0.072520003 0.68600005
-0.13936287 0.072625719 0.68700004
-0.1380543 0.072625719 0.68700004
-0.13654667 0.072520003 0.68600005
-0.13524 0.072520003 0.68600005
-0.13393334 0.072520003 0.68600005
-0.13262668 0.072520003 0.68600005
-0.13151143 0.072625719 0.68700004
-0.13058192 0.072837144 0.68900001
-0.12926953 0.072837144 0.68900001
-0.12814286 0.07294286 0.69000006
-0.12682858 0.07294286 0.69000006
-0.1255143 0.07294286 0.69000006
-0.12420001 0.07294286 0.69000006
-0.12288572 0.07294286 0.69000006
-0.12174763 0.073048577 0.69100004
-0.12043144 0.073048577 0.69100004
-0.11911525 0.073048577 0.69100004
-0.11779906 0.073048577 0.69100004
-0.11631429 0.07294286 0.69000006
-0.11516667 0.073048577 0.69100004
-0.11385048 0.073048577 0.69100004
-0.11253429 0.073048577 0.69100004
-0.1112181 0.073048577 0.69100004
-0.11022001 0.073260002 0.69300002
-0.10905715 0.073365718 0.69400001
-0.10773525 0.073365718 0.69400001
-0.10656668 0.073471434 0.69500005
-0.10524286 0.073471434 0.69500005
-0.10391905 0.073471434 0.69500005
-0.10259525 0.073471434 0.69500005
-0.10156287 0.07368286 0.69700003
-0.10023525 0.07368286 0.69700003
-0.098907627 0.07368286 0.69700003
-0.097720005 0.073788576 0.69800001
-0.096390486 0.073788576 0.69800001
-0.095060959 0.073788576 0.69800001
-0.093731433 0.073788576 0.69800001
-0.092666671 0.074000008 0.70000005
-0.091333337 0.074000008 0.70000005
-0.090000004 0.074000008 0.70000005
-0.088286676 0.07368286 0.69700003
-0.086709529 0.073471434 0.69500005
-0.085262865 0.073365718 0.69400001
-0.14830668 0.073826671 0.68600005
-0.14700001 0.073826671 0.68600005
-0.14590572 0.073934294 0.68700004
-0.14459716 0.073934294 0.68700004
-0.14328858 0.073934294 0.68700004
-0.14198001 0.073934294 0.68700004
-0.14067143 0.073934294 0.68700004
-0.13936287 0.073934294 0.68700004
-0.1380543 0.073934294 0.68700004
-0.13674572 0.073934294 0.68700004
-0.13543715 0.073934294 0.68700004
-0.13412859 0.073934294 0.68700004
-0.13282001 0.073934294 0.68700004
-0.13189429 0.074149527 0.68900001
-0.13058192 0.074149527 0.68900001
-0.12945715 0.07425715 0.69000006
-0.12814286 0.07425715 0.69000006
-0.12682858 0.07425715 0.69000006
-0.1256962 0.074364766 0.69100004
-0.12438001 0.074364766 0.69100004
-0.12306382 0.074364766 0.69100004
-0.12174763 0.074364766 0.69100004
-0.12043144 0.074364766 0.69100004
-0.11911525 0.074364766 0.69100004
-0.11779906 0.074364766 0.69100004
-0.11631429 0.07425715 0.69000006
-0.11516667 0.074364766 0.69100004
-0.11385048 0.074364766 0.69100004
-0.11253429 0.074364766 0.69100004
-0.11170096 0.074687622 0.69400001
-0.11037906 0.074687622 0.69400001
-0.10905715 0.074687622 0.69400001
-0.10789049 0.074795246 0.69500005
-0.10656668 0.074795246 0.69500005
-0.10554572 0.075010478 0.69700003
-0.1042181 0.075010478 0.69700003
-0.10289048 0.075010478 0.69700003
-0.10156287 0.075010478 0.69700003
-0.10037906 0.075118102 0.69800001
-0.099049531 0.075118102 0.69800001
-0.098000005 0.075333342 0.70000005
-0.096666671 0.075333342 0.70000005
-0.095333338 0.075333342 0.70000005
-0.094000004 0.075333342 0.70000005
-0.092666671 0.075333342 0.70000005
-0.091333337 0.075333342 0.70000005
-0.090000004 0.075333342 0.70000005
-0.088413343 0.075118102 0.69800001
-0.086959057 0.075010478 0.69700003
-0.085385717 0.074795246 0.69500005
-0.14370573 0.075461909 0.68900001
-0.14239334 0.075461909 0.68900001
-0.14108096 0.075461909 0.68900001
-0.13997144 0.075571433 0.69000006
-0.1384562 0.075461909 0.68900001
-0.13714382 0.075461909 0.68900001
-0.13583143 0.075461909 0.68900001
-0.13451906 0.075461909 0.68900001
-0.13340001 0.075571433 0.69000006
-0.13208573 0.075571433 0.69000006
-0.13077144 0.075571433 0.69000006
-0.12945715 0.075571433 0.69000006
-0.12832858 0.075680956 0.69100004
-0.12701239 0.075680956 0.69100004
-0.12606001 0.075900003 0.69300002
-0.12474 0.075900003 0.69300002
-0.12306382 0.075680956 0.69100004
-0.12174763 0.075680956 0.69100004
-0.12078001 0.075900003 0.69300002
-0.11911525 0.075680956 0.69100004
-0.11779906 0.075680956 0.69100004
-0.11648286 0.075680956 0.69100004
-0.11516667 0.075680956 0.69100004
-0.11385048 0.075680956 0.69100004
-0.11286001 0.075900003 0.69300002
-0.11170096 0.076009527 0.69400001
-0.11037906 0.076009527 0.69400001
-0.10921429 0.07611905 0.69500005
-0.10789049 0.07611905 0.69500005
-0.10687334 0.076338097 0.69700003
-0.10569715 0.076447621 0.69800001
-0.1048162 0.076776199 0.70100003
-0.10348096 0.076776199 0.70100003
-0.10214572 0.076776199 0.70100003
-0.10109811 0.076995246 0.70300001
-0.099759057 0.076995246 0.70300001
-0.098140009 0.076776199 0.70100003
-0.096804768 0.076776199 0.70100003
-0.095333338 0.076666668 0.70000005
-0.094000004 0.076666668 0.70000005
-0.092666671 0.076666668 0.70000005
-0.091333337 0.076666668 0.70000005
-0.090000004 0.076666668 0.70000005
-0.088413343 0.076447621 0.69800001
-0.087083817 0.076447621 0.69800001
-0.085631438 0.076338097 0.69700003
-0.14328858 0.07655143 0.68700004
-0.14198001 0.07655143 0.68700004
-0.14108096 0.076774292 0.68900001
-0.13997144 0.076885723 0.69000006
-0.13865715 0.076885723 0.69000006
-0.13734287 0.076885723 0.69000006
-0.13602857 0.076885723 0.69000006
-0.13471429 0.076885723 0.69000006
-0.13340001 0.076885723 0.69000006
-0.13208573 0.076885723 0.69000006
-0.13077144 0.076885723 0.69000006
-0.12964477 0.076997146 0.69100004
-0.12832858 0.076997146 0.69100004
-0.12701239 0.076997146 0.69100004
-0.12606001 0.077220008 0.69300002
-0.12474 0.077220008 0.69300002
-0.12342001 0.077220008 0.69300002
-0.12210001 0.077220008 0.69300002
-0.12078001 0.077220008 0.69300002
-0.11946001 0.077220008 0.69300002
-0.11779906 0.076997146 0.69100004
-0.11648286 0.076997146 0.69100004
-0.11516667 0.076997146 0.69100004
-0.11385048 0.076997146 0.69100004
-0.11286001 0.077220008 0.69300002
-0.11186191 0.077442862 0.69500005
-0.1105381 0.077442862 0.69500005
-0.10921429 0.077442862 0.69500005
-0.10820096 0.077665716 0.69700003
-0.10702667 0.077777147 0.69800001
-0.10600001 0.078000002 0.70000005
-0.1048162 0.078111432 0.70100003
-0.10348096 0.078111432 0.70100003
-0.10243715 0.078334294 0.70300001
-0.10109811 0.078334294 0.70300001
-0.099759057 0.078334294 0.70300001
-0.098420009 0.078334294 0.70300001
-0.096804768 0.078111432 0.70100003
-0.095469527 0.078111432 0.70100003
-0.094134293 0.078111432 0.70100003
-0.092799053 0.078111432 0.70100003
-0.091463819 0.078111432 0.70100003
-0.090128578 0.078111432 0.70100003
-0.08866667 0.078000002 0.70000005
-0.087333336 0.078000002 0.70000005
-0.086000003 0.078000002 0.70000005
-0.14370573 0.078086674 0.68900001
-0.14239334 0.078086674 0.68900001
-0.14108096 0.078086674 0.68900001
-0.13997144 0.078200005 0.69000006
-0.13865715 0.078200005 0.69000006
-0.13734287 0.078200005 0.69000006
-0.13602857 0.078200005 0.69000006
-0.13471429 0.078200005 0.69000006
-0.13340001 0.078200005 0.69000006
-0.13208573 0.078200005 0.69000006
-0.13096096 0.078313336 0.69100004
-0.12964477 0.078313336 0.69100004
-0.1287 0.078540005 0.69300002
-0.12738001 0.078540005 0.69300002
-0.12606001 0.078540005 0.69300002
-0.1251 0.078766674 0.69500005
-0.1237762 0.078766674 0.69500005
-0.1222762 0.078653336 0.69400001
-0.12095429 0.078653336 0.69400001
-0.11963239 0.078653336 0.69400001
-0.11831048 0.078653336 0.69400001
-0.11698858 0.078653336 0.69400001
-0.11566667 0.078653336 0.69400001
-0.11434477 0.078653336 0.69400001
-0.11302286 0.078653336 0.69400001
-0.11186191 0.078766674 0.69500005
-0.1105381 0.078766674 0.69500005
-0.10952858 0.078993335 0.69700003
-0.10820096 0.078993335 0.69700003
-0.10702667 0.079106674 0.69800001
-0.10615144 0.079446673 0.70100003
-0.1048162 0.079446673 0.70100003
-0.10348096 0.079446673 0.70100003
-0.10243715 0.079673335 0.70300001
-0.10109811 0.079673335 0.70300001
-0.099900961 0.079786673 0.70400006
-0.098420009 0.079673335 0.70300001
-0.097080961 0.079673335 0.70300001
-0.095741913 0.079673335 0.70300001
-0.094134293 0.079446673 0.70100003
-0.092799053 0.079446673 0.70100003
-0.091463819 0.079446673 0.70100003
-0.090128578 0.079446673 0.70100003
-0.088793337 0.079446673 0.70100003
-0.087333336 0.079333335 0.70000005
-0.086000003 0.079333335 0.70000005
-0.1439143 0.079514287 0.69000006
-0.14260001 0.079514287 0.69000006
-0.14128572 0.079514287 0.69000006
-0.13997144 0.079514287 0.69000006
-0.13865715 0.079514287 0.69000006
-0.13734287 0.079514287 0.69000006
-0.13602857 0.079514287 0.69000006
-0.13471429 0.079514287 0.69000006
-0.13340001 0.079514287 0.69000006
-0.13208573 0.079514287 0.69000006
-0.13096096 0.079629526 0.69100004
-0.12964477 0.079629526 0.69100004
-0.1287 0.079860002 0.69300002
-0.12756382 0.07997524 0.69400001
-0.12624191 0.07997524 0.69400001
-0.1251 0.080090478 0.69500005
-0.1237762 0.080090478 0.69500005
-0.12245239 0.080090478 0.69500005
-0.12112858 0.080090478 0.69500005
-0.11980477 0.080090478 0.69500005
-0.11831048 0.07997524 0.69400001
-0.11715715 0.080090478 0.69500005
-0.11583334 0.080090478 0.69500005
-0.11450953 0.080090478 0.69500005
-0.11318572 0.080090478 0.69500005
-0.11186191 0.080090478 0.69500005
-0.1108562 0.080320954 0.69700003
-0.10952858 0.080320954 0.69700003
-0.10866667 0.080666669 0.70000005
-0.10733334 0.080666669 0.70000005
-0.10615144 0.080781907 0.70100003
-0.1048162 0.080781907 0.70100003
-0.10348096 0.080781907 0.70100003
-0.10243715 0.081012383 0.70300001
-0.10109811 0.081012383 0.70300001
-0.099900961 0.081127621 0.70400006
-0.098560005 0.081127621 0.70400006
-0.097080961 0.081012383 0.70300001
-0.095741913 0.081012383 0.70300001
-0.094402865 0.081012383 0.70300001
-0.092799053 0.080781907 0.70100003
-0.091724768 0.081012383 0.70300001
-0.09038572 0.081012383 0.70300001
-0.088793337 0.080781907 0.70100003
-0.087458104 0.080781907 0.70100003
-0.086122863 0.080781907 0.70100003
-0.1439143 0.080828577 0.69000006
-0.14260001 0.080828577 0.69000006
-0.14128572 0.080828577 0.69000006
-0.13997144 0.080828577 0.69000006
-0.13885811 0.080945723 0.69100004
-0.13734287 0.080828577 0.69000006
-0.13602857 0.080828577 0.69000006
-0.13471429 0.080828577 0.69000006
-0.13340001 0.080828577 0.69000006
-0.13227715 0.080945723 0.69100004
-0.13134001 0.081180006 0.69300002
-0.13002001 0.081180006 0.69300002
-0.12888572 0.081297152 0.69400001
-0.12774763 0.08141429 0.69500005
-0.12642382 0.08141429 0.69500005
-0.1251 0.08141429 0.69500005
-0.1237762 0.08141429 0.69500005
-0.12280477 0.081648573 0.69700003
-0.12112858 0.08141429 0.69500005
-0.11980477 0.08141429 0.69500005
-0.11848096 0.08141429 0.69500005
-0.11715715 0.08141429 0.69500005
-0.11583334 0.08141429 0.69500005
-0.11450953 0.08141429 0.69500005
-0.11318572 0.08141429 0.69500005
-0.11218382 0.081648573 0.69700003
-0.11101525 0.081765719 0.69800001
-0.10968572 0.081765719 0.69800001
-0.10866667 0.082000002 0.70000005
-0.10748667 0.082117148 0.70100003
-0.10645429 0.082351431 0.70300001
-0.10511524 0.082351431 0.70300001
-0.10377619 0.082351431 0.70300001
-0.10243715 0.082351431 0.70300001
-0.10109811 0.082351431 0.70300001
-0.099900961 0.082468577 0.70400006
-0.098560005 0.082468577 0.70400006
-0.097219057 0.082468577 0.70400006
-0.096422866 0.082937151 0.708
-0.095074289 0.082937151 0.708
-0.093063816 0.082351431 0.70300001
-0.091724768 0.082351431 0.70300001
-0.09038572 0.082351431 0.70300001
-0.089046672 0.082351431 0.70300001
-0.087458104 0.082117148 0.70100003
-0.14412287 0.082261913 0.69100004
-0.14280668 0.082261913 0.69100004
-0.14149049 0.082261913 0.69100004
-0.1401743 0.082261913 0.69100004
-0.13885811 0.082261913 0.69100004
-0.13754192 0.082261913 0.69100004
-0.13622573 0.082261913 0.69100004
-0.13490953 0.082261913 0.69100004
-0.13359334 0.082261913 0.69100004
-0.13266 0.082500003 0.69300002
-0.13152954 0.082619056 0.69400001
-0.13020763 0.082619056 0.69400001
-0.12907144 0.082738101 0.69500005
-0.12774763 0.082738101 0.69500005
-0.12642382 0.082738101 0.69500005
-0.1251 0.082738101 0.69500005
-0.1237762 0.082738101 0.69500005
-0.12280477 0.082976192 0.69700003
-0.12112858 0.082738101 0.69500005
-0.11980477 0.082738101 0.69500005
-0.11882191 0.082976192 0.69700003
-0.11749429 0.082976192 0.69700003
-0.11616667 0.082976192 0.69700003
-0.11483905 0.082976192 0.69700003
-0.11351144 0.082976192 0.69700003
-0.11234477 0.083095245 0.69800001
-0.11101525 0.083095245 0.69800001
-0.11000001 0.083333336 0.70000005
-0.10882191 0.083452389 0.70100003
-0.10748667 0.083452389 0.70100003
-0.10645429 0.083690479 0.70300001
-0.10511524 0.083690479 0.70300001
-0.10377619 0.083690479 0.70300001
-0.10243715 0.083690479 0.70300001
-0.10124191 0.083809532 0.70400006
-0.10004286 0.083928578 0.70500004
-0.098700009 0.083928578 0.70500004
-0.097633339 0.084166676 0.70700002
-0.096422866 0.084285721 0.708
-0.095074289 0.084285721 0.708
-0.093725719 0.084285721 0.708
-0.092377149 0.084285721 0.708
-0.090900004 0.084166676 0.70700002
-0.089553341 0.084166676 0.70700002
-0.14412287 0.083578102 0.69100004
-0.14280668 0.083578102 0.69100004
-0.14149049 0.083578102 0.69100004
-0.1401743 0.083578102 0.69100004
-0.13885811 0.083578102 0.69100004
-0.13754192 0.083578102 0.69100004
-0.13622573 0.083578102 0.69100004
-0.13530001 0.083820008 0.69300002
-0.13417335 0.08394096 0.69400001
-0.13285144 0.08394096 0.69400001
-0.13152954 0.08394096 0.69400001
-0.13039525 0.084061913 0.69500005
-0.12907144 0.084061913 0.69500005
-0.12774763 0.084061913 0.69500005
-0.12642382 0.084061913 0.69500005
-0.1251 0.084061913 0.69500005
-0.1237762 0.084061913 0.69500005
-0.12280477 0.084303819 0.69700003
-0.12147715 0.084303819 0.69700003
-0.12014953 0.084303819 0.69700003
-0.11882191 0.084303819 0.69700003
-0.11749429 0.084303819 0.69700003
-0.11633334 0.084424764 0.69800001
-0.11500382 0.084424764 0.69800001
-0.11367429 0.084424764 0.69800001
-0.11218382 0.084303819 0.69700003
-0.11101525 0.084424764 0.69800001
-0.10968572 0.084424764 0.69800001
-0.10866667 0.084666669 0.70000005
-0.10748667 0.084787622 0.70100003
-0.10645429 0.085029528 0.70300001
-0.10511524 0.085029528 0.70300001
-0.10377619 0.085029528 0.70300001
-0.10243715 0.085029528 0.70300001
-0.10124191 0.08515048 0.70400006
-0.10004286 0.085271433 0.70500004
-0.09898001 0.085513338 0.70700002
-0.097633339 0.085513338 0.70700002
-0.096422866 0.085634291 0.708
-0.095074289 0.085634291 0.708
-0.093725719 0.085634291 0.708
-0.092377149 0.085634291 0.708
-0.090900004 0.085513338 0.70700002
-0.089553341 0.085513338 0.70700002
-0.14280668 0.084894292 0.69100004
-0.14149049 0.084894292 0.69100004
-0.1401743 0.084894292 0.69100004
-0.13885811 0.084894292 0.69100004
-0.13754192 0.084894292 0.69100004
-0.13662001 0.085140005 0.69300002
-0.13530001 0.085140005 0.69300002
-0.13417335 0.085262865 0.69400001
-0.13304287 0.085385717 0.69500005
-0.13171905 0.085385717 0.69500005
-0.13039525 0.085385717 0.69500005
-0.12944287 0.085631438 0.69700003
-0.12774763 0.085385717 0.69500005
-0.12642382 0.085385717 0.69500005
-0.1251 0.085385717 0.69500005
-0.1237762 0.085385717 0.69500005
-0.12280477 0.085631438 0.69700003
-0.12147715 0.085631438 0.69700003
-0.12014953 0.085631438 0.69700003
-0.11882191 0.085631438 0.69700003
-0.11766286 0.08575429 0.69800001
-0.11633334 0.08575429 0.69800001
-0.11533334 0.086000003 0.70000005
-0.11367429 0.08575429 0.69800001
-0.11234477 0.08575429 0.69800001
-0.11101525 0.08575429 0.69800001
-0.10968572 0.08575429 0.69800001
-0.10866667 0.086000003 0.70000005
-0.10748667 0.086122863 0.70100003
-0.10645429 0.086368576 0.70300001
-0.10511524 0.086368576 0.70300001
-0.10377619 0.086368576 0.70300001
-0.10258286 0.086491436 0.70400006
-0.10124191 0.086491436 0.70400006
-0.10004286 0.086614288 0.70500004
-0.099120006 0.086982861 0.708
-0.097771436 0.086982861 0.708
-0.096422866 0.086982861 0.708
-0.095342867 0.087228574 0.71000004
-0.093725719 0.086982861 0.708
-0.092377149 0.086982861 0.708
-0.091028579 0.086982861 0.708
-0.089553341 0.086860009 0.70700002
-0.088206671 0.086860009 0.70700002
-0.14280668 0.086210482 0.69100004
-0.14149049 0.086210482 0.69100004
-0.1401743 0.086210482 0.69100004
-0.13885811 0.086210482 0.69100004
-0.13794 0.086460009 0.69300002
-0.13662001 0.086460009 0.69300002
-0.13530001 0.086460009 0.69300002
-0.13417335 0.086584769 0.69400001
-0.13304287 0.086709529 0.69500005
-0.13171905 0.086709529 0.69500005
-0.13077049 0.086959057 0.69700003
-0.12944287 0.086959057 0.69700003
-0.12811525 0.086959057 0.69700003
-0.12642382 0.086709529 0.69500005
-0.12546001 0.086959057 0.69700003
-0.12413239 0.086959057 0.69700003
-0.12280477 0.086959057 0.69700003
-0.12147715 0.086959057 0.69700003
-0.12014953 0.086959057 0.69700003
-0.11899239 0.087083817 0.69800001
-0.11800001 0.087333336 0.70000005
-0.11666667 0.087333336 0.70000005
-0.11533334 0.087333336 0.70000005
-0.11400001 0.087333336 0.70000005
-0.11266667 0.087333336 0.70000005
-0.11133334 0.087333336 0.70000005
-0.11000001 0.087333336 0.70000005
-0.10866667 0.087333336 0.70000005
-0.10748667 0.087458104 0.70100003
-0.10645429 0.087707624 0.70300001
-0.10511524 0.087707624 0.70300001
-0.10377619 0.087707624 0.70300001
-0.10258286 0.087832384 0.70400006
-0.10124191 0.087832384 0.70400006
-0.10004286 0.087957151 0.70500004
-0.099120006 0.088331431 0.708
-0.097633339 0.088206671 0.70700002
-0.096422866 0.088331431 0.708
-0.095342867 0.088580959 0.71000004
-0.093725719 0.088331431 0.708
-0.092377149 0.088331431 0.708
-0.091028579 0.088331431 0.708
-0.089680009 0.088331431 0.708
-0.088331431 0.088331431 0.708
-0.086982861 0.088331431 0.708
-0.14454001 0.087780006 0.69300002
-0.14322001 0.087780006 0.69300002
-0.1419 0.087780006 0.69300002
-0.14058001 0.087780006 0.69300002
-0.13926001 0.087780006 0.69300002
-0.13794 0.087780006 0.69300002
-0.13681716 0.087906674 0.69400001
-0.13549525 0.087906674 0.69400001
-0.13436668 0.088033341 0.69500005
-0.13304287 0.088033341 0.69500005
-0.13171905 0.088033341 0.69500005
-0.13077049 0.088286676 0.69700003
-0.12944287 0.088286676 0.69700003
-0.12811525 0.088286676 0.69700003
-0.12642382 0.088033341 0.69500005
-0.12546001 0.088286676 0.69700003
-0.12413239 0.088286676 0.69700003
-0.12298096 0.088413343 0.69800001
-0.12165143 0.088413343 0.69800001
-0.12032191 0.088413343 0.69800001
-0.11933334 0.08866667 0.70000005
-0.11816858 0.088793337 0.70100003
-0.11683334 0.088793337 0.70100003
-0.1154981 0.088793337 0.70100003
-0.11416286 0.088793337 0.70100003
-0.11282763 0.088793337 0.70100003
-0.11133334 0.08866667 0.70000005
-0.11000001 0.08866667 0.70000005
-0.10866667 0.08866667 0.70000005
-0.10748667 0.088793337 0.70100003
-0.10645429 0.089046672 0.70300001
-0.10511524 0.089046672 0.70300001
-0.10377619 0.089046672 0.70300001
-0.10258286 0.089173339 0.70400006
-0.10124191 0.089173339 0.70400006
-0.10004286 0.089300007 0.70500004
-0.098700009 0.089300007 0.70500004
-0.097633339 0.089553341 0.70700002
-0.096695244 0.089933336 0.71000004
-0.095342867 0.089933336 0.71000004
-0.093990482 0.089933336 0.71000004
-0.092638098 0.089933336 0.71000004
-0.09128572 0.089933336 0.71000004
-0.089933336 0.089933336 0.71000004
-0.088580959 0.089933336 0.71000004
-0.087228574 0.089933336 0.71000004
-0.1419 0.089100003 0.69300002
-0.14078286 0.089228578 0.69400001
-0.13926001 0.089100003 0.69300002
-0.13813905 0.089228578 0.69400001
-0.13681716 0.089228578 0.69400001
-0.13569048 0.089357145 0.69500005
-0.13436668 0.089357145 0.69500005
-0.13342573 0.089614294 0.69700003
-0.13209811 0.089614294 0.69700003
-0.13077049 0.089614294 0.69700003
-0.12962858 0.089742862 0.69800001
-0.12829906 0.089742862 0.69800001
-0.12678763 0.089614294 0.69700003
-0.12546001 0.089614294 0.69700003
-0.12413239 0.089614294 0.69700003
-0.12298096 0.089742862 0.69800001
-0.12147715 0.089614294 0.69700003
-0.12014953 0.089614294 0.69700003
-0.11882191 0.089614294 0.69700003
-0.11816858 0.090128578 0.70100003
-0.11683334 0.090128578 0.70100003
-0.11582763 0.09038572 0.70300001
-0.11416286 0.090128578 0.70100003
-0.11282763 0.090128578 0.70100003
-0.11149239 0.090128578 0.70100003
-0.10511524 0.09038572 0.70300001
-0.10377619 0.09038572 0.70300001
-0.10258286 0.090514295 0.70400006
-0.10124191 0.090514295 0.70400006
-0.099900961 0.090514295 0.70400006
-0.098560005 0.090514295 0.70400006
-0.097633339 0.090900004 0.70700002
-0.096422866 0.091028579 0.708
-0.095074289 0.091028579 0.708
-0.093725719 0.091028579 0.708
-0.092377149 0.091028579 0.708
-0.09128572 0.09128572 0.71000004
-0.089933336 0.09128572 0.71000004
-0.088580959 0.09128572 0.71000004
-0.087228574 0.09128572 0.71000004
-0.085634291 0.091028579 0.708
-0.14230953 0.090680957 0.69500005
-0.14098573 0.090680957 0.69500005
-0.13966191 0.090680957 0.69500005
-0.1383381 0.090680957 0.69500005
-0.1370143 0.090680957 0.69500005
-0.13608097 0.090941913 0.69700003
-0.13475335 0.090941913 0.69700003
-0.13342573 0.090941913 0.69700003
-0.13228762 0.091072388 0.69800001
-0.13133334 0.091333337 0.70000005
-0.12962858 0.091072388 0.69800001
-0.12829906 0.091072388 0.69800001
-0.12696953 0.091072388 0.69800001
-0.12564 0.091072388 0.69800001
-0.12431049 0.091072388 0.69800001
-0.12333334 0.091333337 0.70000005
-0.12200001 0.091333337 0.70000005
-0.12066668 0.091333337 0.70000005
-0.11850572 0.091724768 0.70300001
-0.11716668 0.091724768 0.70300001
-0.11582763 0.091724768 0.70300001
-0.11448858 0.091724768 0.70300001
-0.11314953 0.091724768 0.70300001
-0.10302 0.092246674 0.70700002
-0.10167334 0.092246674 0.70700002
-0.10004286 0.091985717 0.70500004
-0.098700009 0.091985717 0.70500004
-0.097633339 0.092246674 0.70700002
-0.096286669 0.092246674 0.70700002
-0.095342867 0.092638098 0.71000004
-0.093725719 0.092377149 0.708
-0.092377149 0.092377149 0.708
-0.09128572 0.092638098 0.71000004
-0.089933336 0.092638098 0.71000004
-0.088705719 0.09276858 0.71100003
-0.087228574 0.092638098 0.71000004
-0.085876197 0.092638098 0.71000004
-0.14139144 0.092269532 0.69700003
-0.14006382 0.092269532 0.69700003
-0.1387362 0.092269532 0.69700003
-0.13740858 0.092269532 0.69700003
-0.1362762 0.092401914 0.69800001
-0.13494667 0.092401914 0.69800001
-0.13361715 0.092401914 0.69800001
-0.13266668 0.092666671 0.70000005
-0.13152096 0.092799053 0.70100003
-0.13000001 0.092666671 0.70000005
-0.12866667 0.092666671 0.70000005
-0.12733334 0.092666671 0.70000005
-0.12618001 0.092799053 0.70100003
-0.12431049 0.092401914 0.69800001
-0.12333334 0.092666671 0.70000005
-0.12200001 0.092666671 0.70000005
-0.11867429 0.093196198 0.70400006
-0.11733334 0.093196198 0.70400006
-0.11599239 0.093196198 0.70400006
-0.11465143 0.093196198 0.70400006
-0.11331049 0.093196198 0.70400006
-0.11196953 0.093196198 0.70400006
-0.099759057 0.093063816 0.70300001
-0.098700009 0.09332858 0.70500004
-0.097633339 0.093593337 0.70700002
-0.096014291 0.09332858 0.70500004
-0.094940007 0.093593337 0.70700002
-0.093725719 0.093725719 0.708
-0.092377149 0.093725719 0.708
-0.091028579 0.093725719 0.708
-0.089680009 0.093725719 0.708
-0.088331431 0.093725719 0.708
-0.087228574 0.093990482 0.71000004
-0.085876197 0.093990482 0.71000004
-0.14271906 0.093597151 0.69700003
-0.14139144 0.093597151 0.69700003
-0.14006382 0.093597151 0.69700003
-0.1387362 0.093597151 0.69700003
-0.13740858 0.093597151 0.69700003
-0.1362762 0.093731433 0.69800001
-0.13494667 0.093731433 0.69800001
-0.13361715 0.093731433 0.69800001
-0.13266668 0.094000004 0.70000005
-0.13152096 0.094134293 0.70100003
-0.13018572 0.094134293 0.70100003
-0.12885049 0.094134293 0.70100003
-0.12751524 0.094134293 0.70100003
-0.12654001 0.094402865 0.70300001
-0.12484477 0.094134293 0.70100003
-0.12350953 0.094134293 0.70100003
-0.12217429 0.094134293 0.70100003
-0.1213562 0.094537146 0.70400006
-0.12001525 0.094537146 0.70400006
-0.11884286 0.094671436 0.70500004
-0.11750001 0.094671436 0.70500004
-0.11599239 0.094537146 0.70400006
-0.11465143 0.094537146 0.70400006
-0.11331049 0.094537146 0.70400006
-0.10032667 0.094940007 0.70700002
-0.09898001 0.094940007 0.70700002
-0.097633339 0.094940007 0.70700002
-0.096286669 0.094940007 0.70700002
-0.094940007 0.094940007 0.70700002
-0.093725719 0.095074289 0.708
-0.092638098 0.095342867 0.71000004
-0.09128572 0.095342867 0.71000004
-0.089680009 0.095074289 0.708
-0.088705719 0.095477149 0.71100003
-0.087351434 0.095477149 0.71100003
-0.14271906 0.09492477 0.69700003
-0.14139144 0.09492477 0.69700003
-0.14006382 0.09492477 0.69700003
-0.1387362 0.09492477 0.69700003
-0.13760573 0.095060959 0.69800001
-0.13666667 0.095333338 0.70000005
-0.13533334 0.095333338 0.70000005
-0.134 0.095333338 0.70000005
-0.13285621 0.095469527 0.70100003
-0.1318962 0.095741913 0.70300001
-0.13074286 0.095878102 0.70400006
-0.1292181 0.095741913 0.70300001
-0.12787905 0.095741913 0.70300001
-0.12654001 0.095741913 0.70300001
-0.12520096 0.095741913 0.70300001
-0.12386192 0.095741913 0.70300001
-0.12269715 0.095878102 0.70400006
-0.1213562 0.095878102 0.70400006
-0.12001525 0.095878102 0.70400006
-0.11918001 0.096286669 0.70700002
-0.11783334 0.096286669 0.70700002
-0.11615715 0.096014291 0.70500004
-0.1148143 0.096014291 0.70500004
-0.11347143 0.096014291 0.70500004
-0.11244667 0.096286669 0.70700002
-0.09898001 0.096286669 0.70700002
-0.097633339 0.096286669 0.70700002
-0.096286669 0.096286669 0.70700002
-0.094940007 0.096286669 0.70700002
-0.093593337 0.096286669 0.70700002
-0.093160003 0.097240008 0.71400005
-0.091800004 0.097240008 0.71400005
-0.090440005 0.097240008 0.71400005
-0.089080006 0.097240008 0.71400005
-0.087720007 0.097240008 0.71400005
-0.14159429 0.096390486 0.69800001
-0.14006382 0.096252389 0.69700003
-0.1387362 0.096252389 0.69700003
-0.13760573 0.096390486 0.69800001
-0.13666667 0.096666671 0.70000005
-0.13533334 0.096666671 0.70000005
-0.13419144 0.096804768 0.70100003
-0.13285621 0.096804768 0.70100003
-0.1318962 0.097080961 0.70300001
-0.13074286 0.097219057 0.70400006
-0.1292181 0.097080961 0.70300001
-0.12787905 0.097080961 0.70300001
-0.12654001 0.097080961 0.70300001
-0.12520096 0.097080961 0.70300001
-0.12386192 0.097080961 0.70300001
-0.12269715 0.097219057 0.70400006
-0.12118382 0.097080961 0.70300001
-0.12001525 0.097219057 0.70400006
-0.11884286 0.097357146 0.70500004
-0.11783334 0.097633339 0.70700002
