# .PCD v0.7 - Point Cloud Data file format
VERSION 0.7
FIELDS x y z
SIZE 4 4 4
TYPE F F F
COUNT 1 1 1
WIDTH 1075
HEIGHT 1
VIEWPOINT 0 0 0 1 0 0 0
POINTS 1075
DATA ascii
0.036697146 -0.047988575 0.98800004
0.04234286 -0.047988575 0.98800004
-0.010319049 -0.04596667 0.98500007
-0.006566667 -0.04596667 0.98500007
0.0028142859 -0.04596667 0.98500007
0.0046904767 -0.04596667 0.98500007
0.038383812 -0.045873336 0.98300004
0.044000953 -0.045873336 0.98300004
0.045873336 -0.045873336 0.98300004
0.047745716 -0.045873336 0.98300004
0.004666667 -0.043866668 0.98000002
-0.0027828573 -0.039887622 0.97400004
-0.00092761911 -0.039887622 0.97400004
0.00092761911 -0.039887622 0.97400004
-0.0045857145 -0.033934288 0.96300006
0.042523813 -0.028047621 0.95000005
0.044333335 -0.028047621 0.95000005
0.040628575 -0.026182858 0.94800007
0.04243429 -0.026182858 0.94800007
0.044240002 -0.026182858 0.94800007
0.046045717 -0.026182858 0.94800007
0.011700001 -0.024300002 0.94500005
0.013500001 -0.024300002 0.94500005
0.015300001 -0.024300002 0.94500005
0.018900001 -0.024300002 0.94500005
0.020700002 -0.024300002 0.94500005
0.013428573 -0.022380954 0.94000006
0.015219049 -0.022380954 0.94000006
0.017009525 -0.022380954 0.94000006
0.018800002 -0.022380954 0.94000006
0.020590477 -0.022380954 0.94000006
0.054609526 -0.022380954 0.94000006
0.015170477 -0.020524763 0.93700004
0.01695524 -0.020524763 0.93700004
0.018740002 -0.020524763 0.93700004
0.020524763 -0.020524763 0.93700004
-0.014846668 -0.0096066669 0.91700006
-0.011266667 -0.0060666669 0.91000003
0.16979524 0.0077571436 0.90500003
-0.11704668 0.036860004 0.67900002
-0.099790484 0.036697146 0.67600006
-0.098357148 0.036642861 0.67500001
-0.096927628 0.036588576 0.67400002
-0.095643818 0.036588576 0.67400002
-0.094360009 0.036588576 0.67400002
-0.11704668 0.038153335 0.67900002
-0.11575334 0.038153335 0.67900002
-0.11462858 0.038209528 0.68000001
-0.11316667 0.038153335 0.67900002
-0.099790484 0.037984766 0.67600006
-0.098357148 0.037928574 0.67500001
-0.096927628 0.037872385 0.67400002
-0.095643818 0.037872385 0.67400002
-0.094360009 0.037872385 0.67400002
-0.11704668 0.039446671 0.67900002
-0.11575334 0.039446671 0.67900002
-0.11446001 0.039446671 0.67900002
-0.11316667 0.039446671 0.67900002
-0.10008572 0.039388575 0.67800003
-0.098502867 0.039272383 0.67600006
-0.097071432 0.039214287 0.67500001
-0.095785722 0.039214287 0.67500001
-0.094500005 0.039214287 0.67500001
-0.093214288 0.039214287 0.67500001
-0.087814294 0.03967905 0.68300003
-0.11575334 0.040740002 0.67900002
-0.11446001 0.040740002 0.67900002
-0.11316667 0.040740002 0.67900002
-0.11187334 0.040740002 0.67900002
-0.10008572 0.040680002 0.67800003
-0.098502867 0.040560003 0.67600006
-0.097071432 0.040500004 0.67500001
-0.095927626 0.040560003 0.67600006
-0.094500005 0.040500004 0.67500001
-0.093214288 0.040500004 0.67500001
-0.092064768 0.040560003 0.67600006
-0.087814294 0.040980004 0.68300003
-0.11592381 0.04209524 0.68000001
-0.11446001 0.042033337 0.67900002
-0.11316667 0.042033337 0.67900002
-0.11187334 0.042033337 0.67900002
-0.11058 0.042033337 0.67900002
-0.10912572 0.04197143 0.67800003
-0.10426667 0.04209524 0.68000001
-0.10297143 0.04209524 0.68000001
-0.10023334 0.042033337 0.67900002
-0.098794289 0.04197143 0.67800003
-0.097071432 0.041785717 0.67500001
-0.096211433 0.04197143 0.67800003
-0.094920009 0.04197143 0.67800003
-0.093352385 0.04184762 0.67600006
-0.092473343 0.042033337 0.67900002
-0.091314293 0.04209524 0.68000001
-0.090019055 0.04209524 0.68000001
-0.088984765 0.04221905 0.68200004
-0.087685719 0.04221905 0.68200004
-0.086386673 0.04221905 0.68200004
-0.11721905 0.043390479 0.68000001
-0.11575334 0.043326668 0.67900002
-0.11446001 0.043326668 0.67900002
-0.11316667 0.043326668 0.67900002
-0.11187334 0.043326668 0.67900002
-0.11041715 0.043262862 0.67800003
-0.10912572 0.043262862 0.67800003
-0.10783429 0.043262862 0.67800003
-0.10654286 0.043262862 0.67800003
-0.10525144 0.043262862 0.67800003
-0.10426667 0.043390479 0.68000001
-0.10297143 0.043390479 0.68000001
-0.1016762 0.043390479 0.68000001
-0.10023334 0.043326668 0.67900002
-0.098940007 0.043326668 0.67900002
-0.097646676 0.043326668 0.67900002
-0.096353337 0.043326668 0.67900002
-0.095060006 0.043326668 0.67900002
-0.093766674 0.043326668 0.67900002
-0.092609532 0.043390479 0.68000001
-0.091582865 0.0435181 0.68200004
-0.090283819 0.0435181 0.68200004
-0.089115247 0.043581907 0.68300003
-0.087814294 0.043581907 0.68300003
-0.08651334 0.043581907 0.68300003
-0.11704668 0.044620004 0.67900002
-0.11575334 0.044620004 0.67900002
-0.11446001 0.044620004 0.67900002
-0.11300001 0.044554289 0.67800003
-0.11170858 0.044554289 0.67800003
-0.11041715 0.044554289 0.67800003
-0.10912572 0.044554289 0.67800003
-0.10783429 0.044554289 0.67800003
-0.10670001 0.044620004 0.67900002
-0.10540667 0.044620004 0.67900002
-0.10426667 0.044685718 0.68000001
-0.10297143 0.044685718 0.68000001
-0.1016762 0.044685718 0.68000001
-0.10038096 0.044685718 0.68000001
-0.098940007 0.044620004 0.67900002
-0.097646676 0.044620004 0.67900002
-0.096495241 0.044685718 0.68000001
-0.09520001 0.044685718 0.68000001
-0.093904771 0.044685718 0.68000001
-0.092881911 0.044817146 0.68200004
-0.091582865 0.044817146 0.68200004
-0.090283819 0.044817146 0.68200004
-0.089115247 0.04488286 0.68300003
-0.087814294 0.04488286 0.68300003
-0.08651334 0.04488286 0.68300003
-0.11575334 0.045913335 0.67900002
-0.11446001 0.045913335 0.67900002
-0.11300001 0.045845717 0.67800003
-0.11170858 0.045845717 0.67800003
-0.11058 0.045913335 0.67900002
-0.10928667 0.045913335 0.67900002
-0.10799334 0.045913335 0.67900002
-0.10670001 0.045913335 0.67900002
-0.10540667 0.045913335 0.67900002
-0.10426667 0.045980956 0.68000001
-0.10327429 0.046116192 0.68200004
-0.10197525 0.046116192 0.68200004
-0.10038096 0.045980956 0.68000001
-0.099085718 0.045980956 0.68000001
-0.098078102 0.046116192 0.68200004
-0.096779056 0.046116192 0.68200004
-0.09520001 0.045980956 0.68000001
-0.094180956 0.046116192 0.68200004
-0.0930181 0.046183813 0.68300003
-0.091717146 0.046183813 0.68300003
-0.090283819 0.046116192 0.68200004
-0.089115247 0.046183813 0.68300003
-0.087814294 0.046183813 0.68300003
-0.086640008 0.046251431 0.68400002
-0.11575334 0.04720667 0.67900002
-0.11429144 0.047137145 0.67800003
-0.11300001 0.047137145 0.67800003
-0.11170858 0.047137145 0.67800003
-0.11041715 0.047137145 0.67800003
-0.10912572 0.047137145 0.67800003
-0.10799334 0.04720667 0.67900002
-0.10670001 0.04720667 0.67900002
-0.10556191 0.047276195 0.68000001
-0.10426667 0.047276195 0.68000001
-0.10297143 0.047276195 0.68000001
-0.1016762 0.047276195 0.68000001
-0.10067619 0.047415242 0.68200004
-0.099377148 0.047415242 0.68200004
-0.098078102 0.047415242 0.68200004
-0.096779056 0.047415242 0.68200004
-0.09548001 0.047415242 0.68200004
-0.094180956 0.047415242 0.68200004
-0.0930181 0.047484767 0.68300003
-0.091582865 0.047415242 0.68200004
-0.090283819 0.047415242 0.68200004
-0.089115247 0.047484767 0.68300003
-0.087814294 0.047484767 0.68300003
-0.086640008 0.047554288 0.68400002
-0.085337147 0.047554288 0.68400002
-0.11592381 0.04857143 0.68000001
-0.11462858 0.04857143 0.68000001
-0.11316667 0.048500001 0.67900002
-0.11203811 0.04857143 0.68000001
-0.11074287 0.04857143 0.68000001
-0.10944763 0.04857143 0.68000001
-0.10815239 0.04857143 0.68000001
-0.10685715 0.04857143 0.68000001
-0.10556191 0.04857143 0.68000001
-0.10426667 0.04857143 0.68000001
-0.10297143 0.04857143 0.68000001
-0.1016762 0.04857143 0.68000001
-0.10038096 0.04857143 0.68000001
-0.099085718 0.04857143 0.68000001
-0.09779048 0.04857143 0.68000001
-0.09692096 0.048785716 0.68300003
-0.09548001 0.048714288 0.68200004
-0.094319053 0.048785716 0.68300003
-0.0930181 0.048785716 0.68300003
-0.091717146 0.048785716 0.68300003
-0.090416193 0.048785716 0.68300003
-0.089245722 0.048857145 0.68400002
-0.087814294 0.048785716 0.68300003
-0.086640008 0.048857145 0.68400002
-0.085337147 0.048857145 0.68400002
-0.11462858 0.049866669 0.68000001
-0.11333334 0.049866669 0.68000001
-0.11236763 0.050013337 0.68200004
-0.11106858 0.050013337 0.68200004
-0.10976953 0.050013337 0.68200004
-0.10847048 0.050013337 0.68200004
-0.10717144 0.050013337 0.68200004
-0.10556191 0.049866669 0.68000001
-0.10426667 0.049866669 0.68000001
-0.10297143 0.049866669 0.68000001
-0.1016762 0.049866669 0.68000001
-0.10038096 0.049866669 0.68000001
-0.098940007 0.049793337 0.67900002
-0.097646676 0.049793337 0.67900002
-0.09692096 0.05008667 0.68300003
-0.095620006 0.05008667 0.68300003
-0.094319053 0.05008667 0.68300003
-0.093154289 0.050160002 0.68400002
-0.091851436 0.050160002 0.68400002
-0.090548575 0.050160002 0.68400002
-0.089245722 0.050160002 0.68400002
-0.087942861 0.050160002 0.68400002
-0.086893342 0.05030667 0.68600005
-0.085586675 0.05030667 0.68600005
-0.084280007 0.05030667 0.68600005
-0.11400001 0.051462859 0.68400002
-0.11269715 0.051462859 0.68400002
-0.11123144 0.051387623 0.68300003
-0.10993049 0.051387623 0.68300003
-0.10862953 0.051387623 0.68300003
-0.10717144 0.051312383 0.68200004
-0.10587239 0.051312383 0.68200004
-0.10426667 0.051161908 0.68000001
-0.10297143 0.051161908 0.68000001
-0.1016762 0.051161908 0.68000001
-0.10023334 0.051086672 0.67900002
-0.098940007 0.051086672 0.67900002
-0.098365724 0.051462859 0.68400002
-0.097062863 0.051462859 0.68400002
-0.095760003 0.051462859 0.68400002
-0.09445715 0.051462859 0.68400002
-0.093426675 0.051613338 0.68600005
-0.092120007 0.051613338 0.68600005
-0.090813339 0.051613338 0.68600005
-0.089506671 0.051613338 0.68600005
-0.088200003 0.051613338 0.68600005
-0.087020002 0.051688574 0.68700004
-0.085711434 0.051688574 0.68700004
-0.11779906 0.053305719 0.69100004
-0.11631429 0.053228576 0.69000006
-0.11500001 0.053228576 0.69000006
-0.11302667 0.052920002 0.68600005
-0.11172001 0.052920002 0.68600005
-0.11041334 0.052920002 0.68600005
-0.10878858 0.05276572 0.68400002
-0.10732858 0.052688576 0.68300003
-0.10587239 0.052611433 0.68200004
-0.10457334 0.052611433 0.68200004
-0.10297143 0.052457146 0.68000001
-0.1016762 0.052457146 0.68000001
-0.10082382 0.052688576 0.68300003
-0.099522866 0.052688576 0.68300003
-0.098365724 0.05276572 0.68400002
-0.097062863 0.05276572 0.68400002
-0.095760003 0.05276572 0.68400002
-0.094733343 0.052920002 0.68600005
-0.093426675 0.052920002 0.68600005
-0.092120007 0.052920002 0.68600005
-0.090813339 0.052920002 0.68600005
-0.089506671 0.052920002 0.68600005
-0.088328578 0.052997146 0.68700004
-0.087020002 0.052997146 0.68700004
-0.085711434 0.052997146 0.68700004
-0.11894286 0.054542862 0.69000006
-0.11762858 0.054542862 0.69000006
-0.11631429 0.054542862 0.69000006
-0.11500001 0.054542862 0.69000006
-0.11352096 0.054463815 0.68900001
-0.11188287 0.054305717 0.68700004
-0.11041334 0.05422667 0.68600005
-0.10910667 0.05422667 0.68600005
-0.10732858 0.053989526 0.68300003
-0.10602763 0.053989526 0.68300003
-0.10457334 0.053910479 0.68200004
-0.10297143 0.053752385 0.68000001
-0.10197525 0.053910479 0.68200004
-0.10067619 0.053910479 0.68200004
-0.099522866 0.053989526 0.68300003
-0.098365724 0.054068577 0.68400002
-0.097062863 0.054068577 0.68400002
-0.096040003 0.05422667 0.68600005
-0.094733343 0.05422667 0.68600005
-0.093426675 0.05422667 0.68600005
-0.092254288 0.054305717 0.68700004
-0.090945721 0.054305717 0.68700004
-0.089637145 0.054305717 0.68700004
-0.088585719 0.054463815 0.68900001
-0.087273337 0.054463815 0.68900001
-0.086085722 0.054542862 0.69000006
-0.11894286 0.055857148 0.69000006
-0.11762858 0.055857148 0.69000006
-0.11631429 0.055857148 0.69000006
-0.11500001 0.055857148 0.69000006
-0.11352096 0.055776194 0.68900001
-0.11220858 0.055776194 0.68900001
-0.11057429 0.055614289 0.68700004
-0.10926572 0.055614289 0.68700004
-0.10748572 0.055371433 0.68400002
-0.10602763 0.055290479 0.68300003
-0.10472667 0.055290479 0.68300003
-0.10342572 0.055290479 0.68300003
-0.10197525 0.055209529 0.68200004
-0.10067619 0.055209529 0.68200004
-0.099522866 0.055290479 0.68300003
-0.098365724 0.055371433 0.68400002
-0.097346671 0.055533338 0.68600005
-0.096040003 0.055533338 0.68600005
-0.094733343 0.055533338 0.68600005
-0.093562864 0.055614289 0.68700004
-0.092254288 0.055614289 0.68700004
-0.090945721 0.055614289 0.68700004
-0.089637145 0.055614289 0.68700004
-0.088585719 0.055776194 0.68900001
-0.087273337 0.055776194 0.68900001
-0.085960954 0.055776194 0.68900001
-0.084648579 0.055776194 0.68900001
-0.11911525 0.057254288 0.69100004
-0.11762858 0.057171434 0.69000006
-0.11631429 0.057171434 0.69000006
-0.11500001 0.057171434 0.69000006
-0.11368572 0.057171434 0.69000006
-0.11220858 0.057088576 0.68900001
-0.1108962 0.057088576 0.68900001
-0.10926572 0.05692286 0.68700004
-0.10780001 0.056840003 0.68600005
-0.10618287 0.05667429 0.68400002
-0.10457334 0.056508575 0.68200004
-0.10327429 0.056508575 0.68200004
-0.10197525 0.056508575 0.68200004
-0.10067619 0.056508575 0.68200004
-0.099522866 0.056591433 0.68300003
-0.098365724 0.05667429 0.68400002
-0.097346671 0.056840003 0.68600005
-0.096180007 0.05692286 0.68700004
-0.094871432 0.05692286 0.68700004
-0.093562864 0.05692286 0.68700004
-0.092254288 0.05692286 0.68700004
-0.091210485 0.057088576 0.68900001
-0.089898102 0.057088576 0.68900001
-0.088714294 0.057171434 0.69000006
-0.087273337 0.057088576 0.68900001
-0.085960954 0.057088576 0.68900001
-0.11762858 0.058485717 0.69000006
-0.11648286 0.058570482 0.69100004
-0.11516667 0.058570482 0.69100004
-0.11368572 0.058485717 0.69000006
-0.11237144 0.058485717 0.69000006
-0.1108962 0.058400955 0.68900001
-0.10958382 0.058400955 0.68900001
-0.10780001 0.05814667 0.68600005
-0.10618287 0.057977147 0.68400002
-0.10488001 0.057977147 0.68400002
-0.10357715 0.057977147 0.68400002
-0.10227429 0.057977147 0.68400002
-0.10126667 0.05814667 0.68600005
-0.10010572 0.058231432 0.68700004
-0.09879715 0.058231432 0.68700004
-0.09777239 0.058400955 0.68900001
-0.096460007 0.058400955 0.68900001
-0.095147625 0.058400955 0.68900001
-0.093835242 0.058400955 0.68900001
-0.09252286 0.058400955 0.68900001
-0.091342866 0.058485717 0.69000006
-0.090159051 0.058570482 0.69100004
-0.088842861 0.058570482 0.69100004
-0.087526672 0.058570482 0.69100004
-0.086460009 0.058740005 0.69300002
-0.085140005 0.058740005 0.69300002
-0.11779906 0.059886672 0.69100004
-0.11648286 0.059886672 0.69100004
-0.11516667 0.059886672 0.69100004
-0.11368572 0.059800003 0.69000006
-0.11237144 0.059800003 0.69000006
-0.11105715 0.059800003 0.69000006
-0.10958382 0.059713338 0.68900001
-0.10795715 0.059540004 0.68700004
-0.10649334 0.059453338 0.68600005
-0.10518667 0.059453338 0.68600005
-0.10388001 0.059453338 0.68600005
-0.10272286 0.059540004 0.68700004
-0.10170953 0.059713338 0.68900001
-0.10039715 0.059713338 0.68900001
-0.099084765 0.059713338 0.68900001
-0.09777239 0.059713338 0.68900001
-0.096460007 0.059713338 0.68900001
-0.095147625 0.059713338 0.68900001
-0.093835242 0.059713338 0.68900001
-0.092657149 0.059800003 0.69000006
-0.091475241 0.059886672 0.69100004
-0.090159051 0.059886672 0.69100004
-0.089100003 0.060060006 0.69300002
-0.087780006 0.060060006 0.69300002
-0.086584769 0.060146671 0.69400001
-0.085262865 0.060146671 0.69400001
-0.11682001 0.061380003 0.69300002
-0.11516667 0.061202861 0.69100004
-0.11385048 0.061202861 0.69100004
-0.11253429 0.061202861 0.69100004
-0.11105715 0.061114289 0.69000006
-0.10958382 0.06102572 0.68900001
-0.10795715 0.060848575 0.68700004
-0.10649334 0.060760003 0.68600005
-0.10518667 0.060760003 0.68600005
-0.10433429 0.06102572 0.68900001
-0.10302191 0.06102572 0.68900001
-0.10185715 0.061114289 0.69000006
-0.10054287 0.061114289 0.69000006
-0.099228576 0.061114289 0.69000006
-0.097914293 0.061114289 0.69000006
-0.096460007 0.06102572 0.68900001
-0.095285721 0.061114289 0.69000006
-0.093835242 0.06102572 0.68900001
-0.09252286 0.06102572 0.68900001
-0.091210485 0.06102572 0.68900001
-0.090028577 0.061114289 0.69000006
-0.088842861 0.061202861 0.69100004
-0.087780006 0.061380003 0.69300002
-0.086584769 0.061468575 0.69400001
-0.11648286 0.062519051 0.69100004
-0.11516667 0.062519051 0.69100004
-0.11385048 0.062519051 0.69100004
-0.11253429 0.062519051 0.69100004
-0.1112181 0.062519051 0.69100004
-0.10990191 0.062519051 0.69100004
-0.10842858 0.062428575 0.69000006
-0.10726953 0.062519051 0.69100004
-0.10595334 0.062519051 0.69100004
-0.10509144 0.062790483 0.69400001
-0.10376953 0.062790483 0.69400001
-0.10259525 0.062880956 0.69500005
-0.10127144 0.062880956 0.69500005
-0.099803813 0.062790483 0.69400001
-0.098481908 0.062790483 0.69400001
-0.096740007 0.062519051 0.69100004
-0.095423818 0.062519051 0.69100004
-0.094107628 0.062519051 0.69100004
-0.092791438 0.062519051 0.69100004
-0.091740005 0.062700003 0.69300002
-0.090420008 0.062700003 0.69300002
-0.089228578 0.062790483 0.69400001
-0.088033341 0.062880956 0.69500005
-0.086709529 0.062880956 0.69500005
-0.11648286 0.063835241 0.69100004
-0.11516667 0.063835241 0.69100004
-0.11385048 0.063835241 0.69100004
-0.11286001 0.064020008 0.69300002
-0.1112181 0.063835241 0.69100004
-0.10990191 0.063835241 0.69100004
-0.10890001 0.064020008 0.69300002
-0.10726953 0.063835241 0.69100004
-0.10595334 0.063835241 0.69100004
-0.10524286 0.064204767 0.69500005
-0.10391905 0.064204767 0.69500005
-0.10289048 0.064389527 0.69700003
-0.10127144 0.064204767 0.69500005
-0.099803813 0.064112388 0.69400001
-0.098481908 0.064112388 0.69400001
-0.097160004 0.064112388 0.69400001
-0.095700003 0.064020008 0.69300002
-0.094516195 0.064112388 0.69400001
-0.093194291 0.064112388 0.69400001
-0.092004769 0.064204767 0.69500005
-0.090550482 0.064112388 0.69400001
-0.089357145 0.064204767 0.69500005
-0.088033341 0.064204767 0.69500005
-0.086959057 0.064389527 0.69700003
-0.11516667 0.065151431 0.69100004
-0.11385048 0.065151431 0.69100004
-0.11286001 0.065340005 0.69300002
-0.1112181 0.065151431 0.69100004
-0.10990191 0.065151431 0.69100004
-0.10858572 0.065151431 0.69100004
-0.10726953 0.065151431 0.69100004
-0.10595334 0.065151431 0.69100004
-0.10509144 0.065434292 0.69400001
-0.10362001 0.065340005 0.69300002
-0.10259525 0.065528579 0.69500005
-0.10127144 0.065528579 0.69500005
-0.099372387 0.065151431 0.69100004
-0.09862382 0.065528579 0.69500005
-0.097300008 0.065528579 0.69500005
-0.0958381 0.065434292 0.69400001
-0.094652385 0.065528579 0.69500005
-0.093194291 0.065434292 0.69400001
-0.092004769 0.065528579 0.69500005
-0.090680957 0.065528579 0.69500005
-0.089357145 0.065528579 0.69500005
-0.088033341 0.065528579 0.69500005
-0.086959057 0.065717146 0.69700003
-0.085631438 0.065717146 0.69700003
-0.11631429 0.066371433 0.69000006
-0.11500001 0.066371433 0.69000006
-0.11368572 0.066371433 0.69000006
-0.11253429 0.06646762 0.69100004
-0.1112181 0.06646762 0.69100004
-0.11022001 0.066660002 0.69300002
-0.10858572 0.06646762 0.69100004
-0.10726953 0.06646762 0.69100004
-0.10595334 0.06646762 0.69100004
-0.10509144 0.066756196 0.69400001
-0.10332096 0.06646762 0.69100004
-0.10200477 0.06646762 0.69100004
-0.10068858 0.06646762 0.69100004
-0.099372387 0.06646762 0.69100004
-0.098481908 0.066756196 0.69400001
-0.097160004 0.066756196 0.69400001
-0.0958381 0.066756196 0.69400001
-0.094516195 0.066756196 0.69400001
-0.093194291 0.066756196 0.69400001
-0.092004769 0.066852383 0.69500005
-0.090680957 0.066852383 0.69500005
-0.089357145 0.066852383 0.69500005
-0.088286676 0.067044765 0.69700003
-0.086959057 0.067044765 0.69700003
-0.085631438 0.067044765 0.69700003
-0.084303819 0.067044765 0.69700003
-0.11631429 0.067685716 0.69000006
-0.11500001 0.067685716 0.69000006
-0.11368572 0.067685716 0.69000006
-0.11253429 0.067783818 0.69100004
-0.1112181 0.067783818 0.69100004
-0.10990191 0.067783818 0.69100004
-0.10858572 0.067783818 0.69100004
-0.10726953 0.067783818 0.69100004
-0.10595334 0.067783818 0.69100004
-0.10494 0.067980006 0.69300002
-0.10362001 0.067980006 0.69300002
-0.10200477 0.067783818 0.69100004
-0.10068858 0.067783818 0.69100004
-0.099372387 0.067783818 0.69100004
-0.09862382 0.068176195 0.69500005
-0.097300008 0.068176195 0.69500005
-0.0958381 0.068078101 0.69400001
-0.094516195 0.068078101 0.69400001
-0.09332858 0.068176195 0.69500005
-0.092004769 0.068176195 0.69500005
-0.090680957 0.068176195 0.69500005
-0.089357145 0.068176195 0.69500005
-0.088286676 0.068372384 0.69700003
-0.086959057 0.068372384 0.69700003
-0.085631438 0.068372384 0.69700003
-0.084303819 0.068372384 0.69700003
-0.11614572 0.068900004 0.68900001
-0.11500001 0.069000006 0.69000006
-0.11368572 0.069000006 0.69000006
-0.11253429 0.069100007 0.69100004
-0.1112181 0.069100007 0.69100004
-0.10990191 0.069100007 0.69100004
-0.10858572 0.069100007 0.69100004
-0.10726953 0.069100007 0.69100004
-0.10595334 0.069100007 0.69100004
-0.10524286 0.069500007 0.69500005
-0.10332096 0.069100007 0.69100004
-0.10200477 0.069100007 0.69100004
-0.10068858 0.069100007 0.69100004
-0.099372387 0.069100007 0.69100004
-0.09862382 0.069500007 0.69500005
-0.097300008 0.069500007 0.69500005
-0.0958381 0.069400005 0.69400001
-0.094652385 0.069500007 0.69500005
-0.09332858 0.069500007 0.69500005
-0.092004769 0.069500007 0.69500005
-0.090941913 0.069700003 0.69700003
-0.089614294 0.069700003 0.69700003
-0.088286676 0.069700003 0.69700003
-0.086959057 0.069700003 0.69700003
-0.085631438 0.069700003 0.69700003
-0.084303819 0.069700003 0.69700003
-0.11500001 0.070314288 0.69000006
-0.11368572 0.070314288 0.69000006
-0.11253429 0.070416197 0.69100004
-0.1112181 0.070416197 0.69100004
-0.10990191 0.070416197 0.69100004
-0.10890001 0.070620008 0.69300002
-0.10789049 0.070823811 0.69500005
-0.10656668 0.070823811 0.69500005
-0.10524286 0.070823811 0.69500005
-0.1042181 0.071027622 0.69700003
-0.10259525 0.070823811 0.69500005
-0.10127144 0.070823811 0.69500005
-0.099660009 0.070620008 0.69300002
-0.09862382 0.070823811 0.69500005
-0.097300008 0.070823811 0.69500005
-0.095976196 0.070823811 0.69500005
-0.094652385 0.070823811 0.69500005
-0.09332858 0.070823811 0.69500005
-0.092004769 0.070823811 0.69500005
-0.090680957 0.070823811 0.69500005
-0.089614294 0.071027622 0.69700003
-0.088286676 0.071027622 0.69700003
-0.086959057 0.071027622 0.69700003
-0.085631438 0.071027622 0.69700003
-0.084303819 0.071027622 0.69700003
-0.11516667 0.071732387 0.69100004
-0.11385048 0.071732387 0.69100004
-0.11286001 0.071940005 0.69300002
-0.11170096 0.072043814 0.69400001
-0.11022001 0.071940005 0.69300002
-0.10890001 0.071940005 0.69300002
-0.10758001 0.071940005 0.69300002
-0.10595334 0.071732387 0.69100004
-0.10463715 0.071732387 0.69100004
-0.10332096 0.071732387 0.69100004
-0.10200477 0.071732387 0.69100004
-0.10068858 0.071732387 0.69100004
-0.099372387 0.071732387 0.69100004
-0.09862382 0.072147623 0.69500005
-0.097300008 0.072147623 0.69500005
-0.095976196 0.072147623 0.69500005
-0.094652385 0.072147623 0.69500005
-0.093597151 0.072355241 0.69700003
-0.092269532 0.072355241 0.69700003
-0.090941913 0.072355241 0.69700003
-0.089614294 0.072355241 0.69700003
-0.088286676 0.072355241 0.69700003
-0.086959057 0.072355241 0.69700003
-0.085631438 0.072355241 0.69700003
-0.11302286 0.073365718 0.69400001
-0.11170096 0.073365718 0.69400001
-0.11022001 0.073260002 0.69300002
-0.10890001 0.073260002 0.69300002
-0.10789049 0.073471434 0.69500005
-0.10656668 0.073471434 0.69500005
-0.10524286 0.073471434 0.69500005
-0.1042181 0.07368286 0.69700003
-0.10259525 0.073471434 0.69500005
-0.10127144 0.073471434 0.69500005
-0.099947624 0.073471434 0.69500005
-0.09862382 0.073471434 0.69500005
-0.097300008 0.073471434 0.69500005
-0.095976196 0.073471434 0.69500005
-0.09492477 0.07368286 0.69700003
-0.093597151 0.07368286 0.69700003
-0.092269532 0.07368286 0.69700003
-0.091072388 0.073788576 0.69800001
-0.089742862 0.073788576 0.69800001
-0.088413343 0.073788576 0.69800001
-0.087083817 0.073788576 0.69800001
-0.11566667 0.074687622 0.69400001
-0.11434477 0.074687622 0.69400001
-0.11302286 0.074687622 0.69400001
-0.11170096 0.074687622 0.69400001
-0.11037906 0.074687622 0.69400001
-0.10905715 0.074687622 0.69400001
-0.10789049 0.074795246 0.69500005
-0.10656668 0.074795246 0.69500005
-0.10524286 0.074795246 0.69500005
-0.1042181 0.075010478 0.69700003
-0.10259525 0.074795246 0.69500005
-0.10127144 0.074795246 0.69500005
-0.10023525 0.075010478 0.69700003
-0.098481908 0.074687622 0.69400001
-0.097160004 0.074687622 0.69400001
-0.0958381 0.074687622 0.69400001
-0.094516195 0.074687622 0.69400001
-0.093194291 0.074687622 0.69400001
-0.092269532 0.075010478 0.69700003
-0.091072388 0.075118102 0.69800001
-0.089742862 0.075118102 0.69800001
-0.088413343 0.075118102 0.69800001
-0.087083817 0.075118102 0.69800001
-0.11583334 0.07611905 0.69500005
-0.11450953 0.07611905 0.69500005
-0.11318572 0.07611905 0.69500005
-0.11186191 0.07611905 0.69500005
-0.1105381 0.07611905 0.69500005
-0.10921429 0.07611905 0.69500005
-0.10820096 0.076338097 0.69700003
-0.10687334 0.076338097 0.69700003
-0.10554572 0.076338097 0.69700003
-0.1042181 0.076338097 0.69700003
-0.10289048 0.076338097 0.69700003
-0.10156287 0.076338097 0.69700003
-0.10023525 0.076338097 0.69700003
-0.098907627 0.076338097 0.69700003
-0.097580008 0.076338097 0.69700003
-0.096252389 0.076338097 0.69700003
-0.095469527 0.076776199 0.70100003
-0.094134293 0.076776199 0.70100003
-0.092799053 0.076776199 0.70100003
-0.091463819 0.076776199 0.70100003
-0.090128578 0.076776199 0.70100003
-0.08866667 0.076666668 0.70000005
-0.087333336 0.076666668 0.70000005
-0.11616667 0.077665716 0.69700003
-0.11483905 0.077665716 0.69700003
-0.11318572 0.077442862 0.69500005
-0.11186191 0.077442862 0.69500005
-0.1105381 0.077442862 0.69500005
-0.10952858 0.077665716 0.69700003
-0.10820096 0.077665716 0.69700003
-0.10687334 0.077665716 0.69700003
-0.10569715 0.077777147 0.69800001
-0.10436763 0.077777147 0.69800001
-0.1030381 0.077777147 0.69800001
-0.10170858 0.077777147 0.69800001
-0.10066667 0.078000002 0.70000005
-0.099333338 0.078000002 0.70000005
-0.098000005 0.078000002 0.70000005
-0.094134293 0.078111432 0.70100003
-0.092799053 0.078111432 0.70100003
-0.091463819 0.078111432 0.70100003
-0.090128578 0.078111432 0.70100003
-0.088793337 0.078111432 0.70100003
-0.087458104 0.078111432 0.70100003
-0.086122863 0.078111432 0.70100003
-0.11616667 0.078993335 0.69700003
-0.11483905 0.078993335 0.69700003
-0.11351144 0.078993335 0.69700003
-0.11218382 0.078993335 0.69700003
-0.1108562 0.078993335 0.69700003
-0.10952858 0.078993335 0.69700003
-0.10820096 0.078993335 0.69700003
-0.10702667 0.079106674 0.69800001
-0.10569715 0.079106674 0.69800001
-0.10466667 0.079333335 0.70000005
-0.10333334 0.079333335 0.70000005
-0.10200001 0.079333335 0.70000005
-0.10066667 0.079333335 0.70000005
-0.099333338 0.079333335 0.70000005
-0.098140009 0.079446673 0.70100003
-0.097080961 0.079673335 0.70300001
-0.095741913 0.079673335 0.70300001
-0.094402865 0.079673335 0.70300001
-0.093063816 0.079673335 0.70300001
-0.091724768 0.079673335 0.70300001
-0.09038572 0.079673335 0.70300001
-0.088793337 0.079446673 0.70100003
-0.087458104 0.079446673 0.70100003
-0.086122863 0.079446673 0.70100003
-0.11633334 0.080436192 0.69800001
-0.11500382 0.080436192 0.69800001
-0.11367429 0.080436192 0.69800001
-0.11234477 0.080436192 0.69800001
-0.11101525 0.080436192 0.69800001
-0.10968572 0.080436192 0.69800001
-0.1083562 0.080436192 0.69800001
-0.10702667 0.080436192 0.69800001
-0.10600001 0.080666669 0.70000005
-0.10466667 0.080666669 0.70000005
-0.10333334 0.080666669 0.70000005
-0.10214572 0.080781907 0.70100003
-0.10081048 0.080781907 0.70100003
-0.099475242 0.080781907 0.70100003
-0.098140009 0.080781907 0.70100003
-0.097080961 0.081012383 0.70300001
-0.095741913 0.081012383 0.70300001
-0.094402865 0.081012383 0.70300001
-0.093063816 0.081012383 0.70300001
-0.091855243 0.081127621 0.70400006
-0.09038572 0.081012383 0.70300001
-0.089046672 0.081012383 0.70300001
-0.087707624 0.081012383 0.70300001
-0.086368576 0.081012383 0.70300001
-0.11633334 0.081765719 0.69800001
-0.11500382 0.081765719 0.69800001
-0.11367429 0.081765719 0.69800001
-0.11234477 0.081765719 0.69800001
-0.11101525 0.081765719 0.69800001
-0.10968572 0.081765719 0.69800001
-0.1083562 0.081765719 0.69800001
-0.10733334 0.082000002 0.70000005
-0.10600001 0.082000002 0.70000005
-0.10466667 0.082000002 0.70000005
-0.10333334 0.082000002 0.70000005
-0.10214572 0.082117148 0.70100003
-0.10081048 0.082117148 0.70100003
-0.099475242 0.082117148 0.70100003
-0.098420009 0.082351431 0.70300001
-0.097080961 0.082351431 0.70300001
-0.095741913 0.082351431 0.70300001
-0.094402865 0.082351431 0.70300001
-0.093063816 0.082351431 0.70300001
-0.091724768 0.082351431 0.70300001
-0.09038572 0.082351431 0.70300001
-0.089046672 0.082351431 0.70300001
-0.087707624 0.082351431 0.70300001
-0.086122863 0.082117148 0.70100003
-0.084787622 0.082117148 0.70100003
-0.11666667 0.083333336 0.70000005
-0.11533334 0.083333336 0.70000005
-0.11367429 0.083095245 0.69800001
-0.11266667 0.083333336 0.70000005
-0.11133334 0.083333336 0.70000005
-0.11000001 0.083333336 0.70000005
-0.10866667 0.083333336 0.70000005
-0.10748667 0.083452389 0.70100003
-0.10600001 0.083333336 0.70000005
-0.1048162 0.083452389 0.70100003
-0.10333334 0.083333336 0.70000005
-0.10200001 0.083333336 0.70000005
-0.10081048 0.083452389 0.70100003
-0.099759057 0.083690479 0.70300001
-0.098420009 0.083690479 0.70300001
-0.097219057 0.083809532 0.70400006
-0.095878102 0.083809532 0.70400006
-0.094537146 0.083809532 0.70400006
-0.093063816 0.083690479 0.70300001
-0.091855243 0.083809532 0.70400006
-0.090514295 0.083809532 0.70400006
-0.089046672 0.083690479 0.70300001
-0.087458104 0.083452389 0.70100003
-0.086122863 0.083452389 0.70100003
-0.084787622 0.083452389 0.70100003
-0.1154981 0.084787622 0.70100003
-0.11416286 0.084787622 0.70100003
-0.11282763 0.084787622 0.70100003
-0.11149239 0.084787622 0.70100003
-0.11015715 0.084787622 0.70100003
-0.10866667 0.084666669 0.70000005
-0.10748667 0.084787622 0.70100003
-0.10615144 0.084787622 0.70100003
-0.1048162 0.084787622 0.70100003
-0.10348096 0.084787622 0.70100003
-0.10214572 0.084787622 0.70100003
-0.10081048 0.084787622 0.70100003
-0.099759057 0.085029528 0.70300001
-0.098560005 0.08515048 0.70400006
-0.097219057 0.08515048 0.70400006
-0.095878102 0.08515048 0.70400006
-0.094537146 0.08515048 0.70400006
-0.093196198 0.08515048 0.70400006
-0.091855243 0.08515048 0.70400006
-0.090642862 0.085271433 0.70500004
-0.089173339 0.08515048 0.70400006
-0.087458104 0.084787622 0.70100003
-0.086122863 0.084787622 0.70100003
-0.084787622 0.084787622 0.70100003
-0.1154981 0.086122863 0.70100003
-0.11416286 0.086122863 0.70100003
-0.11282763 0.086122863 0.70100003
-0.11149239 0.086122863 0.70100003
-0.11015715 0.086122863 0.70100003
-0.10866667 0.086000003 0.70000005
-0.10733334 0.086000003 0.70000005
-0.10600001 0.086000003 0.70000005
-0.1048162 0.086122863 0.70100003
-0.10333334 0.086000003 0.70000005
-0.099759057 0.086368576 0.70300001
-0.098560005 0.086491436 0.70400006
-0.097219057 0.086491436 0.70400006
-0.095878102 0.086491436 0.70400006
-0.094537146 0.086491436 0.70400006
-0.093196198 0.086491436 0.70400006
-0.091855243 0.086491436 0.70400006
-0.090642862 0.086614288 0.70500004
-0.089173339 0.086491436 0.70400006
-0.087458104 0.086122863 0.70100003
-0.086122863 0.086122863 0.70100003
-0.084787622 0.086122863 0.70100003
-0.1154981 0.087458104 0.70100003
-0.11416286 0.087458104 0.70100003
-0.11282763 0.087458104 0.70100003
-0.11149239 0.087458104 0.70100003
-0.11000001 0.087333336 0.70000005
-0.10866667 0.087333336 0.70000005
-0.10733334 0.087333336 0.70000005
-0.10600001 0.087333336 0.70000005
-0.10466667 0.087333336 0.70000005
-0.10333334 0.087333336 0.70000005
-0.099900961 0.087832384 0.70400006
-0.098560005 0.087832384 0.70400006
-0.097219057 0.087832384 0.70400006
-0.095878102 0.087832384 0.70400006
-0.094671436 0.087957151 0.70500004
-0.093196198 0.087832384 0.70400006
-0.091855243 0.087832384 0.70400006
-0.090642862 0.087957151 0.70500004
-0.089300007 0.087957151 0.70500004
-0.087957151 0.087957151 0.70500004
-0.086614288 0.087957151 0.70500004
-0.085271433 0.087957151 0.70500004
-0.1154981 0.088793337 0.70100003
-0.11416286 0.088793337 0.70100003
-0.11282763 0.088793337 0.70100003
-0.11149239 0.088793337 0.70100003
-0.11015715 0.088793337 0.70100003
-0.10882191 0.088793337 0.70100003
-0.10748667 0.088793337 0.70100003
-0.10600001 0.08866667 0.70000005
-0.095878102 0.089173339 0.70400006
-0.094671436 0.089300007 0.70500004
-0.093196198 0.089173339 0.70400006
-0.091855243 0.089173339 0.70400006
-0.090642862 0.089300007 0.70500004
-0.089300007 0.089300007 0.70500004
-0.087957151 0.089300007 0.70500004
-0.086614288 0.089300007 0.70500004
-0.085271433 0.089300007 0.70500004
-0.084166676 0.089553341 0.70700002
-0.11448858 0.09038572 0.70300001
-0.11314953 0.09038572 0.70300001
-0.11149239 0.090128578 0.70100003
-0.11015715 0.090128578 0.70100003
-0.10866667 0.090000004 0.70000005
-0.10733334 0.090000004 0.70000005
-0.095878102 0.090514295 0.70400006
-0.094537146 0.090514295 0.70400006
-0.093196198 0.090514295 0.70400006
-0.091855243 0.090514295 0.70400006
-0.090642862 0.090642862 0.70500004
-0.089300007 0.090642862 0.70500004
-0.087957151 0.090642862 0.70500004
-0.086860009 0.090900004 0.70700002
-0.085271433 0.090642862 0.70500004
-0.084285721 0.091028579 0.708
-0.082820006 0.090900004 0.70700002
-0.098461911 0.093029529 0.71300006
-0.097103819 0.093029529 0.71300006
-0.09574572 0.093029529 0.71300006
-0.094387628 0.093029529 0.71300006
-0.092638098 0.092638098 0.71000004
-0.09128572 0.092638098 0.71000004
-0.090060003 0.09276858 0.71100003
-0.088580959 0.092638098 0.71000004
-0.087228574 0.092638098 0.71000004
-0.085634291 0.092377149 0.708
-0.084285721 0.092377149 0.708
-0.082820006 0.092246674 0.70700002
-0.098461911 0.094387628 0.71300006
-0.097103819 0.094387628 0.71300006
-0.09574572 0.094387628 0.71300006
-0.094122864 0.094122864 0.71100003
-0.09276858 0.094122864 0.71100003
-0.091414295 0.094122864 0.71100003
-0.090060003 0.094122864 0.71100003
-0.088705719 0.094122864 0.71100003
-0.087228574 0.093990482 0.71000004
-0.085634291 0.093725719 0.708
-0.084285721 0.093725719 0.708
-0.082820006 0.093593337 0.70700002
-0.10253619 0.09574572 0.71300006
-0.1011781 0.09574572 0.71300006
-0.099120006 0.095074289 0.708
-0.098461911 0.09574572 0.71300006
-0.097103819 0.09574572 0.71300006
-0.09574572 0.09574572 0.71300006
-0.094122864 0.095477149 0.71100003
-0.09276858 0.095477149 0.71100003
-0.091414295 0.095477149 0.71100003
-0.090060003 0.095477149 0.71100003
-0.088705719 0.095477149 0.71100003
-0.087228574 0.095342867 0.71000004
-0.085876197 0.095342867 0.71000004
-0.084523812 0.095342867 0.71000004
-0.082937151 0.095074289 0.708
-0.10253619 0.097103819 0.71300006
-0.1011781 0.097103819 0.71300006
-0.099400006 0.096695244 0.71000004
-0.098461911 0.097103819 0.71300006
-0.097103819 0.097103819 0.71300006
-0.09574572 0.097103819 0.71300006
-0.094122864 0.096831433 0.71100003
-0.09276858 0.096831433 0.71100003
-0.091414295 0.096831433 0.71100003
-0.090313338 0.097103819 0.71300006
-0.088705719 0.096831433 0.71100003
-0.087351434 0.096831433 0.71100003
-0.086239055 0.097103819 0.71300006
-0.084880956 0.097103819 0.71300006
-0.083522864 0.097103819 0.71300006
-0.10224858 0.098185718 0.71100003
-0.10089429 0.098185718 0.71100003
-0.099400006 0.098047629 0.71000004
-0.098185718 0.098185718 0.71100003
-0.096831433 0.098185718 0.71100003
-0.095477149 0.098185718 0.71100003
-0.094122864 0.098185718 0.71100003
-0.093029529 0.098461911 0.71300006
-0.091671437 0.098461911 0.71300006
-0.090313338 0.098461911 0.71300006
-0.088705719 0.098185718 0.71100003
-0.087351434 0.098185718 0.71100003
-0.085997149 0.098185718 0.71100003
-0.084642865 0.098185718 0.71100003
-0.08328858 0.098185718 0.71100003
-0.10389429 0.099820003 0.71300006
-0.10253619 0.099820003 0.71300006
-0.1011781 0.099820003 0.71300006
-0.099400006 0.099400006 0.71000004
-0.098185718 0.09954001 0.71100003
-0.097103819 0.099820003 0.71300006
-0.09574572 0.099820003 0.71300006
-0.094387628 0.099820003 0.71300006
-0.093029529 0.099820003 0.71300006
-0.091671437 0.099820003 0.71300006
-0.090313338 0.099820003 0.71300006
-0.088955246 0.099820003 0.71300006
-0.087597147 0.099820003 0.71300006
-0.086360008 0.099960007 0.71400005
-0.085000008 0.099960007 0.71400005
-0.083640009 0.099960007 0.71400005
-0.10856001 0.10046858 0.708
-0.10751429 0.10075239 0.71000004
-0.10360286 0.10089429 0.71100003
-0.10210477 0.10075239 0.71000004
-0.10089429 0.10089429 0.71100003
-0.099400006 0.10075239 0.71000004
-0.098047629 0.10075239 0.71000004
-0.096831433 0.10089429 0.71100003
-0.09574572 0.1011781 0.71300006
-0.094387628 0.1011781 0.71300006
-0.093029529 0.1011781 0.71300006
-0.091671437 0.1011781 0.71300006
-0.090440005 0.10132001 0.71400005
-0.089080006 0.10132001 0.71400005
-0.087720007 0.10132001 0.71400005
-0.086601913 0.10160381 0.71600002
-0.085238099 0.10160381 0.71600002
-0.10856001 0.10181715 0.708
-0.10766573 0.10224858 0.71100003
-0.10631143 0.10224858 0.71100003
-0.10480953 0.10210477 0.71000004
-0.10360286 0.10224858 0.71100003
-0.10224858 0.10224858 0.71100003
-0.10089429 0.10224858 0.71100003
-0.099400006 0.10210477 0.71000004
-0.098047629 0.10210477 0.71000004
-0.096831433 0.10224858 0.71100003
-0.095477149 0.10224858 0.71100003
-0.094122864 0.10224858 0.71100003
-0.093160003 0.10268001 0.71400005
-0.091800004 0.10268001 0.71400005
-0.090440005 0.10268001 0.71400005
-0.089080006 0.10268001 0.71400005
-0.10856001 0.10316572 0.708
-0.10751429 0.10345715 0.71000004
-0.10616191 0.10345715 0.71000004
-0.10480953 0.10345715 0.71000004
-0.10345715 0.10345715 0.71000004
-0.10224858 0.10360286 0.71100003
-0.10089429 0.10360286 0.71100003
-0.099400006 0.10345715 0.71000004
-0.098047629 0.10345715 0.71000004
-0.096831433 0.10360286 0.71100003
-0.095477149 0.10360286 0.71100003
-0.11021905 0.10480953 0.71000004
-0.10856001 0.10451429 0.708
-0.10751429 0.10480953 0.71000004
-0.10616191 0.10480953 0.71000004
-0.10480953 0.10480953 0.71000004
-0.10345715 0.10480953 0.71000004
-0.099120006 0.10451429 0.708
-0.097771436 0.10451429 0.708
