# .PCD v0.7 - Point Cloud Data file format
VERSION 0.7
FIELDS x y z
SIZE 4 4 4
TYPE F F F
COUNT 1 1 1
WIDTH 1382
HEIGHT 1
VIEWPOINT 0 0 0 1 0 0 0
POINTS 1382
DATA ascii
-0.16726191 -0.1232143 0.625
-0.16607144 -0.1232143 0.625
-0.16514477 -0.12341144 0.62600005
-0.1642143 -0.12360858 0.62700003
-0.16302001 -0.12360858 0.62700003
-0.16208382 -0.12380572 0.62800002
-0.16088763 -0.12380572 0.62800002
-0.15969144 -0.12380572 0.62800002
-0.15849525 -0.12380572 0.62800002
-0.15754953 -0.12400287 0.62900001
-0.15635143 -0.12400287 0.62900001
-0.15564668 -0.12439715 0.63100004
-0.15468954 -0.12459429 0.63200003
-0.15348573 -0.12459429 0.63200003
-0.15252286 -0.12479144 0.63300002
-0.15179525 -0.12518573 0.63500005
-0.15082286 -0.12538287 0.63600004
-0.15008192 -0.12577716 0.63800001
-0.14910001 -0.1259743 0.63900006
-0.14811429 -0.12617144 0.64000005
-0.14712477 -0.12636858 0.64100003
-0.14613144 -0.12656572 0.64200002
-0.14536001 -0.12696001 0.64400005
-0.14413334 -0.12696001 0.64400005
-0.19110572 -0.12358572 0.63300002
-0.19020002 -0.12378096 0.634
-0.1886943 -0.12358572 0.63300002
-0.1871924 -0.12339048 0.63200003
-0.18510573 -0.12280477 0.62900001
-0.18361525 -0.12260953 0.62800002
-0.18241906 -0.12260953 0.62800002
-0.18064572 -0.12221906 0.62600005
-0.17916667 -0.12202382 0.625
-0.17797621 -0.12202382 0.625
-0.17678572 -0.12202382 0.625
-0.17559525 -0.12202382 0.625
-0.17440477 -0.12202382 0.625
-0.1732143 -0.12202382 0.625
-0.17202382 -0.12202382 0.625
-0.17083335 -0.12202382 0.625
-0.16964287 -0.12202382 0.625
-0.1684524 -0.12202382 0.625
-0.16726191 -0.12202382 0.625
-0.16607144 -0.12202382 0.625
-0.16514477 -0.12221906 0.62600005
-0.1642143 -0.12241429 0.62700003
-0.16302001 -0.12241429 0.62700003
-0.16208382 -0.12260953 0.62800002
-0.16088763 -0.12260953 0.62800002
-0.15969144 -0.12260953 0.62800002
-0.15874763 -0.12280477 0.62900001
-0.15754953 -0.12280477 0.62900001
-0.15635143 -0.12280477 0.62900001
-0.15564668 -0.12319525 0.63100004
-0.15468954 -0.12339048 0.63200003
-0.15348573 -0.12339048 0.63200003
-0.15252286 -0.12358572 0.63300002
-0.15179525 -0.1239762 0.63500005
-0.15129715 -0.12456191 0.63800001
-0.15008192 -0.12456191 0.63800001
-0.14956668 -0.12514763 0.64100003
-0.14811429 -0.12495239 0.64000005
-0.14712477 -0.12514763 0.64100003
-0.14613144 -0.12534286 0.64200002
-0.14536001 -0.12573335 0.64400005
-0.14413334 -0.12573335 0.64400005
-0.19110572 -0.12238001 0.63300002
-0.19020002 -0.12257334 0.634
-0.1886943 -0.12238001 0.63300002
-0.18748859 -0.12238001 0.63300002
-0.18569429 -0.12199334 0.63100004
-0.18390763 -0.12160668 0.62900001
-0.18270953 -0.12160668 0.62900001
-0.1809343 -0.12122001 0.62700003
-0.17945334 -0.12102667 0.62600005
-0.17826097 -0.12102667 0.62600005
-0.17706858 -0.12102667 0.62600005
-0.17559525 -0.12083334 0.625
-0.17440477 -0.12083334 0.625
-0.1732143 -0.12083334 0.625
-0.17202382 -0.12083334 0.625
-0.17083335 -0.12083334 0.625
-0.16964287 -0.12083334 0.625
-0.1684524 -0.12083334 0.625
-0.16726191 -0.12083334 0.625
-0.16633715 -0.12102667 0.62600005
-0.16514477 -0.12102667 0.62600005
-0.1642143 -0.12122001 0.62700003
-0.16302001 -0.12122001 0.62700003
-0.16208382 -0.12141334 0.62800002
-0.16088763 -0.12141334 0.62800002
-0.15969144 -0.12141334 0.62800002
-0.15874763 -0.12160668 0.62900001
-0.15754953 -0.12160668 0.62900001
-0.15635143 -0.12160668 0.62900001
-0.15564668 -0.12199334 0.63100004
-0.15468954 -0.12218668 0.63200003
-0.15348573 -0.12218668 0.63200003
-0.15252286 -0.12238001 0.63300002
-0.15179525 -0.12276667 0.63500005
-0.15129715 -0.12334667 0.63800001
-0.15008192 -0.12334667 0.63800001
-0.14933334 -0.12373334 0.64000005
-0.14811429 -0.12373334 0.64000005
-0.14712477 -0.12392668 0.64100003
-0.14613144 -0.12412 0.64200002
-0.14490858 -0.12412 0.64200002
-0.19020002 -0.12136572 0.634
-0.1889924 -0.12136572 0.634
-0.18748859 -0.12117429 0.63300002
-0.18598859 -0.12098286 0.63200003
-0.18449239 -0.12079144 0.63100004
-0.18270953 -0.12040858 0.62900001
-0.18122287 -0.12021715 0.62800002
-0.17974001 -0.12002572 0.62700003
-0.17826097 -0.1198343 0.62600005
-0.17706858 -0.1198343 0.62600005
-0.1758762 -0.1198343 0.62600005
-0.17468382 -0.1198343 0.62600005
-0.17349143 -0.1198343 0.62600005
-0.17229906 -0.1198343 0.62600005
-0.17110668 -0.1198343 0.62600005
-0.16991429 -0.1198343 0.62600005
-0.16872191 -0.1198343 0.62600005
-0.16752954 -0.1198343 0.62600005
-0.16633715 -0.1198343 0.62600005
-0.16540858 -0.12002572 0.62700003
-0.1642143 -0.12002572 0.62700003
-0.16328001 -0.12021715 0.62800002
-0.16208382 -0.12021715 0.62800002
-0.16088763 -0.12021715 0.62800002
-0.15994573 -0.12040858 0.62900001
-0.15874763 -0.12040858 0.62900001
-0.15805049 -0.12079144 0.63100004
-0.15684858 -0.12079144 0.63100004
-0.15589334 -0.12098286 0.63200003
-0.15468954 -0.12098286 0.63200003
-0.15372857 -0.12117429 0.63300002
-0.15276381 -0.12136572 0.634
-0.15179525 -0.12155715 0.63500005
-0.15129715 -0.12213144 0.63800001
-0.15031715 -0.12232286 0.63900006
-0.14933334 -0.12251429 0.64000005
-0.14811429 -0.12251429 0.64000005
-0.14712477 -0.12270572 0.64100003
-0.14613144 -0.12289715 0.64200002
-0.14490858 -0.12289715 0.64200002
-0.19140764 -0.12015811 0.634
-0.19020002 -0.12015811 0.634
-0.1889924 -0.12015811 0.634
-0.18748859 -0.11996858 0.63300002
-0.18628287 -0.11996858 0.63300002
-0.18478477 -0.11977906 0.63200003
-0.18329048 -0.11958953 0.63100004
-0.18151145 -0.11921048 0.62900001
-0.18002668 -0.11902096 0.62800002
-0.17854573 -0.11883143 0.62700003
-0.1776343 -0.11902096 0.62800002
-0.17643811 -0.11902096 0.62800002
-0.17468382 -0.11864191 0.62600005
-0.17349143 -0.11864191 0.62600005
-0.17229906 -0.11864191 0.62600005
-0.17138001 -0.11883143 0.62700003
-0.17018573 -0.11883143 0.62700003
-0.16899145 -0.11883143 0.62700003
-0.16779715 -0.11883143 0.62700003
-0.16660286 -0.11883143 0.62700003
-0.16567239 -0.11902096 0.62800002
-0.1644762 -0.11902096 0.62800002
-0.16328001 -0.11902096 0.62800002
-0.16208382 -0.11902096 0.62800002
-0.16114382 -0.11921048 0.62900001
-0.15994573 -0.11921048 0.62900001
-0.15874763 -0.11921048 0.62900001
-0.15805049 -0.11958953 0.63100004
-0.15684858 -0.11958953 0.63100004
-0.15589334 -0.11977906 0.63200003
-0.1549343 -0.11996858 0.63300002
-0.15372857 -0.11996858 0.63300002
-0.15276381 -0.12015811 0.634
-0.15179525 -0.12034763 0.63500005
-0.15129715 -0.1209162 0.63800001
-0.15031715 -0.12110572 0.63900006
-0.14933334 -0.12129524 0.64000005
-0.14811429 -0.12129524 0.64000005
-0.14712477 -0.12148477 0.64100003
-0.14658667 -0.12205334 0.64400005
-0.14536001 -0.12205334 0.64400005
-0.19020002 -0.11895049 0.634
-0.1889924 -0.11895049 0.634
-0.18748859 -0.11876287 0.63300002
-0.18628287 -0.11876287 0.63300002
-0.18478477 -0.11857525 0.63200003
-0.18358096 -0.11857525 0.63200003
-0.18208858 -0.11838762 0.63100004
-0.18031335 -0.11801239 0.62900001
-0.17883049 -0.11782477 0.62800002
-0.17791715 -0.11801239 0.62900001
-0.17643811 -0.11782477 0.62800002
-0.17496286 -0.11763715 0.62700003
-0.17376858 -0.11763715 0.62700003
-0.1725743 -0.11763715 0.62700003
-0.17138001 -0.11763715 0.62700003
-0.17018573 -0.11763715 0.62700003
-0.16899145 -0.11763715 0.62700003
-0.16779715 -0.11763715 0.62700003
-0.16660286 -0.11763715 0.62700003
-0.16567239 -0.11782477 0.62800002
-0.1644762 -0.11782477 0.62800002
-0.16328001 -0.11782477 0.62800002
-0.16208382 -0.11782477 0.62800002
-0.16114382 -0.11801239 0.62900001
-0.15994573 -0.11801239 0.62900001
-0.15874763 -0.11801239 0.62900001
-0.15805049 -0.11838762 0.63100004
-0.15684858 -0.11838762 0.63100004
-0.15589334 -0.11857525 0.63200003
-0.1549343 -0.11876287 0.63300002
-0.15372857 -0.11876287 0.63300002
-0.15276381 -0.11895049 0.634
-0.15179525 -0.11913811 0.63500005
-0.15129715 -0.11970096 0.63800001
-0.15031715 -0.11988858 0.63900006
-0.14956668 -0.12026381 0.64100003
-0.14834572 -0.12026381 0.64100003
-0.14735429 -0.12045144 0.64200002
-0.14658667 -0.12082668 0.64400005
-0.1467143 -0.12195239 0.65000004
-0.19140001 -0.11848572 0.63800001
-0.18958858 -0.11811429 0.63600004
-0.18778478 -0.11774287 0.634
-0.18657716 -0.11774287 0.634
-0.18507716 -0.11755715 0.63300002
-0.18387145 -0.11755715 0.63300002
-0.18266572 -0.11755715 0.63300002
-0.18088669 -0.11718572 0.63100004
-0.17968477 -0.11718572 0.63100004
-0.17791715 -0.11681429 0.62900001
-0.17671905 -0.11681429 0.62900001
-0.17524192 -0.11662858 0.62800002
-0.17404573 -0.11662858 0.62800002
-0.17284954 -0.11662858 0.62800002
-0.17165335 -0.11662858 0.62800002
-0.17045715 -0.11662858 0.62800002
-0.16926096 -0.11662858 0.62800002
-0.16806477 -0.11662858 0.62800002
-0.16686858 -0.11662858 0.62800002
-0.16567239 -0.11662858 0.62800002
-0.1647381 -0.11681429 0.62900001
-0.16354001 -0.11681429 0.62900001
-0.16234192 -0.11681429 0.62900001
-0.16114382 -0.11681429 0.62900001
-0.15994573 -0.11681429 0.62900001
-0.15925239 -0.11718572 0.63100004
-0.15805049 -0.11718572 0.63100004
-0.15684858 -0.11718572 0.63100004
-0.15589334 -0.11737144 0.63200003
-0.1549343 -0.11755715 0.63300002
-0.15372857 -0.11755715 0.63300002
-0.15276381 -0.11774287 0.634
-0.1520343 -0.11811429 0.63600004
-0.15129715 -0.11848572 0.63800001
-0.15055239 -0.11885715 0.64000005
-0.1498 -0.11922858 0.64200002
-0.14857715 -0.11922858 0.64200002
-0.14804287 -0.11978572 0.64500004
-0.14726953 -0.12015715 0.64700001
-0.14694001 -0.12090001 0.65100002
-0.19140001 -0.11727048 0.63800001
-0.18958858 -0.11690287 0.63600004
-0.18808097 -0.11671905 0.63500005
-0.18657716 -0.11653525 0.634
-0.18536954 -0.11653525 0.634
-0.18387145 -0.11635143 0.63300002
-0.18237716 -0.11616763 0.63200003
-0.18117334 -0.11616763 0.63200003
-0.17996953 -0.11616763 0.63200003
-0.17848288 -0.11598381 0.63100004
-0.17671905 -0.11561619 0.62900001
-0.17552096 -0.11561619 0.62900001
-0.17404573 -0.11543239 0.62800002
-0.17284954 -0.11543239 0.62800002
-0.17165335 -0.11543239 0.62800002
-0.17045715 -0.11543239 0.62800002
-0.16926096 -0.11543239 0.62800002
-0.16806477 -0.11543239 0.62800002
-0.16686858 -0.11543239 0.62800002
-0.16567239 -0.11543239 0.62800002
-0.1647381 -0.11561619 0.62900001
-0.16354001 -0.11561619 0.62900001
-0.16234192 -0.11561619 0.62900001
-0.16114382 -0.11561619 0.62900001
-0.1604543 -0.11598381 0.63100004
-0.15925239 -0.11598381 0.63100004
-0.15855144 -0.11635143 0.63300002
-0.15734573 -0.11635143 0.63300002
-0.15614001 -0.11635143 0.63300002
-0.1549343 -0.11635143 0.63300002
-0.15397143 -0.11653525 0.634
-0.15276381 -0.11653525 0.634
-0.1520343 -0.11690287 0.63600004
-0.15153429 -0.11745429 0.63900006
-0.15078762 -0.11782191 0.64100003
-0.1498 -0.11800572 0.64200002
-0.14857715 -0.11800572 0.64200002
-0.14804287 -0.11855715 0.64500004
-0.1468143 -0.11855715 0.64500004
-0.14694001 -0.11966 0.65100002
-0.14592382 -0.11984382 0.65200001
-0.19140001 -0.11605524 0.63800001
-0.18958858 -0.11569144 0.63600004
-0.18808097 -0.11550953 0.63500005
-0.18657716 -0.11532763 0.634
-0.18536954 -0.11532763 0.634
-0.18387145 -0.11514572 0.63300002
-0.18266572 -0.11514572 0.63300002
-0.18117334 -0.11496381 0.63200003
-0.17996953 -0.11496381 0.63200003
-0.17848288 -0.11478191 0.63100004
-0.17671905 -0.1144181 0.62900001
-0.17552096 -0.1144181 0.62900001
-0.17404573 -0.1142362 0.62800002
-0.17284954 -0.1142362 0.62800002
-0.17165335 -0.1142362 0.62800002
-0.17045715 -0.1142362 0.62800002
-0.16926096 -0.1142362 0.62800002
-0.16806477 -0.1142362 0.62800002
-0.1671343 -0.1144181 0.62900001
-0.1659362 -0.1144181 0.62900001
-0.1647381 -0.1144181 0.62900001
-0.16406001 -0.11478191 0.63100004
-0.16234192 -0.1144181 0.62900001
-0.1616562 -0.11478191 0.63100004
-0.16070858 -0.11496381 0.63200003
-0.15950477 -0.11496381 0.63200003
-0.15830097 -0.11496381 0.63200003
-0.15709715 -0.11496381 0.63200003
-0.15614001 -0.11514572 0.63300002
-0.1549343 -0.11514572 0.63300002
-0.15397143 -0.11532763 0.634
-0.15276381 -0.11532763 0.634
-0.15251239 -0.11605524 0.63800001
-0.15153429 -0.11623715 0.63900006
-0.15055239 -0.11641905 0.64000005
-0.15026668 -0.11714667 0.64400005
-0.14904001 -0.11714667 0.64400005
-0.1482724 -0.11751048 0.64600003
-0.14726953 -0.11769239 0.64700001
-0.1467143 -0.11823811 0.65000004
-0.14592382 -0.11860191 0.65200001
-0.19596288 -0.11538 0.64100003
-0.19443811 -0.11520001 0.64000005
-0.19321907 -0.11520001 0.64000005
-0.19140001 -0.11484001 0.63800001
-0.19018477 -0.11484001 0.63800001
-0.18808097 -0.11430001 0.63500005
-0.18687144 -0.11430001 0.63500005
-0.18536954 -0.11412001 0.634
-0.18387145 -0.11394001 0.63300002
-0.18266572 -0.11394001 0.63300002
-0.18146001 -0.11394001 0.63300002
-0.1802543 -0.11394001 0.63300002
-0.17848288 -0.11358001 0.63100004
-0.17671905 -0.11322001 0.62900001
-0.17552096 -0.11322001 0.62900001
-0.17432287 -0.11322001 0.62900001
-0.17312478 -0.11322001 0.62900001
-0.17192668 -0.11322001 0.62900001
-0.17072858 -0.11322001 0.62900001
-0.16953048 -0.11322001 0.62900001
-0.1683324 -0.11322001 0.62900001
-0.1671343 -0.11322001 0.62900001
-0.1659362 -0.11322001 0.62900001
-0.16526191 -0.11358001 0.63100004
-0.16406001 -0.11358001 0.63100004
-0.1628581 -0.11358001 0.63100004
-0.1619124 -0.11376001 0.63200003
-0.16096286 -0.11394001 0.63300002
-0.15975715 -0.11394001 0.63300002
-0.15855144 -0.11394001 0.63300002
-0.15734573 -0.11394001 0.63300002
-0.15614001 -0.11394001 0.63300002
-0.15517905 -0.11412001 0.634
-0.15397143 -0.11412001 0.634
-0.15276381 -0.11412001 0.634
-0.15251239 -0.11484001 0.63800001
-0.15153429 -0.11502001 0.63900006
-0.15055239 -0.11520001 0.64000005
-0.15026668 -0.11592001 0.64400005
-0.14927144 -0.11610001 0.64500004
-0.1482724 -0.11628 0.64600003
-0.14704192 -0.11628 0.64600003
-0.14626287 -0.11664001 0.648
-0.14592382 -0.11736001 0.65200001
-0.19656858 -0.11380287 0.63900006
-0.19565715 -0.11398096 0.64000005
-0.19413429 -0.11380287 0.63900006
-0.19291715 -0.11380287 0.63900006
-0.19140001 -0.11362477 0.63800001
-0.19018477 -0.11362477 0.63800001
-0.18837716 -0.11326858 0.63600004
-0.18687144 -0.11309049 0.63500005
-0.18536954 -0.11291239 0.634
-0.18416192 -0.11291239 0.634
-0.18266572 -0.1127343 0.63300002
-0.18146001 -0.1127343 0.63300002
-0.17996953 -0.1125562 0.63200003
-0.17848288 -0.11237811 0.63100004
-0.17728096 -0.11237811 0.63100004
-0.17552096 -0.11202192 0.62900001
-0.17432287 -0.11202192 0.62900001
-0.17312478 -0.11202192 0.62900001
-0.17192668 -0.11202192 0.62900001
-0.17072858 -0.11202192 0.62900001
-0.16953048 -0.11202192 0.62900001
-0.1683324 -0.11202192 0.62900001
-0.16766572 -0.11237811 0.63100004
-0.16646382 -0.11237811 0.63100004
-0.16552383 -0.1125562 0.63200003
-0.16432001 -0.1125562 0.63200003
-0.1631162 -0.1125562 0.63200003
-0.16216858 -0.1127343 0.63300002
-0.16096286 -0.1127343 0.63300002
-0.15975715 -0.1127343 0.63300002
-0.15855144 -0.1127343 0.63300002
-0.15734573 -0.1127343 0.63300002
-0.15638667 -0.11291239 0.634
-0.15517905 -0.11291239 0.634
-0.15421429 -0.11309049 0.63500005
-0.15324572 -0.11326858 0.63600004
-0.15275145 -0.11380287 0.63900006
-0.15177144 -0.11398096 0.64000005
-0.15055239 -0.11398096 0.64000005
-0.15026668 -0.11469334 0.64400005
-0.14950287 -0.11504953 0.64600003
-0.1482724 -0.11504953 0.64600003
-0.14704192 -0.11504953 0.64600003
-0.14694001 -0.11594 0.65100002
-0.14592382 -0.1161181 0.65200001
-0.19656858 -0.11258572 0.63900006
-0.19565715 -0.11276191 0.64000005
-0.19413429 -0.11258572 0.63900006
-0.19261526 -0.11240953 0.63800001
-0.19140001 -0.11240953 0.63800001
-0.19018477 -0.11240953 0.63800001
-0.18837716 -0.11205715 0.63600004
-0.18716572 -0.11205715 0.63600004
-0.18566191 -0.11188096 0.63500005
-0.18416192 -0.11170477 0.634
-0.1829543 -0.11170477 0.634
-0.18174668 -0.11170477 0.634
-0.1802543 -0.11152858 0.63300002
-0.17904858 -0.11152858 0.63300002
-0.17728096 -0.1111762 0.63100004
-0.17607906 -0.1111762 0.63100004
-0.17487715 -0.1111762 0.63100004
-0.17367525 -0.1111762 0.63100004
-0.17247334 -0.1111762 0.63100004
-0.17127144 -0.1111762 0.63100004
-0.17006953 -0.1111762 0.63100004
-0.16886763 -0.1111762 0.63100004
-0.16793144 -0.11135239 0.63200003
-0.16672763 -0.11135239 0.63200003
-0.16552383 -0.11135239 0.63200003
-0.16432001 -0.11135239 0.63200003
-0.1631162 -0.11135239 0.63200003
-0.16216858 -0.11152858 0.63300002
-0.16096286 -0.11152858 0.63300002
-0.15975715 -0.11152858 0.63300002
-0.15855144 -0.11152858 0.63300002
-0.15734573 -0.11152858 0.63300002
-0.15638667 -0.11170477 0.634
-0.15517905 -0.11170477 0.634
-0.15421429 -0.11188096 0.63500005
-0.15372764 -0.11240953 0.63800001
-0.15275145 -0.11258572 0.63900006
-0.15177144 -0.11276191 0.64000005
-0.15055239 -0.11276191 0.64000005
-0.15026668 -0.11346667 0.64400005
-0.14973429 -0.11399525 0.64700001
-0.14850192 -0.11399525 0.64700001
-0.14726953 -0.11399525 0.64700001
-0.14570001 -0.1147 0.65100002
-0.19900288 -0.11136858 0.63900006
-0.19778572 -0.11136858 0.63900006
-0.19656858 -0.11136858 0.63900006
-0.19565715 -0.11154287 0.64000005
-0.19413429 -0.11136858 0.63900006
-0.19291715 -0.11136858 0.63900006
-0.19140001 -0.11119429 0.63800001
-0.19018477 -0.11119429 0.63800001
-0.18896954 -0.11119429 0.63800001
-0.18716572 -0.11084572 0.63600004
-0.18566191 -0.11067144 0.63500005
-0.1844524 -0.11067144 0.63500005
-0.1829543 -0.11049715 0.634
-0.18174668 -0.11049715 0.634
-0.18053906 -0.11049715 0.634
-0.17904858 -0.11032286 0.63300002
-0.17756192 -0.11014858 0.63200003
-0.1763581 -0.11014858 0.63200003
-0.1751543 -0.11014858 0.63200003
-0.17367525 -0.10997429 0.63100004
-0.17274667 -0.11014858 0.63200003
-0.17154287 -0.11014858 0.63200003
-0.17033906 -0.11014858 0.63200003
-0.16913524 -0.11014858 0.63200003
-0.16793144 -0.11014858 0.63200003
-0.16672763 -0.11014858 0.63200003
-0.16578573 -0.11032286 0.63300002
-0.16432001 -0.11014858 0.63200003
-0.1631162 -0.11014858 0.63200003
-0.16216858 -0.11032286 0.63300002
-0.16096286 -0.11032286 0.63300002
-0.15975715 -0.11032286 0.63300002
-0.15855144 -0.11032286 0.63300002
-0.15759429 -0.11049715 0.634
-0.15663335 -0.11067144 0.63500005
-0.15542382 -0.11067144 0.63500005
-0.15445715 -0.11084572 0.63600004
-0.15372764 -0.11119429 0.63800001
-0.15275145 -0.11136858 0.63900006
-0.15153429 -0.11136858 0.63900006
-0.15055239 -0.11154287 0.64000005
-0.15026668 -0.11224001 0.64400005
-0.14996572 -0.11293715 0.648
-0.14850192 -0.11276286 0.64700001
-0.14726953 -0.11276286 0.64700001
-0.14592382 -0.1136343 0.65200001
-0.19778572 -0.11015143 0.63900006
-0.19626096 -0.10997906 0.63800001
-0.19565715 -0.11032382 0.64000005
-0.19291715 -0.11015143 0.63900006
-0.19170001 -0.11015143 0.63900006
-0.19048287 -0.11015143 0.63900006
-0.18926573 -0.11015143 0.63900006
-0.1877543 -0.10997906 0.63800001
-0.1859543 -0.1096343 0.63600004
-0.18474287 -0.1096343 0.63600004
-0.18324287 -0.10946191 0.63500005
-0.18203335 -0.10946191 0.63500005
-0.18053906 -0.10928953 0.634
-0.17904858 -0.10911715 0.63300002
-0.17784287 -0.10911715 0.63300002
-0.1763581 -0.10894477 0.63200003
-0.17543145 -0.10911715 0.63300002
-0.17395049 -0.10894477 0.63200003
-0.17274667 -0.10894477 0.63200003
-0.17154287 -0.10894477 0.63200003
-0.17033906 -0.10894477 0.63200003
-0.16913524 -0.10894477 0.63200003
-0.16819715 -0.10911715 0.63300002
-0.16699144 -0.10911715 0.63300002
-0.16578573 -0.10911715 0.63300002
-0.16458002 -0.10911715 0.63300002
-0.16337429 -0.10911715 0.63300002
-0.16216858 -0.10911715 0.63300002
-0.16096286 -0.10911715 0.63300002
-0.15975715 -0.10911715 0.63300002
-0.15880191 -0.10928953 0.634
-0.15759429 -0.10928953 0.634
-0.15663335 -0.10946191 0.63500005
-0.15566859 -0.1096343 0.63600004
-0.15445715 -0.1096343 0.63600004
-0.15372764 -0.10997906 0.63800001
-0.15275145 -0.11015143 0.63900006
-0.15153429 -0.11015143 0.63900006
-0.15055239 -0.11032382 0.64000005
-0.15026668 -0.11101334 0.64400005
-0.14973429 -0.11153048 0.64700001
-0.14850192 -0.11153048 0.64700001
-0.14704192 -0.11135811 0.64600003
-0.14592382 -0.11239239 0.65200001
-0.19170001 -0.10893429 0.63900006
-0.19048287 -0.10893429 0.63900006
-0.18926573 -0.10893429 0.63900006
-0.18804859 -0.10893429 0.63900006
-0.18653905 -0.10876381 0.63800001
-0.18532382 -0.10876381 0.63800001
-0.18353143 -0.10842287 0.63600004
-0.18203335 -0.10825239 0.63500005
-0.18053906 -0.10808191 0.634
-0.17933144 -0.10808191 0.634
-0.17812382 -0.10808191 0.634
-0.17663716 -0.10791144 0.63300002
-0.17570858 -0.10808191 0.634
-0.17422573 -0.10791144 0.63300002
-0.17302001 -0.10791144 0.63300002
-0.17181429 -0.10791144 0.63300002
-0.17060858 -0.10791144 0.63300002
-0.16940287 -0.10791144 0.63300002
-0.16819715 -0.10791144 0.63300002
-0.16699144 -0.10791144 0.63300002
-0.16578573 -0.10791144 0.63300002
-0.16458002 -0.10791144 0.63300002
-0.16337429 -0.10791144 0.63300002
-0.16242477 -0.10808191 0.634
-0.16121715 -0.10808191 0.634
-0.16000953 -0.10808191 0.634
-0.15905239 -0.10825239 0.63500005
-0.15784287 -0.10825239 0.63500005
-0.15688001 -0.10842287 0.63600004
-0.1561581 -0.10876381 0.63800001
-0.15494287 -0.10876381 0.63800001
-0.15372764 -0.10876381 0.63800001
-0.15275145 -0.10893429 0.63900006
-0.15177144 -0.10910477 0.64000005
-0.15078762 -0.10927524 0.64100003
-0.15026668 -0.10978667 0.64400005
-0.14973429 -0.1102981 0.64700001
-0.14850192 -0.1102981 0.64700001
-0.14726953 -0.1102981 0.64700001
-0.14592382 -0.11115048 0.65200001
-0.19200002 -0.10788572 0.64000005
-0.19078097 -0.10788572 0.64000005
-0.18985811 -0.1080543 0.64100003
-0.18834287 -0.10788572 0.64000005
-0.18683144 -0.10771715 0.63900006
-0.18532382 -0.10754858 0.63800001
-0.18410859 -0.10754858 0.63800001
-0.18232001 -0.10721143 0.63600004
-0.18110858 -0.10721143 0.63600004
-0.17961429 -0.10704286 0.63500005
-0.17812382 -0.10687429 0.634
-0.1769162 -0.10687429 0.634
-0.17570858 -0.10687429 0.634
-0.17450096 -0.10687429 0.634
-0.17302001 -0.10670572 0.63300002
-0.17208573 -0.10687429 0.634
-0.17087811 -0.10687429 0.634
-0.16940287 -0.10670572 0.63300002
-0.16819715 -0.10670572 0.63300002
-0.16699144 -0.10670572 0.63300002
-0.16604763 -0.10687429 0.634
-0.16484001 -0.10687429 0.634
-0.16363239 -0.10687429 0.634
-0.16242477 -0.10687429 0.634
-0.16121715 -0.10687429 0.634
-0.16026191 -0.10704286 0.63500005
-0.15930286 -0.10721143 0.63600004
-0.15809144 -0.10721143 0.63600004
-0.15737334 -0.10754858 0.63800001
-0.1561581 -0.10754858 0.63800001
-0.15494287 -0.10754858 0.63800001
-0.15372764 -0.10754858 0.63800001
-0.15275145 -0.10771715 0.63900006
-0.15177144 -0.10788572 0.64000005
-0.15078762 -0.1080543 0.64100003
-0.15026668 -0.10856001 0.64400005
-0.14996572 -0.1092343 0.648
-0.14850192 -0.10906572 0.64700001
-0.14726953 -0.10906572 0.64700001
-0.14716573 -0.10990858 0.65200001
-0.14592382 -0.10990858 0.65200001
-0.19170001 -0.10650001 0.63900006
-0.19078097 -0.10666668 0.64000005
-0.1901543 -0.10700001 0.64200002
-0.18834287 -0.10666668 0.64000005
-0.18683144 -0.10650001 0.63900006
-0.1856143 -0.10650001 0.63900006
-0.18410859 -0.10633334 0.63800001
-0.18232001 -0.10600001 0.63600004
-0.18110858 -0.10600001 0.63600004
-0.17961429 -0.10583334 0.63500005
-0.17840478 -0.10583334 0.63500005
-0.1769162 -0.10566667 0.634
-0.17570858 -0.10566667 0.634
-0.17450096 -0.10566667 0.634
-0.17329335 -0.10566667 0.634
-0.17208573 -0.10566667 0.634
-0.17087811 -0.10566667 0.634
-0.16967049 -0.10566667 0.634
-0.16846287 -0.10566667 0.634
-0.16725525 -0.10566667 0.634
-0.16604763 -0.10566667 0.634
-0.16484001 -0.10566667 0.634
-0.16389048 -0.10583334 0.63500005
-0.16268097 -0.10583334 0.63500005
-0.16172573 -0.10600001 0.63600004
-0.1605143 -0.10600001 0.63600004
-0.15980382 -0.10633334 0.63800001
-0.15809144 -0.10600001 0.63600004
-0.15737334 -0.10633334 0.63800001
-0.1561581 -0.10633334 0.63800001
-0.15518573 -0.10650001 0.63900006
-0.15396859 -0.10650001 0.63900006
-0.15275145 -0.10650001 0.63900006
-0.15200858 -0.10683334 0.64100003
-0.15078762 -0.10683334 0.64100003
-0.15026668 -0.10733334 0.64400005
-0.14973429 -0.10783334 0.64700001
-0.14850192 -0.10783334 0.64700001
-0.14726953 -0.10783334 0.64700001
-0.14739144 -0.10883334 0.65300006
-0.14614762 -0.10883334 0.65300006
-0.14490382 -0.10883334 0.65300006
-0.14366001 -0.10883334 0.65300006
-0.19320001 -0.10610668 0.64400005
-0.19197334 -0.10610668 0.64400005
-0.19074668 -0.10610668 0.64400005
-0.18863715 -0.10561239 0.64100003
-0.1874162 -0.10561239 0.64100003
-0.18590477 -0.10544763 0.64000005
-0.18439716 -0.10528287 0.63900006
-0.18318002 -0.10528287 0.63900006
-0.1816781 -0.1051181 0.63800001
-0.18046287 -0.1051181 0.63800001
-0.17868572 -0.10478858 0.63600004
-0.17719525 -0.10462382 0.63500005
-0.17598572 -0.10462382 0.63500005
-0.17450096 -0.10445905 0.634
-0.17329335 -0.10445905 0.634
-0.17208573 -0.10445905 0.634
-0.17087811 -0.10445905 0.634
-0.16967049 -0.10445905 0.634
-0.16846287 -0.10445905 0.634
-0.16751906 -0.10462382 0.63500005
-0.16630954 -0.10462382 0.63500005
-0.16510001 -0.10462382 0.63500005
-0.16414858 -0.10478858 0.63600004
-0.16293715 -0.10478858 0.63600004
-0.16223429 -0.1051181 0.63800001
-0.16101906 -0.1051181 0.63800001
-0.15980382 -0.1051181 0.63800001
-0.15883715 -0.10528287 0.63900006
-0.15762001 -0.10528287 0.63900006
-0.15640287 -0.10528287 0.63900006
-0.15518573 -0.10528287 0.63900006
-0.15420954 -0.10544763 0.64000005
-0.15322953 -0.10561239 0.64100003
-0.15224573 -0.10577715 0.64200002
-0.15149334 -0.10610668 0.64400005
-0.15050001 -0.10627144 0.64500004
-0.14950287 -0.1064362 0.64600003
-0.14873144 -0.10676572 0.648
-0.14749715 -0.10676572 0.648
-0.14626287 -0.10676572 0.648
-0.14614762 -0.10758953 0.65300006
-0.14490382 -0.10758953 0.65300006
-0.19380002 -0.10520572 0.64600003
-0.19227144 -0.10504287 0.64500004
-0.19074668 -0.10488001 0.64400005
-0.18893144 -0.1045543 0.64200002
-0.1874162 -0.10439143 0.64100003
-0.18619525 -0.10439143 0.64100003
-0.18468572 -0.10422858 0.64000005
-0.18318002 -0.10406572 0.63900006
-0.1816781 -0.10390286 0.63800001
-0.18046287 -0.10390286 0.63800001
-0.17868572 -0.10357715 0.63600004
-0.17719525 -0.10341429 0.63500005
-0.17598572 -0.10341429 0.63500005
-0.1747762 -0.10341429 0.63500005
-0.17329335 -0.10325143 0.634
-0.17208573 -0.10325143 0.634
-0.17087811 -0.10325143 0.634
-0.16967049 -0.10325143 0.634
-0.16846287 -0.10325143 0.634
-0.16751906 -0.10341429 0.63500005
-0.16630954 -0.10341429 0.63500005
-0.16510001 -0.10341429 0.63500005
-0.16344954 -0.10390286 0.63800001
-0.16223429 -0.10390286 0.63800001
-0.16101906 -0.10390286 0.63800001
-0.1600543 -0.10406572 0.63900006
-0.15883715 -0.10406572 0.63900006
-0.15762001 -0.10406572 0.63900006
-0.15640287 -0.10406572 0.63900006
-0.15518573 -0.10406572 0.63900006
-0.15420954 -0.10422858 0.64000005
-0.15322953 -0.10439143 0.64100003
-0.15224573 -0.1045543 0.64200002
-0.15149334 -0.10488001 0.64400005
-0.15050001 -0.10504287 0.64500004
-0.14950287 -0.10520572 0.64600003
-0.14850192 -0.10536858 0.64700001
-0.14726953 -0.10536858 0.64700001
-0.14626287 -0.10553144 0.648
-0.14614762 -0.10634572 0.65300006
-0.14534763 -0.10667144 0.65500003
-0.19227144 -0.10381429 0.64500004
-0.19104287 -0.10381429 0.64500004
-0.18952002 -0.10365334 0.64400005
-0.18770859 -0.10333143 0.64200002
-0.18648572 -0.10333143 0.64200002
-0.18468572 -0.10300953 0.64000005
-0.18318002 -0.10284857 0.63900006
-0.1816781 -0.10268763 0.63800001
-0.18046287 -0.10268763 0.63800001
-0.17924763 -0.10268763 0.63800001
-0.17747429 -0.10236572 0.63600004
-0.17598572 -0.10220477 0.63500005
-0.1747762 -0.10220477 0.63500005
-0.17329335 -0.10204381 0.634
-0.17208573 -0.10204381 0.634
-0.17114763 -0.10220477 0.63500005
-0.1699381 -0.10220477 0.63500005
-0.16872858 -0.10220477 0.63500005
-0.16751906 -0.10220477 0.63500005
-0.16630954 -0.10220477 0.63500005
-0.16588001 -0.10268763 0.63800001
-0.16466478 -0.10268763 0.63800001
-0.16344954 -0.10268763 0.63800001
-0.16223429 -0.10268763 0.63800001
-0.16101906 -0.10268763 0.63800001
-0.1600543 -0.10284857 0.63900006
-0.15883715 -0.10284857 0.63900006
-0.15786667 -0.10300953 0.64000005
-0.15640287 -0.10284857 0.63900006
-0.15542859 -0.10300953 0.64000005
-0.15469144 -0.10333143 0.64200002
-0.15346858 -0.10333143 0.64200002
-0.15272 -0.10365334 0.64400005
-0.15172859 -0.10381429 0.64500004
-0.15050001 -0.10381429 0.64500004
-0.14950287 -0.10397524 0.64600003
-0.14850192 -0.1041362 0.64700001
-0.14726953 -0.1041362 0.64700001
-0.14626287 -0.10429715 0.648
-0.14614762 -0.10510191 0.65300006
-0.14490382 -0.10510191 0.65300006
-0.19256954 -0.10274477 0.64600003
-0.19104287 -0.10258572 0.64500004
-0.18952002 -0.10242667 0.64400005
-0.18770859 -0.10210858 0.64200002
-0.18648572 -0.10210858 0.64200002
-0.1849743 -0.10194953 0.64100003
-0.18346667 -0.10179048 0.64000005
-0.18196286 -0.10163143 0.63900006
-0.18046287 -0.10147239 0.63800001
-0.17924763 -0.10147239 0.63800001
-0.17747429 -0.10115429 0.63600004
-0.17626287 -0.10115429 0.63600004
-0.1747762 -0.10099524 0.63500005
-0.17356668 -0.10099524 0.63500005
-0.17235716 -0.10099524 0.63500005
-0.17114763 -0.10099524 0.63500005
-0.1699381 -0.10099524 0.63500005
-0.16899429 -0.10115429 0.63600004
-0.16751906 -0.10099524 0.63500005
-0.16657144 -0.10115429 0.63600004
-0.16588001 -0.10147239 0.63800001
-0.16492286 -0.10163143 0.63900006
-0.16370572 -0.10163143 0.63900006
-0.16248858 -0.10163143 0.63900006
-0.16127144 -0.10163143 0.63900006
-0.1600543 -0.10163143 0.63900006
-0.15908572 -0.10179048 0.64000005
-0.15786667 -0.10179048 0.64000005
-0.15664762 -0.10179048 0.64000005
-0.15567143 -0.10194953 0.64100003
-0.15517335 -0.10242667 0.64400005
-0.15394668 -0.10242667 0.64400005
-0.15272 -0.10242667 0.64400005
-0.15172859 -0.10258572 0.64500004
-0.15073334 -0.10274477 0.64600003
-0.14973429 -0.10290381 0.64700001
-0.14873144 -0.10306286 0.648
-0.14749715 -0.10306286 0.648
-0.1467143 -0.10338096 0.65000004
-0.14547621 -0.10338096 0.65000004
-0.19256954 -0.10151429 0.64600003
-0.19104287 -0.10135715 0.64500004
-0.18952002 -0.10120001 0.64400005
-0.18770859 -0.10088572 0.64200002
-0.18648572 -0.10088572 0.64200002
-0.1849743 -0.10072858 0.64100003
-0.18346667 -0.10057144 0.64000005
-0.18196286 -0.10041429 0.63900006
-0.18074572 -0.10041429 0.63900006
-0.17924763 -0.10025715 0.63800001
-0.1780324 -0.10025715 0.63800001
-0.17626287 -0.099942863 0.63600004
-0.17505144 -0.099942863 0.63600004
-0.17356668 -0.099785723 0.63500005
-0.17235716 -0.099785723 0.63500005
-0.17141715 -0.099942863 0.63600004
-0.17020573 -0.099942863 0.63600004
-0.16899429 -0.099942863 0.63600004
-0.16778287 -0.099942863 0.63600004
-0.16709524 -0.10025715 0.63800001
-0.16614 -0.10041429 0.63900006
-0.16492286 -0.10041429 0.63900006
-0.16370572 -0.10041429 0.63900006
-0.16248858 -0.10041429 0.63900006
-0.16127144 -0.10041429 0.63900006
-0.16030477 -0.10057144 0.64000005
-0.1593343 -0.10072858 0.64100003
-0.15811335 -0.10072858 0.64100003
-0.15689239 -0.10072858 0.64100003
-0.15640001 -0.10120001 0.64400005
-0.15517335 -0.10120001 0.64400005
-0.15418573 -0.10135715 0.64500004
-0.15272 -0.10120001 0.64400005
-0.15219906 -0.10167143 0.64700001
-0.15073334 -0.10151429 0.64600003
-0.14973429 -0.10167143 0.64700001
-0.14873144 -0.10182858 0.648
-0.14795239 -0.10214286 0.65000004
-0.1467143 -0.10214286 0.65000004
-0.19256954 -0.10028382 0.64600003
-0.19104287 -0.10012858 0.64500004
-0.18893144 -0.099662863 0.64200002
-0.18770859 -0.099662863 0.64200002
-0.18648572 -0.099662863 0.64200002
-0.1849743 -0.099507622 0.64100003
-0.18346667 -0.09935239 0.64000005
-0.18196286 -0.099197149 0.63900006
-0.18074572 -0.099197149 0.63900006
-0.17924763 -0.099041909 0.63800001
-0.1780324 -0.099041909 0.63800001
-0.17681715 -0.099041909 0.63800001
-0.17505144 -0.098731436 0.63600004
-0.17384002 -0.098731436 0.63600004
-0.17262858 -0.098731436 0.63600004
-0.17141715 -0.098731436 0.63600004
-0.17020573 -0.098731436 0.63600004
-0.16899429 -0.098731436 0.63600004
-0.16831049 -0.099041909 0.63800001
-0.16709524 -0.099041909 0.63800001
-0.16614 -0.099197149 0.63900006
-0.16492286 -0.099197149 0.63900006
-0.16370572 -0.099197149 0.63900006
-0.16248858 -0.099197149 0.63900006
-0.16152382 -0.09935239 0.64000005
-0.16055524 -0.099507622 0.64100003
-0.1593343 -0.099507622 0.64100003
-0.15811335 -0.099507622 0.64100003
-0.15713716 -0.099662863 0.64200002
-0.15640001 -0.099973343 0.64400005
-0.15517335 -0.099973343 0.64400005
-0.15418573 -0.10012858 0.64500004
-0.15319429 -0.10028382 0.64600003
-0.15196382 -0.10028382 0.64600003
-0.15073334 -0.10028382 0.64600003
-0.14973429 -0.10043906 0.64700001
-0.14873144 -0.10059429 0.648
-0.14795239 -0.10090477 0.65000004
-0.1467143 -0.10090477 0.65000004
-0.19074668 -0.098746672 0.64400005
-0.18952002 -0.098746672 0.64400005
-0.18829335 -0.098746672 0.64400005
-0.18706667 -0.098746672 0.64400005
-0.1849743 -0.098286673 0.64100003
-0.18375334 -0.098286673 0.64100003
-0.18224762 -0.09813334 0.64000005
-0.18074572 -0.097980008 0.63900006
-0.17952858 -0.097980008 0.63900006
-0.1780324 -0.097826675 0.63800001
-0.17681715 -0.097826675 0.63800001
-0.17505144 -0.097520009 0.63600004
-0.17384002 -0.097520009 0.63600004
-0.17262858 -0.097520009 0.63600004
-0.17141715 -0.097520009 0.63600004
-0.17020573 -0.097520009 0.63600004
-0.16899429 -0.097520009 0.63600004
-0.16778287 -0.097520009 0.63600004
-0.16657144 -0.097520009 0.63600004
-0.16614 -0.097980008 0.63900006
-0.16492286 -0.097980008 0.63900006
-0.16370572 -0.097980008 0.63900006
-0.16248858 -0.097980008 0.63900006
-0.16152382 -0.09813334 0.64000005
-0.16055524 -0.098286673 0.64100003
-0.1593343 -0.098286673 0.64100003
-0.15836 -0.098440006 0.64200002
-0.15713716 -0.098440006 0.64200002
-0.15640001 -0.098746672 0.64400005
-0.15517335 -0.098746672 0.64400005
-0.15418573 -0.098900005 0.64500004
-0.15319429 -0.099053338 0.64600003
-0.15196382 -0.099053338 0.64600003
-0.15096667 -0.099206671 0.64700001
-0.14973429 -0.099206671 0.64700001
-0.14850192 -0.099206671 0.64700001
-0.14726953 -0.099206671 0.64700001
-0.1898143 -0.097671434 0.64500004
-0.18829335 -0.097520009 0.64400005
-0.18706667 -0.097520009 0.64400005
-0.18526287 -0.09721715 0.64200002
-0.18375334 -0.097065717 0.64100003
-0.18224762 -0.096914291 0.64000005
-0.18102859 -0.096914291 0.64000005
-0.17952858 -0.096762866 0.63900006
-0.17831144 -0.096762866 0.63900006
-0.17681715 -0.096611433 0.63800001
-0.17505144 -0.096308574 0.63600004
-0.17384002 -0.096308574 0.63600004
-0.17262858 -0.096308574 0.63600004
-0.17141715 -0.096308574 0.63600004
-0.17074096 -0.096611433 0.63800001
-0.16899429 -0.096308574 0.63600004
-0.16778287 -0.096308574 0.63600004
-0.16709524 -0.096611433 0.63800001
-0.16614 -0.096762866 0.63900006
-0.16492286 -0.096762866 0.63900006
-0.16370572 -0.096762866 0.63900006
-0.16274287 -0.096914291 0.64000005
-0.16152382 -0.096914291 0.64000005
-0.16055524 -0.097065717 0.64100003
-0.15958287 -0.09721715 0.64200002
-0.15836 -0.09721715 0.64200002
-0.15713716 -0.09721715 0.64200002
-0.15640001 -0.097520009 0.64400005
-0.1554143 -0.097671434 0.64500004
-0.15418573 -0.097671434 0.64500004
-0.15319429 -0.09782286 0.64600003
-0.15219906 -0.097974293 0.64700001
-0.15096667 -0.097974293 0.64700001
-0.14973429 -0.097974293 0.64700001
-0.18829335 -0.096293338 0.64400005
-0.18706667 -0.096293338 0.64400005
-0.18526287 -0.095994294 0.64200002
-0.18404001 -0.095994294 0.64200002
-0.1825324 -0.095844768 0.64100003
-0.18131144 -0.095844768 0.64100003
-0.17980954 -0.095695242 0.64000005
-0.17859049 -0.095695242 0.64000005
-0.17737144 -0.095695242 0.64000005
-0.17587715 -0.095545724 0.63900006
-0.17466001 -0.095545724 0.63900006
-0.17317145 -0.095396198 0.63800001
-0.1719562 -0.095396198 0.63800001
-0.17074096 -0.095396198 0.63800001
-0.16952573 -0.095396198 0.63800001
-0.16831049 -0.095396198 0.63800001
-0.16735715 -0.095545724 0.63900006
-0.16640002 -0.095695242 0.64000005
-0.16492286 -0.095545724 0.63900006
-0.16396192 -0.095695242 0.64000005
-0.16299716 -0.095844768 0.64100003
-0.1617762 -0.095844768 0.64100003
-0.16080573 -0.095994294 0.64200002
-0.15958287 -0.095994294 0.64200002
-0.15885334 -0.096293338 0.64400005
-0.15762667 -0.096293338 0.64400005
-0.15664287 -0.096442863 0.64500004
-0.1554143 -0.096442863 0.64500004
-0.15442477 -0.096592389 0.64600003
-0.15319429 -0.096592389 0.64600003
-0.15219906 -0.096741915 0.64700001
-0.15120001 -0.096891433 0.648
-0.14996572 -0.096891433 0.648
-0.1503381 -0.097938098 0.65500003
-0.1493181 -0.098087624 0.65600002
-0.14806858 -0.098087624 0.65600002
-0.18858573 -0.095214292 0.64500004
-0.18735716 -0.095214292 0.64500004
-0.18612859 -0.095214292 0.64500004
-0.18461335 -0.095066674 0.64400005
-0.18281716 -0.094771437 0.64200002
-0.1815943 -0.094771437 0.64200002
-0.18037143 -0.094771437 0.64200002
-0.17886953 -0.094623819 0.64100003
-0.17764859 -0.094623819 0.64100003
-0.17642763 -0.094623819 0.64100003
-0.17520668 -0.094623819 0.64100003
-0.17398572 -0.094623819 0.64100003
-0.17276478 -0.094623819 0.64100003
-0.17100859 -0.094328575 0.63900006
-0.16979145 -0.094328575 0.63900006
-0.1685743 -0.094328575 0.63900006
-0.16761906 -0.094476193 0.64000005
-0.16666001 -0.094623819 0.64100003
-0.16518097 -0.094476193 0.64000005
-0.16396192 -0.094476193 0.64000005
-0.16299716 -0.094623819 0.64100003
-0.16202858 -0.094771437 0.64200002
-0.16080573 -0.094771437 0.64200002
-0.16008002 -0.095066674 0.64400005
-0.15885334 -0.095066674 0.64400005
-0.15762667 -0.095066674 0.64400005
-0.15664287 -0.095214292 0.64500004
-0.15565525 -0.095361911 0.64600003
-0.15442477 -0.095361911 0.64600003
-0.15343145 -0.095509529 0.64700001
-0.15243429 -0.095657147 0.648
-0.15166667 -0.095952384 0.65000004
-0.15089144 -0.096247628 0.65200001
-0.1503381 -0.096690483 0.65500003
-0.1493181 -0.096838102 0.65600002
-0.14806858 -0.096838102 0.65600002
-0.14704287 -0.09698572 0.65700001
-0.14579144 -0.09698572 0.65700001
-0.14454001 -0.09698572 0.65700001
-0.18858573 -0.093985721 0.64500004
-0.18764763 -0.094131432 0.64600003
-0.18641716 -0.094131432 0.64600003
-0.18461335 -0.093840003 0.64400005
-0.18338668 -0.093840003 0.64400005
-0.18216 -0.093840003 0.64400005
-0.18037143 -0.093548581 0.64200002
-0.17914858 -0.093548581 0.64200002
-0.17792572 -0.093548581 0.64200002
-0.17642763 -0.093402863 0.64100003
-0.17548001 -0.093548581 0.64200002
-0.17425716 -0.093548581 0.64200002
-0.1730343 -0.093548581 0.64200002
-0.17181145 -0.093548581 0.64200002
-0.17058858 -0.093548581 0.64200002
-0.16936572 -0.093548581 0.64200002
-0.16814287 -0.093548581 0.64200002
-0.16692001 -0.093548581 0.64200002
-0.16569716 -0.093548581 0.64200002
-0.16421811 -0.093402863 0.64100003
-0.16325144 -0.093548581 0.64200002
-0.16253334 -0.093840003 0.64400005
-0.16080573 -0.093548581 0.64200002
-0.16008002 -0.093840003 0.64400005
-0.15910001 -0.093985721 0.64500004
-0.15811621 -0.094131432 0.64600003
-0.15688573 -0.094131432 0.64600003
-0.1558962 -0.094277151 0.64700001
-0.15466382 -0.094277151 0.64700001
-0.15366858 -0.094422862 0.648
-0.15243429 -0.094422862 0.648
-0.15190001 -0.09486001 0.65100002
-0.15112287 -0.095151432 0.65300006
-0.1503381 -0.095442861 0.65500003
-0.1493181 -0.09558858 0.65600002
-0.14806858 -0.09558858 0.65600002
-0.14704287 -0.095734291 0.65700001
-0.14601335 -0.095880009 0.65800005
-0.14454001 -0.095734291 0.65700001
-0.19193144 -0.093188576 0.648
-0.19069715 -0.093188576 0.648
-0.18946287 -0.093188576 0.648
-0.18793811 -0.093044765 0.64700001
-0.18670572 -0.093044765 0.64700001
-0.18518668 -0.092900962 0.64600003
-0.18367144 -0.092757151 0.64500004
-0.18216 -0.092613339 0.64400005
-0.18093334 -0.092613339 0.64400005
-0.17970668 -0.092613339 0.64400005
-0.17848001 -0.092613339 0.64400005
-0.17670287 -0.092325717 0.64200002
-0.17548001 -0.092325717 0.64200002
-0.17425716 -0.092325717 0.64200002
-0.1730343 -0.092325717 0.64200002
-0.17181145 -0.092325717 0.64200002
-0.17058858 -0.092325717 0.64200002
-0.16936572 -0.092325717 0.64200002
-0.16814287 -0.092325717 0.64200002
-0.16692001 -0.092325717 0.64200002
-0.16569716 -0.092325717 0.64200002
-0.16447429 -0.092325717 0.64200002
-0.16325144 -0.092325717 0.64200002
-0.16253334 -0.092613339 0.64400005
-0.16130668 -0.092613339 0.64400005
-0.16032858 -0.092757151 0.64500004
-0.15934667 -0.092900962 0.64600003
-0.15811621 -0.092900962 0.64600003
-0.15712859 -0.093044765 0.64700001
-0.15613715 -0.093188576 0.648
-0.15490286 -0.093188576 0.648
-0.15414287 -0.093476199 0.65000004
-0.15290478 -0.093476199 0.65000004
-0.15190001 -0.09362001 0.65100002
-0.15112287 -0.093907624 0.65300006
-0.1503381 -0.094195247 0.65500003
-0.1493181 -0.09433905 0.65600002
-0.14806858 -0.09433905 0.65600002
-0.14726667 -0.094626673 0.65800005
-0.14601335 -0.094626673 0.65800005
-0.14476001 -0.094626673 0.65800005
-0.14350668 -0.094626673 0.65800005
-0.14268573 -0.094914295 0.66000003
-0.19282001 -0.09238001 0.65100002
-0.19158001 -0.09238001 0.65100002
-0.19004764 -0.092238098 0.65000004
-0.18822858 -0.091954291 0.648
-0.1869943 -0.091954291 0.648
-0.18547335 -0.091812387 0.64700001
-0.18395621 -0.091670483 0.64600003
-0.18272573 -0.091670483 0.64600003
-0.18149525 -0.091670483 0.64600003
-0.18026477 -0.091670483 0.64600003
-0.17903429 -0.091670483 0.64600003
-0.17752859 -0.09152858 0.64500004
-0.17602667 -0.091386676 0.64400005
-0.17480001 -0.091386676 0.64400005
-0.17357334 -0.091386676 0.64400005
-0.17234668 -0.091386676 0.64400005
-0.17112002 -0.091386676 0.64400005
-0.16989334 -0.091386676 0.64400005
-0.16866668 -0.091386676 0.64400005
-0.16744001 -0.091386676 0.64400005
-0.16621335 -0.091386676 0.64400005
-0.16498668 -0.091386676 0.64400005
-0.16376001 -0.091386676 0.64400005
-0.16253334 -0.091386676 0.64400005
-0.16130668 -0.091386676 0.64400005
-0.16032858 -0.09152858 0.64500004
-0.15934667 -0.091670483 0.64600003
-0.15836096 -0.091812387 0.64700001
-0.15712859 -0.091812387 0.64700001
-0.15613715 -0.091954291 0.648
-0.15538096 -0.092238098 0.65000004
-0.15414287 -0.092238098 0.65000004
-0.15290478 -0.092238098 0.65000004
-0.15213335 -0.092521913 0.65200001
-0.15112287 -0.092663817 0.65300006
-0.15056764 -0.093089528 0.65600002
-0.14954573 -0.093231432 0.65700001
-0.1482943 -0.093231432 0.65700001
-0.14704287 -0.093231432 0.65700001
-0.14601335 -0.093373336 0.65800005
-0.14476001 -0.093373336 0.65800005
-0.14394286 -0.093657151 0.66000003
-0.14268573 -0.093657151 0.66000003
-0.19435811 -0.091280006 0.65200001
-0.1931162 -0.091280006 0.65200001
-0.19158001 -0.091140009 0.65100002
-0.19004764 -0.091000006 0.65000004
-0.18822858 -0.090720005 0.648
-0.1869943 -0.090720005 0.648
-0.18576001 -0.090720005 0.648
-0.18424097 -0.090580009 0.64700001
-0.18272573 -0.090440005 0.64600003
-0.18149525 -0.090440005 0.64600003
-0.18026477 -0.090440005 0.64600003
-0.17903429 -0.090440005 0.64600003
-0.17752859 -0.090300009 0.64500004
-0.17657335 -0.090440005 0.64600003
-0.17480001 -0.090160005 0.64400005
-0.17357334 -0.090160005 0.64400005
-0.17234668 -0.090160005 0.64400005
-0.17112002 -0.090160005 0.64400005
-0.16989334 -0.090160005 0.64400005
-0.16866668 -0.090160005 0.64400005
-0.16744001 -0.090160005 0.64400005
-0.16621335 -0.090160005 0.64400005
-0.16498668 -0.090160005 0.64400005
-0.16376001 -0.090160005 0.64400005
-0.16278572 -0.090300009 0.64500004
-0.16155715 -0.090300009 0.64500004
-0.16032858 -0.090300009 0.64500004
-0.15934667 -0.090440005 0.64600003
-0.15836096 -0.090580009 0.64700001
-0.15712859 -0.090580009 0.64700001
-0.15613715 -0.090720005 0.648
-0.15538096 -0.091000006 0.65000004
-0.15414287 -0.091000006 0.65000004
-0.15314001 -0.091140009 0.65100002
-0.15190001 -0.091140009 0.65100002
-0.15112287 -0.091420002 0.65300006
-0.1503381 -0.091700003 0.65500003
-0.14954573 -0.091980003 0.65700001
-0.14806858 -0.091840006 0.65600002
-0.14726667 -0.092120007 0.65800005
-0.14645715 -0.092400007 0.66000003
-0.14542001 -0.092540003 0.66100001
-0.14416096 -0.092540003 0.66100001
-0.14290191 -0.092540003 0.66100001
-0.19435811 -0.090038098 0.65200001
-0.19282001 -0.089900009 0.65100002
-0.19158001 -0.089900009 0.65100002
-0.19004764 -0.089761913 0.65000004
-0.18822858 -0.08948572 0.648
-0.1869943 -0.08948572 0.648
-0.18576001 -0.08948572 0.648
-0.18424097 -0.089347623 0.64700001
-0.18272573 -0.089209527 0.64600003
-0.18149525 -0.089209527 0.64600003
-0.18026477 -0.089209527 0.64600003
-0.17903429 -0.089209527 0.64600003
-0.17752859 -0.089071438 0.64500004
-0.17657335 -0.089209527 0.64600003
-0.17507143 -0.089071438 0.64500004
-0.17357334 -0.088933341 0.64400005
-0.17234668 -0.088933341 0.64400005
-0.17112002 -0.088933341 0.64400005
-0.16989334 -0.088933341 0.64400005
-0.16866668 -0.088933341 0.64400005
-0.16744001 -0.088933341 0.64400005
-0.16621335 -0.088933341 0.64400005
-0.16498668 -0.088933341 0.64400005
-0.16376001 -0.088933341 0.64400005
-0.16253334 -0.088933341 0.64400005
-0.16130668 -0.088933341 0.64400005
-0.16008002 -0.088933341 0.64400005
-0.15934667 -0.089209527 0.64600003
-0.15836096 -0.089347623 0.64700001
-0.15712859 -0.089347623 0.64700001
-0.15613715 -0.08948572 0.648
-0.15490286 -0.08948572 0.648
-0.15414287 -0.089761913 0.65000004
-0.15290478 -0.089761913 0.65000004
-0.15190001 -0.089900009 0.65100002
-0.15089144 -0.090038098 0.65200001
-0.14987905 -0.090176195 0.65300006
-0.1493181 -0.090590484 0.65600002
-0.1482943 -0.090728581 0.65700001
-0.14726667 -0.09086667 0.65800005
-0.14645715 -0.091142863 0.66000003
-0.14542001 -0.09128096 0.66100001
-0.14416096 -0.09128096 0.66100001
-0.14290191 -0.09128096 0.66100001
-0.14207144 -0.091557153 0.66300005
-0.14123334 -0.091833338 0.66500002
-0.14017715 -0.091971435 0.66600001
-0.19684191 -0.088796198 0.65200001
-0.19560002 -0.088796198 0.65200001
-0.19435811 -0.088796198 0.65200001
-0.19282001 -0.088660009 0.65100002
-0.19158001 -0.088660009 0.65100002
-0.19004764 -0.088523813 0.65000004
-0.18822858 -0.088251434 0.648
-0.1869943 -0.088251434 0.648
-0.18576001 -0.088251434 0.648
-0.18424097 -0.088115245 0.64700001
-0.18300858 -0.088115245 0.64700001
-0.1817762 -0.088115245 0.64700001
-0.18026477 -0.087979056 0.64600003
-0.17903429 -0.087979056 0.64600003
-0.17752859 -0.087842859 0.64500004
-0.17657335 -0.087979056 0.64600003
-0.17507143 -0.087842859 0.64500004
-0.17357334 -0.08770667 0.64400005
-0.17261429 -0.087842859 0.64500004
-0.17138572 -0.087842859 0.64500004
-0.17015715 -0.087842859 0.64500004
-0.16866668 -0.08770667 0.64400005
-0.16744001 -0.08770667 0.64400005
-0.16621335 -0.08770667 0.64400005
-0.16498668 -0.08770667 0.64400005
-0.16325144 -0.087434292 0.64200002
-0.16278572 -0.087842859 0.64500004
-0.16130668 -0.08770667 0.64400005
-0.16008002 -0.08770667 0.64400005
-0.15910001 -0.087842859 0.64500004
-0.15811621 -0.087979056 0.64600003
-0.15712859 -0.088115245 0.64700001
-0.1558962 -0.088115245 0.64700001
-0.15490286 -0.088251434 0.648
-0.15414287 -0.088523813 0.65000004
-0.15290478 -0.088523813 0.65000004
-0.15166667 -0.088523813 0.65000004
-0.15042858 -0.088523813 0.65000004
-0.14964953 -0.088796198 0.65200001
-0.14909048 -0.089204766 0.65500003
-0.1482943 -0.089477152 0.65700001
-0.14726667 -0.089613341 0.65800005
-0.14667906 -0.090021908 0.66100001
-0.14542001 -0.090021908 0.66100001
-0.14394286 -0.089885719 0.66000003
-0.1431181 -0.090158097 0.66200006
-0.14207144 -0.090294294 0.66300005
-0.14123334 -0.090566672 0.66500002
-0.14017715 -0.090702862 0.66600001
-0.13890858 -0.090702862 0.66600001
-0.19778001 -0.087420009 0.65100002
-0.19684191 -0.087554291 0.65200001
-0.19560002 -0.087554291 0.65200001
-0.19435811 -0.087554291 0.65200001
-0.1931162 -0.087554291 0.65200001
-0.19158001 -0.087420009 0.65100002
-0.19004764 -0.08728572 0.65000004
-0.18880953 -0.08728572 0.65000004
-0.1869943 -0.087017149 0.648
-0.18576001 -0.087017149 0.648
-0.18452573 -0.087017149 0.648
-0.18300858 -0.086882859 0.64700001
-0.1817762 -0.086882859 0.64700001
-0.18054383 -0.086882859 0.64700001
-0.17931144 -0.086882859 0.64700001
-0.17780381 -0.086748578 0.64600003
-0.17602667 -0.086480007 0.64400005
-0.17507143 -0.086614288 0.64500004
-0.17384286 -0.086614288 0.64500004
-0.17261429 -0.086614288 0.64500004
-0.17138572 -0.086614288 0.64500004
-0.17015715 -0.086614288 0.64500004
-0.16892858 -0.086614288 0.64500004
-0.16744001 -0.086480007 0.64400005
-0.16621335 -0.086480007 0.64400005
-0.16498668 -0.086480007 0.64400005
-0.16376001 -0.086480007 0.64400005
-0.16278572 -0.086614288 0.64500004
-0.16155715 -0.086614288 0.64500004
-0.16032858 -0.086614288 0.64500004
-0.15910001 -0.086614288 0.64500004
