# .PCD v0.7 - Point Cloud Data file format
VERSION 0.7
FIELDS x y z
SIZE 4 4 4
TYPE F F F
COUNT 1 1 1
WIDTH 1358
HEIGHT 1
VIEWPOINT 0 0 0 1 0 0 0
POINTS 1358
DATA ascii
-0.073542863 0.073542863 0.66000003
-0.072066672 0.073320001 0.65800005
-0.070813335 0.073320001 0.65800005
-0.069560006 0.073320001 0.65800005
-0.068202861 0.073208578 0.65700001
-0.066951431 0.073208578 0.65700001
-0.065700002 0.073208578 0.65700001
-0.064350478 0.073097147 0.65600002
-0.063100956 0.073097147 0.65600002
-0.061757147 0.072985716 0.65500003
-0.060232386 0.072651431 0.65200001
-0.058809526 0.072428577 0.65000004
-0.057394288 0.072205722 0.648
-0.056073338 0.072094291 0.64700001
-0.054756194 0.071982861 0.64600003
-0.053525716 0.071982861 0.64600003
-0.052214291 0.07187143 0.64500004
-0.050906669 0.071760006 0.64400005
-0.049525719 0.071537144 0.64200002
-0.048227623 0.071425721 0.64100003
-0.04700667 0.071425721 0.64100003
-0.045785718 0.071425721 0.64100003
-0.04449524 0.07131429 0.64000005
-0.043276194 0.07131429 0.64000005
-0.042057145 0.07131429 0.64000005
-0.04077429 0.071202859 0.63900006
-0.039557144 0.071202859 0.63900006
-0.038280003 0.071091436 0.63800001
-0.037064765 0.071091436 0.63800001
-0.035905715 0.071202859 0.63900006
-0.034634288 0.071091436 0.63800001
-0.033471432 0.071202859 0.63900006
-0.032405715 0.071537144 0.64200002
-0.031182859 0.071537144 0.64200002
-0.030053336 0.071760006 0.64400005
-0.028826669 0.071760006 0.64400005
-0.027600002 0.071760006 0.64400005
-0.026373334 0.071760006 0.64400005
-0.025146669 0.071760006 0.64400005
-0.10688001 0.076160006 0.67200005
-0.10560001 0.076160006 0.67200005
-0.10432 0.076160006 0.67200005
-0.10304001 0.076160006 0.67200005
-0.10176001 0.076160006 0.67200005
-0.10018096 0.075933337 0.67000002
-0.096352391 0.075933337 0.67000002
-0.094934292 0.075820006 0.66900003
-0.093100004 0.075366668 0.66500002
-0.091833338 0.075366668 0.66500002
-0.090294294 0.075140007 0.66300005
-0.089031436 0.075140007 0.66300005
-0.077314287 0.074800007 0.66000003
-0.076057151 0.074800007 0.66000003
-0.074573338 0.074573338 0.65800005
-0.073320001 0.074573338 0.65800005
-0.072066672 0.074573338 0.65800005
-0.070705719 0.074460007 0.65700001
-0.06945429 0.074460007 0.65700001
-0.068202861 0.074460007 0.65700001
-0.06684953 0.074346669 0.65600002
-0.065600008 0.074346669 0.65600002
-0.064350478 0.074346669 0.65600002
-0.063004769 0.074233338 0.65500003
-0.061568577 0.074006669 0.65300006
-0.05986286 0.073440008 0.648
-0.058538098 0.07332667 0.64700001
-0.057217147 0.073213339 0.64600003
-0.055813339 0.07298667 0.64400005
-0.054671433 0.073100008 0.64500004
-0.053360004 0.07298667 0.64400005
-0.052133337 0.07298667 0.64400005
-0.050748575 0.072760008 0.64200002
-0.049525719 0.072760008 0.64200002
-0.048227623 0.07264667 0.64100003
-0.046933338 0.072533339 0.64000005
-0.045714289 0.072533339 0.64000005
-0.044425718 0.072420008 0.63900006
-0.043208573 0.072420008 0.63900006
-0.041991431 0.072420008 0.63900006
-0.040710479 0.07230667 0.63800001
-0.039495241 0.07230667 0.63800001
-0.038280003 0.07230667 0.63800001
-0.036948573 0.072080001 0.63600004
-0.035849527 0.07230667 0.63800001
-0.034525715 0.072080001 0.63600004
-0.033314288 0.072080001 0.63600004
-0.032052383 0.07196667 0.63500005
-0.031134287 0.07264667 0.64100003
-0.029913336 0.07264667 0.64100003
-0.028692383 0.07264667 0.64100003
-0.027385715 0.072420008 0.63900006
-0.02629143 0.072760008 0.64200002
-0.024990479 0.072533339 0.64000005
-0.10816 0.077440009 0.67200005
-0.10688001 0.077440009 0.67200005
-0.10591429 0.077670485 0.67400002
-0.10463049 0.077670485 0.67400002
-0.09620858 0.077094294 0.66900003
-0.094650485 0.076863818 0.66700006
-0.093100004 0.076633342 0.66500002
-0.091833338 0.076633342 0.66500002
-0.090294294 0.076402865 0.66300005
-0.089031436 0.076402865 0.66300005
-0.087768577 0.076402865 0.66300005
-0.086505719 0.076402865 0.66300005
-0.077314287 0.076057151 0.66000003
-0.075826675 0.075826675 0.65800005
-0.074460007 0.075711437 0.65700001
-0.073208578 0.075711437 0.65700001
-0.071847625 0.075596198 0.65600002
-0.070705719 0.075711437 0.65700001
-0.069348574 0.075596198 0.65600002
-0.068099052 0.075596198 0.65600002
-0.066747621 0.07548096 0.65500003
-0.065500006 0.07548096 0.65500003
-0.063565716 0.074674293 0.648
-0.062331434 0.074674293 0.648
-0.061097145 0.074674293 0.648
-0.05977048 0.074559055 0.64700001
-0.058447622 0.074443817 0.64600003
-0.057128575 0.074328579 0.64500004
-0.055813339 0.074213341 0.64400005
-0.054586671 0.074213341 0.64400005
-0.053360004 0.074213341 0.64400005
-0.051971432 0.073982865 0.64200002
-0.050669529 0.073867626 0.64100003
-0.049371433 0.073752388 0.64000005
-0.048152383 0.073752388 0.64000005
-0.046860002 0.07363715 0.63900006
-0.04564286 0.07363715 0.63900006
-0.044356193 0.073521912 0.63800001
-0.043140955 0.073521912 0.63800001
-0.041925717 0.073521912 0.63800001
-0.040582858 0.073291436 0.63600004
-0.039309528 0.073176198 0.63500005
-0.038100004 0.073176198 0.63500005
-0.036890477 0.073176198 0.63500005
-0.035737146 0.073291436 0.63600004
-0.03447143 0.073176198 0.63500005
-0.033261906 0.073176198 0.63500005
-0.032052383 0.073176198 0.63500005
-0.030794287 0.07306096 0.634
-0.029586669 0.07306096 0.634
-0.028468573 0.073291436 0.63600004
-0.027257144 0.073291436 0.63600004
-0.026127622 0.073521912 0.63800001
-0.024834286 0.073291436 0.63600004
-0.023622859 0.073291436 0.63600004
-0.1071981 0.078954294 0.67400002
-0.095920958 0.078134291 0.66700006
-0.094650485 0.078134291 0.66700006
-0.093100004 0.077900007 0.66500002
-0.091833338 0.077900007 0.66500002
-0.090294294 0.077665716 0.66300005
-0.089031436 0.077665716 0.66300005
-0.087768577 0.077665716 0.66300005
-0.086505719 0.077665716 0.66300005
-0.085500002 0.077900007 0.66500002
-0.075826675 0.077080004 0.65800005
-0.074460007 0.076962866 0.65700001
-0.073208578 0.076962866 0.65700001
-0.071847625 0.07684572 0.65600002
-0.070598103 0.07684572 0.65600002
-0.069348574 0.07684572 0.65600002
-0.067995243 0.076728575 0.65500003
-0.066543818 0.076494291 0.65300006
-0.065300003 0.076494291 0.65300006
-0.063565716 0.075908579 0.648
-0.062331434 0.075908579 0.648
-0.061002862 0.075791433 0.64700001
-0.0596781 0.075674288 0.64600003
-0.058357146 0.07555715 0.64500004
-0.057040002 0.075440004 0.64400005
-0.055813339 0.075440004 0.64400005
-0.054417148 0.075205721 0.64200002
-0.053194288 0.075205721 0.64200002
-0.051890481 0.075088575 0.64100003
-0.050590478 0.07497143 0.64000005
-0.049371433 0.07497143 0.64000005
-0.048077147 0.074854292 0.63900006
-0.046860002 0.074854292 0.63900006
-0.045571432 0.074737146 0.63800001
-0.044217147 0.074502863 0.63600004
-0.043005716 0.074502863 0.63600004
-0.041728575 0.074385718 0.63500005
-0.040455241 0.074268579 0.634
-0.039247621 0.074268579 0.634
-0.038040001 0.074268579 0.634
-0.036832385 0.074268579 0.634
-0.035680953 0.074385718 0.63500005
-0.034417145 0.074268579 0.634
-0.033209525 0.074268579 0.634
-0.032001905 0.074268579 0.634
-0.030794287 0.074268579 0.634
-0.029586669 0.074268579 0.634
-0.028334288 0.074151434 0.63300002
-0.027171431 0.074268579 0.634
-0.026004763 0.074385718 0.63500005
-0.02479524 0.074385718 0.63500005
-0.02351143 0.074151434 0.63300002
-0.094650485 0.079404764 0.66700006
-0.092820004 0.078928575 0.66300005
-0.091557153 0.078928575 0.66300005
-0.090294294 0.078928575 0.66300005
-0.088897146 0.07880953 0.66200006
-0.087636195 0.07880953 0.66200006
-0.086375244 0.07880953 0.66200006
-0.085114293 0.07880953 0.66200006
-0.083853342 0.07880953 0.66200006
-0.075711437 0.078214288 0.65700001
-0.074460007 0.078214288 0.65700001
-0.073097147 0.078095242 0.65600002
-0.071847625 0.078095242 0.65600002
-0.070598103 0.078095242 0.65600002
-0.069348574 0.078095242 0.65600002
-0.067995243 0.077976197 0.65500003
-0.066543818 0.077738099 0.65300006
-0.065300003 0.077738099 0.65300006
-0.063565716 0.077142864 0.648
-0.062235244 0.077023812 0.64700001
-0.060814291 0.076785721 0.64500004
-0.059585717 0.076785721 0.64500004
-0.058357146 0.076785721 0.64500004
-0.057040002 0.076666668 0.64400005
-0.055640005 0.076428577 0.64200002
-0.054417148 0.076428577 0.64200002
-0.05311143 0.076309532 0.64100003
-0.051809527 0.076190479 0.64000005
-0.050511431 0.076071434 0.63900006
-0.049294289 0.076071434 0.63900006
-0.048077147 0.076071434 0.63900006
-0.04678667 0.075952388 0.63800001
-0.045428574 0.07571429 0.63600004
-0.044078097 0.075476192 0.634
-0.042870481 0.075476192 0.634
-0.041662861 0.075476192 0.634
-0.040455241 0.075476192 0.634
-0.039247621 0.075476192 0.634
-0.038040001 0.075476192 0.634
-0.036774289 0.075357147 0.63300002
-0.035624765 0.075476192 0.634
-0.03436286 0.075357147 0.63300002
-0.033157144 0.075357147 0.63300002
-0.031951431 0.075357147 0.63300002
-0.030745717 0.075357147 0.63300002
-0.029540002 0.075357147 0.63300002
-0.028289525 0.075238101 0.63200003
-0.027128574 0.075357147 0.63300002
-0.025922859 0.075357147 0.63300002
-0.024717145 0.075357147 0.63300002
-0.023474287 0.075238101 0.63200003
-0.022305716 0.075357147 0.63300002
-0.094650485 0.080675244 0.66700006
-0.093100004 0.080433339 0.66500002
-0.091557153 0.080191433 0.66300005
-0.090158097 0.080070481 0.66200006
-0.088897146 0.080070481 0.66200006
-0.087636195 0.080070481 0.66200006
-0.086375244 0.080070481 0.66200006
-0.085114293 0.080070481 0.66200006
-0.083853342 0.080070481 0.66200006
-0.075826675 0.07958667 0.65800005
-0.074460007 0.079465717 0.65700001
-0.073208578 0.079465717 0.65700001
-0.071957149 0.079465717 0.65700001
-0.070598103 0.079344764 0.65600002
-0.069348574 0.079344764 0.65600002
-0.067995243 0.079223812 0.65500003
-0.066441908 0.078860961 0.65200001
-0.065000005 0.078619055 0.65000004
-0.063565716 0.07837715 0.648
-0.062235244 0.078256197 0.64700001
-0.060814291 0.078014292 0.64500004
-0.059493337 0.077893339 0.64400005
-0.05826667 0.077893339 0.64400005
-0.056862861 0.077651434 0.64200002
-0.055640005 0.077651434 0.64200002
-0.054332383 0.077530481 0.64100003
-0.053028576 0.077409528 0.64000005
-0.051809527 0.077409528 0.64000005
-0.050511431 0.077288575 0.63900006
-0.049217146 0.077167623 0.63800001
-0.048001908 0.077167623 0.63800001
-0.046640001 0.076925717 0.63600004
-0.045357145 0.076804765 0.63500005
-0.044078097 0.076683812 0.634
-0.042870481 0.076683812 0.634
-0.041597147 0.076562859 0.63300002
-0.04039143 0.076562859 0.63300002
-0.039185718 0.076562859 0.63300002
-0.037980001 0.076562859 0.63300002
-0.036774289 0.076562859 0.63300002
-0.035568573 0.076562859 0.63300002
-0.03436286 0.076562859 0.63300002
-0.033157144 0.076562859 0.63300002
-0.031951431 0.076562859 0.63300002
-0.030697145 0.076441906 0.63200003
-0.029493336 0.076441906 0.63200003
-0.028244764 0.076320961 0.63100004
-0.027085716 0.076441906 0.63200003
-0.025922859 0.076562859 0.63300002
-0.024678096 0.076441906 0.63200003
-0.023474287 0.076441906 0.63200003
-0.022305716 0.076562859 0.63300002
-0.021100001 0.076562859 0.63300002
-0.019925715 0.076683812 0.634
-0.01865905 0.076441906 0.63200003
-0.09620858 0.082191437 0.66900003
-0.094650485 0.081945717 0.66700006
-0.093380004 0.081945717 0.66700006
-0.091971435 0.081822865 0.66600001
-0.090294294 0.081454292 0.66300005
-0.088897146 0.081331432 0.66200006
-0.087636195 0.081331432 0.66200006
-0.086375244 0.081331432 0.66200006
-0.085114293 0.081331432 0.66200006
-0.083853342 0.081331432 0.66200006
-0.075826675 0.080840006 0.65800005
-0.074460007 0.080717146 0.65700001
-0.073208578 0.080717146 0.65700001
-0.071957149 0.080717146 0.65700001
-0.070598103 0.080594294 0.65600002
-0.069348574 0.080594294 0.65600002
-0.067787625 0.080225721 0.65300006
-0.066340007 0.079980008 0.65100002
-0.064800002 0.079611436 0.648
-0.063467622 0.079488575 0.64700001
-0.062235244 0.079488575 0.64700001
-0.060720004 0.079120003 0.64400005
-0.059493337 0.079120003 0.64400005
-0.05826667 0.079120003 0.64400005
-0.056862861 0.07887429 0.64200002
-0.055553336 0.078751437 0.64100003
-0.054247621 0.078628577 0.64000005
-0.053028576 0.078628577 0.64000005
-0.051728576 0.078505717 0.63900006
-0.050432384 0.078382865 0.63800001
-0.049217146 0.078382865 0.63800001
-0.047851432 0.078137144 0.63600004
-0.046566669 0.078014292 0.63500005
-0.045285717 0.077891432 0.634
-0.044008575 0.077768579 0.63300002
-0.042802859 0.077768579 0.63300002
-0.041531432 0.077645719 0.63200003
-0.040327623 0.077645719 0.63200003
-0.039123811 0.077645719 0.63200003
-0.037920002 0.077645719 0.63200003
-0.036658097 0.077522859 0.63100004
-0.035456192 0.077522859 0.63100004
-0.034308575 0.077645719 0.63200003
-0.033104762 0.077645719 0.63200003
-0.031900954 0.077645719 0.63200003
-0.030648574 0.077522859 0.63100004
-0.029353335 0.077277146 0.62900001
-0.028244764 0.077522859 0.63100004
-0.027085716 0.077645719 0.63200003
-0.025881907 0.077645719 0.63200003
-0.024678096 0.077645719 0.63200003
-0.023474287 0.077645719 0.63200003
-0.022305716 0.077768579 0.63300002
-0.021133335 0.077891432 0.634
-0.019925715 0.077891432 0.634
-0.018688573 0.077768579 0.63300002
-0.017482858 0.077768579 0.63300002
0.15743621 0.091897152 0.74800003
-0.096352391 0.083590485 0.67000002
-0.095076196 0.083590485 0.67000002
-0.093800008 0.083590485 0.67000002
-0.091971435 0.08309143 0.66600001
-0.090566672 0.08296667 0.66500002
-0.089031436 0.08271715 0.66300005
-0.087768577 0.08271715 0.66300005
-0.086505719 0.08271715 0.66300005
-0.08524286 0.08271715 0.66300005
-0.075826675 0.082093336 0.65800005
-0.074573338 0.082093336 0.65800005
-0.073208578 0.081968576 0.65700001
-0.071957149 0.081968576 0.65700001
-0.070598103 0.081843816 0.65600002
-0.069348574 0.081843816 0.65600002
-0.067787625 0.081469528 0.65300006
-0.066340007 0.081220008 0.65100002
-0.064800002 0.080845721 0.648
-0.063467622 0.080720961 0.64700001
-0.061946671 0.080346674 0.64400005
-0.060720004 0.080346674 0.64400005
-0.059493337 0.080346674 0.64400005
-0.058085717 0.080097146 0.64200002
-0.056774288 0.079972386 0.64100003
-0.055553336 0.079972386 0.64100003
-0.05416286 0.079722859 0.63900006
-0.052945718 0.079722859 0.63900006
-0.051647622 0.079598099 0.63800001
-0.05027429 0.079348579 0.63600004
-0.049062859 0.079348579 0.63600004
-0.047776192 0.079223812 0.63500005
-0.046493337 0.079099052 0.634
-0.045214288 0.078974292 0.63300002
-0.044008575 0.078974292 0.63300002
-0.042735241 0.078849532 0.63200003
-0.041465718 0.078724764 0.63100004
-0.040327623 0.078849532 0.63200003
-0.039123811 0.078849532 0.63200003
-0.037860002 0.078724764 0.63100004
-0.036541909 0.078475244 0.62900001
-0.035343811 0.078475244 0.62900001
-0.034145717 0.078475244 0.62900001
-0.033052385 0.078724764 0.63100004
-0.03185048 0.078724764 0.63100004
-0.03055143 0.078475244 0.62900001
-0.029353335 0.078475244 0.62900001
-0.028155239 0.078475244 0.62900001
-0.027042858 0.078724764 0.63100004
-0.025840955 0.078724764 0.63100004
-0.024678096 0.078849532 0.63200003
-0.023474287 0.078849532 0.63200003
-0.022305716 0.078974292 0.63300002
-0.021133335 0.079099052 0.634
-0.019925715 0.079099052 0.634
-0.018718097 0.079099052 0.634
-0.017482858 0.078974292 0.63300002
-0.01625143 0.078849532 0.63200003
-0.096352391 0.084866673 0.67000002
-0.095076196 0.084866673 0.67000002
-0.093800008 0.084866673 0.67000002
-0.092109531 0.084486671 0.66700006
-0.090702862 0.084360003 0.66600001
-0.089300007 0.084233336 0.66500002
-0.088033341 0.084233336 0.66500002
-0.086766675 0.084233336 0.66500002
-0.075826675 0.083346672 0.65800005
-0.074573338 0.083346672 0.65800005
-0.073208578 0.083220005 0.65700001
-0.071957149 0.083220005 0.65700001
-0.070598103 0.083093338 0.65600002
-0.069348574 0.083093338 0.65600002
-0.067787625 0.082713336 0.65300006
-0.066238098 0.082333341 0.65000004
-0.064800002 0.082080007 0.648
-0.063467622 0.081953339 0.64700001
-0.062139053 0.081826672 0.64600003
-0.060720004 0.081573337 0.64400005
-0.059493337 0.081573337 0.64400005
-0.058085717 0.081320003 0.64200002
-0.056774288 0.081193335 0.64100003
-0.055466671 0.081066675 0.64000005
-0.05416286 0.080940008 0.63900006
-0.052945718 0.080940008 0.63900006
-0.051485717 0.080560006 0.63600004
-0.05027429 0.080560006 0.63600004
-0.048985716 0.080433339 0.63500005
-0.047700956 0.080306672 0.634
-0.046420004 0.080180004 0.63300002
-0.045214288 0.080180004 0.63300002
-0.04393905 0.080053337 0.63200003
-0.042667624 0.07992667 0.63100004
-0.041465718 0.07992667 0.63100004
-0.040263813 0.07992667 0.63100004
-0.039061908 0.07992667 0.63100004
-0.037740003 0.079673335 0.62900001
-0.036541909 0.079673335 0.62900001
-0.035343811 0.079673335 0.62900001
-0.034091432 0.079546675 0.62800002
-0.032895241 0.079546675 0.62800002
-0.03169905 0.079546675 0.62800002
-0.03050286 0.079546675 0.62800002
-0.029306669 0.079546675 0.62800002
-0.028110478 0.079546675 0.62800002
-0.027042858 0.07992667 0.63100004
-0.025840955 0.07992667 0.63100004
-0.02463905 0.07992667 0.63100004
-0.023437144 0.07992667 0.63100004
-0.022270478 0.080053337 0.63200003
-0.021100001 0.080180004 0.63300002
-0.019894287 0.080180004 0.63300002
-0.018688573 0.080180004 0.63300002
-0.017482858 0.080180004 0.63300002
-0.01625143 0.080053337 0.63200003
-0.01504762 0.080053337 0.63200003
-0.09620858 0.086014293 0.66900003
-0.095076196 0.08614286 0.67000002
-0.093800008 0.08614286 0.67000002
-0.092109531 0.085757151 0.66700006
-0.090702862 0.085628577 0.66600001
-0.089300007 0.085500002 0.66500002
-0.088033341 0.085500002 0.66500002
-0.086766675 0.085500002 0.66500002
-0.085500002 0.085500002 0.66500002
-0.083980009 0.08524286 0.66300005
-0.081454292 0.08524286 0.66300005
-0.075826675 0.084600009 0.65800005
-0.074573338 0.084600009 0.65800005
-0.073320001 0.084600009 0.65800005
-0.072066672 0.084600009 0.65800005
-0.070705719 0.084471434 0.65700001
-0.06945429 0.084471434 0.65700001
-0.067580007 0.083700009 0.65100002
-0.066034287 0.083314292 0.648
-0.064700007 0.083185717 0.64700001
-0.063369527 0.08305715 0.64600003
-0.061946671 0.082800008 0.64400005
-0.060720004 0.082800008 0.64400005
-0.059308574 0.082542859 0.64200002
-0.057995241 0.082414292 0.64100003
-0.05668572 0.082285717 0.64000005
-0.055380005 0.08215715 0.63900006
-0.054078098 0.082028575 0.63800001
-0.05286286 0.082028575 0.63800001
-0.051485717 0.081771433 0.63600004
-0.050195243 0.081642866 0.63500005
-0.048908576 0.081514291 0.634
-0.047625717 0.081385717 0.63300002
-0.046420004 0.081385717 0.63300002
-0.045142859 0.08125715 0.63200003
-0.043869525 0.081128575 0.63100004
-0.042667624 0.081128575 0.63100004
-0.04133429 0.080871433 0.62900001
-0.040072385 0.080742866 0.62800002
-0.038876195 0.080742866 0.62800002
-0.037620004 0.080614291 0.62700003
-0.036367621 0.080485716 0.62600005
-0.035175242 0.080485716 0.62600005
-0.033928573 0.080357149 0.625
-0.032738097 0.080357149 0.625
-0.031547621 0.080357149 0.625
-0.030405717 0.080485716 0.62600005
-0.029213335 0.080485716 0.62600005
-0.028065717 0.080614291 0.62700003
-0.026914287 0.080742866 0.62800002
-0.025718097 0.080742866 0.62800002
-0.024560954 0.080871433 0.62900001
-0.023362858 0.080871433 0.62900001
-0.022235239 0.081128575 0.63100004
-0.021066668 0.08125715 0.63200003
-0.019894287 0.081385717 0.63300002
-0.018688573 0.081385717 0.63300002
-0.017482858 0.081385717 0.63300002
-0.016302858 0.081514291 0.634
-0.015071429 0.081385717 0.63300002
-0.01384381 0.08125715 0.63200003
-0.093940005 0.08754953 0.671
-0.092385717 0.087288581 0.66900003
-0.090839051 0.087027624 0.66700006
-0.089434288 0.08689715 0.66600001
-0.088562861 0.087288581 0.66900003
-0.086766675 0.086766675 0.66500002
-0.08524286 0.086505719 0.66300005
-0.084486671 0.087027624 0.66700006
-0.082592383 0.086375244 0.66200006
-0.081454292 0.086505719 0.66300005
-0.080070481 0.086375244 0.66200006
-0.078928575 0.086505719 0.66300005
-0.077548578 0.086375244 0.66200006
-0.076057151 0.086114295 0.66000003
-0.074800007 0.086114295 0.66000003
-0.073320001 0.085853338 0.65800005
-0.072066672 0.085853338 0.65800005
-0.070813335 0.085853338 0.65800005
-0.069348574 0.085592389 0.65600002
-0.067787625 0.085200958 0.65300006
-0.066034287 0.084548578 0.648
-0.064700007 0.084418103 0.64700001
-0.063369527 0.084287621 0.64600003
-0.062139053 0.084287621 0.64600003
-0.060720004 0.084026672 0.64400005
-0.059308574 0.083765723 0.64200002
-0.057995241 0.083635241 0.64100003
-0.05668572 0.083504766 0.64000005
-0.055380005 0.083374292 0.63900006
-0.054078098 0.083243817 0.63800001
-0.05286286 0.083243817 0.63800001
-0.051404767 0.082852386 0.63500005
-0.050195243 0.082852386 0.63500005
-0.048908576 0.082721911 0.634
-0.047625717 0.082591437 0.63300002
-0.046346668 0.082460955 0.63200003
-0.045071431 0.08233048 0.63100004
-0.043730479 0.082069531 0.62900001
-0.042464763 0.081939057 0.62800002
-0.041268576 0.081939057 0.62800002
-0.040008575 0.081808574 0.62700003
-0.038814288 0.081808574 0.62700003
-0.037560001 0.0816781 0.62600005
-0.036309525 0.081547625 0.625
-0.035119049 0.081547625 0.625
-0.033928573 0.081547625 0.625
-0.032738097 0.081547625 0.625
-0.031547621 0.081547625 0.625
-0.030357145 0.081547625 0.625
-0.029166669 0.081547625 0.625
-0.028020954 0.0816781 0.62600005
-0.026914287 0.081939057 0.62800002
-0.025718097 0.081939057 0.62800002
-0.024560954 0.082069531 0.62900001
-0.023437144 0.08233048 0.63100004
-0.022270478 0.082460955 0.63200003
-0.021100001 0.082591437 0.63300002
-0.019894287 0.082591437 0.63300002
-0.018718097 0.082721911 0.634
-0.017538097 0.082852386 0.63500005
-0.016328573 0.082852386 0.63500005
-0.015119049 0.082852386 0.63500005
-0.013909524 0.082852386 0.63500005
-0.012700001 0.082852386 0.63500005
-0.092385717 0.088562861 0.66900003
-0.091111436 0.088562861 0.66900003
-0.089837149 0.088562861 0.66900003
-0.088562861 0.088562861 0.66900003
-0.087288581 0.088562861 0.66900003
-0.085757151 0.088298105 0.66700006
-0.084486671 0.088298105 0.66700006
-0.08309143 0.088165723 0.66600001
-0.081700005 0.088033341 0.66500002
-0.080191433 0.087768577 0.66300005
-0.078928575 0.087768577 0.66300005
-0.077548578 0.087636195 0.66200006
-0.076287627 0.087636195 0.66200006
-0.074913338 0.087503813 0.66100001
-0.073542863 0.087371431 0.66000003
-0.072066672 0.087106675 0.65800005
-0.070813335 0.087106675 0.65800005
-0.069242865 0.086709529 0.65500003
-0.067683816 0.086312383 0.65200001
-0.066238098 0.086047627 0.65000004
-0.064800002 0.085782863 0.648
-0.063369527 0.085518099 0.64600003
-0.062139053 0.085518099 0.64600003
-0.060720004 0.085253336 0.64400005
-0.059308574 0.084988579 0.64200002
-0.057995241 0.084856197 0.64100003
-0.05668572 0.084723815 0.64000005
-0.055380005 0.084591433 0.63900006
-0.054078098 0.084459051 0.63800001
-0.052697148 0.084194288 0.63600004
-0.051404767 0.084061913 0.63500005
-0.050116193 0.083929531 0.634
-0.048831433 0.083797149 0.63300002
-0.047625717 0.083797149 0.63300002
-0.046346668 0.083664767 0.63200003
-0.044928573 0.083267622 0.62900001
-0.043660954 0.083135247 0.62800002
-0.042397145 0.083002865 0.62700003
-0.041202858 0.083002865 0.62700003
-0.039944764 0.082870483 0.62600005
-0.038690478 0.082738101 0.625
-0.037500001 0.082738101 0.625
-0.036251429 0.08260572 0.62400001
-0.035062861 0.08260572 0.62400001
-0.033874288 0.08260572 0.62400001
-0.032685716 0.08260572 0.62400001
-0.031497143 0.08260572 0.62400001
-0.030357145 0.082738101 0.625
-0.029166669 0.082738101 0.625
-0.027976193 0.082738101 0.625
-0.02687143 0.083002865 0.62700003
-0.025718097 0.083135247 0.62800002
-0.024560954 0.083267622 0.62900001
-0.023437144 0.083532386 0.63100004
-0.022270478 0.083664767 0.63200003
-0.021100001 0.083797149 0.63300002
-0.019925715 0.083929531 0.634
-0.018718097 0.083929531 0.634
-0.017538097 0.084061913 0.63500005
-0.016405715 0.084459051 0.63800001
-0.015190477 0.084459051 0.63800001
-0.01393143 0.084194288 0.63600004
-0.01278 0.084591433 0.63900006
-0.011562858 0.084591433 0.63900006
-0.089837149 0.089837149 0.66900003
-0.088562861 0.089837149 0.66900003
-0.087027624 0.089568578 0.66700006
-0.085757151 0.089568578 0.66700006
-0.084486671 0.089568578 0.66700006
-0.083216198 0.089568578 0.66700006
-0.081822865 0.089434288 0.66600001
-0.080433339 0.089300007 0.66500002
-0.078928575 0.089031436 0.66300005
-0.077665716 0.089031436 0.66300005
-0.076287627 0.088897146 0.66200006
-0.074913338 0.088762864 0.66100001
-0.073542863 0.088628575 0.66000003
-0.072285719 0.088628575 0.66000003
-0.070813335 0.088360004 0.65800005
-0.069348574 0.088091433 0.65600002
-0.067683816 0.087554291 0.65200001
-0.066238098 0.08728572 0.65000004
-0.064800002 0.087017149 0.648
-0.063467622 0.086882859 0.64700001
-0.062139053 0.086748578 0.64600003
-0.060720004 0.086480007 0.64400005
-0.059308574 0.086211435 0.64200002
-0.057995241 0.086077146 0.64100003
-0.05668572 0.085942864 0.64000005
-0.055380005 0.085808575 0.63900006
-0.054078098 0.085674293 0.63800001
-0.05261429 0.085271433 0.63500005
-0.051404767 0.085271433 0.63500005
-0.050116193 0.085137151 0.634
-0.048831433 0.085002862 0.63300002
-0.047550481 0.08486858 0.63200003
-0.046273336 0.084734291 0.63100004
-0.044928573 0.08446572 0.62900001
-0.043660954 0.08433143 0.62800002
-0.042397145 0.084197149 0.62700003
-0.041137144 0.084062859 0.62600005
-0.039880954 0.083928578 0.625
-0.038690478 0.083928578 0.625
-0.037440002 0.083794288 0.62400001
-0.036251429 0.083794288 0.62400001
-0.035006668 0.083660007 0.62300003
-0.033820003 0.083660007 0.62300003
-0.032685716 0.083794288 0.62400001
-0.031497143 0.083794288 0.62400001
-0.030357145 0.083928578 0.625
-0.029166669 0.083928578 0.625
-0.027976193 0.083928578 0.625
-0.02687143 0.084197149 0.62700003
-0.025718097 0.08433143 0.62800002
-0.024560954 0.08446572 0.62900001
-0.023437144 0.084734291 0.63100004
-0.022270478 0.08486858 0.63200003
-0.021100001 0.085002862 0.63300002
-0.019925715 0.085137151 0.634
-0.01874762 0.085271433 0.63500005
-0.017538097 0.085271433 0.63500005
-0.016354287 0.085405722 0.63600004
-0.015190477 0.085674293 0.63800001
-0.013975239 0.085674293 0.63800001
-0.01278 0.085808575 0.63900006
-0.011580953 0.085942864 0.64000005
-0.088562861 0.091111436 0.66900003
-0.086766675 0.090566672 0.66500002
-0.085500002 0.090566672 0.66500002
-0.084486671 0.090839051 0.66700006
-0.083216198 0.090839051 0.66700006
-0.081822865 0.090702862 0.66600001
-0.080433339 0.090566672 0.66500002
-0.078928575 0.090294294 0.66300005
-0.077665716 0.090294294 0.66300005
-0.076402865 0.090294294 0.66300005
-0.075026669 0.090158097 0.66200006
-0.073654294 0.090021908 0.66100001
-0.072395243 0.090021908 0.66100001
-0.071028575 0.089885719 0.66000003
-0.069560006 0.089613341 0.65800005
-0.067268573 0.088251434 0.648
-0.066034287 0.088251434 0.648
-0.064700007 0.088115245 0.64700001
-0.063369527 0.087979056 0.64600003
-0.061946671 0.08770667 0.64400005
-0.060720004 0.08770667 0.64400005
-0.059216194 0.087298103 0.64100003
-0.057995241 0.087298103 0.64100003
-0.056597147 0.087025717 0.63900006
-0.055293337 0.086889528 0.63800001
-0.053908575 0.086617149 0.63600004
-0.05261429 0.08648096 0.63500005
-0.051323812 0.086344771 0.634
-0.050116193 0.086344771 0.634
-0.048831433 0.086208574 0.63300002
-0.047550481 0.086072385 0.63200003
-0.046273336 0.085936196 0.63100004
-0.044928573 0.085663818 0.62900001
-0.043591432 0.085391432 0.62700003
-0.042329527 0.085255243 0.62600005
-0.04107143 0.085119054 0.625
-0.039817147 0.084982865 0.62400001
-0.038628574 0.084982865 0.62400001
-0.037440002 0.084982865 0.62400001
-0.036193337 0.084846675 0.62300003
-0.035006668 0.084846675 0.62300003
-0.033820003 0.084846675 0.62300003
-0.032633334 0.084846675 0.62300003
-0.031497143 0.084982865 0.62400001
-0.030308573 0.084982865 0.62400001
-0.029166669 0.085119054 0.625
-0.027976193 0.085119054 0.625
-0.02687143 0.085391432 0.62700003
-0.025677145 0.085391432 0.62700003
-0.024560954 0.085663818 0.62900001
-0.023437144 0.085936196 0.63100004
-0.022270478 0.086072385 0.63200003
-0.021100001 0.086208574 0.63300002
-0.019925715 0.086344771 0.634
-0.01874762 0.08648096 0.63500005
-0.017565716 0.086617149 0.63600004
-0.016405715 0.086889528 0.63800001
-0.015214287 0.087025717 0.63900006
-0.014019049 0.087161914 0.64000005
-0.012820001 0.087298103 0.64100003
-0.011617144 0.087434292 0.64200002
-0.010442858 0.087842859 0.64500004
-0.08524286 0.091557153 0.66300005
-0.084360003 0.091971435 0.66600001
-0.08309143 0.091971435 0.66600001
-0.081700005 0.091833338 0.66500002
-0.080433339 0.091833338 0.66500002
-0.078928575 0.091557153 0.66300005
-0.077665716 0.091557153 0.66300005
-0.076402865 0.091557153 0.66300005
-0.075026669 0.091419056 0.66200006
-0.073654294 0.09128096 0.66100001
-0.072285719 0.091142863 0.66000003
-0.071028575 0.091142863 0.66000003
-0.069560006 0.09086667 0.65800005
-0.067268573 0.08948572 0.648
-0.066034287 0.08948572 0.648
-0.064700007 0.089347623 0.64700001
-0.063369527 0.089209527 0.64600003
-0.061946671 0.088933341 0.64400005
-0.060720004 0.088933341 0.64400005
-0.059216194 0.088519052 0.64100003
-0.057995241 0.088519052 0.64100003
-0.056597147 0.088242866 0.63900006
-0.055293337 0.08810477 0.63800001
-0.053908575 0.087828577 0.63600004
-0.05261429 0.08769048 0.63500005
-0.051323812 0.087552384 0.634
-0.050116193 0.087552384 0.634
-0.048831433 0.087414294 0.63300002
-0.047550481 0.087276198 0.63200003
-0.046126671 0.086861908 0.62900001
-0.044928573 0.086861908 0.62900001
-0.043521907 0.086447626 0.62600005
-0.042261906 0.08630953 0.625
-0.041005716 0.086171433 0.62400001
-0.039817147 0.086171433 0.62400001
-0.038628574 0.086171433 0.62400001
-0.037440002 0.086171433 0.62400001
-0.036193337 0.086033337 0.62300003
-0.035006668 0.086033337 0.62300003
-0.033820003 0.086033337 0.62300003
-0.032633334 0.086033337 0.62300003
-0.031497143 0.086171433 0.62400001
-0.030357145 0.08630953 0.625
-0.029166669 0.08630953 0.625
-0.028020954 0.086447626 0.62600005
-0.02687143 0.086585723 0.62700003
-0.025718097 0.086723812 0.62800002
-0.02463905 0.087138101 0.63100004
-0.023437144 0.087138101 0.63100004
-0.022305716 0.087414294 0.63300002
-0.021133335 0.087552384 0.634
-0.019925715 0.087552384 0.634
-0.01874762 0.08769048 0.63500005
-0.017565716 0.087828577 0.63600004
-0.016405715 0.08810477 0.63800001
-0.015238096 0.088380955 0.64000005
-0.014040953 0.088519052 0.64100003
-0.012840001 0.088657148 0.64200002
-0.011617144 0.088657148 0.64200002
-0.010426668 0.088933341 0.64400005
-0.086505719 0.092820004 0.66300005
-0.08524286 0.092820004 0.66300005
-0.084233336 0.093100004 0.66500002
-0.08309143 0.093240008 0.66600001
-0.081700005 0.093100004 0.66500002
-0.080433339 0.093100004 0.66500002
-0.079166673 0.093100004 0.66500002
-0.077665716 0.092820004 0.66300005
-0.076633342 0.093100004 0.66500002
-0.075140007 0.092820004 0.66300005
-0.073877148 0.092820004 0.66300005
-0.072504766 0.092680007 0.66200006
-0.071243815 0.092680007 0.66200006
-0.066034287 0.090720005 0.648
-0.064700007 0.090580009 0.64700001
-0.063369527 0.090440005 0.64600003
-0.061946671 0.090160005 0.64400005
-0.060720004 0.090160005 0.64400005
-0.059216194 0.089740008 0.64100003
-0.057995241 0.089740008 0.64100003
-0.056597147 0.089460008 0.63900006
-0.055293337 0.089320004 0.63800001
-0.053908575 0.089040004 0.63600004
-0.052531432 0.088760003 0.634
-0.051323812 0.088760003 0.634
-0.050116193 0.088760003 0.634
-0.048831433 0.088620007 0.63300002
-0.047475241 0.088340007 0.63100004
-0.046126671 0.088060006 0.62900001
-0.044928573 0.088060006 0.62900001
-0.043521907 0.087640002 0.62600005
-0.042261906 0.087500006 0.625
-0.041005716 0.087360002 0.62400001
-0.039817147 0.087360002 0.62400001
-0.038628574 0.087360002 0.62400001
-0.037380002 0.087220006 0.62300003
-0.036193337 0.087220006 0.62300003
-0.035006668 0.087220006 0.62300003
-0.033820003 0.087220006 0.62300003
-0.032685716 0.087360002 0.62400001
-0.031497143 0.087360002 0.62400001
-0.030357145 0.087500006 0.625
-0.029166669 0.087500006 0.625
-0.028020954 0.087640002 0.62600005
-0.026914287 0.087920003 0.62800002
-0.025840955 0.088340007 0.63100004
-0.02463905 0.088340007 0.63100004
-0.023474287 0.088480003 0.63200003
-0.022305716 0.088620007 0.63300002
-0.021133335 0.088760003 0.634
-0.019925715 0.088760003 0.634
-0.01874762 0.088900007 0.63500005
-0.017565716 0.089040004 0.63600004
-0.016405715 0.089320004 0.63800001
-0.015238096 0.089600004 0.64000005
-0.014062858 0.089880005 0.64200002
-0.012880001 0.090160005 0.64400005
-0.011653334 0.090160005 0.64400005
-0.010442858 0.090300009 0.64500004
-0.0092142867 0.090300009 0.64500004
-0.08524286 0.094082862 0.66300005
-0.083980009 0.094082862 0.66300005
-0.08309143 0.094508581 0.66600001
-0.081700005 0.09436667 0.66500002
-0.080433339 0.09436667 0.66500002
-0.079166673 0.09436667 0.66500002
-0.077665716 0.094082862 0.66300005
-0.075140007 0.094082862 0.66300005
-0.073877148 0.094082862 0.66300005
-0.072504766 0.093940958 0.66200006
-0.066238098 0.092238098 0.65000004
-0.064800002 0.091954291 0.648
-0.063369527 0.091670483 0.64600003
-0.061946671 0.091386676 0.64400005
-0.060720004 0.091386676 0.64400005
-0.059216194 0.090960957 0.64100003
-0.057995241 0.090960957 0.64100003
-0.056597147 0.09067715 0.63900006
-0.055293337 0.090535246 0.63800001
-0.053908575 0.090251431 0.63600004
-0.052448574 0.08982572 0.63300002
-0.051323812 0.089967623 0.634
-0.049958099 0.089683816 0.63200003
-0.04875429 0.089683816 0.63200003
-0.047475241 0.089541912 0.63100004
-0.046126671 0.089258105 0.62900001
-0.044857144 0.089116193 0.62800002
-0.043521907 0.088832386 0.62600005
-0.042261906 0.088690482 0.625
-0.041005716 0.088548578 0.62400001
-0.039817147 0.088548578 0.62400001
-0.038628574 0.088548578 0.62400001
-0.037380002 0.088406675 0.62300003
-0.036193337 0.088406675 0.62300003
-0.035006668 0.088406675 0.62300003
-0.033820003 0.088406675 0.62300003
-0.032685716 0.088548578 0.62400001
-0.031497143 0.088548578 0.62400001
-0.030357145 0.088690482 0.625
-0.029213335 0.088832386 0.62600005
-0.028065717 0.08897429 0.62700003
-0.026957145 0.089258105 0.62900001
-0.025840955 0.089541912 0.63100004
-0.024678096 0.089683816 0.63200003
-0.023474287 0.089683816 0.63200003
-0.022305716 0.08982572 0.63300002
-0.021133335 0.089967623 0.634
-0.019957144 0.090109527 0.63500005
-0.01874762 0.090109527 0.63500005
-0.017565716 0.090251431 0.63600004
-0.016405715 0.090535246 0.63800001
-0.015238096 0.090819053 0.64000005
-0.014062858 0.091102861 0.64200002
-0.012880001 0.091386676 0.64400005
-0.011653334 0.091386676 0.64400005
-0.010442858 0.09152858 0.64500004
-0.0092428578 0.091812387 0.64700001
-0.064800002 0.093188576 0.648
-0.063369527 0.092900962 0.64600003
-0.061946671 0.092613339 0.64400005
-0.060720004 0.092613339 0.64400005
-0.059216194 0.092181914 0.64100003
-0.057904765 0.092038102 0.64000005
-0.056597147 0.091894291 0.63900006
-0.055293337 0.09175048 0.63800001
-0.053908575 0.091462865 0.63600004
-0.052531432 0.091175243 0.634
-0.051242862 0.091031432 0.63300002
-0.050037146 0.091031432 0.63300002
-0.04875429 0.090887628 0.63200003
-0.047475241 0.090743817 0.63100004
-0.046126671 0.090456195 0.62900001
-0.044785716 0.09016858 0.62700003
-0.043452382 0.089880958 0.625
-0.042194288 0.089737147 0.62400001
-0.041005716 0.089737147 0.62400001
-0.039753336 0.089593336 0.62300003
-0.038566668 0.089593336 0.62300003
-0.037380002 0.089593336 0.62300003
-0.036135241 0.089449532 0.62200004
-0.03495048 0.089449532 0.62200004
-0.033820003 0.089593336 0.62300003
-0.032685716 0.089737147 0.62400001
-0.031497143 0.089737147 0.62400001
-0.030357145 0.089880958 0.625
-0.029213335 0.090024769 0.62600005
-0.028065717 0.09016858 0.62700003
-0.027042858 0.090743817 0.63100004
-0.025840955 0.090743817 0.63100004
-0.024678096 0.090887628 0.63200003
-0.02351143 0.091031432 0.63300002
-0.022340953 0.091175243 0.634
-0.021133335 0.091175243 0.634
-0.019957144 0.091319054 0.63500005
-0.01874762 0.091319054 0.63500005
-0.017565716 0.091462865 0.63600004
-0.01643143 0.091894291 0.63900006
-0.015261906 0.092181914 0.64100003
-0.014106668 0.092613339 0.64400005
-0.0129 0.092757151 0.64500004
-0.011671429 0.092757151 0.64500004
-0.010459049 0.092900962 0.64600003
-0.064800002 0.094422862 0.648
-0.063467622 0.094277151 0.64700001
-0.061946671 0.093840003 0.64400005
-0.060531434 0.093548581 0.64200002
-0.059216194 0.093402863 0.64100003
-0.057904765 0.093257152 0.64000005
-0.056597147 0.093111433 0.63900006
-0.055293337 0.092965722 0.63800001
-0.053908575 0.092674293 0.63600004
-0.052448574 0.092237152 0.63300002
-0.051242862 0.092237152 0.63300002
-0.049958099 0.092091434 0.63200003
-0.048677146 0.091945723 0.63100004
-0.047324765 0.091654293 0.62900001
-0.046053335 0.091508575 0.62800002
-0.044714287 0.091217145 0.62600005
-0.043452382 0.091071434 0.625
-0.042194288 0.090925723 0.62400001
-0.040940002 0.090780005 0.62300003
-0.039689526 0.090634294 0.62200004
-0.038504764 0.090634294 0.62200004
-0.037320003 0.090634294 0.62200004
-0.036135241 0.090634294 0.62200004
-0.03495048 0.090634294 0.62200004
-0.033820003 0.090780005 0.62300003
-0.032685716 0.090925723 0.62400001
-0.031497143 0.090925723 0.62400001
-0.030405717 0.091217145 0.62600005
-0.029260002 0.091362864 0.62700003
-0.028110478 0.091508575 0.62800002
-0.027042858 0.091945723 0.63100004
-0.025840955 0.091945723 0.63100004
-0.024678096 0.092091434 0.63200003
-0.023474287 0.092091434 0.63200003
-0.022340953 0.092382863 0.634
-0.021133335 0.092382863 0.634
-0.019957144 0.092528574 0.63500005
-0.018777143 0.092674293 0.63600004
-0.017620953 0.092965722 0.63800001
-0.016457144 0.093257152 0.64000005
-0.015285715 0.093548581 0.64200002
-0.014106668 0.093840003 0.64400005
-0.0129 0.093985721 0.64500004
-0.011671429 0.093985721 0.64500004
-0.010459049 0.094131432 0.64600003
-0.085997149 0.10495715 0.71100003
-0.063369527 0.095361911 0.64600003
-0.06175429 0.094771437 0.64200002
-0.060531434 0.094771437 0.64200002
-0.059123814 0.094476193 0.64000005
-0.057904765 0.094476193 0.64000005
-0.056508575 0.094180956 0.63800001
-0.055120002 0.09388572 0.63600004
-0.053823814 0.093738101 0.63500005
-0.052365717 0.093295246 0.63200003
-0.051080957 0.093147628 0.63100004
-0.049720954 0.092852384 0.62900001
-0.04852286 0.092852384 0.62900001
-0.047249526 0.092704765 0.62800002
-0.045980003 0.092557147 0.62700003
-0.044714287 0.092409529 0.62600005
-0.043382861 0.092114292 0.62400001
-0.04212667 0.091966674 0.62300003
-0.040874287 0.091819055 0.62200004
-0.039689526 0.091819055 0.62200004
-0.038504764 0.091819055 0.62200004
-0.037320003 0.091819055 0.62200004
-0.036135241 0.091819055 0.62200004
-0.03495048 0.091819055 0.62200004
-0.033820003 0.091966674 0.62300003
-0.032685716 0.092114292 0.62400001
-0.031547621 0.09226191 0.625
-0.030405717 0.092409529 0.62600005
-0.029306669 0.092704765 0.62800002
-0.028110478 0.092704765 0.62800002
-0.027042858 0.093147628 0.63100004
-0.025881907 0.093295246 0.63200003
-0.024678096 0.093295246 0.63200003
-0.02351143 0.093442865 0.63300002
-0.022340953 0.093590483 0.634
-0.021133335 0.093590483 0.634
-0.019957144 0.093738101 0.63500005
-0.018777143 0.09388572 0.63600004
-0.017648572 0.094328575 0.63900006
-0.016482858 0.094623819 0.64100003
-0.015285715 0.094771437 0.64200002
-0.014106668 0.095066674 0.64400005
-0.0129 0.095214292 0.64500004
-0.011671429 0.095214292 0.64500004
-0.010459049 0.095361911 0.64600003
-0.0092428578 0.095509529 0.64700001
-0.063565716 0.096891433 0.648
-0.062235244 0.096741915 0.64700001
-0.060720004 0.096293338 0.64400005
-0.059123814 0.095695242 0.64000005
-0.057904765 0.095695242 0.64000005
-0.056508575 0.095396198 0.63800001
-0.055120002 0.095097147 0.63600004
-0.053569525 0.094499052 0.63200003
-0.052282862 0.094349533 0.63100004
-0.050919052 0.094050482 0.62900001
-0.049720954 0.094050482 0.62900001
-0.048445717 0.093900956 0.62800002
-0.04717429 0.093751438 0.62700003
-0.04590667 0.093601912 0.62600005
-0.044642862 0.093452387 0.625
-0.043382861 0.093302861 0.62400001
-0.04212667 0.093153343 0.62300003
-0.040874287 0.093003817 0.62200004
-0.039689526 0.093003817 0.62200004
-0.038504764 0.093003817 0.62200004
-0.037320003 0.093003817 0.62200004
-0.036193337 0.093153343 0.62300003
-0.035006668 0.093153343 0.62300003
-0.033874288 0.093302861 0.62400001
-0.032738097 0.093452387 0.625
-0.031598099 0.093601912 0.62600005
-0.030405717 0.093601912 0.62600005
-0.029306669 0.093900956 0.62800002
-0.028155239 0.094050482 0.62900001
-0.027085716 0.094499052 0.63200003
-0.025922859 0.094648577 0.63300002
-0.024717145 0.094648577 0.63300002
-0.023548573 0.094798103 0.634
-0.022340953 0.094798103 0.634
-0.021166667 0.094947629 0.63500005
-0.019957144 0.094947629 0.63500005
-0.018836191 0.095396198 0.63800001
-0.017676191 0.095695242 0.64000005
-0.016482858 0.095844768 0.64100003
-0.015333334 0.096293338 0.64400005
-0.014128572 0.096442863 0.64500004
-0.012920001 0.096592389 0.64600003
-0.011689524 0.096592389 0.64600003
-0.010459049 0.096592389 0.64600003
-0.063565716 0.098125719 0.648
-0.062235244 0.097974293 0.64700001
-0.060814291 0.097671434 0.64500004
-0.059123814 0.096914291 0.64000005
-0.057904765 0.096914291 0.64000005
-0.056508575 0.096611433 0.63800001
-0.055120002 0.096308574 0.63600004
-0.053484764 0.095551431 0.63100004
-0.052117147 0.09524858 0.62900001
-0.050919052 0.09524858 0.62900001
-0.049641907 0.095097147 0.62800002
-0.048445717 0.095097147 0.62800002
-0.04717429 0.094945721 0.62700003
-0.04590667 0.094794288 0.62600005
-0.044642862 0.094642863 0.625
-0.043382861 0.094491437 0.62400001
-0.04212667 0.094340004 0.62300003
-0.040874287 0.094188578 0.62200004
-0.039689526 0.094188578 0.62200004
-0.038504764 0.094188578 0.62200004
-0.037320003 0.094188578 0.62200004
-0.036193337 0.094340004 0.62300003
-0.035006668 0.094340004 0.62300003
-0.033874288 0.094491437 0.62400001
-0.032738097 0.094642863 0.625
-0.031598099 0.094794288 0.62600005
-0.030454287 0.094945721 0.62700003
-0.029306669 0.095097147 0.62800002
-0.028155239 0.09524858 0.62900001
-0.027085716 0.095702864 0.63200003
-0.025922859 0.09585429 0.63300002
-0.024717145 0.09585429 0.63300002
-0.023548573 0.096005723 0.634
-0.022376193 0.096157148 0.63500005
-0.021166667 0.096157148 0.63500005
-0.019988572 0.096308574 0.63600004
-0.018865716 0.096762866 0.63900006
-0.017703811 0.097065717 0.64100003
-0.016508572 0.09721715 0.64200002
-0.015333334 0.097520009 0.64400005
-0.014128572 0.097671434 0.64500004
-0.012920001 0.09782286 0.64600003
-0.011689524 0.09782286 0.64600003
-0.063565716 0.099360004 0.648
-0.062331434 0.099360004 0.648
-0.057904765 0.09813334 0.64000005
-0.056508575 0.097826675 0.63800001
-0.055033337 0.097366676 0.63500005
-0.053484764 0.096753336 0.63100004
-0.052117147 0.096446671 0.62900001
-0.050919052 0.096446671 0.62900001
-0.049641907 0.096293338 0.62800002
-0.048445717 0.096293338 0.62800002
-0.04717429 0.096140005 0.62700003
-0.04590667 0.095986672 0.62600005
-0.044642862 0.095833339 0.625
-0.043382861 0.095680006 0.62400001
-0.04212667 0.095526673 0.62300003
-0.040940002 0.095526673 0.62300003
-0.039689526 0.09537334 0.62200004
-0.038504764 0.09537334 0.62200004
-0.037380002 0.095526673 0.62300003
-0.036193337 0.095526673 0.62300003
-0.035006668 0.095526673 0.62300003
-0.033874288 0.095680006 0.62400001
-0.032738097 0.095833339 0.625
-0.031598099 0.095986672 0.62600005
-0.030454287 0.096140005 0.62700003
-0.029353335 0.096446671 0.62900001
-0.028155239 0.096446671 0.62900001
-0.027085716 0.096906669 0.63200003
-0.025922859 0.09706001 0.63300002
-0.024756191 0.097213343 0.634
-0.023548573 0.097213343 0.634
-0.022376193 0.097366676 0.63500005
-0.021166667 0.097366676 0.63500005
-0.019988572 0.097520009 0.63600004
-0.018895239 0.09813334 0.64000005
-0.01773143 0.098440006 0.64200002
-0.016560001 0.098746672 0.64400005
-0.015357144 0.098900005 0.64500004
-0.014128572 0.098900005 0.64500004
-0.012920001 0.099053338 0.64600003
-0.081012383 0.10913239 0.70300001
-0.078334294 0.10913239 0.70300001
-0.076776199 0.10882191 0.70100003
-0.056242861 0.098576196 0.63500005
-0.054860003 0.098265722 0.63300002
-0.053569525 0.098110482 0.63200003
-0.052282862 0.097955242 0.63100004
-0.050919052 0.097644769 0.62900001
-0.049641907 0.097489528 0.62800002
-0.048368573 0.097334296 0.62700003
-0.04709905 0.097179055 0.62600005
-0.045833338 0.097023815 0.625
-0.044642862 0.097023815 0.625
-0.043382861 0.096868575 0.62400001
-0.04212667 0.096713342 0.62300003
-0.040940002 0.096713342 0.62300003
-0.039753336 0.096713342 0.62300003
-0.038566668 0.096713342 0.62300003
-0.037380002 0.096713342 0.62300003
-0.036193337 0.096713342 0.62300003
-0.035062861 0.096868575 0.62400001
-0.033874288 0.096868575 0.62400001
-0.032738097 0.097023815 0.625
-0.031598099 0.097179055 0.62600005
-0.030454287 0.097334296 0.62700003
-0.029353335 0.097644769 0.62900001
-0.028244764 0.097955242 0.63100004
-0.027128574 0.098265722 0.63300002
-0.025963811 0.098420955 0.634
-0.024756191 0.098420955 0.634
-0.023585716 0.098576196 0.63500005
-0.022376193 0.098576196 0.63500005
-0.021200001 0.098731436 0.63600004
-0.020051429 0.099041909 0.63800001
-0.018924763 0.099507622 0.64100003
-0.01773143 0.099662863 0.64200002
-0.016585715 0.10012858 0.64500004
-0.015357144 0.10012858 0.64500004
-0.014150477 0.10028382 0.64600003
-0.012920001 0.10028382 0.64600003
-0.05606572 0.099471435 0.63300002
-0.054773338 0.099314295 0.63200003
-0.053484764 0.099157147 0.63100004
-0.052282862 0.099157147 0.63100004
-0.050919052 0.098842867 0.62900001
-0.049641907 0.098685719 0.62800002
-0.048368573 0.098528579 0.62700003
-0.04709905 0.098371439 0.62600005
-0.045833338 0.098214291 0.625
-0.044642862 0.098214291 0.625
-0.043382861 0.098057151 0.62400001
-0.04212667 0.097900003 0.62300003
-0.040940002 0.097900003 0.62300003
-0.039753336 0.097900003 0.62300003
-0.038566668 0.097900003 0.62300003
-0.037380002 0.097900003 0.62300003
-0.036193337 0.097900003 0.62300003
-0.035062861 0.098057151 0.62400001
-0.033928573 0.098214291 0.625
-0.032738097 0.098214291 0.625
-0.031648573 0.098528579 0.62700003
-0.03050286 0.098685719 0.62800002
-0.029353335 0.098842867 0.62900001
-0.028244764 0.099157147 0.63100004
-0.027128574 0.099471435 0.63300002
-0.025963811 0.099628575 0.634
-0.024756191 0.099628575 0.634
-0.023585716 0.099785723 0.63500005
-0.022376193 0.099785723 0.63500005
-0.021200001 0.099942863 0.63600004
-0.020051429 0.10025715 0.63800001
-0.018924763 0.10072858 0.64100003
-0.01773143 0.10088572 0.64200002
-0.016560001 0.10120001 0.64400005
-0.015357144 0.10135715 0.64500004
-0.014128572 0.10135715 0.64500004
-0.012920001 0.10151429 0.64600003
-0.055888575 0.10035905 0.63100004
-0.054686669 0.10035905 0.63100004
-0.053484764 0.10035905 0.63100004
-0.052282862 0.10035905 0.63100004
-0.050919052 0.10004096 0.62900001
-0.049720954 0.10004096 0.62900001
-0.048445717 0.09988191 0.62800002
-0.04717429 0.099722862 0.62700003
-0.04590667 0.099563815 0.62600005
-0.044642862 0.099404767 0.625
-0.043382861 0.09924572 0.62400001
-0.042194288 0.09924572 0.62400001
-0.040940002 0.099086672 0.62300003
-0.039753336 0.099086672 0.62300003
-0.038566668 0.099086672 0.62300003
-0.037440002 0.09924572 0.62400001
-0.036251429 0.09924572 0.62400001
-0.035062861 0.09924572 0.62400001
-0.033928573 0.099404767 0.625
-0.032790478 0.099563815 0.62600005
-0.031648573 0.099722862 0.62700003
-0.03050286 0.09988191 0.62800002
-0.029353335 0.10004096 0.62900001
-0.028289525 0.1005181 0.63200003
-0.027171431 0.1008362 0.634
-0.026004763 0.10099524 0.63500005
-0.02479524 0.10099524 0.63500005
-0.023622859 0.10115429 0.63600004
-0.02241143 0.10115429 0.63600004
-0.021200001 0.10115429 0.63600004
-0.020082859 0.10163143 0.63900006
-0.018924763 0.10194953 0.64100003
-0.01773143 0.10210858 0.64200002
-0.016560001 0.10242667 0.64400005
-0.015357144 0.10258572 0.64500004
-0.014128572 0.10258572 0.64500004
-0.055977147 0.10172191 0.63200003
-0.054686669 0.10156096 0.63100004
-0.053484764 0.10156096 0.63100004
-0.052282862 0.10156096 0.63100004
-0.050919052 0.10123906 0.62900001
-0.049720954 0.10123906 0.62900001
-0.048445717 0.1010781 0.62800002
-0.04717429 0.10091715 0.62700003
-0.04590667 0.1007562 0.62600005
-0.044642862 0.10059524 0.625
-0.043382861 0.1004343 0.62400001
-0.042194288 0.1004343 0.62400001
-0.041005716 0.1004343 0.62400001
