# .PCD v0.7 - Point Cloud Data file format
VERSION 0.7
FIELDS x y z
SIZE 4 4 4
TYPE F F F
COUNT 1 1 1
WIDTH 1415
HEIGHT 1
VIEWPOINT 0 0 0 1 0 0 0
POINTS 1415
DATA ascii
-0.16606572 0.0082657151 0.78900003
-0.16456287 0.0082657151 0.78900003
-0.19777906 0.0095580956 0.77200001
-0.19630858 0.0095580956 0.77200001
-0.19483811 0.0095580956 0.77200001
-0.19336763 0.0095580956 0.77200001
-0.19189715 0.0095580956 0.77200001
-0.19042668 0.0095580956 0.77200001
-0.1889562 0.0095580956 0.77200001
-0.18748572 0.0095580956 0.77200001
-0.18553334 0.0095333336 0.77000004
-0.18406668 0.0095333336 0.77000004
-0.1830743 0.0095580956 0.77200001
-0.18113334 0.0095333336 0.77000004
-0.17966668 0.0095333336 0.77000004
-0.17773716 0.0095085725 0.76800001
-0.17673334 0.0095333336 0.77000004
-0.17526668 0.0095333336 0.77000004
-0.17447716 0.0095704766 0.77300006
-0.17300478 0.0095704766 0.77300006
-0.17153239 0.0095704766 0.77300006
-0.17050001 0.0095952386 0.77500004
-0.16946001 0.0096200006 0.77700001
-0.16798002 0.0096200006 0.77700001
-0.16692859 0.0096447626 0.77900004
-0.16608192 0.0096819056 0.78200006
-0.16585524 0.0097561907 0.78800005
-0.16435429 0.0097561907 0.78800005
-0.20020001 0.011000001 0.77000004
-0.19924954 0.011028572 0.77200001
-0.19777906 0.011028572 0.77200001
-0.19630858 0.011028572 0.77200001
-0.19433334 0.011000001 0.77000004
-0.19286668 0.011000001 0.77000004
-0.19140001 0.011000001 0.77000004
-0.19042668 0.011028572 0.77200001
-0.18846668 0.011000001 0.77000004
-0.18700001 0.011000001 0.77000004
-0.18553334 0.011000001 0.77000004
-0.18406668 0.011000001 0.77000004
-0.18260001 0.011000001 0.77000004
-0.18066287 0.010971429 0.76800001
-0.17920001 0.010971429 0.76800001
-0.17773716 0.010971429 0.76800001
-0.1762743 0.010971429 0.76800001
-0.17526668 0.011000001 0.77000004
-0.17380001 0.011000001 0.77000004
-0.17278096 0.011028572 0.77200001
-0.17131048 0.011028572 0.77200001
-0.17050001 0.01107143 0.77500004
-0.16902383 0.01107143 0.77500004
-0.16798002 0.011100001 0.77700001
-0.16692859 0.011128572 0.77900004
-0.16565715 0.011142858 0.78000003
-0.16585524 0.011257144 0.78800005
-0.20020001 0.012466667 0.77000004
-0.19873334 0.012466667 0.77000004
-0.19726668 0.012466667 0.77000004
-0.19580001 0.012466667 0.77000004
-0.19433334 0.012466667 0.77000004
-0.19286668 0.012466667 0.77000004
-0.19140001 0.012466667 0.77000004
-0.18993334 0.012466667 0.77000004
-0.18846668 0.012466667 0.77000004
-0.18700001 0.012466667 0.77000004
-0.18505144 0.012434287 0.76800001
-0.18358858 0.012434287 0.76800001
-0.18260001 0.012466667 0.77000004
-0.18066287 0.012434287 0.76800001
-0.17920001 0.012434287 0.76800001
-0.17773716 0.012434287 0.76800001
-0.17604478 0.012418096 0.76700002
-0.17481144 0.012434287 0.76800001
-0.17334858 0.012434287 0.76800001
-0.17233334 0.012466667 0.77000004
-0.17042287 0.012434287 0.76800001
-0.17006001 0.012515238 0.77300006
-0.16858763 0.012515238 0.77300006
-0.16798002 0.012580001 0.77700001
-0.16692859 0.012612382 0.77900004
-0.16544478 0.012612382 0.77900004
-0.16585524 0.012758096 0.78800005
-0.16435429 0.012758096 0.78800005
-0.20020001 0.013933334 0.77000004
-0.19873334 0.013933334 0.77000004
-0.19726668 0.013933334 0.77000004
-0.19580001 0.013933334 0.77000004
-0.19433334 0.013933334 0.77000004
-0.19236572 0.013897143 0.76800001
-0.19090287 0.013897143 0.76800001
-0.18993334 0.013933334 0.77000004
-0.18797715 0.013897143 0.76800001
-0.1865143 0.013897143 0.76800001
-0.18481049 0.013879049 0.76700002
-0.18212573 0.013897143 0.76800001
-0.18042763 0.013879049 0.76700002
-0.17920001 0.013897143 0.76800001
-0.17704287 0.013842858 0.76500005
-0.17558573 0.013842858 0.76500005
-0.17458382 0.013879049 0.76700002
-0.17267144 0.013842858 0.76500005
-0.17166191 0.013879049 0.76700002
-0.17020096 0.013879049 0.76700002
-0.16798002 0.014060001 0.77700001
-0.16650002 0.014060001 0.77700001
-0.16544478 0.014096191 0.77900004
-0.16585524 0.014259049 0.78800005
-0.16435429 0.014259049 0.78800005
-0.19924954 0.015440001 0.77200001
-0.19777906 0.015440001 0.77200001
-0.19580001 0.015400001 0.77000004
-0.19433334 0.015400001 0.77000004
-0.19236572 0.015360001 0.76800001
-0.19090287 0.015360001 0.76800001
-0.18944001 0.015360001 0.76800001
-0.1877324 0.015340001 0.76700002
-0.18578573 0.015300001 0.76500005
-0.18066287 0.015360001 0.76800001
-0.17896667 0.015340001 0.76700002
-0.17704287 0.015300001 0.76500005
-0.17558573 0.015300001 0.76500005
-0.17458382 0.015340001 0.76700002
-0.17267144 0.015300001 0.76500005
-0.17166191 0.015340001 0.76700002
-0.16754763 0.015500001 0.77500004
-0.16607144 0.015500001 0.77500004
-0.16502 0.015540001 0.77700001
-0.16501334 0.01568 0.78400004
-0.16393715 0.01572 0.78600001
-0.1813543 0.017880002 0.89400005
-0.19924954 0.016910477 0.77200001
-0.19726668 0.016866667 0.77000004
-0.19580001 0.016866667 0.77000004
-0.19433334 0.016866667 0.77000004
-0.19236572 0.016822858 0.76800001
-0.19090287 0.016822858 0.76800001
-0.18944001 0.016822858 0.76800001
-0.18530001 0.016713334 0.76300001
-0.17750573 0.016800953 0.76700002
-0.17312287 0.016800953 0.76700002
-0.19777906 0.018380953 0.77200001
-0.19433334 0.018333334 0.77000004
-0.19236572 0.018285716 0.76800001
-0.24751526 0.022808572 0.88700002
-0.24582574 0.022808572 0.88700002
-0.2441362 0.022808572 0.88700002
-0.24244668 0.022808572 0.88700002
-0.24667811 0.02441524 0.88400006
-0.2449943 0.02441524 0.88400006
-0.2441362 0.024498098 0.88700002
-0.17764191 0.02441524 0.88400006
-0.24612002 0.026040001 0.88200003
-0.17388001 0.026040001 0.88200003
-0.25226668 0.027657144 0.88000005
-0.25116003 0.027720002 0.88200003
-0.2489143 0.027657144 0.88000005
-0.17329144 0.022251431 0.708
-0.17733715 0.023600001 0.708
-0.17574002 0.023566669 0.70700002
-0.17464001 0.023600001 0.708
-0.17329144 0.023600001 0.708
-0.17170002 0.023566669 0.70700002
-0.1778381 0.02501905 0.71000004
-0.17648573 0.02501905 0.71000004
-0.17464001 0.024948573 0.708
-0.17304668 0.024913335 0.70700002
-0.17170002 0.024913335 0.70700002
-0.17035334 0.024913335 0.70700002
-0.17733715 0.026297145 0.708
-0.17574002 0.026260002 0.70700002
-0.17439334 0.026260002 0.70700002
-0.17255716 0.026185716 0.70500004
-0.17170002 0.026260002 0.70700002
-0.16987143 0.026185716 0.70500004
-0.17390001 0.027528573 0.70500004
-0.17231239 0.027489526 0.70400006
-0.1712143 0.027528573 0.70500004
-0.16963048 0.027489526 0.70400006
-0.17206763 0.028789526 0.70300001
-0.1712143 0.02887143 0.70500004
-0.16987143 0.02887143 0.70500004
-0.17206763 0.030128574 0.70300001
-0.17097144 0.03017143 0.70400006
-0.16963048 0.03017143 0.70400006
-0.17157811 0.031378098 0.70100003
-0.17072858 0.03146762 0.70300001
-0.16938953 0.03146762 0.70300001
-0.16060191 0.038316194 0.85600007
-0.15897144 0.038316194 0.85600007
-0.17474572 0.032806668 0.70300001
-0.17291334 0.032713335 0.70100003
-0.17157811 0.032713335 0.70100003
-0.17024286 0.032713335 0.70100003
-0.16890763 0.032713335 0.70100003
-0.15897144 0.039946668 0.85600007
-0.17933334 0.034000002 0.70000005
-0.17825429 0.034048572 0.70100003
-0.17691906 0.034048572 0.70100003
-0.17558382 0.034048572 0.70100003
-0.17400001 0.034000002 0.70000005
-0.17266668 0.034000002 0.70000005
-0.17133334 0.034000002 0.70000005
-0.1695143 0.033902861 0.69800001
-0.16746192 0.033757146 0.69500005
-0.16613811 0.033757146 0.69500005
-0.16339144 0.033465717 0.68900001
-0.16207905 0.033465717 0.68900001
-0.16076668 0.033465717 0.68900001
-0.15266667 0.034000002 0.70000005
-0.15133335 0.034000002 0.70000005
-0.15000001 0.034000002 0.70000005
-0.14930382 0.034145717 0.70300001
-0.14796478 0.034145717 0.70300001
-0.14704287 0.034242861 0.70500004
-0.15822858 0.04138286 0.85200006
-0.15623811 0.041285716 0.85000002
-0.17800002 0.035333335 0.70000005
-0.17666668 0.035333335 0.70000005
-0.17533335 0.035333335 0.70000005
-0.17400001 0.035333335 0.70000005
-0.17217335 0.035232384 0.69800001
-0.17084382 0.035232384 0.69800001
-0.16927144 0.035181906 0.69700003
-0.16722097 0.035030477 0.69400001
-0.16589905 0.035030477 0.69400001
-0.16362858 0.034828573 0.69000006
-0.16207905 0.034778096 0.68900001
-0.16100001 0.034828573 0.69000006
-0.15090096 0.035232384 0.69800001
-0.14957143 0.035232384 0.69800001
-0.14887905 0.035383813 0.70100003
-0.14754382 0.035383813 0.70100003
-0.15623811 0.042904764 0.85000002
-0.1780524 0.036404766 0.69500005
-0.17749144 0.036561906 0.69800001
-0.17616192 0.036561906 0.69800001
-0.17483239 0.036561906 0.69800001
-0.1732543 0.036509525 0.69700003
-0.17143334 0.036404766 0.69500005
-0.17010954 0.036404766 0.69500005
-0.16854286 0.036352385 0.69400001
-0.16698001 0.036300004 0.69300002
-0.16518192 0.036195241 0.69100004
-0.16362858 0.03614286 0.69000006
-0.1623143 0.03614286 0.69000006
-0.16100001 0.03614286 0.69000006
-0.1594543 0.036090478 0.68900001
-0.1513581 0.036352385 0.69400001
-0.15025239 0.036404766 0.69500005
-0.14892858 0.036404766 0.69500005
-0.17616192 0.037891433 0.69800001
-0.17458192 0.037837144 0.69700003
-0.1732543 0.037837144 0.69700003
-0.17143334 0.037728574 0.69500005
-0.17010954 0.037728574 0.69500005
-0.16854286 0.037674289 0.69400001
-0.16698001 0.037620004 0.69300002
-0.16494286 0.037457146 0.69000006
-0.16362858 0.037457146 0.69000006
-0.16207905 0.037402861 0.68900001
-0.16076668 0.037402861 0.68900001
-0.1594543 0.037402861 0.68900001
-0.1513581 0.037674289 0.69400001
-0.1500362 0.037674289 0.69400001
-0.14871429 0.037674289 0.69400001
-0.25611144 0.047368575 0.84300005
-0.17408097 0.039052382 0.69500005
-0.17275715 0.039052382 0.69500005
-0.17143334 0.039052382 0.69500005
-0.16986477 0.038996194 0.69400001
-0.16854286 0.038996194 0.69400001
-0.16649811 0.03882762 0.69100004
-0.16494286 0.038771432 0.69000006
-0.16362858 0.038771432 0.69000006
-0.16207905 0.03871524 0.68900001
-0.16076668 0.03871524 0.68900001
-0.1594543 0.03871524 0.68900001
-0.15442859 0.038771432 0.69000006
-0.15311429 0.038771432 0.69000006
-0.15180001 0.038771432 0.69000006
-0.15070382 0.03882762 0.69100004
-0.17408097 0.040376194 0.69500005
-0.17250858 0.040318098 0.69400001
-0.17118667 0.040318098 0.69400001
-0.16986477 0.040318098 0.69400001
-0.16830002 0.040260002 0.69300002
-0.16649811 0.040143814 0.69100004
-0.16494286 0.040085718 0.69000006
-0.16362858 0.040085718 0.69000006
-0.16207905 0.040027622 0.68900001
-0.16076668 0.040027622 0.68900001
-0.15899144 0.03991143 0.68700004
-0.15768287 0.03991143 0.68700004
-0.15574287 0.040085718 0.69000006
-0.15442859 0.040085718 0.69000006
-0.15311429 0.040085718 0.69000006
-0.15180001 0.040085718 0.69000006
-0.17226002 0.041580003 0.69300002
-0.17094001 0.041580003 0.69300002
-0.16962001 0.041580003 0.69300002
-0.1678143 0.041460004 0.69100004
-0.16625716 0.041400004 0.69000006
-0.16470382 0.041340001 0.68900001
-0.16339144 0.041340001 0.68900001
-0.16160858 0.041220002 0.68700004
-0.16030002 0.041220002 0.68700004
-0.15876001 0.041160002 0.68600005
-0.15745334 0.041160002 0.68600005
-0.15614668 0.041160002 0.68600005
-0.15506573 0.041220002 0.68700004
-0.15420477 0.041340001 0.68900001
-0.1528924 0.041340001 0.68900001
-0.15158001 0.041340001 0.68900001
-0.15026763 0.041340001 0.68900001
-0.17094001 0.042900003 0.69300002
-0.16913049 0.042776193 0.69100004
-0.16757144 0.04271429 0.69000006
-0.16601621 0.042652383 0.68900001
-0.16422573 0.042528573 0.68700004
-0.16291715 0.042528573 0.68700004
-0.16137335 0.04246667 0.68600005
-0.16006668 0.04246667 0.68600005
-0.15829715 0.04234286 0.68400002
-0.1569943 0.04234286 0.68400002
-0.15569144 0.04234286 0.68400002
-0.15506573 0.042528573 0.68700004
-0.15375715 0.042528573 0.68700004
-0.15244858 0.042528573 0.68700004
-0.15114 0.042528573 0.68700004
-0.15026763 0.042652383 0.68900001
-0.16864096 0.043964766 0.68900001
-0.16732858 0.043964766 0.68900001
-0.1655343 0.043837145 0.68700004
-0.16398668 0.043773334 0.68600005
-0.16268001 0.043773334 0.68600005
-0.16137335 0.043773334 0.68600005
-0.1596 0.043645717 0.68400002
-0.15829715 0.043645717 0.68400002
-0.1569943 0.043645717 0.68400002
-0.15569144 0.043645717 0.68400002
-0.15438858 0.043645717 0.68400002
-0.15375715 0.043837145 0.68700004
-0.15244858 0.043837145 0.68700004
-0.15092 0.043773334 0.68600005
-0.14983144 0.043837145 0.68700004
-0.16815144 0.045145717 0.68700004
-0.16684286 0.045145717 0.68700004
-0.16529335 0.045080002 0.68600005
-0.16350858 0.044948574 0.68400002
-0.16220573 0.044948574 0.68400002
-0.16090287 0.044948574 0.68400002
-0.15936668 0.04488286 0.68300003
-0.15806572 0.04488286 0.68300003
-0.15676478 0.04488286 0.68300003
-0.15546381 0.04488286 0.68300003
-0.15438858 0.044948574 0.68400002
-0.15308572 0.044948574 0.68400002
-0.15178287 0.044948574 0.68400002
-0.15092 0.045080002 0.68600005
-0.14917715 0.044948574 0.68400002
-0.1661143 0.046251431 0.68400002
-0.16481143 0.046251431 0.68400002
-0.16326953 0.046183813 0.68300003
-0.16196859 0.046183813 0.68300003
-0.16066763 0.046183813 0.68300003
-0.15936668 0.046183813 0.68300003
-0.15806572 0.046183813 0.68300003
-0.15676478 0.046183813 0.68300003
-0.15546381 0.046183813 0.68300003
-0.15416287 0.046183813 0.68300003
-0.15308572 0.046251431 0.68400002
-0.15178287 0.046251431 0.68400002
-0.15048002 0.046251431 0.68400002
-0.14917715 0.046251431 0.68400002
-0.16773334 0.047276195 0.68000001
-0.1664381 0.047276195 0.68000001
-0.1649 0.04720667 0.67900002
-0.16432953 0.047415242 0.68200004
-0.16303049 0.047415242 0.68200004
-0.16196859 0.047484767 0.68300003
-0.16066763 0.047484767 0.68300003
-0.15913334 0.047415242 0.68200004
-0.15455334 0.04720667 0.67900002
-0.15326001 0.04720667 0.67900002
-0.15196668 0.04720667 0.67900002
-0.15156096 0.047484767 0.68300003
-0.15026002 0.047484767 0.68300003
-0.16773334 0.04857143 0.68000001
-0.16619335 0.048500001 0.67900002
-0.1649 0.048500001 0.67900002
-0.16360667 0.048500001 0.67900002
-0.16303049 0.048714288 0.68200004
-0.16173144 0.048714288 0.68200004
-0.16066763 0.048785716 0.68300003
-0.15806572 0.048785716 0.68300003
-0.15584667 0.048500001 0.67900002
-0.15196668 0.048500001 0.67900002
-0.14136001 0.048857145 0.68400002
-0.25003526 0.060353339 0.82300001
-0.24786383 0.06020667 0.82100004
-0.24630001 0.06020667 0.82100004
-0.24473621 0.06020667 0.82100004
-0.16724001 0.049720004 0.67800003
-0.16594858 0.049720004 0.67800003
-0.16465716 0.049720004 0.67800003
-0.16336572 0.049720004 0.67800003
-0.1620743 0.049720004 0.67800003
-0.16102001 0.049793337 0.67900002
-0.15972668 0.049793337 0.67900002
-0.15843335 0.049793337 0.67900002
-0.14177334 0.05030667 0.68600005
-0.16724001 0.051011432 0.67800003
-0.16594858 0.051011432 0.67800003
-0.16417144 0.050860956 0.67600006
-0.16288382 0.050860956 0.67600006
-0.1620743 0.051011432 0.67800003
-0.16078287 0.051011432 0.67800003
-0.15949143 0.051011432 0.67800003
-0.14136001 0.051462859 0.68400002
-0.16650002 0.052071434 0.67500001
-0.16496953 0.05199429 0.67400002
-0.16320001 0.051840004 0.67200005
-0.16192001 0.051840004 0.67200005
-0.16111811 0.05199429 0.67400002
-0.16007143 0.052071434 0.67500001
-0.15855049 0.05199429 0.67400002
-0.15726668 0.05199429 0.67400002
-0.15505715 0.051685717 0.67000002
-0.14972858 0.051608574 0.66900003
-0.14115334 0.052688576 0.68300003
-0.13985239 0.052688576 0.68300003
-0.16679144 0.053040955 0.671
-0.16625334 0.0532781 0.67400002
-0.16448002 0.053120002 0.67200005
-0.16320001 0.053120002 0.67200005
-0.16167906 0.053040955 0.671
-0.16040096 0.053040955 0.671
-0.15936001 0.053120002 0.67200005
-0.15808001 0.053120002 0.67200005
-0.15505715 0.052961908 0.67000002
-0.15378097 0.052961908 0.67000002
-0.15100287 0.052882861 0.66900003
-0.14972858 0.052882861 0.66900003
-0.14801049 0.052724764 0.66700006
-0.14115334 0.053989526 0.68300003
-0.13985239 0.053989526 0.68300003
-0.13875429 0.054068577 0.68400002
-0.16882096 0.054561909 0.67400002
-0.16704001 0.054400004 0.67200005
-0.16625334 0.054561909 0.67400002
-0.16496953 0.054561909 0.67400002
-0.16320001 0.054400004 0.67200005
-0.16192001 0.054400004 0.67200005
-0.16064002 0.054400004 0.67200005
-0.15760954 0.0542381 0.67000002
-0.15633334 0.0542381 0.67000002
-0.15482572 0.054157145 0.66900003
-0.15355144 0.054157145 0.66900003
-0.15227716 0.054157145 0.66900003
-0.15100287 0.054157145 0.66900003
-0.14972858 0.054157145 0.66900003
-0.14845429 0.054157145 0.66900003
-0.14115334 0.055290479 0.68300003
-0.13964763 0.055209529 0.68200004
-0.13855144 0.055290479 0.68300003
-0.16704001 0.055680003 0.67200005
-0.16625334 0.055845719 0.67400002
-0.16496953 0.055845719 0.67400002
-0.16295715 0.055597145 0.671
-0.15760954 0.055514291 0.67000002
-0.1561 0.055431433 0.66900003
-0.15482572 0.055431433 0.66900003
-0.15355144 0.055431433 0.66900003
-0.15182191 0.055265717 0.66700006
-0.15055144 0.055265717 0.66700006
-0.14928097 0.055265717 0.66700006
-0.14778858 0.055182859 0.66600001
-0.13903335 0.056260005 0.67900002
-0.13774002 0.056260005 0.67900002
-0.13644667 0.056260005 0.67900002
-0.16704001 0.056960005 0.67200005
-0.16625334 0.057129528 0.67400002
-0.16496953 0.057129528 0.67400002
-0.16320001 0.056960005 0.67200005
-0.15784477 0.05687524 0.671
-0.15633334 0.056790479 0.67000002
-0.15482572 0.056705717 0.66900003
-0.15355144 0.056705717 0.66900003
-0.15227716 0.056705717 0.66900003
-0.15055144 0.056536194 0.66700006
-0.14928097 0.056536194 0.66700006
-0.14801049 0.056536194 0.66700006
-0.13903335 0.057553336 0.67900002
-0.13774002 0.057553336 0.67900002
-0.16625334 0.058413338 0.67400002
-0.16496953 0.058413338 0.67400002
-0.15760954 0.05806667 0.67000002
-0.15633334 0.05806667 0.67000002
-0.15482572 0.057980005 0.66900003
-0.15355144 0.057980005 0.66900003
-0.15227716 0.057980005 0.66900003
-0.15055144 0.057806671 0.66700006
-0.14928097 0.057806671 0.66700006
-0.14778858 0.057720006 0.66600001
-0.14674 0.057806671 0.66700006
-0.14546953 0.057806671 0.66700006
-0.14419906 0.057806671 0.66700006
-0.14208287 0.057980005 0.66900003
-0.14080858 0.057980005 0.66900003
-0.13911715 0.057806671 0.66700006
-0.13784668 0.057806671 0.66700006
-0.13882858 0.058760002 0.67800003
-0.13753715 0.058760002 0.67800003
-0.15760954 0.059342861 0.67000002
-0.1561 0.059254289 0.66900003
-0.15482572 0.059254289 0.66900003
-0.15355144 0.059254289 0.66900003
-0.15182191 0.059077147 0.66700006
-0.14964858 0.058722861 0.66300005
-0.14838572 0.058722861 0.66300005
-0.14756668 0.058900002 0.66500002
-0.1463 0.058900002 0.66500002
-0.14503334 0.058900002 0.66500002
-0.14398287 0.058988575 0.66600001
-0.14335716 0.059254289 0.66900003
-0.14208287 0.059254289 0.66900003
-0.14080858 0.059254289 0.66900003
-0.13953429 0.059254289 0.66900003
-0.13867334 0.059431434 0.671
-0.13800953 0.059697147 0.67400002
-0.13692857 0.05978572 0.67500001
-0.15136668 0.060166672 0.66500002
-0.14964858 0.05998572 0.66300005
-0.14838572 0.05998572 0.66300005
-0.14756668 0.060166672 0.66500002
-0.14459716 0.05998572 0.66300005
-0.14376667 0.060166672 0.66500002
-0.14292859 0.060347624 0.66700006
-0.1416581 0.060347624 0.66700006
-0.14376667 0.061433338 0.66500002
-0.14250001 0.061433338 0.66500002
-0.1431181 0.062417146 0.66200006
-0.14207144 0.062511429 0.66300005
-0.13702001 0.063774288 0.66300005
-0.13681334 0.064939052 0.66200006
-0.13514286 0.064742863 0.66000003
-0.13473335 0.065800004 0.65800005
-0.13578001 0.066951431 0.65700001
-0.13452858 0.066951431 0.65700001
-0.13432382 0.068099052 0.65600002
-0.13432382 0.069348574 0.65600002
-0.23162001 0.083620004 0.77700001
-0.23014002 0.083620004 0.77700001
-0.23132955 0.096685722 0.75200003
-0.22989716 0.096685722 0.75200003
-0.22780953 0.10584382 0.73600006
-0.22671525 0.10598762 0.73700005
-0.22858858 0.10695429 0.73400003
-0.22780953 0.10724572 0.73600006
-0.22640763 0.10724572 0.73600006
-0.22936001 0.10805715 0.73200005
-0.22858858 0.10835239 0.73400003
-0.22780953 0.10864763 0.73600006
-0.1452762 0.095561914 0.58000004
-0.12792858 0.098362863 0.597
-0.12544382 0.098198101 0.59600002
-0.14917906 0.09633334 0.57800001
-0.1480781 0.09633334 0.57800001
-0.14697716 0.09633334 0.57800001
-0.1458762 0.09633334 0.57800001
-0.14477524 0.09633334 0.57800001
-0.1436743 0.09633334 0.57800001
-0.14257334 0.09633334 0.57800001
-0.14147238 0.09633334 0.57800001
-0.14037144 0.09633334 0.57800001
-0.13951144 0.096500009 0.57900006
-0.13840859 0.096500009 0.57900006
-0.13683143 0.09616667 0.57700002
-0.13596763 0.09633334 0.57800001
-0.12998477 0.099333338 0.59600002
-0.12863334 0.099166676 0.59500003
-0.12750001 0.099166676 0.59500003
-0.12636667 0.099166676 0.59500003
-0.12502286 0.099000007 0.59400004
-0.15002 0.09726572 0.57700002
-0.14892097 0.09726572 0.57700002
-0.1480781 0.09743429 0.57800001
-0.14697716 0.09743429 0.57800001
-0.1458762 0.09743429 0.57800001
-0.14477524 0.09743429 0.57800001
-0.1436743 0.09743429 0.57800001
-0.14257334 0.09743429 0.57800001
-0.14147238 0.09743429 0.57800001
-0.14037144 0.09743429 0.57800001
-0.13951144 0.097602867 0.57900006
-0.13816953 0.09743429 0.57800001
-0.13706858 0.09743429 0.57800001
-0.13596763 0.09743429 0.57800001
-0.13510001 0.097602867 0.57900006
-0.12976667 0.10030001 0.59500003
-0.12863334 0.10030001 0.59500003
-0.12750001 0.10030001 0.59500003
-0.12551714 0.099625722 0.59100002
-0.15085715 0.098194294 0.57600003
-0.14950001 0.098023817 0.57500005
-0.14866287 0.098194294 0.57600003
-0.14782192 0.09836477 0.57700002
-0.14672287 0.09836477 0.57700002
-0.14562382 0.09836477 0.57700002
-0.14477524 0.098535247 0.57800001
-0.1436743 0.098535247 0.57800001
-0.14257334 0.098535247 0.57800001
-0.14147238 0.098535247 0.57800001
-0.14037144 0.098535247 0.57800001
-0.13927048 0.098535247 0.57800001
-0.13816953 0.098535247 0.57800001
-0.13706858 0.098535247 0.57800001
-0.13596763 0.098535247 0.57800001
-0.13486667 0.098535247 0.57800001
-0.13399716 0.098705724 0.57900006
-0.13289429 0.098705724 0.57900006
-0.1287 0.099728577 0.58500004
-0.12780382 0.099899054 0.58600003
-0.12690382 0.10006953 0.58700001
-0.126 0.10024001 0.588
-0.12530477 0.10058096 0.59000003
-0.1522181 0.099463813 0.57700002
-0.15085715 0.099291436 0.57600003
-0.14976001 0.099291436 0.57600003
-0.14866287 0.099291436 0.57600003
-0.14756572 0.099291436 0.57600003
-0.14672287 0.099463813 0.57700002
-0.14562382 0.099463813 0.57700002
-0.14452477 0.099463813 0.57700002
-0.1436743 0.099636197 0.57800001
-0.14257334 0.099636197 0.57800001
-0.14147238 0.099636197 0.57800001
-0.14037144 0.099636197 0.57800001
-0.13927048 0.099636197 0.57800001
-0.13816953 0.099636197 0.57800001
-0.13706858 0.099636197 0.57800001
-0.13596763 0.099636197 0.57800001
-0.13510001 0.099808581 0.57900006
-0.13399716 0.099808581 0.57900006
-0.13289429 0.099808581 0.57900006
-0.13201906 0.099980958 0.58000004
-0.13114001 0.10015334 0.58100003
-0.13025714 0.10032572 0.58200002
-0.12959239 0.10067048 0.58400005
-0.12848 0.10067048 0.58400005
-0.12758572 0.10084286 0.58500004
-0.12668763 0.10101525 0.58600003
-0.12578572 0.10118762 0.58700001
-0.12488001 0.10136001 0.588
-0.12376001 0.10136001 0.588
-0.15358287 0.10073715 0.57800001
-0.1522181 0.10056286 0.57700002
-0.15085715 0.10038858 0.57600003
-0.14976001 0.10038858 0.57600003
-0.14866287 0.10038858 0.57600003
-0.14756572 0.10038858 0.57600003
-0.14672287 0.10056286 0.57700002
-0.14562382 0.10056286 0.57700002
-0.14452477 0.10056286 0.57700002
-0.1436743 0.10073715 0.57800001
-0.14257334 0.10073715 0.57800001
-0.14147238 0.10073715 0.57800001
-0.14037144 0.10073715 0.57800001
-0.13927048 0.10073715 0.57800001
-0.13816953 0.10073715 0.57800001
-0.13706858 0.10073715 0.57800001
-0.13596763 0.10073715 0.57800001
-0.13510001 0.10091144 0.57900006
-0.13399716 0.10091144 0.57900006
-0.13312382 0.10108572 0.58000004
-0.13224667 0.10126001 0.58100003
-0.13114001 0.10126001 0.58100003
-0.13025714 0.10143429 0.58200002
-0.12959239 0.10178287 0.58400005
-0.12848 0.10178287 0.58400005
-0.12758572 0.10195715 0.58500004
-0.12668763 0.10213143 0.58600003
-0.12557143 0.10213143 0.58600003
-0.12466763 0.10230572 0.58700001
-0.12354953 0.10230572 0.58700001
-0.12243143 0.10230572 0.58700001
-0.15331715 0.10166191 0.57700002
-0.1522181 0.10166191 0.57700002
-0.15085715 0.10148572 0.57600003
-0.14976001 0.10148572 0.57600003
-0.14866287 0.10148572 0.57600003
-0.14782192 0.10166191 0.57700002
-0.14672287 0.10166191 0.57700002
-0.14562382 0.10166191 0.57700002
-0.14452477 0.10166191 0.57700002
-0.1436743 0.1018381 0.57800001
-0.14232668 0.10166191 0.57700002
-0.14147238 0.1018381 0.57800001
-0.14037144 0.1018381 0.57800001
-0.13927048 0.1018381 0.57800001
-0.13816953 0.1018381 0.57800001
-0.13706858 0.1018381 0.57800001
-0.13620287 0.1020143 0.57900006
-0.13510001 0.1020143 0.57900006
-0.13399716 0.1020143 0.57900006
-0.13289429 0.1020143 0.57900006
-0.13201906 0.10219048 0.58000004
-0.13114001 0.10236667 0.58100003
-0.13025714 0.10254286 0.58200002
-0.12937048 0.10271905 0.583
-0.12826 0.10271905 0.583
-0.12758572 0.10307144 0.58500004
-0.12668763 0.10324763 0.58600003
-0.12557143 0.10324763 0.58600003
-0.12445524 0.10324763 0.58600003
-0.12354953 0.10342382 0.58700001
-0.12243143 0.10342382 0.58700001
-0.12131334 0.10342382 0.58700001
-0.12040001 0.10360001 0.588
-0.15331715 0.10276096 0.57700002
-0.1522181 0.10276096 0.57700002
-0.15111905 0.10276096 0.57700002
-0.15002 0.10276096 0.57700002
-0.14892097 0.10276096 0.57700002
-0.1480781 0.10293905 0.57800001
-0.14697716 0.10293905 0.57800001
-0.1458762 0.10293905 0.57800001
-0.14477524 0.10293905 0.57800001
-0.1436743 0.10293905 0.57800001
-0.14257334 0.10293905 0.57800001
-0.14147238 0.10293905 0.57800001
-0.14037144 0.10293905 0.57800001
-0.13927048 0.10293905 0.57800001
-0.13816953 0.10293905 0.57800001
-0.13706858 0.10293905 0.57800001
-0.13596763 0.10293905 0.57800001
-0.13510001 0.10311715 0.57900006
-0.13399716 0.10311715 0.57900006
-0.13289429 0.10311715 0.57900006
-0.13201906 0.10329524 0.58000004
-0.13136572 0.10365143 0.58200002
-0.13048096 0.10382953 0.583
-0.12959239 0.10400762 0.58400005
-0.12826 0.10382953 0.583
-0.12736763 0.10400762 0.58400005
-0.12647143 0.10418572 0.58500004
-0.12557143 0.10436381 0.58600003
-0.12445524 0.10436381 0.58600003
-0.12333906 0.10436381 0.58600003
-0.12222286 0.10436381 0.58600003
-0.12131334 0.10454191 0.58700001
-0.12019525 0.10454191 0.58700001
-0.15358287 0.10404 0.57800001
-0.15248191 0.10404 0.57800001
-0.15138096 0.10404 0.57800001
-0.15028001 0.10404 0.57800001
-0.14917906 0.10404 0.57800001
-0.1480781 0.10404 0.57800001
-0.14697716 0.10404 0.57800001
-0.1458762 0.10404 0.57800001
-0.14477524 0.10404 0.57800001
-0.1436743 0.10404 0.57800001
-0.14257334 0.10404 0.57800001
-0.14147238 0.10404 0.57800001
-0.14037144 0.10404 0.57800001
-0.13927048 0.10404 0.57800001
-0.13816953 0.10404 0.57800001
-0.13706858 0.10404 0.57800001
-0.13620287 0.10422001 0.57900006
-0.13510001 0.10422001 0.57900006
-0.13422859 0.10440001 0.58000004
-0.13312382 0.10440001 0.58000004
-0.13224667 0.10458001 0.58100003
-0.13114001 0.10458001 0.58100003
-0.13025714 0.10476001 0.58200002
-0.12914857 0.10476001 0.58200002
-0.12826 0.10494 0.583
-0.12714954 0.10494 0.583
-0.12625524 0.10512 0.58400005
-0.12535715 0.10530001 0.58500004
-0.12445524 0.10548001 0.58600003
-0.12333906 0.10548001 0.58600003
-0.12222286 0.10548001 0.58600003
-0.12131334 0.10566001 0.58700001
-0.12040001 0.10584 0.588
-0.11948287 0.10602 0.58900005
-0.11876287 0.10638001 0.59100002
-0.11503334 0.10710001 0.59500003
-0.1549762 0.10459524 0.57500005
-0.1544162 0.10495906 0.57700002
-0.15358287 0.10514096 0.57800001
-0.15248191 0.10514096 0.57800001
-0.15138096 0.10514096 0.57800001
-0.15028001 0.10514096 0.57800001
-0.14917906 0.10514096 0.57800001
-0.1480781 0.10514096 0.57800001
-0.14697716 0.10514096 0.57800001
-0.1458762 0.10514096 0.57800001
-0.14477524 0.10514096 0.57800001
-0.1436743 0.10514096 0.57800001
-0.14257334 0.10514096 0.57800001
-0.14147238 0.10514096 0.57800001
-0.14037144 0.10514096 0.57800001
-0.13927048 0.10514096 0.57800001
-0.13840859 0.10532287 0.57900006
-0.13730572 0.10532287 0.57900006
-0.13620287 0.10532287 0.57900006
-0.13510001 0.10532287 0.57900006
-0.13422859 0.10550477 0.58000004
-0.13335334 0.10568667 0.58100003
-0.13224667 0.10568667 0.58100003
-0.13114001 0.10568667 0.58100003
-0.13025714 0.10586858 0.58200002
-0.12914857 0.10586858 0.58200002
-0.12826 0.10605048 0.583
-0.12714954 0.10605048 0.583
-0.12625524 0.10623239 0.58400005
-0.12535715 0.1064143 0.58500004
-0.12424286 0.1064143 0.58500004
-0.12333906 0.10659619 0.58600003
-0.12222286 0.10659619 0.58600003
-0.12131334 0.1067781 0.58700001
-0.12019525 0.1067781 0.58700001
-0.11948287 0.10714191 0.58900005
-0.11856192 0.10732382 0.59000003
-0.11763715 0.10750572 0.59100002
-0.11690572 0.10786953 0.59300005
-0.11597144 0.10805143 0.59400004
-0.11503334 0.10823334 0.59500003
-0.15468381 0.10624191 0.57800001
-0.15358287 0.10624191 0.57800001
-0.15248191 0.10624191 0.57800001
-0.15164287 0.10642572 0.57900006
-0.15028001 0.10624191 0.57800001
-0.14917906 0.10624191 0.57800001
-0.1480781 0.10624191 0.57800001
-0.14697716 0.10624191 0.57800001
-0.1458762 0.10624191 0.57800001
-0.14477524 0.10624191 0.57800001
-0.1436743 0.10624191 0.57800001
-0.14257334 0.10624191 0.57800001
-0.14147238 0.10624191 0.57800001
-0.1406143 0.10642572 0.57900006
-0.13951144 0.10642572 0.57900006
-0.13840859 0.10642572 0.57900006
-0.13730572 0.10642572 0.57900006
-0.13620287 0.10642572 0.57900006
-0.13533334 0.10660953 0.58000004
-0.13422859 0.10660953 0.58000004
-0.13335334 0.10679334 0.58100003
-0.13224667 0.10679334 0.58100003
-0.13114001 0.10679334 0.58100003
-0.13003334 0.10679334 0.58100003
-0.12914857 0.10697715 0.58200002
-0.12826 0.10716096 0.583
-0.12714954 0.10716096 0.583
-0.12625524 0.10734477 0.58400005
-0.12535715 0.10752858 0.58500004
-0.12424286 0.10752858 0.58500004
-0.12333906 0.10771239 0.58600003
-0.12243143 0.10789619 0.58700001
-0.12131334 0.10789619 0.58700001
-0.12040001 0.10808001 0.588
-0.11948287 0.10826381 0.58900005
-0.11856192 0.10844763 0.59000003
-0.11763715 0.10863143 0.59100002
-0.11670858 0.10881525 0.59200001
-0.11558096 0.10881525 0.59200001
-0.16934763 0.10827143 0.583
-0.16794859 0.10808572 0.58200002
-0.16712667 0.10827143 0.583
-0.15551525 0.10715715 0.57700002
-0.15468381 0.10734286 0.57800001
-0.15358287 0.10734286 0.57800001
-0.15274572 0.10752858 0.57900006
-0.15164287 0.10752858 0.57900006
-0.15054001 0.10752858 0.57900006
-0.14943716 0.10752858 0.57900006
-0.14833429 0.10752858 0.57900006
-0.14723144 0.10752858 0.57900006
-0.1458762 0.10734286 0.57800001
-0.14477524 0.10734286 0.57800001
-0.1436743 0.10734286 0.57800001
-0.14232668 0.10715715 0.57700002
-0.1406143 0.10752858 0.57900006
-0.13754287 0.1077143 0.58000004
-0.1364381 0.1077143 0.58000004
-0.13533334 0.1077143 0.58000004
-0.13446 0.10790001 0.58100003
-0.13335334 0.10790001 0.58100003
-0.13224667 0.10790001 0.58100003
-0.13114001 0.10790001 0.58100003
-0.13003334 0.10790001 0.58100003
-0.12914857 0.10808572 0.58200002
-0.12826 0.10827143 0.583
-0.12714954 0.10827143 0.583
-0.12625524 0.10845715 0.58400005
-0.12535715 0.10864286 0.58500004
-0.12424286 0.10864286 0.58500004
-0.12333906 0.10882858 0.58600003
-0.12222286 0.10882858 0.58600003
-0.12131334 0.1090143 0.58700001
-0.12019525 0.1090143 0.58700001
-0.11948287 0.10938572 0.58900005
-0.11836096 0.10938572 0.58900005
-0.1174381 0.10957143 0.59000003
-0.11651143 0.10975715 0.59100002
-0.17016573 0.10919429 0.58200002
-0.16905716 0.10919429 0.58200002
-0.16766001 0.10900667 0.58100003
-0.16684002 0.10919429 0.58200002
-0.16573144 0.10919429 0.58200002
-0.15634286 0.10806858 0.57600003
-0.15551525 0.1082562 0.57700002
-0.15468381 0.10844382 0.57800001
-0.15358287 0.10844382 0.57800001
-0.15248191 0.10844382 0.57800001
-0.15164287 0.10863143 0.57900006
-0.15054001 0.10863143 0.57900006
-0.14969525 0.10881905 0.58000004
-0.14859049 0.10881905 0.58000004
-0.14748572 0.10881905 0.58000004
-0.14612858 0.10863143 0.57900006
-0.14502573 0.10863143 0.57900006
-0.14392287 0.10863143 0.57900006
-0.14171715 0.10863143 0.57900006
-0.13864763 0.10881905 0.58000004
-0.13754287 0.10881905 0.58000004
-0.1364381 0.10881905 0.58000004
-0.13556668 0.10900667 0.58100003
-0.13446 0.10900667 0.58100003
-0.13358286 0.10919429 0.58200002
-0.13247429 0.10919429 0.58200002
-0.13114001 0.10900667 0.58100003
-0.13025714 0.10919429 0.58200002
-0.12914857 0.10919429 0.58200002
-0.12804002 0.10919429 0.58200002
-0.12714954 0.10938191 0.583
-0.12603906 0.10938191 0.583
-0.12535715 0.10975715 0.58500004
-0.12445524 0.10994477 0.58600003
-0.12333906 0.10994477 0.58600003
-0.12222286 0.10994477 0.58600003
-0.12131334 0.11013239 0.58700001
-0.12040001 0.11032001 0.588
-0.11948287 0.11050763 0.58900005
-0.11836096 0.11050763 0.58900005
-0.1174381 0.11069524 0.59000003
-0.11631429 0.11069524 0.59000003
-0.11538572 0.11088286 0.59100002
-0.11426001 0.11088286 0.59100002
-0.16905716 0.11030287 0.58200002
-0.16766001 0.11011334 0.58100003
-0.16655335 0.11011334 0.58100003
-0.16544668 0.11011334 0.58100003
-0.16405715 0.10992382 0.58000004
-0.15688573 0.10954477 0.57800001
-0.15578477 0.10954477 0.57800001
-0.15468381 0.10954477 0.57800001
-0.15358287 0.10954477 0.57800001
-0.15274572 0.10973429 0.57900006
-0.15190478 0.10992382 0.58000004
-0.1508 0.10992382 0.58000004
-0.14969525 0.10992382 0.58000004
-0.14859049 0.10992382 0.58000004
-0.14774001 0.11011334 0.58100003
-0.14638096 0.10992382 0.58000004
-0.1452762 0.10992382 0.58000004
-0.14465429 0.11200858 0.59100002
-0.13714382 0.11049239 0.583
-0.13603334 0.11049239 0.583
-0.13492286 0.11049239 0.583
-0.13381238 0.11049239 0.583
-0.13270192 0.11049239 0.583
-0.13136572 0.11030287 0.58200002
-0.13025714 0.11030287 0.58200002
-0.12914857 0.11030287 0.58200002
-0.12826 0.11049239 0.583
-0.12714954 0.11049239 0.583
-0.12625524 0.11068191 0.58400005
-0.12514287 0.11068191 0.58400005
-0.12445524 0.11106096 0.58600003
-0.12333906 0.11106096 0.58600003
-0.12243143 0.11125048 0.58700001
-0.12152001 0.11144001 0.588
-0.12040001 0.11144001 0.588
-0.11948287 0.11162953 0.58900005
-0.11836096 0.11162953 0.58900005
-0.11723906 0.11162953 0.58900005
-0.11631429 0.11181906 0.59000003
-0.11538572 0.11200858 0.59100002
-0.11426001 0.11200858 0.59100002
-0.16987334 0.11122001 0.58100003
-0.16876668 0.11122001 0.58100003
-0.16737144 0.11102858 0.58000004
-0.16655335 0.11122001 0.58100003
-0.16544668 0.11122001 0.58100003
-0.16405715 0.11102858 0.58000004
-0.16295239 0.11102858 0.58000004
-0.15936287 0.11083715 0.57900006
-0.15798667 0.11064572 0.57800001
-0.15688573 0.11064572 0.57800001
-0.1560543 0.11083715 0.57900006
-0.15495144 0.11083715 0.57900006
-0.15384859 0.11083715 0.57900006
-0.15274572 0.11083715 0.57900006
-0.15190478 0.11102858 0.58000004
-0.14969525 0.11102858 0.58000004
-0.14352858 0.11313429 0.59100002
-0.14216192 0.11294287 0.59000003
-0.1410381 0.11294287 0.59000003
-0.13855524 0.11275144 0.58900005
-0.13492286 0.11160287 0.583
-0.13381238 0.11160287 0.583
-0.13270192 0.11160287 0.583
-0.13159144 0.11160287 0.583
-0.13048096 0.11160287 0.583
-0.12937048 0.11160287 0.583
-0.12826 0.11160287 0.583
-0.12714954 0.11160287 0.583
-0.12625524 0.11179429 0.58400005
-0.12557143 0.11217715 0.58600003
-0.12466763 0.11236858 0.58700001
-0.12354953 0.11236858 0.58700001
-0.12243143 0.11236858 0.58700001
-0.12152001 0.11256 0.588
-0.12040001 0.11256 0.588
-0.11948287 0.11275144 0.58900005
-0.11836096 0.11275144 0.58900005
-0.11723906 0.11275144 0.58900005
-0.11631429 0.11294287 0.59000003
-0.11538572 0.11313429 0.59100002
-0.11426001 0.11313429 0.59100002
-0.11370858 0.11370858 0.59400004
-0.16958097 0.11213334 0.58000004
-0.16847619 0.11213334 0.58000004
-0.16737144 0.11213334 0.58000004
-0.16626668 0.11213334 0.58000004
-0.16516192 0.11213334 0.58000004
-0.16405715 0.11213334 0.58000004
-0.16295239 0.11213334 0.58000004
-0.16184764 0.11213334 0.58000004
-0.16046573 0.11194 0.57900006
-0.15936287 0.11194 0.57900006
-0.15826002 0.11194 0.57900006
-0.15715715 0.11194 0.57900006
-0.1560543 0.11194 0.57900006
-0.15495144 0.11194 0.57900006
-0.15384859 0.11194 0.57900006
-0.15274572 0.11194 0.57900006
-0.14640859 0.11387334 0.58900005
-0.14553334 0.11406668 0.59000003
-0.14465429 0.11426001 0.59100002
-0.14352858 0.11426001 0.59100002
-0.14240287 0.11426001 0.59100002
-0.14127715 0.11426001 0.59100002
-0.13991429 0.11406668 0.59000003
-0.13855524 0.11387334 0.58900005
-0.13626668 0.11290667 0.58400005
-0.13515429 0.11290667 0.58400005
-0.13381238 0.11271334 0.583
-0.13270192 0.11271334 0.583
-0.13159144 0.11271334 0.583
-0.13048096 0.11271334 0.583
-0.12937048 0.11271334 0.583
-0.12826 0.11271334 0.583
-0.12736763 0.11290667 0.58400005
-0.12647143 0.11310001 0.58500004
-0.126 0.11368001 0.588
-0.12488001 0.11368001 0.588
-0.12333906 0.11329334 0.58600003
-0.12243143 0.11348668 0.58700001
-0.12152001 0.11368001 0.588
-0.12040001 0.11368001 0.588
-0.11948287 0.11387334 0.58900005
-0.11816001 0.11368001 0.588
-0.11723906 0.11387334 0.58900005
-0.11611715 0.11387334 0.58900005
-0.11538572 0.11426001 0.59100002
-0.11426001 0.11426001 0.59100002
-0.11332572 0.11445334 0.59200001
-0.11257715 0.11484001 0.59400004
-0.11107048 0.11445334 0.59200001
-0.10863143 0.11426001 0.59100002
-0.10750572 0.11426001 0.59100002
-0.17098001 0.11343334 0.58100003
-0.16987334 0.11343334 0.58100003
-0.16847619 0.1132381 0.58000004
-0.16737144 0.1132381 0.58000004
-0.16626668 0.1132381 0.58000004
-0.16516192 0.1132381 0.58000004
-0.16405715 0.1132381 0.58000004
-0.16267143 0.11304286 0.57900006
-0.16156858 0.11304286 0.57900006
-0.16046573 0.11304286 0.57900006
-0.15936287 0.11304286 0.57900006
-0.15853335 0.1132381 0.58000004
-0.15715715 0.11304286 0.57900006
-0.1560543 0.11304286 0.57900006
-0.15495144 0.11304286 0.57900006
-0.15384859 0.11304286 0.57900006
-0.15248191 0.11284763 0.57800001
-0.14915715 0.11538572 0.59100002
-0.14803144 0.11538572 0.59100002
-0.14690572 0.11538572 0.59100002
-0.14578001 0.11538572 0.59100002
-0.14489906 0.11558096 0.59200001
-0.14377144 0.11558096 0.59200001
-0.14240287 0.11538572 0.59100002
-0.14151619 0.11558096 0.59200001
-0.14015144 0.11538572 0.59100002
-0.13879049 0.11519048 0.59000003
-0.13766667 0.11519048 0.59000003
-0.1367743 0.11538572 0.59100002
-0.13404192 0.11401906 0.58400005
-0.13292953 0.11401906 0.58400005
-0.13181715 0.11401906 0.58400005
-0.13137619 0.11460477 0.58700001
-0.1302581 0.11460477 0.58700001
-0.12914 0.11460477 0.58700001
-0.12690382 0.11460477 0.58700001
-0.126 0.11480001 0.588
-0.12488001 0.11480001 0.588
-0.12354953 0.11460477 0.58700001
-0.12243143 0.11460477 0.58700001
-0.12152001 0.11480001 0.588
-0.12019525 0.11460477 0.58700001
-0.11928001 0.11480001 0.588
-0.11816001 0.11480001 0.588
-0.11704001 0.11480001 0.588
-0.11592001 0.11480001 0.588
-0.11499525 0.11499525 0.58900005
-0.11387334 0.11499525 0.58900005
-0.11294287 0.11519048 0.59000003
-0.11181906 0.11519048 0.59000003
-0.11088286 0.11538572 0.59100002
-0.10863143 0.11538572 0.59100002
-0.17068572 0.11434287 0.58000004
-0.16987334 0.11454001 0.58100003
-0.16847619 0.11434287 0.58000004
-0.16737144 0.11434287 0.58000004
-0.16626668 0.11434287 0.58000004
-0.16516192 0.11434287 0.58000004
-0.16405715 0.11434287 0.58000004
-0.16295239 0.11434287 0.58000004
-0.16184764 0.11434287 0.58000004
-0.16074286 0.11434287 0.58000004
-0.15963811 0.11434287 0.58000004
-0.15880668 0.11454001 0.58100003
-0.15521906 0.11434287 0.58000004
-0.15248191 0.11394858 0.57800001
-0.15140858 0.11651143 0.59100002
-0.15028286 0.11651143 0.59100002
-0.14915715 0.11651143 0.59100002
-0.14828192 0.11670858 0.59200001
-0.14690572 0.11651143 0.59100002
-0.14602667 0.11670858 0.59200001
-0.14514382 0.11690572 0.59300005
-0.1440143 0.11690572 0.59300005
-0.14264382 0.11670858 0.59200001
-0.14175525 0.11690572 0.59300005
-0.14038858 0.11670858 0.59200001
-0.13902572 0.11651143 0.59100002
-0.13790001 0.11651143 0.59100002
-0.1367743 0.11651143 0.59100002
-0.13473049 0.11572286 0.58700001
-0.13361239 0.11572286 0.58700001
-0.1324943 0.11572286 0.58700001
-0.13137619 0.11572286 0.58700001
-0.1302581 0.11572286 0.58700001
-0.12914 0.11572286 0.58700001
-0.12802191 0.11572286 0.58700001
-0.12690382 0.11572286 0.58700001
-0.12488001 0.11592001 0.588
-0.12376001 0.11592001 0.588
-0.12264001 0.11592001 0.588
-0.12152001 0.11592001 0.588
-0.12040001 0.11592001 0.588
-0.11907715 0.11572286 0.58700001
-0.11795905 0.11572286 0.58700001
-0.11684096 0.11572286 0.58700001
-0.11572286 0.11572286 0.58700001
-0.11499525 0.11611715 0.58900005
-0.11387334 0.11611715 0.58900005
-0.11275144 0.11611715 0.58900005
-0.11162953 0.11611715 0.58900005
-0.11088286 0.11651143 0.59100002
-0.10975715 0.11651143 0.59100002
-0.10844763 0.11631429 0.59000003
-0.17297524 0.11624382 0.58400005
-0.17098001 0.11564668 0.58100003
-0.16987334 0.11564668 0.58100003
-0.16847619 0.11544763 0.58000004
-0.16737144 0.11544763 0.58000004
-0.16626668 0.11544763 0.58000004
-0.16544668 0.11564668 0.58100003
-0.16405715 0.11544763 0.58000004
-0.16295239 0.11544763 0.58000004
-0.16184764 0.11544763 0.58000004
-0.16074286 0.11544763 0.58000004
-0.15963811 0.11544763 0.58000004
-0.15880668 0.11564668 0.58100003
-0.15028286 0.11763715 0.59100002
-0.14915715 0.11763715 0.59100002
-0.14803144 0.11763715 0.59100002
-0.14690572 0.11763715 0.59100002
-0.14578001 0.11763715 0.59100002
-0.14489906 0.1178362 0.59200001
-0.1440143 0.11803525 0.59300005
-0.14288478 0.11803525 0.59300005
-0.14175525 0.11803525 0.59300005
-0.14062573 0.11803525 0.59300005
-0.13949619 0.11803525 0.59300005
-0.13836667 0.11803525 0.59300005
-0.13723715 0.11803525 0.59300005
-0.13610762 0.11803525 0.59300005
-0.13475049 0.1178362 0.59200001
-0.13362287 0.1178362 0.59200001
-0.13204762 0.1174381 0.59000003
-0.13092382 0.1174381 0.59000003
-0.12980001 0.1174381 0.59000003
-0.12509239 0.11723906 0.58900005
-0.12376001 0.11704001 0.588
-0.12243143 0.11684096 0.58700001
-0.12131334 0.11684096 0.58700001
-0.12019525 0.11684096 0.58700001
-0.11907715 0.11684096 0.58700001
-0.11795905 0.11684096 0.58700001
-0.11684096 0.11684096 0.58700001
-0.11572286 0.11684096 0.58700001
-0.11499525 0.11723906 0.58900005
-0.11387334 0.11723906 0.58900005
-0.11275144 0.11723906 0.58900005
-0.11162953 0.11723906 0.58900005
-0.11069524 0.1174381 0.59000003
-0.10957143 0.1174381 0.59000003
-0.10844763 0.1174381 0.59000003
-0.17208667 0.11675334 0.58100003
-0.17098001 0.11675334 0.58100003
-0.16987334 0.11675334 0.58100003
-0.16818573 0.11635143 0.57900006
-0.16737144 0.11655239 0.58000004
-0.16626668 0.11655239 0.58000004
-0.16544668 0.11675334 0.58100003
-0.16434 0.11675334 0.58100003
-0.16295239 0.11655239 0.58000004
-0.16212668 0.11675334 0.58100003
-0.16102001 0.11675334 0.58100003
-0.15991335 0.11675334 0.58100003
-0.15908001 0.1169543 0.58200002
-0.15140858 0.11876287 0.59100002
-0.15002859 0.11856192 0.59000003
-0.14940953 0.11896382 0.59200001
-0.14828192 0.11896382 0.59200001
-0.1471543 0.11896382 0.59200001
-0.14602667 0.11896382 0.59200001
-0.14514382 0.11916477 0.59300005
-0.1440143 0.11916477 0.59300005
-0.14288478 0.11916477 0.59300005
-0.14175525 0.11916477 0.59300005
-0.14062573 0.11916477 0.59300005
-0.13949619 0.11916477 0.59300005
-0.13836667 0.11916477 0.59300005
-0.13723715 0.11916477 0.59300005
-0.13610762 0.11916477 0.59300005
-0.13475049 0.11896382 0.59200001
-0.13362287 0.11896382 0.59200001
-0.13227144 0.11876287 0.59100002
-0.13114572 0.11876287 0.59100002
-0.13002001 0.11876287 0.59100002
-0.12551714 0.11876287 0.59100002
-0.12439144 0.11876287 0.59100002
-0.12284858 0.11836096 0.58900005
-0.12131334 0.11795905 0.58700001
-0.12040001 0.11816001 0.588
-0.11907715 0.11795905 0.58700001
-0.11795905 0.11795905 0.58700001
-0.11684096 0.11795905 0.58700001
-0.11572286 0.11795905 0.58700001
-0.11499525 0.11836096 0.58900005
-0.11387334 0.11836096 0.58900005
-0.11275144 0.11836096 0.58900005
-0.11181906 0.11856192 0.59000003
-0.11069524 0.11856192 0.59000003
-0.10957143 0.11856192 0.59000003
-0.17208667 0.11786 0.58100003
-0.17098001 0.11786 0.58100003
-0.16958097 0.11765715 0.58000004
-0.16818573 0.11745429 0.57900006
-0.16708286 0.11745429 0.57900006
-0.16626668 0.11765715 0.58000004
-0.16516192 0.11765715 0.58000004
-0.16405715 0.11765715 0.58000004
-0.16295239 0.11765715 0.58000004
-0.16212668 0.11786 0.58100003
-0.16129716 0.11806286 0.58200002
-0.16018859 0.11806286 0.58200002
-0.15935335 0.11826573 0.583
-0.15140858 0.11988858 0.59100002
-0.15028286 0.11988858 0.59100002
-0.14940953 0.12009144 0.59200001
-0.14828192 0.12009144 0.59200001
-0.14740287 0.1202943 0.59300005
-0.14627334 0.1202943 0.59300005
-0.14514382 0.1202943 0.59300005
-0.14425716 0.12049715 0.59400004
-0.14288478 0.1202943 0.59300005
-0.14175525 0.1202943 0.59300005
-0.14062573 0.1202943 0.59300005
-0.13949619 0.1202943 0.59300005
-0.13860001 0.12049715 0.59400004
-0.13746858 0.12049715 0.59400004
-0.13610762 0.1202943 0.59300005
-0.13543335 0.12070001 0.59500003
-0.1340743 0.12049715 0.59400004
-0.13271905 0.1202943 0.59300005
-0.13158953 0.1202943 0.59300005
-0.13024001 0.12009144 0.59200001
-0.12439144 0.11988858 0.59100002
-0.12284858 0.11948287 0.58900005
-0.12152001 0.11928001 0.588
-0.12040001 0.11928001 0.588
-0.11928001 0.11928001 0.588
-0.11816001 0.11928001 0.588
-0.11684096 0.11907715 0.58700001
-0.11592001 0.11928001 0.588
-0.11519048 0.11968572 0.59000003
-0.11406668 0.11968572 0.59000003
-0.11294287 0.11968572 0.59000003
-0.11200858 0.11988858 0.59100002
-0.11088286 0.11988858 0.59100002
-0.11012858 0.1202943 0.59300005
-0.10899905 0.1202943 0.59300005
-0.17631239 0.11958096 0.58400005
-0.17520002 0.11958096 0.58400005
-0.17378953 0.1193762 0.583
-0.17267905 0.1193762 0.583
-0.1712743 0.11917143 0.58200002
-0.17016573 0.11917143 0.58200002
-0.16876668 0.11896668 0.58100003
-0.16737144 0.11876191 0.58000004
-0.16626668 0.11876191 0.58000004
-0.16516192 0.11876191 0.58000004
-0.16405715 0.11876191 0.58000004
-0.16295239 0.11876191 0.58000004
-0.16212668 0.11896668 0.58100003
-0.16102001 0.11896668 0.58100003
-0.15418001 0.12142382 0.59300005
-0.15305048 0.12142382 0.59300005
-0.15192096 0.12142382 0.59300005
-0.15028286 0.1210143 0.59100002
-0.14940953 0.12121905 0.59200001
-0.14853239 0.12142382 0.59300005
-0.14740287 0.12142382 0.59300005
-0.14627334 0.12142382 0.59300005
-0.14538859 0.12162858 0.59400004
-0.14425716 0.12162858 0.59400004
-0.14312573 0.12162858 0.59400004
-0.1419943 0.12162858 0.59400004
-0.14086287 0.12162858 0.59400004
-0.13973144 0.12162858 0.59400004
-0.13883334 0.12183334 0.59500003
-0.13770001 0.12183334 0.59500003
-0.13633715 0.12162858 0.59400004
-0.13520572 0.12162858 0.59400004
-0.13452572 0.1220381 0.59600002
-0.13316667 0.12183334 0.59500003
-0.12305715 0.12080953 0.59000003
-0.12152001 0.12040001 0.588
-0.12040001 0.12040001 0.588
-0.11928001 0.12040001 0.588
-0.11816001 0.12040001 0.588
-0.11704001 0.12040001 0.588
-0.11592001 0.12040001 0.588
-0.11499525 0.12060477 0.58900005
-0.11406668 0.12080953 0.59000003
-0.11294287 0.12080953 0.59000003
-0.11200858 0.1210143 0.59100002
-0.11088286 0.1210143 0.59100002
-0.10975715 0.1210143 0.59100002
-0.10899905 0.12142382 0.59300005
-0.17772858 0.12090001 0.58500004
-0.17631239 0.12069334 0.58400005
-0.17520002 0.12069334 0.58400005
-0.17378953 0.12048668 0.583
-0.17267905 0.12048668 0.583
-0.1712743 0.12028001 0.58200002
-0.16987334 0.12007334 0.58100003
-0.16876668 0.12007334 0.58100003
-0.16766001 0.12007334 0.58100003
-0.16655335 0.12007334 0.58100003
-0.16544668 0.12007334 0.58100003
-0.16434 0.12007334 0.58100003
-0.16323334 0.12007334 0.58100003
-0.16041429 0.12214001 0.59100002
-0.15557145 0.12276001 0.59400004
-0.15444002 0.12276001 0.59400004
-0.15330859 0.12276001 0.59400004
-0.15217716 0.12276001 0.59400004
-0.15104572 0.12276001 0.59400004
-0.14966191 0.12255334 0.59300005
-0.14853239 0.12255334 0.59300005
-0.14740287 0.12255334 0.59300005
-0.14652 0.12276001 0.59400004
-0.14538859 0.12276001 0.59400004
-0.14425716 0.12276001 0.59400004
-0.14312573 0.12276001 0.59400004
-0.1419943 0.12276001 0.59400004
-0.1411 0.12296668 0.59500003
-0.13996668 0.12296668 0.59500003
-0.13906668 0.12317334 0.59600002
-0.13816287 0.12338001 0.597
-0.13633715 0.12276001 0.59400004
-0.13588858 0.12338001 0.597
-0.13475144 0.12338001 0.597
