# .PCD v0.7 - Point Cloud Data file format
VERSION 0.7
FIELDS x y z
SIZE 4 4 4
TYPE F F F
COUNT 1 1 1
WIDTH 1401
HEIGHT 1
VIEWPOINT 0 0 0 1 0 0 0
POINTS 1401
DATA ascii
-0.029785717 0.09332858 0.69500005
-0.028543811 0.093597151 0.69700003
-0.027255239 0.093731433 0.69800001
-0.026000002 0.094000004 0.70000005
-0.024701906 0.094134293 0.70100003
-0.023333335 0.094000004 0.70000005
-0.022094287 0.094402865 0.70300001
-0.020755239 0.094402865 0.70300001
-0.019360954 0.094134293 0.70100003
-0.017948573 0.093731433 0.69800001
-0.014761906 0.083257146 0.62
-0.013580954 0.083257146 0.62
-0.012380001 0.083122864 0.61900002
-0.011200953 0.083122864 0.61900002
-0.010005715 0.082988575 0.61800003
-0.008828572 0.082988575 0.61800003
-0.0076514292 0.082988575 0.61800003
-0.0064742863 0.082988575 0.61800003
0.0017600001 0.082720004 0.61600006
0.050791431 0.082317151 0.61300004
0.051874287 0.082182862 0.61200005
0.053040005 0.082182862 0.61200005
0.054117147 0.08204858 0.611
0.055280957 0.08204858 0.611
0.056167621 0.08164572 0.60800004
0.057325717 0.08164572 0.60800004
0.058387622 0.08151143 0.60700005
0.059543815 0.08151143 0.60700005
0.072976194 0.082317151 0.61300004
0.074143812 0.082317151 0.61300004
0.07531143 0.082317151 0.61300004
0.076603815 0.082451433 0.61400002
0.077900007 0.082585722 0.61500001
0.079071432 0.082585722 0.61500001
0.080373339 0.082720004 0.61600006
0.081546672 0.082720004 0.61600006
0.082720004 0.082720004 0.61600006
0.083893336 0.082720004 0.61600006
0.085204765 0.082854293 0.61700004
-0.15908572 0.087161914 0.64000005
-0.15762001 0.087025717 0.63900006
-0.15640287 0.087025717 0.63900006
-0.15518573 0.087025717 0.63900006
-0.15420954 0.087161914 0.64000005
-0.15275145 0.087025717 0.63900006
-0.15129715 0.086889528 0.63800001
-0.15008192 0.086889528 0.63800001
-0.14886668 0.086889528 0.63800001
-0.14765143 0.086889528 0.63800001
-0.14597715 0.086617149 0.63600004
-0.14476572 0.086617149 0.63600004
-0.14400573 0.086889528 0.63800001
-0.14234287 0.086617149 0.63600004
-0.14113143 0.086617149 0.63600004
-0.13992001 0.086617149 0.63600004
-0.13870858 0.086617149 0.63600004
-0.13749716 0.086617149 0.63600004
-0.13628572 0.086617149 0.63600004
-0.13507429 0.086617149 0.63600004
-0.13365239 0.08648096 0.63500005
-0.13244286 0.08648096 0.63500005
-0.13123333 0.08648096 0.63500005
-0.13002382 0.08648096 0.63500005
-0.12881429 0.08648096 0.63500005
-0.12740381 0.086344771 0.634
-0.12619621 0.086344771 0.634
-0.12498858 0.086344771 0.634
-0.12378096 0.086344771 0.634
-0.12257334 0.086344771 0.634
-0.12117429 0.086208574 0.63300002
-0.11996858 0.086208574 0.63300002
-0.11876287 0.086208574 0.63300002
-0.11755715 0.086208574 0.63300002
-0.11653525 0.086344771 0.634
-0.11514572 0.086208574 0.63300002
-0.11394001 0.086208574 0.63300002
-0.1125562 0.086072385 0.63200003
-0.1111762 0.085936196 0.63100004
-0.10962572 0.085663818 0.62900001
-0.10808286 0.085391432 0.62700003
-0.1067181 0.085255243 0.62600005
-0.10518858 0.084982865 0.62400001
-0.10400001 0.084982865 0.62400001
-0.10264667 0.084846675 0.62300003
-0.10146001 0.084846675 0.62300003
-0.062365718 0.08334858 0.61200005
-0.061200004 0.08334858 0.61200005
-0.06003429 0.08334858 0.61200005
-0.058868576 0.08334858 0.61200005
-0.057702862 0.08334858 0.61200005
-0.056444764 0.083212383 0.611
-0.055280957 0.083212383 0.611
-0.054117147 0.083212383 0.611
-0.050625719 0.083212383 0.611
-0.056261908 0.094652385 0.69500005
-0.053460002 0.094380006 0.69300002
-0.051989526 0.094107628 0.69100004
-0.050600003 0.093971431 0.69000006
-0.049214289 0.093835242 0.68900001
-0.047693338 0.093426675 0.68600005
-0.04638667 0.093426675 0.68600005
-0.045080002 0.093426675 0.68600005
-0.043645717 0.093154289 0.68400002
-0.04234286 0.093154289 0.68400002
-0.041160002 0.093426675 0.68600005
-0.03991143 0.093562864 0.68700004
-0.03871524 0.093835242 0.68900001
-0.037402861 0.093835242 0.68900001
-0.036090478 0.093835242 0.68900001
-0.034778096 0.093835242 0.68900001
-0.033514287 0.093971431 0.69000006
-0.032200001 0.093971431 0.69000006
-0.030930478 0.094107628 0.69100004
-0.029742859 0.094516195 0.69400001
-0.028461907 0.094652385 0.69500005
-0.027216192 0.09492477 0.69700003
-0.025925716 0.095060959 0.69800001
-0.024666669 0.095333338 0.70000005
-0.023266668 0.095060959 0.69800001
-0.022094287 0.095741913 0.70300001
-0.02060762 0.095060959 0.69800001
-0.019278096 0.095060959 0.69800001
-0.017948573 0.095060959 0.69800001
-0.014761906 0.0844381 0.62
-0.013580954 0.0844381 0.62
-0.012380001 0.084301911 0.61900002
-0.011200953 0.084301911 0.61900002
-0.010005715 0.084165722 0.61800003
-0.008828572 0.084165722 0.61800003
-0.0076514292 0.084165722 0.61800003
-0.0064742863 0.084165722 0.61800003
-0.0052885716 0.084029533 0.61700004
0.0017600001 0.083893336 0.61600006
0.050708573 0.08334858 0.61200005
0.051874287 0.08334858 0.61200005
0.053040005 0.08334858 0.61200005
0.054117147 0.083212383 0.611
0.055280957 0.083212383 0.611
0.056444764 0.083212383 0.611
0.057420004 0.082940005 0.60900003
0.058483813 0.082803816 0.60800004
0.059641909 0.082803816 0.60800004
0.061100002 0.083212383 0.611
0.072976194 0.083484769 0.61300004
0.074143812 0.083484769 0.61300004
0.07543429 0.083620958 0.61400002
0.076603815 0.083620958 0.61400002
0.07777334 0.083620958 0.61400002
0.079071432 0.083757147 0.61500001
0.080242865 0.083757147 0.61500001
0.081546672 0.083893336 0.61600006
0.082720004 0.083893336 0.61600006
0.083893336 0.083893336 0.61600006
0.085066669 0.083893336 0.61600006
-0.15908572 0.088380955 0.64000005
-0.15762001 0.088242866 0.63900006
-0.15640287 0.088242866 0.63900006
-0.15518573 0.088242866 0.63900006
-0.15396859 0.088242866 0.63900006
-0.15275145 0.088242866 0.63900006
-0.15129715 0.08810477 0.63800001
-0.14961144 0.087828577 0.63600004
-0.14840001 0.087828577 0.63600004
-0.14718857 0.087828577 0.63600004
-0.14597715 0.087828577 0.63600004
-0.14476572 0.087828577 0.63600004
-0.1435543 0.087828577 0.63600004
-0.14234287 0.087828577 0.63600004
-0.14090954 0.08769048 0.63500005
-0.13992001 0.087828577 0.63600004
-0.13870858 0.087828577 0.63600004
-0.13749716 0.087828577 0.63600004
-0.13628572 0.087828577 0.63600004
-0.13486192 0.08769048 0.63500005
-0.13365239 0.08769048 0.63500005
-0.13244286 0.08769048 0.63500005
-0.13123333 0.08769048 0.63500005
-0.13002382 0.08769048 0.63500005
-0.12861143 0.087552384 0.634
-0.12740381 0.087552384 0.634
-0.12579811 0.087276198 0.63200003
-0.12479144 0.087414294 0.63300002
-0.12378096 0.087552384 0.634
-0.12238001 0.087414294 0.63300002
-0.12117429 0.087414294 0.63300002
-0.11996858 0.087414294 0.63300002
-0.11876287 0.087414294 0.63300002
-0.11755715 0.087414294 0.63300002
-0.11635143 0.087414294 0.63300002
-0.11514572 0.087414294 0.63300002
-0.11376001 0.087276198 0.63200003
-0.11237811 0.087138101 0.63100004
-0.1111762 0.087138101 0.63100004
-0.10791048 0.086447626 0.62600005
-0.1067181 0.086447626 0.62600005
-0.10518858 0.086171433 0.62400001
-0.10400001 0.086171433 0.62400001
-0.10264667 0.086033337 0.62300003
-0.10146001 0.086033337 0.62300003
-0.061200004 0.08451429 0.61200005
-0.06003429 0.08451429 0.61200005
-0.058868576 0.08451429 0.61200005
-0.057608575 0.084376194 0.611
-0.056444764 0.084376194 0.611
-0.055280957 0.084376194 0.611
-0.054117147 0.084376194 0.611
-0.052953336 0.084376194 0.611
-0.051789526 0.084376194 0.611
-0.050460003 0.084100008 0.60900003
-0.049461909 0.084376194 0.611
-0.048298098 0.084376194 0.611
-0.047134288 0.084376194 0.611
-0.05191429 0.095285721 0.69000006
-0.047693338 0.094733343 0.68600005
-0.046251431 0.09445715 0.68400002
-0.044948574 0.09445715 0.68400002
-0.043645717 0.09445715 0.68400002
-0.04234286 0.09445715 0.68400002
-0.041040003 0.09445715 0.68400002
-0.039853334 0.094733343 0.68600005
-0.034613337 0.085066669 0.61600006
-0.037240002 0.094733343 0.68600005
-0.034778096 0.095147625 0.68900001
-0.033465717 0.095147625 0.68900001
-0.032200001 0.095285721 0.69000006
-0.030930478 0.095423818 0.69100004
-0.029700002 0.095700003 0.69300002
-0.028420955 0.0958381 0.69400001
-0.027216192 0.096252389 0.69700003
-0.025888573 0.096252389 0.69700003
-0.024596192 0.096390486 0.69800001
-0.023266668 0.096390486 0.69800001
-0.021905717 0.096252389 0.69700003
-0.020578096 0.096252389 0.69700003
-0.019250477 0.096252389 0.69700003
-0.017922858 0.096252389 0.69700003
-0.014738096 0.085480958 0.61900002
-0.013559048 0.085480958 0.61900002
-0.012360001 0.085342862 0.61800003
-0.011182858 0.085342862 0.61800003
-0.010005715 0.085342862 0.61800003
-0.008828572 0.085342862 0.61800003
-0.0076514292 0.085342862 0.61800003
-0.0064742863 0.085342862 0.61800003
-0.0052885716 0.085204765 0.61700004
-0.0041066669 0.085066669 0.61600006
-0.0029333336 0.085066669 0.61600006
-0.0017600001 0.085066669 0.61600006
-0.0005857143 0.08492858 0.61500001
0.0005857143 0.08492858 0.61500001
0.050708573 0.08451429 0.61200005
0.051874287 0.08451429 0.61200005
0.052953336 0.084376194 0.611
0.054117147 0.084376194 0.611
0.055280957 0.084376194 0.611
0.056444764 0.084376194 0.611
0.057420004 0.084100008 0.60900003
0.058580004 0.084100008 0.60900003
0.059641909 0.083961911 0.60800004
0.060900003 0.084100008 0.60900003
0.062263813 0.084376194 0.611
0.063220002 0.084100008 0.60900003
0.065540001 0.084100008 0.60900003
0.068082862 0.084376194 0.611
0.072976194 0.084652387 0.61300004
0.074264765 0.084790483 0.61400002
0.07543429 0.084790483 0.61400002
0.076603815 0.084790483 0.61400002
0.077900007 0.08492858 0.61500001
0.079071432 0.08492858 0.61500001
0.080242865 0.08492858 0.61500001
0.081546672 0.085066669 0.61600006
0.082720004 0.085066669 0.61600006
0.083893336 0.085066669 0.61600006
0.085066669 0.085066669 0.61600006
-0.15883715 0.089460008 0.63900006
-0.15762001 0.089460008 0.63900006
-0.15640287 0.089460008 0.63900006
-0.15518573 0.089460008 0.63900006
-0.15372764 0.089320004 0.63800001
-0.15251239 0.089320004 0.63800001
-0.15082286 0.089040004 0.63600004
-0.14961144 0.089040004 0.63600004
-0.14816667 0.088900007 0.63500005
-0.14695716 0.088900007 0.63500005
-0.14574763 0.088900007 0.63500005
-0.1445381 0.088900007 0.63500005
-0.14332858 0.088900007 0.63500005
-0.14211905 0.088900007 0.63500005
-0.14090954 0.088900007 0.63500005
-0.13970001 0.088900007 0.63500005
-0.13849048 0.088900007 0.63500005
-0.13728096 0.088900007 0.63500005
-0.13607144 0.088900007 0.63500005
-0.13486192 0.088900007 0.63500005
-0.13365239 0.088900007 0.63500005
-0.13223429 0.088760003 0.634
-0.13102667 0.088760003 0.634
-0.12981905 0.088760003 0.634
-0.12861143 0.088760003 0.634
-0.12740381 0.088760003 0.634
-0.12599716 0.088620007 0.63300002
-0.12479144 0.088620007 0.63300002
-0.12378096 0.088760003 0.634
-0.12238001 0.088620007 0.63300002
-0.12117429 0.088620007 0.63300002
-0.11996858 0.088620007 0.63300002
-0.11876287 0.088620007 0.63300002
-0.11755715 0.088620007 0.63300002
-0.11635143 0.088620007 0.63300002
-0.11514572 0.088620007 0.63300002
-0.1127343 0.088620007 0.63300002
-0.11011905 0.087500006 0.625
-0.1077381 0.087500006 0.625
-0.10654762 0.087500006 0.625
-0.10518858 0.087360002 0.62400001
-0.10400001 0.087360002 0.62400001
-0.10264667 0.087220006 0.62300003
-0.06003429 0.085680008 0.61200005
-0.058772385 0.085540004 0.611
-0.057608575 0.085540004 0.611
-0.056444764 0.085540004 0.611
-0.055280957 0.085540004 0.611
-0.054117147 0.085540004 0.611
-0.052953336 0.085540004 0.611
-0.051620003 0.085260004 0.60900003
-0.050460003 0.085260004 0.60900003
-0.049300004 0.085260004 0.60900003
-0.048298098 0.085540004 0.611
-0.047134288 0.085540004 0.611
-0.047554288 0.095760003 0.68400002
-0.046251431 0.095760003 0.68400002
-0.04488286 0.095620006 0.68300003
-0.043581907 0.095620006 0.68300003
-0.042280953 0.095620006 0.68300003
-0.040980004 0.095620006 0.68300003
-0.03967905 0.095620006 0.68300003
-0.034613337 0.086240008 0.61600006
-0.037077144 0.095620006 0.68300003
-0.033320002 0.096040003 0.68600005
-0.032153334 0.096460007 0.68900001
-0.030840954 0.096460007 0.68900001
-0.029571431 0.096600004 0.69000006
-0.028380001 0.097020008 0.69300002
-0.027099049 0.097160004 0.69400001
-0.025814287 0.097300008 0.69500005
-0.024560954 0.097580008 0.69700003
-0.023233335 0.097580008 0.69700003
-0.019422859 0.086520009 0.61800003
-0.018216191 0.086380005 0.61700004
-0.01919524 0.097300008 0.69500005
-0.014714287 0.086520009 0.61800003
-0.013537143 0.086520009 0.61800003
-0.012360001 0.086520009 0.61800003
-0.011182858 0.086520009 0.61800003
-0.0099895243 0.086380005 0.61700004
-0.0088142864 0.086380005 0.61700004
-0.0076390482 0.086380005 0.61700004
-0.0064638099 0.086380005 0.61700004
-0.0052800002 0.086240008 0.61600006
-0.0041000005 0.086100005 0.61500001
-0.0029333336 0.086240008 0.61600006
-0.0017571429 0.086100005 0.61500001
-0.0005857143 0.086100005 0.61500001
0.0005857143 0.086100005 0.61500001
0.0017542859 0.085960008 0.61400002
0.050625719 0.085540004 0.611
0.051789526 0.085540004 0.611
0.052953336 0.085540004 0.611
0.053940002 0.085260004 0.60900003
0.055280957 0.085540004 0.611
0.056260005 0.085260004 0.60900003
0.057420004 0.085260004 0.60900003
0.058580004 0.085260004 0.60900003
0.059740003 0.085260004 0.60900003
0.060900003 0.085260004 0.60900003
0.062060002 0.085260004 0.60900003
0.063220002 0.085260004 0.60900003
0.06459143 0.085540004 0.611
0.065755241 0.085540004 0.611
0.066919051 0.085540004 0.611
0.068082862 0.085540004 0.611
0.069360003 0.085680008 0.61200005
0.070525721 0.085680008 0.61200005
0.071691431 0.085680008 0.61200005
0.072976194 0.085820004 0.61300004
0.074264765 0.085960008 0.61400002
0.07543429 0.085960008 0.61400002
0.076603815 0.085960008 0.61400002
0.07777334 0.085960008 0.61400002
0.079071432 0.086100005 0.61500001
0.080242865 0.086100005 0.61500001
0.081546672 0.086240008 0.61600006
0.082720004 0.086240008 0.61600006
0.083893336 0.086240008 0.61600006
0.085066669 0.086240008 0.61600006
0.086380005 0.086380005 0.61700004
0.087555245 0.086380005 0.61700004
-0.1600543 0.09067715 0.63900006
-0.15883715 0.09067715 0.63900006
-0.15762001 0.09067715 0.63900006
-0.1561581 0.090535246 0.63800001
-0.15494287 0.090535246 0.63800001
-0.15372764 0.090535246 0.63800001
-0.1520343 0.090251431 0.63600004
-0.15082286 0.090251431 0.63600004
-0.1493762 0.090109527 0.63500005
-0.14816667 0.090109527 0.63500005
-0.14695716 0.090109527 0.63500005
-0.14551811 0.089967623 0.634
-0.14431049 0.089967623 0.634
-0.14310287 0.089967623 0.634
-0.14189525 0.089967623 0.634
-0.14068763 0.089967623 0.634
-0.13948001 0.089967623 0.634
-0.13849048 0.090109527 0.63500005
-0.13728096 0.090109527 0.63500005
-0.13607144 0.090109527 0.63500005
-0.13486192 0.090109527 0.63500005
-0.13365239 0.090109527 0.63500005
-0.13223429 0.089967623 0.634
-0.13102667 0.089967623 0.634
-0.12981905 0.089967623 0.634
-0.12861143 0.089967623 0.634
-0.12740381 0.089967623 0.634
-0.12599716 0.08982572 0.63300002
-0.12479144 0.08982572 0.63300002
-0.12358572 0.08982572 0.63300002
-0.12238001 0.08982572 0.63300002
-0.12117429 0.08982572 0.63300002
-0.11996858 0.08982572 0.63300002
-0.11876287 0.08982572 0.63300002
-0.11755715 0.08982572 0.63300002
-0.11635143 0.08982572 0.63300002
-0.11514572 0.08982572 0.63300002
-0.10756572 0.088548578 0.62400001
-0.10637715 0.088548578 0.62400001
-0.10518858 0.088548578 0.62400001
-0.10383334 0.088406675 0.62300003
-0.10264667 0.088406675 0.62300003
-0.090638101 0.087129526 0.61400002
-0.089614294 0.087271437 0.61500001
-0.061100002 0.086703815 0.611
-0.06003429 0.086845718 0.61200005
-0.058772385 0.086703815 0.611
-0.057608575 0.086703815 0.611
-0.056444764 0.086703815 0.611
-0.055280957 0.086703815 0.611
-0.054117147 0.086703815 0.611
-0.052953336 0.086703815 0.611
-0.051789526 0.086703815 0.611
-0.050460003 0.086420007 0.60900003
-0.049461909 0.086703815 0.611
-0.048298098 0.086703815 0.611
-0.047134288 0.086703815 0.611
-0.047484767 0.09692096 0.68300003
-0.046183813 0.09692096 0.68300003
-0.04488286 0.09692096 0.68300003
-0.0435181 0.096779056 0.68200004
-0.04221905 0.096779056 0.68200004
-0.040920004 0.096779056 0.68200004
-0.039504763 0.096495241 0.68000001
-0.038209528 0.096495241 0.68000001
-0.036914289 0.096495241 0.68000001
-0.035566669 0.096353337 0.67900002
-0.034424763 0.096779056 0.68200004
-0.033125717 0.096779056 0.68200004
-0.031826667 0.096779056 0.68200004
-0.030572383 0.09692096 0.68300003
-0.029314287 0.097062863 0.68400002
-0.028257145 0.097914293 0.69000006
-0.026981907 0.098056197 0.69100004
-0.025777144 0.098481908 0.69400001
-0.024490478 0.09862382 0.69500005
-0.023166668 0.09862382 0.69500005
-0.021811429 0.098481908 0.69400001
-0.018216191 0.087555245 0.61700004
-0.019140001 0.098340005 0.69300002
-0.015891429 0.087697148 0.61800003
-0.014714287 0.087697148 0.61800003
-0.013537143 0.087697148 0.61800003
-0.012360001 0.087697148 0.61800003
-0.011182858 0.087697148 0.61800003
-0.0099895243 0.087555245 0.61700004
-0.0088142864 0.087555245 0.61700004
-0.0076390482 0.087555245 0.61700004
-0.0064638099 0.087555245 0.61700004
-0.0052800002 0.087413341 0.61600006
-0.0040933336 0.087129526 0.61400002
-0.0029333336 0.087413341 0.61600006
-0.0017571429 0.087271437 0.61500001
-0.0005857143 0.087271437 0.61500001
0.0005857143 0.087271437 0.61500001
0.0017542859 0.087129526 0.61400002
0.050625719 0.086703815 0.611
0.051789526 0.086703815 0.611
0.052780002 0.086420007 0.60900003
0.053940002 0.086420007 0.60900003
0.055100005 0.086420007 0.60900003
0.056260005 0.086420007 0.60900003
0.057420004 0.086420007 0.60900003
0.058580004 0.086420007 0.60900003
0.059740003 0.086420007 0.60900003
0.060900003 0.086420007 0.60900003
0.062060002 0.086420007 0.60900003
0.063220002 0.086420007 0.60900003
0.064380005 0.086420007 0.60900003
0.065540001 0.086420007 0.60900003
0.066919051 0.086703815 0.611
0.068082862 0.086703815 0.611
0.069360003 0.086845718 0.61200005
0.070525721 0.086845718 0.61200005
0.071691431 0.086845718 0.61200005
0.072976194 0.086987622 0.61300004
0.074264765 0.087129526 0.61400002
0.07543429 0.087129526 0.61400002
0.076603815 0.087129526 0.61400002
0.07777334 0.087129526 0.61400002
0.079071432 0.087271437 0.61500001
0.080242865 0.087271437 0.61500001
0.08141429 0.087271437 0.61500001
0.082585722 0.087271437 0.61500001
0.083893336 0.087413341 0.61600006
0.085066669 0.087413341 0.61600006
0.086520009 0.087697148 0.61800003
0.087697148 0.087697148 0.61800003
0.089449532 0.088264771 0.62200004
-0.1600543 0.091894291 0.63900006
-0.15883715 0.091894291 0.63900006
-0.15762001 0.091894291 0.63900006
-0.1561581 0.09175048 0.63800001
-0.15494287 0.09175048 0.63800001
-0.15372764 0.09175048 0.63800001
-0.1520343 0.091462865 0.63600004
-0.15082286 0.091462865 0.63600004
-0.1493762 0.091319054 0.63500005
-0.14793335 0.091175243 0.634
-0.14672573 0.091175243 0.634
-0.14551811 0.091175243 0.634
-0.14431049 0.091175243 0.634
-0.14310287 0.091175243 0.634
-0.14189525 0.091175243 0.634
-0.14068763 0.091175243 0.634
-0.13948001 0.091175243 0.634
-0.13827239 0.091175243 0.634
-0.13706477 0.091175243 0.634
-0.13585715 0.091175243 0.634
-0.13464953 0.091175243 0.634
-0.13344191 0.091175243 0.634
-0.13202572 0.091031432 0.63300002
-0.13082001 0.091031432 0.63300002
-0.12981905 0.091175243 0.634
-0.12861143 0.091175243 0.634
-0.12720287 0.091031432 0.63300002
-0.12599716 0.091031432 0.63300002
-0.12459429 0.090887628 0.63200003
-0.12358572 0.091031432 0.63300002
-0.12238001 0.091031432 0.63300002
-0.12117429 0.091031432 0.63300002
-0.11996858 0.091031432 0.63300002
-0.11876287 0.091031432 0.63300002
-0.11755715 0.091031432 0.63300002
-0.11635143 0.091031432 0.63300002
-0.11514572 0.091031432 0.63300002
-0.10637715 0.089737147 0.62400001
-0.10502001 0.089593336 0.62300003
-0.10383334 0.089593336 0.62300003
-0.095626675 0.088586673 0.61600006
-0.093128577 0.088442862 0.61500001
-0.090785719 0.088442862 0.61500001
-0.089614294 0.088442862 0.61500001
-0.072738104 0.087867625 0.611
-0.071574293 0.087867625 0.611
-0.070410483 0.087867625 0.611
-0.069020003 0.087580003 0.60900003
-0.06003429 0.088011436 0.61200005
-0.058772385 0.087867625 0.611
-0.057608575 0.087867625 0.611
-0.056444764 0.087867625 0.611
-0.055280957 0.087867625 0.611
-0.054117147 0.087867625 0.611
-0.052953336 0.087867625 0.611
-0.051789526 0.087867625 0.611
-0.050460003 0.087580003 0.60900003
-0.049461909 0.087867625 0.611
-0.048298098 0.087867625 0.611
-0.047134288 0.087867625 0.611
-0.045970481 0.087867625 0.611
-0.047484767 0.098221913 0.68300003
-0.046183813 0.098221913 0.68300003
-0.044817146 0.098078102 0.68200004
-0.043390479 0.09779048 0.68000001
-0.042033337 0.097646676 0.67900002
-0.040740002 0.097646676 0.67900002
-0.039388575 0.097502865 0.67800003
-0.038153335 0.097646676 0.67900002
-0.036860004 0.097646676 0.67900002
-0.035566669 0.097646676 0.67900002
-0.034323812 0.09779048 0.68000001
-0.033125717 0.098078102 0.68200004
-0.031826667 0.098078102 0.68200004
-0.030572383 0.098221913 0.68300003
-0.029271431 0.098221913 0.68300003
-0.028134288 0.09879715 0.68700004
-0.026903812 0.099084765 0.68900001
-0.025628572 0.099228576 0.69000006
-0.024349526 0.099372387 0.69100004
-0.020533334 0.088586673 0.61600006
-0.019391431 0.088730484 0.61700004
-0.018216191 0.088730484 0.61700004
-0.017040953 0.088730484 0.61700004
-0.015865715 0.088730484 0.61700004
-0.014690477 0.088730484 0.61700004
-0.013537143 0.088874288 0.61800003
-0.012360001 0.088874288 0.61800003
-0.011164763 0.088730484 0.61700004
-0.0099895243 0.088730484 0.61700004
-0.0088142864 0.088730484 0.61700004
-0.0076390482 0.088730484 0.61700004
-0.0064638099 0.088730484 0.61700004
-0.0052800002 0.088586673 0.61600006
-0.0040933336 0.088299051 0.61400002
-0.0029285715 0.088442862 0.61500001
-0.0017542859 0.088299051 0.61400002
-0.00058476196 0.088299051 0.61400002
0.00058476196 0.088299051 0.61400002
0.0017542859 0.088299051 0.61400002
0.0029238097 0.088299051 0.61400002
0.0041066669 0.088586673 0.61600006
0.0052628573 0.088299051 0.61400002
0.0064323815 0.088299051 0.61400002
0.038860004 0.087580003 0.60900003
0.03995429 0.087436199 0.60800004
0.041112382 0.087436199 0.60800004
0.042200956 0.087292388 0.60700005
0.043428574 0.087436199 0.60800004
0.04458667 0.087436199 0.60800004
0.045669526 0.087292388 0.60700005
0.046748575 0.087148577 0.60600001
0.047981907 0.087292388 0.60700005
0.049138099 0.087292388 0.60700005
0.050460003 0.087580003 0.60900003
0.051620003 0.087580003 0.60900003
0.052693337 0.087436199 0.60800004
0.053851433 0.087436199 0.60800004
0.055009529 0.087436199 0.60800004
0.056167621 0.087436199 0.60800004
0.057420004 0.087580003 0.60900003
0.058580004 0.087580003 0.60900003
0.059641909 0.087436199 0.60800004
0.060800005 0.087436199 0.60800004
0.061958101 0.087436199 0.60800004
0.063116193 0.087436199 0.60800004
0.064380005 0.087580003 0.60900003
0.065540001 0.087580003 0.60900003
0.066919051 0.087867625 0.611
0.068194292 0.088011436 0.61200005
0.069360003 0.088011436 0.61200005
0.070640959 0.088155247 0.61300004
0.071808577 0.088155247 0.61300004
0.072976194 0.088155247 0.61300004
0.074264765 0.088299051 0.61400002
0.07543429 0.088299051 0.61400002
0.076603815 0.088299051 0.61400002
0.07777334 0.088299051 0.61400002
0.078942865 0.088299051 0.61400002
0.080242865 0.088442862 0.61500001
0.081546672 0.088586673 0.61600006
0.082720004 0.088586673 0.61600006
0.084029533 0.088730484 0.61700004
0.085342862 0.088874288 0.61800003
0.086800009 0.08916191 0.62
0.087980956 0.08916191 0.62
0.08916191 0.08916191 0.62
-0.15980382 0.092965722 0.63800001
-0.15858859 0.092965722 0.63800001
-0.15737334 0.092965722 0.63800001
-0.1561581 0.092965722 0.63800001
-0.15494287 0.092965722 0.63800001
-0.15324572 0.092674293 0.63600004
-0.15179525 0.092528574 0.63500005
-0.15058573 0.092528574 0.63500005
-0.1493762 0.092528574 0.63500005
-0.14793335 0.092382863 0.634
-0.14672573 0.092382863 0.634
-0.14551811 0.092382863 0.634
-0.14431049 0.092382863 0.634
-0.14310287 0.092382863 0.634
-0.14189525 0.092382863 0.634
-0.14068763 0.092382863 0.634
-0.13948001 0.092382863 0.634
-0.13827239 0.092382863 0.634
-0.13706477 0.092382863 0.634
-0.13585715 0.092382863 0.634
-0.13464953 0.092382863 0.634
-0.13344191 0.092382863 0.634
-0.13202572 0.092237152 0.63300002
-0.13082001 0.092237152 0.63300002
-0.12961429 0.092237152 0.63300002
-0.12840858 0.092237152 0.63300002
-0.12720287 0.092237152 0.63300002
-0.12599716 0.092237152 0.63300002
-0.12459429 0.092091434 0.63200003
-0.12358572 0.092237152 0.63300002
-0.12238001 0.092237152 0.63300002
-0.12117429 0.092237152 0.63300002
-0.11996858 0.092237152 0.63300002
-0.11876287 0.092237152 0.63300002
-0.11774287 0.092382863 0.634
-0.11653525 0.092382863 0.634
-0.11514572 0.092237152 0.63300002
-0.10620667 0.090780005 0.62300003
-0.10502001 0.090780005 0.62300003
-0.10366667 0.090634294 0.62200004
-0.095471434 0.089614294 0.61500001
-0.094146676 0.089468576 0.61400002
-0.092977151 0.089468576 0.61400002
-0.091807626 0.089468576 0.61400002
-0.090785719 0.089614294 0.61500001
-0.089614294 0.089614294 0.61500001
-0.088442862 0.089614294 0.61500001
-0.087413341 0.089760005 0.61600006
-0.086240008 0.089760005 0.61600006
-0.085066669 0.089760005 0.61600006
-0.078685716 0.089177147 0.61200005
-0.077520005 0.089177147 0.61200005
-0.076354288 0.089177147 0.61200005
-0.075188577 0.089177147 0.61200005
-0.074022859 0.089177147 0.61200005
-0.072738104 0.089031436 0.611
-0.071574293 0.089031436 0.611
-0.070410483 0.089031436 0.611
-0.069020003 0.088740006 0.60900003
-0.067860007 0.088740006 0.60900003
-0.06003429 0.089177147 0.61200005
-0.058772385 0.089031436 0.611
-0.057608575 0.089031436 0.611
-0.056444764 0.089031436 0.611
-0.055280957 0.089031436 0.611
-0.054117147 0.089031436 0.611
-0.052953336 0.089031436 0.611
-0.051789526 0.089031436 0.611
-0.050625719 0.089031436 0.611
-0.049461909 0.089031436 0.611
-0.048298098 0.089031436 0.611
-0.047134288 0.089031436 0.611
-0.045970481 0.089031436 0.611
-0.044660002 0.088740006 0.60900003
-0.04364286 0.089031436 0.611
-0.042479049 0.089031436 0.611
-0.041315243 0.089031436 0.611
-0.04197143 0.098794289 0.67800003
-0.040680002 0.098794289 0.67800003
-0.035728574 0.089614294 0.61500001
-0.034613337 0.089760005 0.61600006
-0.033385716 0.089614294 0.61500001
-0.032214288 0.089614294 0.61500001
-0.031042859 0.089614294 0.61500001
-0.030572383 0.099522866 0.68300003
-0.029271431 0.099522866 0.68300003
-0.028093334 0.099960007 0.68600005
-0.026903812 0.10039715 0.68900001
-0.025591429 0.10039715 0.68900001
-0.024279049 0.10039715 0.68900001
-0.023000002 0.10054287 0.69000006
-0.019391431 0.089905716 0.61700004
-0.018216191 0.089905716 0.61700004
-0.017040953 0.089905716 0.61700004
-0.015865715 0.089905716 0.61700004
-0.014690477 0.089905716 0.61700004
-0.013515239 0.089905716 0.61700004
-0.012340001 0.089905716 0.61700004
-0.011164763 0.089905716 0.61700004
-0.0099733341 0.089760005 0.61600006
-0.0088000009 0.089760005 0.61600006
-0.0076266672 0.089760005 0.61600006
-0.0064533339 0.089760005 0.61600006
-0.0052714287 0.089614294 0.61500001
-0.0041000005 0.089614294 0.61500001
-0.0029238097 0.089468576 0.61400002
-0.0017542859 0.089468576 0.61400002
-0.00058476196 0.089468576 0.61400002
0.00058476196 0.089468576 0.61400002
0.0017542859 0.089468576 0.61400002
0.0029238097 0.089468576 0.61400002
0.0040933336 0.089468576 0.61400002
0.0052628573 0.089468576 0.61400002
0.006421905 0.089322865 0.61300004
0.0075895241 0.089322865 0.61300004
0.038860004 0.088740006 0.60900003
0.03995429 0.088594295 0.60800004
0.041112382 0.088594295 0.60800004
0.042270478 0.088594295 0.60800004
0.043500002 0.088740006 0.60900003
0.04458667 0.088594295 0.60800004
0.045669526 0.088448577 0.60700005
0.046825718 0.088448577 0.60700005
0.047981907 0.088448577 0.60700005
0.049057145 0.088302866 0.60600001
0.050377145 0.088594295 0.60800004
0.051535241 0.088594295 0.60800004
0.052693337 0.088594295 0.60800004
0.053851433 0.088594295 0.60800004
0.055009529 0.088594295 0.60800004
0.056167621 0.088594295 0.60800004
0.057420004 0.088740006 0.60900003
0.058580004 0.088740006 0.60900003
0.059641909 0.088594295 0.60800004
0.060800005 0.088594295 0.60800004
0.061958101 0.088594295 0.60800004
0.063116193 0.088594295 0.60800004
0.064380005 0.088740006 0.60900003
0.065432385 0.088594295 0.60800004
0.066700004 0.088740006 0.60900003
0.068082862 0.089031436 0.611
0.069360003 0.089177147 0.61200005
0.070640959 0.089322865 0.61300004
0.071808577 0.089322865 0.61300004
0.072976194 0.089322865 0.61300004
0.074264765 0.089468576 0.61400002
0.07543429 0.089468576 0.61400002
0.076603815 0.089468576 0.61400002
0.07777334 0.089468576 0.61400002
0.078942865 0.089468576 0.61400002
0.080112383 0.089468576 0.61400002
0.08141429 0.089614294 0.61500001
0.082720004 0.089760005 0.61600006
0.083893336 0.089760005 0.61600006
0.085204765 0.089905716 0.61700004
0.086660005 0.090197146 0.61900002
0.087980956 0.090342864 0.62
0.08916191 0.090342864 0.62
-0.15930286 0.09388572 0.63600004
-0.15858859 0.094180956 0.63800001
-0.15688001 0.09388572 0.63600004
-0.15566859 0.09388572 0.63600004
-0.15445715 0.09388572 0.63600004
-0.15300477 0.093738101 0.63500005
-0.15155619 0.093590483 0.634
-0.15034857 0.093590483 0.634
-0.14914097 0.093590483 0.634
-0.14793335 0.093590483 0.634
-0.14672573 0.093590483 0.634
-0.14551811 0.093590483 0.634
-0.14431049 0.093590483 0.634
-0.14287715 0.093442865 0.63300002
-0.14167143 0.093442865 0.63300002
-0.14046572 0.093442865 0.63300002
-0.13948001 0.093590483 0.634
-0.13827239 0.093590483 0.634
-0.13706477 0.093590483 0.634
-0.13585715 0.093590483 0.634
-0.13464953 0.093590483 0.634
-0.13344191 0.093590483 0.634
-0.13202572 0.093442865 0.63300002
-0.13082001 0.093442865 0.63300002
-0.12961429 0.093442865 0.63300002
-0.12840858 0.093442865 0.63300002
-0.12720287 0.093442865 0.63300002
-0.12579811 0.093295246 0.63200003
-0.12459429 0.093295246 0.63200003
-0.12339048 0.093295246 0.63200003
-0.12218668 0.093295246 0.63200003
-0.12117429 0.093442865 0.63300002
-0.11996858 0.093442865 0.63300002
-0.11876287 0.093442865 0.63300002
-0.11774287 0.093590483 0.634
-0.11635143 0.093442865 0.63300002
-0.10722096 0.091819055 0.62200004
-0.1060362 0.091819055 0.62200004
-0.10502001 0.091966674 0.62300003
-0.095471434 0.090785719 0.61500001
-0.094146676 0.090638101 0.61400002
-0.092977151 0.090638101 0.61400002
-0.091807626 0.090638101 0.61400002
-0.090785719 0.090785719 0.61500001
-0.089614294 0.090785719 0.61500001
-0.088442862 0.090785719 0.61500001
-0.087271437 0.090785719 0.61500001
-0.086100005 0.090785719 0.61500001
-0.08451429 0.090342864 0.61200005
-0.08334858 0.090342864 0.61200005
-0.08204858 0.090195246 0.611
-0.08088477 0.090195246 0.611
-0.079460002 0.089900009 0.60900003
-0.078557149 0.090195246 0.611
-0.077393338 0.090195246 0.611
-0.076354288 0.090342864 0.61200005
-0.075188577 0.090342864 0.61200005
-0.074022859 0.090342864 0.61200005
-0.072857149 0.090342864 0.61200005
-0.071574293 0.090195246 0.611
-0.070410483 0.090195246 0.611
-0.069020003 0.089900009 0.60900003
-0.067860007 0.089900009 0.60900003
-0.066700004 0.089900009 0.60900003
-0.065540001 0.089900009 0.60900003
-0.064380005 0.089900009 0.60900003
-0.063220002 0.089900009 0.60900003
-0.062060002 0.089900009 0.60900003
-0.061100002 0.090195246 0.611
-0.059936196 0.090195246 0.611
-0.058772385 0.090195246 0.611
-0.057608575 0.090195246 0.611
-0.056444764 0.090195246 0.611
-0.055280957 0.090195246 0.611
-0.054117147 0.090195246 0.611
-0.052953336 0.090195246 0.611
-0.051789526 0.090195246 0.611
-0.050625719 0.090195246 0.611
-0.049461909 0.090195246 0.611
-0.048298098 0.090195246 0.611
-0.047134288 0.090195246 0.611
-0.045970481 0.090195246 0.611
-0.044660002 0.089900009 0.60900003
-0.04364286 0.090195246 0.611
-0.042479049 0.090195246 0.611
-0.041315243 0.090195246 0.611
-0.041785717 0.099642865 0.67500001
-0.040500004 0.099642865 0.67500001
-0.035670478 0.090638101 0.61400002
-0.034557145 0.090785719 0.61500001
-0.033385716 0.090785719 0.61500001
-0.032214288 0.090785719 0.61500001
-0.030992383 0.090638101 0.61400002
-0.02982286 0.090638101 0.61400002
-0.028653335 0.090638101 0.61400002
-0.027483812 0.090638101 0.61400002
-0.026357144 0.090785719 0.61500001
-0.025185715 0.090785719 0.61500001
-0.02397524 0.090638101 0.61400002
-0.022842858 0.090785719 0.61500001
-0.021636192 0.090638101 0.61400002
-0.020500001 0.090785719 0.61500001
-0.019360002 0.090933338 0.61600006
-0.018186668 0.090933338 0.61600006
-0.017013334 0.090933338 0.61600006
-0.015840001 0.090933338 0.61600006
-0.014666667 0.090933338 0.61600006
-0.013493334 0.090933338 0.61600006
-0.012320001 0.090933338 0.61600006
-0.011128572 0.090785719 0.61500001
-0.0099571431 0.090785719 0.61500001
-0.0087857153 0.090785719 0.61500001
-0.0076019051 0.090638101 0.61400002
-0.0064428574 0.090785719 0.61500001
-0.0052628573 0.090638101 0.61400002
-0.0040933336 0.090638101 0.61400002
-0.0029238097 0.090638101 0.61400002
-0.0017542859 0.090638101 0.61400002
-0.00058476196 0.090638101 0.61400002
0.00058476196 0.090638101 0.61400002
0.0017542859 0.090638101 0.61400002
0.0029238097 0.090638101 0.61400002
0.0040933336 0.090638101 0.61400002
0.0052628573 0.090638101 0.61400002
0.006421905 0.090490483 0.61300004
0.0075895241 0.090490483 0.61300004
0.0087571433 0.090490483 0.61300004
0.0099247629 0.090490483 0.61300004
0.011092382 0.090490483 0.61300004
0.012260001 0.090490483 0.61300004
0.040020004 0.089900009 0.60900003
0.041180003 0.089900009 0.60900003
0.042340003 0.089900009 0.60900003
0.043500002 0.089900009 0.60900003
0.044660002 0.089900009 0.60900003
0.045744766 0.089752384 0.60800004
0.046825718 0.089604765 0.60700005
0.047981907 0.089604765 0.60700005
0.049138099 0.089604765 0.60700005
0.050377145 0.089752384 0.60800004
0.051535241 0.089752384 0.60800004
0.052693337 0.089752384 0.60800004
0.053851433 0.089752384 0.60800004
0.055009529 0.089752384 0.60800004
0.056167621 0.089752384 0.60800004
0.057325717 0.089752384 0.60800004
0.058483813 0.089752384 0.60800004
0.059641909 0.089752384 0.60800004
0.060800005 0.089752384 0.60800004
0.061958101 0.089752384 0.60800004
0.063116193 0.089752384 0.60800004
0.064380005 0.089900009 0.60900003
0.065540001 0.089900009 0.60900003
0.066919051 0.090195246 0.611
0.067860007 0.089900009 0.60900003
0.069360003 0.090342864 0.61200005
0.070640959 0.090490483 0.61300004
0.071808577 0.090490483 0.61300004
0.072976194 0.090490483 0.61300004
0.074143812 0.090490483 0.61300004
0.07543429 0.090638101 0.61400002
0.076603815 0.090638101 0.61400002
0.077646673 0.090490483 0.61300004
0.078942865 0.090638101 0.61400002
0.080112383 0.090638101 0.61400002
0.081281908 0.090638101 0.61400002
0.082585722 0.090785719 0.61500001
0.083893336 0.090933338 0.61600006
0.085204765 0.091080956 0.61700004
0.086800009 0.091523819 0.62
0.087980956 0.091523819 0.62
0.08916191 0.091523819 0.62
-0.15905239 0.094947629 0.63500005
-0.15858859 0.095396198 0.63800001
-0.15688001 0.095097147 0.63600004
-0.15566859 0.095097147 0.63600004
-0.15421429 0.094947629 0.63500005
-0.15276381 0.094798103 0.634
-0.15155619 0.094798103 0.634
-0.15034857 0.094798103 0.634
-0.14914097 0.094798103 0.634
-0.14793335 0.094798103 0.634
-0.14672573 0.094798103 0.634
-0.14528859 0.094648577 0.63300002
-0.14431049 0.094798103 0.634
-0.14287715 0.094648577 0.63300002
-0.14189525 0.094798103 0.634
-0.14068763 0.094798103 0.634
-0.13948001 0.094798103 0.634
-0.13827239 0.094798103 0.634
-0.13706477 0.094798103 0.634
-0.13585715 0.094798103 0.634
-0.13464953 0.094798103 0.634
-0.13344191 0.094798103 0.634
-0.13223429 0.094798103 0.634
-0.13082001 0.094648577 0.63300002
-0.12961429 0.094648577 0.63300002
-0.12840858 0.094648577 0.63300002
-0.12720287 0.094648577 0.63300002
-0.12579811 0.094499052 0.63200003
-0.12439715 0.094349533 0.63100004
-0.12339048 0.094499052 0.63200003
-0.12218668 0.094499052 0.63200003
-0.12117429 0.094648577 0.63300002
-0.11996858 0.094648577 0.63300002
-0.11876287 0.094648577 0.63300002
-0.11755715 0.094648577 0.63300002
-0.10687619 0.092704765 0.62
-0.095626675 0.09210667 0.61600006
-0.094300009 0.091957152 0.61500001
-0.093128577 0.091957152 0.61500001
-0.09210667 0.09210667 0.61600006
-0.090933338 0.09210667 0.61600006
-0.089614294 0.091957152 0.61500001
-0.088586673 0.09210667 0.61600006
-0.087271437 0.091957152 0.61500001
-0.085960008 0.091807626 0.61400002
-0.08451429 0.091508575 0.61200005
-0.08334858 0.091508575 0.61200005
-0.08204858 0.091359057 0.611
-0.08088477 0.091359057 0.611
-0.079460002 0.091060005 0.60900003
-0.078557149 0.091359057 0.611
-0.077393338 0.091359057 0.611
-0.076229528 0.091359057 0.611
-0.075188577 0.091508575 0.61200005
-0.074022859 0.091508575 0.61200005
-0.072857149 0.091508575 0.61200005
-0.071574293 0.091359057 0.611
-0.070410483 0.091359057 0.611
-0.069246672 0.091359057 0.611
-0.068082862 0.091359057 0.611
-0.066919051 0.091359057 0.611
-0.065755241 0.091359057 0.611
-0.06459143 0.091359057 0.611
-0.063220002 0.091060005 0.60900003
-0.062263813 0.091359057 0.611
-0.061100002 0.091359057 0.611
-0.059936196 0.091359057 0.611
-0.058772385 0.091359057 0.611
-0.057608575 0.091359057 0.611
-0.056444764 0.091359057 0.611
-0.055280957 0.091359057 0.611
-0.054117147 0.091359057 0.611
-0.052953336 0.091359057 0.611
-0.051789526 0.091359057 0.611
-0.050625719 0.091359057 0.611
-0.049461909 0.091359057 0.611
-0.048298098 0.091359057 0.611
-0.047134288 0.091359057 0.611
-0.045970481 0.091359057 0.611
-0.04480667 0.091359057 0.611
-0.04364286 0.091359057 0.611
-0.042479049 0.091359057 0.611
-0.041315243 0.091359057 0.611
-0.041723814 0.10077906 0.67400002
-0.040440004 0.10077906 0.67400002
-0.035670478 0.091807626 0.61400002
-0.034500953 0.091807626 0.61400002
-0.033385716 0.091957152 0.61500001
-0.032214288 0.091957152 0.61500001
-0.030992383 0.091807626 0.61400002
-0.02982286 0.091807626 0.61400002
-0.028653335 0.091807626 0.61400002
-0.027483812 0.091807626 0.61400002
-0.026357144 0.091957152 0.61500001
-0.025185715 0.091957152 0.61500001
-0.02397524 0.091807626 0.61400002
-0.022842858 0.091957152 0.61500001
-0.021671429 0.091957152 0.61500001
-0.020500001 0.091957152 0.61500001
-0.019360002 0.09210667 0.61600006
-0.018186668 0.09210667 0.61600006
-0.017013334 0.09210667 0.61600006
-0.015840001 0.09210667 0.61600006
-0.014666667 0.09210667 0.61600006
-0.013493334 0.09210667 0.61600006
-0.012320001 0.09210667 0.61600006
-0.011128572 0.091957152 0.61500001
-0.0099571431 0.091957152 0.61500001
-0.0087714288 0.091807626 0.61400002
-0.0076019051 0.091807626 0.61400002
-0.0064323815 0.091807626 0.61400002
-0.0052628573 0.091807626 0.61400002
-0.0040933336 0.091807626 0.61400002
-0.0029238097 0.091807626 0.61400002
-0.0017542859 0.091807626 0.61400002
-0.00058476196 0.091807626 0.61400002
0.00058476196 0.091807626 0.61400002
0.0017542859 0.091807626 0.61400002
0.0029190478 0.0916581 0.61300004
0.0040866667 0.0916581 0.61300004
0.0052628573 0.091807626 0.61400002
0.006421905 0.0916581 0.61300004
0.0075771431 0.091508575 0.61200005
0.0087571433 0.0916581 0.61300004
0.0099085718 0.091508575 0.61200005
0.011074287 0.091508575 0.61200005
0.041112382 0.090910479 0.60800004
0.042270478 0.090910479 0.60800004
0.043500002 0.091060005 0.60900003
0.044660002 0.091060005 0.60900003
0.045744766 0.090910479 0.60800004
0.046902861 0.090910479 0.60800004
0.048060957 0.090910479 0.60800004
0.04921905 0.090910479 0.60800004
0.050377145 0.090910479 0.60800004
0.051535241 0.090910479 0.60800004
0.052693337 0.090910479 0.60800004
0.053940002 0.091060005 0.60900003
0.055100005 0.091060005 0.60900003
0.056260005 0.091060005 0.60900003
0.057325717 0.090910479 0.60800004
0.058483813 0.090910479 0.60800004
0.059641909 0.090910479 0.60800004
0.060800005 0.090910479 0.60800004
0.061958101 0.090910479 0.60800004
0.063116193 0.090910479 0.60800004
0.064380005 0.091060005 0.60900003
0.065540001 0.091060005 0.60900003
0.066700004 0.091060005 0.60900003
0.067860007 0.091060005 0.60900003
0.069360003 0.091508575 0.61200005
0.070525721 0.091508575 0.61200005
0.071691431 0.091508575 0.61200005
0.072857149 0.091508575 0.61200005
0.074143812 0.0916581 0.61300004
0.07531143 0.0916581 0.61300004
0.076603815 0.091807626 0.61400002
0.077646673 0.0916581 0.61300004
0.078942865 0.091807626 0.61400002
0.079981908 0.0916581 0.61300004
0.081281908 0.091807626 0.61400002
0.082451433 0.091807626 0.61400002
0.083757147 0.091957152 0.61500001
0.085204765 0.092256196 0.61700004
0.086380005 0.092256196 0.61700004
0.087980956 0.092704765 0.62
0.08916191 0.092704765 0.62
-0.15874763 0.09524858 0.62900001
-0.15880191 0.096005723 0.634
-0.15809144 0.096308574 0.63600004
-0.15663335 0.096157148 0.63500005
-0.15542382 0.096157148 0.63500005
-0.15397143 0.096005723 0.634
-0.15276381 0.096005723 0.634
-0.15155619 0.096005723 0.634
-0.15034857 0.096005723 0.634
-0.14914097 0.096005723 0.634
-0.14793335 0.096005723 0.634
-0.14672573 0.096005723 0.634
-0.14551811 0.096005723 0.634
-0.14431049 0.096005723 0.634
-0.14287715 0.09585429 0.63300002
-0.14167143 0.09585429 0.63300002
-0.14046572 0.09585429 0.63300002
-0.13948001 0.096005723 0.634
-0.13827239 0.096005723 0.634
-0.13684858 0.09585429 0.63300002
-0.13585715 0.096005723 0.634
-0.13443716 0.09585429 0.63300002
-0.13323143 0.09585429 0.63300002
-0.13202572 0.09585429 0.63300002
-0.13082001 0.09585429 0.63300002
-0.12961429 0.09585429 0.63300002
-0.12820572 0.095702864 0.63200003
-0.12700191 0.095702864 0.63200003
-0.12579811 0.095702864 0.63200003
-0.12439715 0.095551431 0.63100004
-0.12319525 0.095551431 0.63100004
-0.12218668 0.095702864 0.63200003
-0.12117429 0.09585429 0.63300002
-0.11996858 0.09585429 0.63300002
-0.11876287 0.09585429 0.63300002
-0.11755715 0.09585429 0.63300002
-0.11635143 0.09585429 0.63300002
-0.10687619 0.09388572 0.62
-0.10569525 0.09388572 0.62
-0.095626675 0.093280002 0.61600006
-0.094300009 0.093128577 0.61500001
-0.093128577 0.093128577 0.61500001
-0.09210667 0.093280002 0.61600006
-0.090933338 0.093280002 0.61600006
-0.089760005 0.093280002 0.61600006
-0.088442862 0.093128577 0.61500001
-0.087271437 0.093128577 0.61500001
-0.085960008 0.092977151 0.61400002
-0.084376194 0.09252286 0.611
-0.083212383 0.09252286 0.611
-0.08204858 0.09252286 0.611
-0.08088477 0.09252286 0.611
-0.079460002 0.092220008 0.60900003
-0.078300007 0.092220008 0.60900003
-0.077140003 0.092220008 0.60900003
-0.076229528 0.09252286 0.611
-0.075188577 0.092674293 0.61200005
-0.074022859 0.092674293 0.61200005
-0.072738104 0.09252286 0.611
-0.071574293 0.09252286 0.611
-0.070410483 0.09252286 0.611
-0.069246672 0.09252286 0.611
-0.068082862 0.09252286 0.611
-0.066919051 0.09252286 0.611
-0.065755241 0.09252286 0.611
-0.06459143 0.09252286 0.611
-0.06342762 0.09252286 0.611
-0.062263813 0.09252286 0.611
-0.061100002 0.09252286 0.611
-0.059936196 0.09252286 0.611
-0.058772385 0.09252286 0.611
-0.057608575 0.09252286 0.611
-0.056444764 0.09252286 0.611
-0.055280957 0.09252286 0.611
-0.054117147 0.09252286 0.611
-0.052953336 0.09252286 0.611
-0.051789526 0.09252286 0.611
-0.050625719 0.09252286 0.611
-0.049461909 0.09252286 0.611
-0.048298098 0.09252286 0.611
-0.047134288 0.09252286 0.611
-0.045970481 0.09252286 0.611
-0.04480667 0.09252286 0.611
-0.04364286 0.09252286 0.611
-0.042479049 0.09252286 0.611
-0.041315243 0.09252286 0.611
-0.040151432 0.09252286 0.611
-0.036780003 0.092825718 0.61300004
-0.035612382 0.092825718 0.61300004
-0.034444764 0.092825718 0.61300004
-0.033331431 0.092977151 0.61400002
-0.032161906 0.092977151 0.61400002
-0.030941907 0.092825718 0.61300004
-0.029774288 0.092825718 0.61300004
-0.028653335 0.092977151 0.61400002
-0.027483812 0.092977151 0.61400002
-0.026357144 0.093128577 0.61500001
-0.025185715 0.093128577 0.61500001
-0.024014287 0.093128577 0.61500001
-0.022842858 0.093128577 0.61500001
-0.021671429 0.093128577 0.61500001
-0.020500001 0.093128577 0.61500001
-0.019360002 0.093280002 0.61600006
-0.018186668 0.093280002 0.61600006
-0.017013334 0.093280002 0.61600006
-0.015840001 0.093280002 0.61600006
-0.014666667 0.093280002 0.61600006
-0.013493334 0.093280002 0.61600006
-0.012320001 0.093280002 0.61600006
-0.011128572 0.093128577 0.61500001
-0.0099571431 0.093128577 0.61500001
-0.0087714288 0.092977151 0.61400002
-0.0076019051 0.092977151 0.61400002
-0.0064323815 0.092977151 0.61400002
-0.0052628573 0.092977151 0.61400002
-0.0040933336 0.092977151 0.61400002
-0.0029190478 0.092825718 0.61300004
-0.0017514287 0.092825718 0.61300004
-0.00058380957 0.092825718 0.61300004
0.00058380957 0.092825718 0.61300004
0.0017514287 0.092825718 0.61300004
0.0029190478 0.092825718 0.61300004
0.0040866667 0.092825718 0.61300004
0.0052542859 0.092825718 0.61300004
0.006411429 0.092674293 0.61200005
0.0075771431 0.092674293 0.61200005
0.0087428577 0.092674293 0.61200005
0.0099085718 0.092674293 0.61200005
0.011056191 0.09252286 0.611
0.041112382 0.092068575 0.60800004
0.042270478 0.092068575 0.60800004
0.043500002 0.092220008 0.60900003
0.04480667 0.09252286 0.611
0.045820002 0.092220008 0.60900003
0.048140004 0.092220008 0.60900003
0.050460003 0.092220008 0.60900003
0.051620003 0.092220008 0.60900003
0.052780002 0.092220008 0.60900003
0.053940002 0.092220008 0.60900003
0.055100005 0.092220008 0.60900003
0.056260005 0.092220008 0.60900003
0.057420004 0.092220008 0.60900003
0.058580004 0.092220008 0.60900003
0.059641909 0.092068575 0.60800004
0.060900003 0.092220008 0.60900003
0.062060002 0.092220008 0.60900003
0.063220002 0.092220008 0.60900003
0.06459143 0.09252286 0.611
0.065755241 0.09252286 0.611
0.066919051 0.09252286 0.611
0.068194292 0.092674293 0.61200005
0.069360003 0.092674293 0.61200005
0.070640959 0.092825718 0.61300004
0.071808577 0.092825718 0.61300004
0.072976194 0.092825718 0.61300004
0.074264765 0.092977151 0.61400002
0.075188577 0.092674293 0.61200005
0.076479055 0.092825718 0.61300004
0.077520005 0.092674293 0.61200005
0.078685716 0.092674293 0.61200005
0.079851434 0.092674293 0.61200005
0.081149526 0.092825718 0.61300004
0.082317151 0.092825718 0.61300004
0.083620958 0.092977151 0.61400002
0.084790483 0.092977151 0.61400002
0.087980956 0.09388572 0.62
0.08916191 0.09388572 0.62
0.090634294 0.094188578 0.62200004
-0.15874763 0.096446671 0.62900001
-0.15905239 0.097366676 0.63500005
-0.15809144 0.097520009 0.63600004
-0.15663335 0.097366676 0.63500005
-0.15542382 0.097366676 0.63500005
-0.15397143 0.097213343 0.634
-0.15276381 0.097213343 0.634
-0.15155619 0.097213343 0.634
-0.15034857 0.097213343 0.634
-0.14914097 0.097213343 0.634
-0.14793335 0.097213343 0.634
-0.14672573 0.097213343 0.634
-0.14551811 0.097213343 0.634
-0.14431049 0.097213343 0.634
-0.14310287 0.097213343 0.634
-0.14189525 0.097213343 0.634
-0.14068763 0.097213343 0.634
-0.13948001 0.097213343 0.634
-0.13827239 0.097213343 0.634
-0.13706477 0.097213343 0.634
-0.13564287 0.09706001 0.63300002
-0.13443716 0.09706001 0.63300002
-0.13323143 0.09706001 0.63300002
-0.13202572 0.09706001 0.63300002
-0.13082001 0.09706001 0.63300002
-0.12940954 0.096906669 0.63200003
-0.12820572 0.096906669 0.63200003
-0.12680095 0.096753336 0.63100004
-0.12559906 0.096753336 0.63100004
-0.12439715 0.096753336 0.63100004
-0.12319525 0.096753336 0.63100004
-0.12199334 0.096753336 0.63100004
-0.12098286 0.096906669 0.63200003
-0.11996858 0.09706001 0.63300002
-0.11876287 0.09706001 0.63300002
-0.11755715 0.09706001 0.63300002
-0.11635143 0.09706001 0.63300002
-0.10670382 0.094913341 0.61900002
-0.10552477 0.094913341 0.61900002
-0.095626675 0.094453342 0.61600006
-0.094453342 0.094453342 0.61600006
-0.093128577 0.094300009 0.61500001
-0.09210667 0.094453342 0.61600006
-0.090933338 0.094453342 0.61600006
-0.089614294 0.094300009 0.61500001
-0.088442862 0.094300009 0.61500001
-0.087271437 0.094300009 0.61500001
-0.085960008 0.094146676 0.61400002
-0.084376194 0.09368667 0.611
-0.083212383 0.09368667 0.611
-0.081780009 0.093380004 0.60900003
-0.08088477 0.09368667 0.611
-0.079460002 0.093380004 0.60900003
-0.078300007 0.093380004 0.60900003
-0.077140003 0.093380004 0.60900003
-0.076229528 0.09368667 0.611
-0.075188577 0.093840003 0.61200005
-0.074022859 0.093840003 0.61200005
-0.072738104 0.09368667 0.611
-0.071574293 0.09368667 0.611
-0.070410483 0.09368667 0.611
-0.069246672 0.09368667 0.611
