# .PCD v0.7 - Point Cloud Data file format
VERSION 0.7
FIELDS x y z
SIZE 4 4 4
TYPE F F F
COUNT 1 1 1
WIDTH 1333
HEIGHT 1
VIEWPOINT 0 0 0 1 0 0 0
POINTS 1333
DATA ascii
0.0091476198 -0.023138097 0.565
0.010223811 -0.023138097 0.565
0.0113 -0.023138097 0.565
0.012376191 -0.023138097 0.565
0.013452382 -0.023138097 0.565
0.014528573 -0.023138097 0.565
0.015604763 -0.023138097 0.565
0.016680954 -0.023138097 0.565
0.017757144 -0.023138097 0.565
0.018833335 -0.023138097 0.565
0.019909525 -0.023138097 0.565
0.020985715 -0.023138097 0.565
0.022061907 -0.023138097 0.565
0.026693335 -0.023424763 0.57200003
0.02783143 -0.023465715 0.57300001
0.02892286 -0.023465715 0.57300001
0.030066669 -0.023506667 0.574
0.031268574 -0.023588574 0.57600003
0.032365717 -0.023588574 0.57600003
0.033520956 -0.023629526 0.57700002
0.034680001 -0.023670478 0.57800001
0.035904765 -0.023752382 0.58000004
0.037009526 -0.023752382 0.58000004
0.038180001 -0.023793334 0.58100003
0.039354287 -0.023834288 0.58200002
0.040601909 -0.023916192 0.58400005
0.041714288 -0.023916192 0.58400005
0.042900003 -0.023957144 0.58500004
0.04393905 -0.023916192 0.58400005
0.045128573 -0.023957144 0.58500004
0.046321906 -0.023998097 0.58600003
0.047600005 -0.024080001 0.588
0.048720002 -0.024080001 0.588
0.049840003 -0.024080001 0.588
0.10111048 -0.039887622 0.97400004
0.10296572 -0.039887622 0.97400004
-0.034392383 -0.023116192 0.59200001
-0.033320956 -0.02315524 0.59300005
-0.032191429 -0.02315524 0.59300005
-0.031114288 -0.023194287 0.59400004
-0.029982859 -0.023194287 0.59400004
-0.023116192 -0.023116192 0.59200001
-0.016046667 -0.022686668 0.58100003
-0.014940001 -0.022686668 0.58100003
-0.013833335 -0.022686668 0.58100003
-0.012726667 -0.022686668 0.58100003
-0.011600001 -0.022647621 0.58000004
-0.010495239 -0.022647621 0.58000004
-0.0093580959 -0.022569526 0.57800001
-0.0082428576 -0.022530477 0.57700002
-0.0071314289 -0.022491431 0.57600003
-0.0059714289 -0.022257144 0.57000005
-0.0048771431 -0.022218097 0.56900001
-0.003786667 -0.022179049 0.56800002
-0.0027047622 -0.022179049 0.56800002
-0.0016200001 -0.022140002 0.56700003
-0.00054000004 -0.022140002 0.56700003
0.00054000004 -0.022140002 0.56700003
0.0016171429 -0.022100953 0.56600004
0.0026952382 -0.022100953 0.56600004
0.0037733335 -0.022100953 0.56600004
0.0048514288 -0.022100953 0.56600004
0.0059295241 -0.022100953 0.56600004
0.0069952384 -0.022061907 0.565
0.0080714291 -0.022061907 0.565
0.0091476198 -0.022061907 0.565
0.010223811 -0.022061907 0.565
0.0113 -0.022061907 0.565
0.012376191 -0.022061907 0.565
0.013452382 -0.022061907 0.565
0.014528573 -0.022061907 0.565
0.015604763 -0.022061907 0.565
0.016680954 -0.022061907 0.565
0.017757144 -0.022061907 0.565
0.018833335 -0.022061907 0.565
0.019909525 -0.022061907 0.565
0.020985715 -0.022061907 0.565
0.022061907 -0.022061907 0.565
0.026693335 -0.022335239 0.57200003
0.027782859 -0.022335239 0.57200003
0.028973335 -0.022413334 0.574
0.030066669 -0.022413334 0.574
0.031214288 -0.022452382 0.57500005
0.032421906 -0.022530477 0.57700002
0.033520956 -0.022530477 0.57700002
0.034680001 -0.022569526 0.57800001
0.035904765 -0.022647621 0.58000004
0.037009526 -0.022647621 0.58000004
0.038180001 -0.022686668 0.58100003
0.039421909 -0.022764763 0.583
0.040532384 -0.022764763 0.583
0.041785717 -0.022842858 0.58500004
0.042900003 -0.022842858 0.58500004
0.04393905 -0.022803811 0.58400005
0.045128573 -0.022842858 0.58500004
0.046321906 -0.022881906 0.58600003
0.047519051 -0.022920953 0.58700001
0.048637144 -0.022920953 0.58700001
-0.033377144 -0.022062859 0.59400004
-0.014940001 -0.021580001 0.58100003
-0.013833335 -0.021580001 0.58100003
-0.012704763 -0.021542858 0.58000004
-0.011600001 -0.021542858 0.58000004
-0.010495239 -0.021542858 0.58000004
-0.009374286 -0.021505715 0.57900006
-0.0082571432 -0.021468572 0.57800001
-0.0071438099 -0.021431429 0.57700002
-0.0059819054 -0.021208573 0.57100004
-0.0048771431 -0.021134287 0.56900001
-0.003786667 -0.021097144 0.56800002
-0.0027047622 -0.021097144 0.56800002
-0.0016228573 -0.021097144 0.56800002
-0.00054000004 -0.021060001 0.56700003
0.00054000004 -0.021060001 0.56700003
0.0016200001 -0.021060001 0.56700003
0.0027000001 -0.021060001 0.56700003
0.0037800001 -0.021060001 0.56700003
0.0048514288 -0.021022858 0.56600004
0.0059295241 -0.021022858 0.56600004
0.0070076194 -0.021022858 0.56600004
0.0080857147 -0.021022858 0.56600004
0.0091476198 -0.020985715 0.565
0.010223811 -0.020985715 0.565
0.0113 -0.020985715 0.565
0.012354286 -0.020948572 0.56400001
0.013452382 -0.020985715 0.565
0.014528573 -0.020985715 0.565
0.015604763 -0.020985715 0.565
0.016680954 -0.020985715 0.565
0.017757144 -0.020985715 0.565
0.018833335 -0.020985715 0.565
0.019909525 -0.020985715 0.565
0.020985715 -0.020985715 0.565
0.022061907 -0.020985715 0.565
0.033637144 -0.021505715 0.57900006
0.034740001 -0.021505715 0.57900006
0.035904765 -0.021542858 0.58000004
0.037073337 -0.021580001 0.58100003
0.038311429 -0.021654287 0.583
0.039421909 -0.021654287 0.583
0.040532384 -0.021654287 0.583
0.041714288 -0.02169143 0.58400005
0.042900003 -0.021728573 0.58500004
0.04393905 -0.02169143 0.58400005
0.045128573 -0.021728573 0.58500004
0.046163812 -0.02169143 0.58400005
0.047519051 -0.021802859 0.58700001
0.048637144 -0.021802859 0.58700001
-0.10243715 -0.034145717 0.96900004
-0.033433337 -0.020966668 0.59500003
-0.013809524 -0.020438097 0.58000004
-0.012704763 -0.020438097 0.58000004
-0.011600001 -0.020438097 0.58000004
-0.010477143 -0.020402858 0.57900006
-0.0093580959 -0.020367621 0.57800001
-0.0082571432 -0.020367621 0.57800001
-0.0071314289 -0.020297144 0.57600003
-0.0059923814 -0.020156192 0.57200003
-0.0048942859 -0.020120954 0.57100004
-0.003786667 -0.02001524 0.56800002
-0.0027047622 -0.02001524 0.56800002
-0.0016228573 -0.02001524 0.56800002
-0.00054095243 -0.02001524 0.56800002
0.00054000004 -0.019980002 0.56700003
0.0016200001 -0.019980002 0.56700003
0.0027000001 -0.019980002 0.56700003
0.0037800001 -0.019980002 0.56700003
0.0048514288 -0.019944763 0.56600004
0.0059295241 -0.019944763 0.56600004
0.0070076194 -0.019944763 0.56600004
0.0080857147 -0.019944763 0.56600004
0.0091638099 -0.019944763 0.56600004
0.010223811 -0.019909525 0.565
0.011280001 -0.019874288 0.56400001
0.012354286 -0.019874288 0.56400001
0.013452382 -0.019909525 0.565
0.014528573 -0.019909525 0.565
0.015604763 -0.019909525 0.565
0.016680954 -0.019909525 0.565
0.017757144 -0.019909525 0.565
0.018833335 -0.019909525 0.565
0.019909525 -0.019909525 0.565
0.020985715 -0.019909525 0.565
0.022061907 -0.019909525 0.565
0.033637144 -0.020402858 0.57900006
0.0348 -0.020438097 0.58000004
0.035904765 -0.020438097 0.58000004
0.037073337 -0.020473335 0.58100003
0.038245715 -0.020508572 0.58200002
0.039421909 -0.02054381 0.583
0.040532384 -0.02054381 0.583
0.041714288 -0.020579049 0.58400005
0.042900003 -0.020614287 0.58500004
0.04393905 -0.020579049 0.58400005
0.045128573 -0.020614287 0.58500004
0.046321906 -0.020649524 0.58600003
0.047519051 -0.020684764 0.58700001
0.048637144 -0.020684764 0.58700001
-0.014940001 -0.019366669 0.58100003
-0.013809524 -0.019333335 0.58000004
-0.012704763 -0.019333335 0.58000004
-0.011580001 -0.019300001 0.57900006
-0.010477143 -0.019300001 0.57900006
-0.0093580959 -0.019266669 0.57800001
-0.0082571432 -0.019266669 0.57800001
-0.0070942864 -0.019100001 0.57300001
-0.0059923814 -0.019066667 0.57200003
-0.0048942859 -0.019033335 0.57100004
-0.003786667 -0.018933335 0.56800002
-0.0027047622 -0.018933335 0.56800002
-0.0016228573 -0.018933335 0.56800002
-0.00054000004 -0.018900001 0.56700003
0.00053904764 -0.018866668 0.56600004
0.0016200001 -0.018900001 0.56700003
0.0027000001 -0.018900001 0.56700003
0.0037800001 -0.018900001 0.56700003
0.0048514288 -0.018866668 0.56600004
0.0059295241 -0.018866668 0.56600004
0.0070076194 -0.018866668 0.56600004
0.0080857147 -0.018866668 0.56600004
0.0091476198 -0.018833335 0.565
0.010223811 -0.018833335 0.565
0.0113 -0.018833335 0.565
0.012376191 -0.018833335 0.565
0.013452382 -0.018833335 0.565
0.014528573 -0.018833335 0.565
0.015604763 -0.018833335 0.565
0.016680954 -0.018833335 0.565
0.017757144 -0.018833335 0.565
0.018833335 -0.018833335 0.565
0.019909525 -0.018833335 0.565
0.020985715 -0.018833335 0.565
0.022061907 -0.018833335 0.565
0.03369524 -0.019333335 0.58000004
0.0348 -0.019333335 0.58000004
0.035904765 -0.019333335 0.58000004
0.037009526 -0.019333335 0.58000004
0.038311429 -0.019433334 0.583
0.039421909 -0.019433334 0.583
0.040532384 -0.019433334 0.583
0.041714288 -0.019466668 0.58400005
0.042900003 -0.0195 0.58500004
0.04401429 -0.0195 0.58500004
0.045128573 -0.0195 0.58500004
0.046321906 -0.019533334 0.58600003
0.047519051 -0.019566668 0.58700001
0.048637144 -0.019566668 0.58700001
-0.014914286 -0.018228572 0.58000004
-0.013809524 -0.018228572 0.58000004
-0.012682858 -0.018197143 0.57900006
-0.011580001 -0.018197143 0.57900006
-0.010477143 -0.018197143 0.57900006
-0.0093580959 -0.018165715 0.57800001
-0.0082428576 -0.018134287 0.57700002
-0.0071190479 -0.01807143 0.57500005
-0.0059923814 -0.017977145 0.57200003
-0.0049028574 -0.017977145 0.57200003
-0.003786667 -0.017851429 0.56800002
-0.0027047622 -0.017851429 0.56800002
-0.0016200001 -0.017820001 0.56700003
-0.00054000004 -0.017820001 0.56700003
0.00053904764 -0.017788572 0.56600004
0.0016200001 -0.017820001 0.56700003
0.0027000001 -0.017820001 0.56700003
0.0037800001 -0.017820001 0.56700003
0.0048514288 -0.017788572 0.56600004
0.0059295241 -0.017788572 0.56600004
0.0069952384 -0.017757144 0.565
0.0080857147 -0.017788572 0.56600004
0.0091476198 -0.017757144 0.565
0.010223811 -0.017757144 0.565
0.0113 -0.017757144 0.565
0.012376191 -0.017757144 0.565
0.013452382 -0.017757144 0.565
0.014528573 -0.017757144 0.565
0.015604763 -0.017757144 0.565
0.016680954 -0.017757144 0.565
0.017757144 -0.017757144 0.565
0.018833335 -0.017757144 0.565
0.019909525 -0.017757144 0.565
0.020985715 -0.017757144 0.565
0.022100953 -0.017788572 0.56600004
0.032534286 -0.018197143 0.57900006
0.033637144 -0.018197143 0.57900006
0.034740001 -0.018197143 0.57900006
0.035904765 -0.018228572 0.58000004
0.037009526 -0.018228572 0.58000004
0.038311429 -0.018322859 0.583
0.039354287 -0.018291431 0.58200002
0.040532384 -0.018322859 0.583
0.041785717 -0.018385716 0.58500004
0.042900003 -0.018385716 0.58500004
0.04401429 -0.018385716 0.58500004
0.045128573 -0.018385716 0.58500004
0.046321906 -0.018417144 0.58600003
0.047519051 -0.018448573 0.58700001
0.048637144 -0.018448573 0.58700001
0.049755242 -0.018448573 0.58700001
-0.18579334 -0.028372383 0.96100003
-0.1103981 -0.028283812 0.95800006
-0.10857334 -0.028283812 0.95800006
-0.014914286 -0.017123811 0.58000004
-0.013809524 -0.017123811 0.58000004
-0.012682858 -0.017094286 0.57900006
-0.011580001 -0.017094286 0.57900006
-0.010459049 -0.017064763 0.57800001
-0.0093419058 -0.017035238 0.57700002
-0.0082285721 -0.017005716 0.57600003
-0.0071190479 -0.016976191 0.57500005
-0.0059923814 -0.01688762 0.57200003
-0.0048942859 -0.016858097 0.57100004
-0.003786667 -0.016769525 0.56800002
-0.0027047622 -0.016769525 0.56800002
-0.0016228573 -0.016769525 0.56800002
-0.00054000004 -0.016740002 0.56700003
0.00054000004 -0.016740002 0.56700003
0.0016200001 -0.016740002 0.56700003
0.0027000001 -0.016740002 0.56700003
0.0037800001 -0.016740002 0.56700003
0.0048514288 -0.016710477 0.56600004
0.0059295241 -0.016710477 0.56600004
0.0069952384 -0.016680954 0.565
0.0080714291 -0.016680954 0.565
0.0091476198 -0.016680954 0.565
0.010223811 -0.016680954 0.565
0.0113 -0.016680954 0.565
0.012376191 -0.016680954 0.565
0.013452382 -0.016680954 0.565
0.014528573 -0.016680954 0.565
0.015604763 -0.016680954 0.565
0.016680954 -0.016680954 0.565
0.017788572 -0.016710477 0.56600004
0.018833335 -0.016680954 0.565
0.019944763 -0.016710477 0.56600004
0.021022858 -0.016710477 0.56600004
0.022140002 -0.016740002 0.56700003
0.023220001 -0.016740002 0.56700003
0.024342859 -0.016769525 0.56800002
0.032478098 -0.017064763 0.57800001
0.033637144 -0.017094286 0.57900006
0.034740001 -0.017094286 0.57900006
0.035904765 -0.017123811 0.58000004
0.037009526 -0.017123811 0.58000004
0.038311429 -0.017212382 0.583
0.039421909 -0.017212382 0.583
0.040601909 -0.017241906 0.58400005
0.041857146 -0.017300954 0.58600003
0.042973336 -0.017300954 0.58600003
0.044089526 -0.017300954 0.58600003
0.045205716 -0.017300954 0.58600003
0.046321906 -0.017300954 0.58600003
0.047519051 -0.017330477 0.58700001
0.048637144 -0.017330477 0.58700001
0.049755242 -0.017330477 0.58700001
0.050873335 -0.017330477 0.58700001
0.11163715 -0.028136192 0.95300007
-0.13370001 -0.026376192 0.95500004
-0.13188095 -0.026376192 0.95500004
-0.11369048 -0.026376192 0.95500004
-0.088223815 -0.026376192 0.95500004
-0.084585719 -0.026376192 0.95500004
-0.080947623 -0.026376192 0.95500004
-0.014914286 -0.016019048 0.58000004
-0.013809524 -0.016019048 0.58000004
-0.012682858 -0.015991429 0.57900006
-0.011580001 -0.015991429 0.57900006
-0.010477143 -0.015991429 0.57900006
-0.0093580959 -0.015963811 0.57800001
-0.0082285721 -0.015908573 0.57600003
-0.0071190479 -0.015880954 0.57500005
-0.0060028573 -0.015825715 0.57300001
-0.0049028574 -0.015798096 0.57200003
-0.0038066669 -0.015770476 0.57100004
-0.0027142859 -0.015742859 0.57000005
-0.0016257144 -0.01571524 0.56900001
-0.00054095243 -0.01568762 0.56800002
0.00054095243 -0.01568762 0.56800002
0.0016200001 -0.015660001 0.56700003
0.0027000001 -0.015660001 0.56700003
0.0037800001 -0.015660001 0.56700003
0.0048514288 -0.015632382 0.56600004
0.0059295241 -0.015632382 0.56600004
0.0070076194 -0.015632382 0.56600004
0.0080857147 -0.015632382 0.56600004
0.0091476198 -0.015604763 0.565
0.010223811 -0.015604763 0.565
0.0113 -0.015604763 0.565
0.012376191 -0.015604763 0.565
0.013476191 -0.015632382 0.56600004
0.014554286 -0.015632382 0.56600004
0.015632382 -0.015632382 0.56600004
0.016710477 -0.015632382 0.56600004
0.017788572 -0.015632382 0.56600004
0.018866668 -0.015632382 0.56600004
0.019980002 -0.015660001 0.56700003
0.021060001 -0.015660001 0.56700003
0.022140002 -0.015660001 0.56700003
0.023220001 -0.015660001 0.56700003
0.024342859 -0.01568762 0.56800002
0.03369524 -0.016019048 0.58000004
0.034860004 -0.016046667 0.58100003
0.035966668 -0.016046667 0.58100003
0.037073337 -0.016046667 0.58100003
0.038442861 -0.016157145 0.58500004
0.039557144 -0.016157145 0.58500004
0.040671431 -0.016157145 0.58500004
0.041928574 -0.016212381 0.58700001
0.043046668 -0.016212381 0.58700001
0.044164766 -0.016212381 0.58700001
0.045282859 -0.016212381 0.58700001
0.046400957 -0.016212381 0.58700001
0.047519051 -0.016212381 0.58700001
0.048637144 -0.016212381 0.58700001
0.095790483 -0.025961906 0.94000006
-0.087761909 -0.024428573 0.95000005
-0.084142864 -0.024428573 0.95000005
-0.082333341 -0.024428573 0.95000005
-0.080523811 -0.024428573 0.95000005
-0.078714289 -0.024428573 0.95000005
-0.014940001 -0.014940001 0.58100003
-0.013809524 -0.014914286 0.58000004
-0.012704763 -0.014914286 0.58000004
-0.011580001 -0.014888573 0.57900006
-0.010477143 -0.014888573 0.57900006
-0.0093580959 -0.014862858 0.57800001
-0.0082428576 -0.014837144 0.57700002
-0.0071190479 -0.014785715 0.57500005
-0.0059923814 -0.014708572 0.57200003
-0.0049028574 -0.014708572 0.57200003
-0.0038066669 -0.014682858 0.57100004
-0.002709524 -0.01463143 0.56900001
-0.0016257144 -0.01463143 0.56900001
-0.00054095243 -0.014605715 0.56800002
0.00054095243 -0.014605715 0.56800002
0.0016228573 -0.014605715 0.56800002
0.0027047622 -0.014605715 0.56800002
0.0037800001 -0.014580001 0.56700003
0.0048600002 -0.014580001 0.56700003
0.0059400005 -0.014580001 0.56700003
0.0070076194 -0.014554286 0.56600004
0.0080857147 -0.014554286 0.56600004
0.0091638099 -0.014554286 0.56600004
0.010241905 -0.014554286 0.56600004
0.0113 -0.014528573 0.565
0.012398096 -0.014554286 0.56600004
0.013476191 -0.014554286 0.56600004
0.014554286 -0.014554286 0.56600004
0.015632382 -0.014554286 0.56600004
0.016710477 -0.014554286 0.56600004
0.017820001 -0.014580001 0.56700003
0.018866668 -0.014554286 0.56600004
0.019980002 -0.014580001 0.56700003
0.021060001 -0.014580001 0.56700003
0.022140002 -0.014580001 0.56700003
0.023220001 -0.014580001 0.56700003
0.024342859 -0.014605715 0.56800002
0.0348 -0.014914286 0.58000004
0.035966668 -0.014940001 0.58100003
0.037073337 -0.014940001 0.58100003
0.038442861 -0.015042858 0.58500004
0.039692383 -0.015094287 0.58700001
0.040740956 -0.015068572 0.58600003
0.041928574 -0.015094287 0.58700001
0.043046668 -0.015094287 0.58700001
0.044164766 -0.015094287 0.58700001
0.045282859 -0.015094287 0.58700001
0.046321906 -0.015068572 0.58600003
0.0474381 -0.015068572 0.58600003
0.048637144 -0.015094287 0.58700001
0.095790483 -0.024171431 0.94000006
0.09778858 -0.024222858 0.94200003
-0.087577149 -0.02257143 0.94800007
-0.083965719 -0.02257143 0.94800007
-0.082160003 -0.02257143 0.94800007
-0.080100007 -0.022500001 0.94500005
-0.078300007 -0.022500001 0.94500005
-0.076257147 -0.022428572 0.94200003
-0.074700005 -0.022500001 0.94500005
-0.014940001 -0.013833335 0.58100003
-0.013809524 -0.013809524 0.58000004
-0.012704763 -0.013809524 0.58000004
-0.011580001 -0.013785715 0.57900006
-0.010477143 -0.013785715 0.57900006
-0.0093580959 -0.013761906 0.57800001
-0.0082428576 -0.013738096 0.57700002
-0.0071438099 -0.013738096 0.57700002
-0.0060028573 -0.013642858 0.57300001
-0.0049114288 -0.013642858 0.57300001
-0.0038133336 -0.013619049 0.57200003
-0.0027142859 -0.013571429 0.57000005
-0.0016257144 -0.01354762 0.56900001
-0.00054095243 -0.013523811 0.56800002
0.00054095243 -0.013523811 0.56800002
0.0016228573 -0.013523811 0.56800002
0.0027047622 -0.013523811 0.56800002
0.0037800001 -0.013500001 0.56700003
0.0048600002 -0.013500001 0.56700003
0.0059400005 -0.013500001 0.56700003
0.0070200004 -0.013500001 0.56700003
0.0081000002 -0.013500001 0.56700003
0.0091638099 -0.013476191 0.56600004
0.010241905 -0.013476191 0.56600004
0.011320001 -0.013476191 0.56600004
0.012398096 -0.013476191 0.56600004
0.013476191 -0.013476191 0.56600004
0.014554286 -0.013476191 0.56600004
0.015632382 -0.013476191 0.56600004
0.016710477 -0.013476191 0.56600004
0.017820001 -0.013500001 0.56700003
0.018900001 -0.013500001 0.56700003
0.019980002 -0.013500001 0.56700003
0.021060001 -0.013500001 0.56700003
0.022140002 -0.013500001 0.56700003
0.023220001 -0.013500001 0.56700003
0.024342859 -0.013523811 0.56800002
0.029175241 -0.013761906 0.57800001
0.030276192 -0.013761906 0.57800001
0.031377144 -0.013761906 0.57800001
0.032478098 -0.013761906 0.57800001
0.033753335 -0.013833335 0.58100003
0.034860004 -0.013833335 0.58100003
0.035966668 -0.013833335 0.58100003
0.037137147 -0.013857144 0.58200002
0.038508575 -0.013952382 0.58600003
0.039692383 -0.013976191 0.58700001
0.040810481 -0.013976191 0.58700001
0.041928574 -0.013976191 0.58700001
0.043120004 -0.014000001 0.588
0.044240002 -0.014000001 0.588
0.045282859 -0.013976191 0.58700001
0.046400957 -0.013976191 0.58700001
0.047519051 -0.013976191 0.58700001
0.048637144 -0.013976191 0.58700001
0.095484771 -0.022309525 0.93700004
0.097580962 -0.022380954 0.94000006
0.099582866 -0.022428572 0.94200003
0.10496572 -0.022428572 0.94200003
-0.087022863 -0.020634288 0.94200003
-0.079845719 -0.020634288 0.94200003
-0.077885717 -0.020590477 0.94000006
-0.076095246 -0.020590477 0.94000006
-0.074304767 -0.020590477 0.94000006
-0.072668575 -0.020634288 0.94200003
-0.070498101 -0.020524763 0.93700004
-0.016129525 -0.012792381 0.58400005
-0.014940001 -0.012726667 0.58100003
-0.013809524 -0.012704763 0.58000004
-0.012704763 -0.012704763 0.58000004
-0.011600001 -0.012704763 0.58000004
-0.010459049 -0.012660953 0.57800001
-0.0093419058 -0.012639049 0.57700002
-0.0082428576 -0.012639049 0.57700002
-0.0071438099 -0.012639049 0.57700002
-0.0059923814 -0.012529525 0.57200003
-0.0049028574 -0.012529525 0.57200003
-0.0038133336 -0.012529525 0.57200003
-0.0027142859 -0.012485716 0.57000005
-0.0016285715 -0.012485716 0.57000005
-0.00054190482 -0.01246381 0.56900001
0.00054095243 -0.012441905 0.56800002
0.0016228573 -0.012441905 0.56800002
0.0027047622 -0.012441905 0.56800002
0.0037800001 -0.012420001 0.56700003
0.0048600002 -0.012420001 0.56700003
0.0059400005 -0.012420001 0.56700003
0.0070200004 -0.012420001 0.56700003
0.0081000002 -0.012420001 0.56700003
0.009180001 -0.012420001 0.56700003
0.010260001 -0.012420001 0.56700003
0.011340001 -0.012420001 0.56700003
0.012420001 -0.012420001 0.56700003
0.013500001 -0.012420001 0.56700003
0.014580001 -0.012420001 0.56700003
0.015660001 -0.012420001 0.56700003
0.016710477 -0.012398096 0.56600004
0.017820001 -0.012420001 0.56700003
0.018900001 -0.012420001 0.56700003
0.019980002 -0.012420001 0.56700003
0.021060001 -0.012420001 0.56700003
0.022140002 -0.012420001 0.56700003
0.023220001 -0.012420001 0.56700003
0.024342859 -0.012441905 0.56800002
0.025424764 -0.012441905 0.56800002
0.027977144 -0.012617144 0.57600003
0.029124765 -0.012639049 0.57700002
0.030223811 -0.012639049 0.57700002
0.031322859 -0.012639049 0.57700002
0.033753335 -0.012726667 0.58100003
0.034860004 -0.012726667 0.58100003
0.035966668 -0.012726667 0.58100003
0.037200954 -0.012770477 0.583
0.038508575 -0.012836191 0.58600003
0.039692383 -0.012858097 0.58700001
0.040810481 -0.012858097 0.58700001
0.041928574 -0.012858097 0.58700001
0.043120004 -0.012880001 0.588
0.044240002 -0.012880001 0.588
0.045360003 -0.012880001 0.588
0.046400957 -0.012858097 0.58700001
0.047519051 -0.012858097 0.58700001
0.048637144 -0.012858097 0.58700001
0.095484771 -0.020524763 0.93700004
-0.086838104 -0.018800002 0.94000006
-0.079676196 -0.018800002 0.94000006
-0.077885717 -0.018800002 0.94000006
-0.076095246 -0.018800002 0.94000006
-0.074304767 -0.018800002 0.94000006
-0.072514288 -0.018800002 0.94000006
-0.070498101 -0.018740002 0.93700004
-0.016129525 -0.01168 0.58400005
-0.014940001 -0.011620001 0.58100003
-0.010477143 -0.011580001 0.57900006
-0.0093580959 -0.01156 0.57800001
-0.0059923814 -0.01144 0.57200003
-0.0049028574 -0.01144 0.57200003
-0.0038133336 -0.01144 0.57200003
-0.0027190477 -0.01142 0.57100004
-0.0016314287 -0.01142 0.57100004
-0.00054190482 -0.011380001 0.56900001
0.00054190482 -0.011380001 0.56900001
0.0016257144 -0.011380001 0.56900001
0.0027047622 -0.011360001 0.56800002
0.003786667 -0.011360001 0.56800002
0.0048685716 -0.011360001 0.56800002
0.0059400005 -0.011340001 0.56700003
0.0070200004 -0.011340001 0.56700003
0.0081000002 -0.011340001 0.56700003
0.009180001 -0.011340001 0.56700003
0.010260001 -0.011340001 0.56700003
0.011340001 -0.011340001 0.56700003
0.012420001 -0.011340001 0.56700003
0.013500001 -0.011340001 0.56700003
0.014580001 -0.011340001 0.56700003
0.015660001 -0.011340001 0.56700003
0.016710477 -0.011320001 0.56600004
0.017820001 -0.011340001 0.56700003
0.018900001 -0.011340001 0.56700003
0.019980002 -0.011340001 0.56700003
0.021060001 -0.011340001 0.56700003
0.022140002 -0.011340001 0.56700003
0.023260955 -0.011360001 0.56800002
0.024342859 -0.011360001 0.56800002
0.025469525 -0.011380001 0.56900001
0.027977144 -0.011520001 0.57600003
0.029124765 -0.01154 0.57700002
0.030223811 -0.01154 0.57700002
0.031322859 -0.01154 0.57700002
0.03369524 -0.011600001 0.58000004
0.034860004 -0.011620001 0.58100003
0.035966668 -0.011620001 0.58100003
0.037200954 -0.01166 0.583
0.038508575 -0.011720001 0.58600003
0.039692383 -0.011740001 0.58700001
0.040810481 -0.011740001 0.58700001
0.042071432 -0.011780001 0.58900005
0.043120004 -0.011760001 0.588
0.044240002 -0.011760001 0.588
0.045360003 -0.011760001 0.588
0.046480004 -0.011760001 0.588
0.047600005 -0.011760001 0.588
0.089953341 -0.018340001 0.91700006
-0.086560957 -0.01695524 0.93700004
-0.077637151 -0.01695524 0.93700004
-0.075852387 -0.01695524 0.93700004
-0.074067622 -0.01695524 0.93700004
-0.072282858 -0.01695524 0.93700004
-0.070347622 -0.016919049 0.93500006
-0.016129525 -0.010567619 0.58400005
-0.014940001 -0.010513334 0.58100003
-0.0093419058 -0.010440953 0.57700002
-0.0059923814 -0.010350477 0.57200003
-0.0049028574 -0.010350477 0.57200003
-0.0038133336 -0.010350477 0.57200003
-0.0027190477 -0.010332381 0.57100004
-0.0016314287 -0.010332381 0.57100004
-0.00054285716 -0.010314287 0.57000005
0.00054190482 -0.010296191 0.56900001
0.0016285715 -0.010314287 0.57000005
0.002709524 -0.010296191 0.56900001
0.003786667 -0.010278095 0.56800002
0.0048685716 -0.010278095 0.56800002
0.005960953 -0.010296191 0.56900001
0.0070323814 -0.010278095 0.56800002
0.0081142867 -0.010278095 0.56800002
0.009180001 -0.010260001 0.56700003
0.010260001 -0.010260001 0.56700003
0.011360001 -0.010278095 0.56800002
0.012420001 -0.010260001 0.56700003
0.013500001 -0.010260001 0.56700003
0.014554286 -0.010241905 0.56600004
0.015632382 -0.010241905 0.56600004
0.016710477 -0.010241905 0.56600004
0.017820001 -0.010260001 0.56700003
0.018900001 -0.010260001 0.56700003
0.019980002 -0.010260001 0.56700003
0.021060001 -0.010260001 0.56700003
0.022140002 -0.010260001 0.56700003
0.023260955 -0.010278095 0.56800002
0.024342859 -0.010278095 0.56800002
0.025514288 -0.010314287 0.57000005
0.026740002 -0.010368573 0.57300001
0.027977144 -0.010422857 0.57600003
0.029124765 -0.010440953 0.57700002
0.030223811 -0.010440953 0.57700002
0.037456192 -0.010621905 0.58700001
0.03857429 -0.010621905 0.58700001
0.039692383 -0.010621905 0.58700001
0.040880002 -0.010640001 0.588
0.042071432 -0.010658096 0.58900005
0.043120004 -0.010640001 0.588
0.044240002 -0.010640001 0.588
0.045360003 -0.010640001 0.588
0.046480004 -0.010640001 0.588
0.047600005 -0.010640001 0.588
0.089953341 -0.016593335 0.91700006
0.091700003 -0.016593335 0.91700006
-0.016157145 -0.0094714295 0.58500004
-0.015042858 -0.0094714295 0.58500004
-0.013952382 -0.0094876196 0.58600003
-0.0059819054 -0.0092447624 0.57100004
-0.0048942859 -0.0092447624 0.57100004
-0.0038133336 -0.0092609534 0.57200003
-0.0027190477 -0.0092447624 0.57100004
-0.0016314287 -0.0092447624 0.57100004
-0.00054380955 -0.0092447624 0.57100004
0.00054285716 -0.0092285722 0.57000005
0.0016314287 -0.0092447624 0.57100004
0.0027142859 -0.0092285722 0.57000005
0.0037933337 -0.0092123812 0.56900001
0.0048771431 -0.0092123812 0.56900001
0.005960953 -0.0092123812 0.56900001
0.0070447624 -0.0092123812 0.56900001
0.0081285723 -0.0092123812 0.56900001
0.0091961911 -0.0091961911 0.56800002
0.010278095 -0.0091961911 0.56800002
0.011360001 -0.0091961911 0.56800002
0.012441905 -0.0091961911 0.56800002
0.013500001 -0.009180001 0.56700003
0.014580001 -0.009180001 0.56700003
0.015660001 -0.009180001 0.56700003
0.016740002 -0.009180001 0.56700003
0.017820001 -0.009180001 0.56700003
0.018900001 -0.009180001 0.56700003
0.019980002 -0.009180001 0.56700003
0.021060001 -0.009180001 0.56700003
0.022140002 -0.009180001 0.56700003
0.023260955 -0.0091961911 0.56800002
0.024342859 -0.0091961911 0.56800002
0.025514288 -0.0092285722 0.57000005
0.026693335 -0.0092609534 0.57200003
0.028872384 -0.0092609534 0.57200003
0.038640004 -0.0095200008 0.588
0.039760001 -0.0095200008 0.588
0.040810481 -0.0095038097 0.58700001
0.042000003 -0.0095200008 0.588
0.043193337 -0.0095361909 0.58900005
0.044240002 -0.0095200008 0.588
0.045360003 -0.0095200008 0.588
0.046480004 -0.0095200008 0.588
0.088206671 -0.014846668 0.91700006
0.090247624 -0.014895239 0.92000002
0.092000008 -0.014895239 0.92000002
-0.0059819054 -0.0081571434 0.57100004
-0.0048942859 -0.0081571434 0.57100004
-0.0038066669 -0.0081571434 0.57100004
-0.0027190477 -0.0081571434 0.57100004
-0.0016314287 -0.0081571434 0.57100004
-0.00054380955 -0.0081571434 0.57100004
0.00054380955 -0.0081571434 0.57100004
0.0016314287 -0.0081571434 0.57100004
0.0027190477 -0.0081571434 0.57100004
0.0038000003 -0.0081428578 0.57000005
0.0048857145 -0.0081428578 0.57000005
0.0059714289 -0.0081428578 0.57000005
0.0070571434 -0.0081428578 0.57000005
0.0081428578 -0.0081428578 0.57000005
0.0092123812 -0.0081285723 0.56900001
0.010278095 -0.0081142867 0.56800002
0.011380001 -0.0081285723 0.56900001
0.012441905 -0.0081142867 0.56800002
0.013523811 -0.0081142867 0.56800002
0.014605715 -0.0081142867 0.56800002
0.01568762 -0.0081142867 0.56800002
0.016740002 -0.0081000002 0.56700003
0.017851429 -0.0081142867 0.56800002
0.018900001 -0.0081000002 0.56700003
0.02001524 -0.0081142867 0.56800002
0.021097144 -0.0081142867 0.56800002
0.022179049 -0.0081142867 0.56800002
0.023260955 -0.0081142867 0.56800002
0.024385717 -0.0081285723 0.56900001
0.025559049 -0.0081571434 0.57100004
0.026693335 -0.0081714289 0.57200003
0.027782859 -0.0081714289 0.57200003
0.034980003 -0.0083285719 0.583
0.037775241 -0.0084571438 0.59200001
0.038640004 -0.0084000006 0.588
0.039760001 -0.0084000006 0.588
0.040880002 -0.0084000006 0.588
0.042214289 -0.0084428573 0.59100002
0.043266669 -0.0084285717 0.59000003
0.044315241 -0.0084142862 0.58900005
0.045360003 -0.0084000006 0.588
0.046480004 -0.0084000006 0.588
0.086082861 -0.013042858 0.91300005
0.088206671 -0.013100001 0.91700006
0.090247624 -0.013142858 0.92000002
0.092200004 -0.01317143 0.92200005
-0.0059714289 -0.0070571434 0.57000005
-0.0048857145 -0.0070571434 0.57000005
-0.0038066669 -0.0070695244 0.57100004
-0.0027190477 -0.0070695244 0.57100004
-0.0016314287 -0.0070695244 0.57100004
-0.00054380955 -0.0070695244 0.57100004
0.00054380955 -0.0070695244 0.57100004
0.0016342858 -0.0070819054 0.57200003
0.0027190477 -0.0070695244 0.57100004
0.0038066669 -0.0070695244 0.57100004
0.0048942859 -0.0070695244 0.57100004
0.0059819054 -0.0070695244 0.57100004
0.0070571434 -0.0070571434 0.57000005
0.0081428578 -0.0070571434 0.57000005
0.0092123812 -0.0070447624 0.56900001
0.010296191 -0.0070447624 0.56900001
0.011380001 -0.0070447624 0.56900001
0.012441905 -0.0070323814 0.56800002
0.013523811 -0.0070323814 0.56800002
0.014605715 -0.0070323814 0.56800002
0.01568762 -0.0070323814 0.56800002
0.016769525 -0.0070323814 0.56800002
0.017851429 -0.0070323814 0.56800002
0.018933335 -0.0070323814 0.56800002
0.02001524 -0.0070323814 0.56800002
0.021097144 -0.0070323814 0.56800002
0.022179049 -0.0070323814 0.56800002
0.023301907 -0.0070447624 0.56900001
0.024385717 -0.0070447624 0.56900001
0.025514288 -0.0070571434 0.57000005
0.026693335 -0.0070819054 0.57200003
0.027782859 -0.0070819054 0.57200003
0.028821906 -0.0070695244 0.57100004
0.03281524 -0.0072304765 0.58400005
0.033869527 -0.0072180959 0.583
0.034980003 -0.0072180959 0.583
0.036152385 -0.0072304765 0.58400005
0.037775241 -0.0073295245 0.59200001
0.03890286 -0.0073295245 0.59200001
0.040030479 -0.0073295245 0.59200001
0.041158099 -0.0073295245 0.59200001
0.042214289 -0.0073171435 0.59100002
0.043340001 -0.0073171435 0.59100002
0.044315241 -0.0072923815 0.58900005
0.045360003 -0.0072800005 0.588
0.046480004 -0.0072800005 0.588
0.088206671 -0.011353334 0.91700006
0.090247624 -0.011390476 0.92000002
0.092200004 -0.011415238 0.92200005
-0.0059819054 -0.0059819054 0.57100004
-0.0048942859 -0.0059819054 0.57100004
-0.0038133336 -0.0059923814 0.57200003
-0.0027238098 -0.0059923814 0.57200003
-0.0016342858 -0.0059923814 0.57200003
-0.00054476195 -0.0059923814 0.57200003
0.00054476195 -0.0059923814 0.57200003
0.0016342858 -0.0059923814 0.57200003
0.0027238098 -0.0059923814 0.57200003
0.0038066669 -0.0059819054 0.57100004
0.0048942859 -0.0059819054 0.57100004
0.0059819054 -0.0059819054 0.57100004
0.0070695244 -0.0059819054 0.57100004
0.0081428578 -0.0059714289 0.57000005
0.0092285722 -0.0059714289 0.57000005
0.010314287 -0.0059714289 0.57000005
0.011400001 -0.0059714289 0.57000005
0.01246381 -0.005960953 0.56900001
0.01354762 -0.005960953 0.56900001
0.014657144 -0.0059714289 0.57000005
0.015742859 -0.0059714289 0.57000005
0.016828572 -0.0059714289 0.57000005
0.017914288 -0.0059714289 0.57000005
0.018966667 -0.005960953 0.56900001
0.020050477 -0.005960953 0.56900001
0.021134287 -0.005960953 0.56900001
0.022218097 -0.005960953 0.56900001
0.023301907 -0.005960953 0.56900001
0.024385717 -0.005960953 0.56900001
0.025514288 -0.0059714289 0.57000005
0.026646668 -0.0059819054 0.57100004
0.027734287 -0.0059819054 0.57100004
0.03281524 -0.0061180955 0.58400005
0.033927619 -0.0061180955 0.58400005
0.035040002 -0.0061180955 0.58400005
0.036400001 -0.0061600003 0.588
0.037520003 -0.0061600003 0.588
0.038837146 -0.0061914288 0.59100002
0.039962858 -0.0061914288 0.59100002
0.041088574 -0.0061914288 0.59100002
0.042214289 -0.0061914288 0.59100002
0.043340001 -0.0061914288 0.59100002
0.044390481 -0.0061809528 0.59000003
0.045360003 -0.0061600003 0.588
0.046480004 -0.0061600003 0.588
0.084066674 -0.0095333336 0.91000003
0.085800007 -0.0095333336 0.91000003
0.08753334 -0.0095333336 0.91000003
0.089757152 -0.0095857149 0.91500002
0.091700003 -0.0096066669 0.91700006
0.093446672 -0.0096066669 0.91700006
-0.0027285716 -0.0049114288 0.57300001
-0.0016400001 -0.0049200002 0.574
-0.00054571434 -0.0049114288 0.57300001
0.00054666668 -0.0049200002 0.574
0.001637143 -0.0049114288 0.57300001
0.0027285716 -0.0049114288 0.57300001
0.0038133336 -0.0049028574 0.57200003
0.0049028574 -0.0049028574 0.57200003
0.0059923814 -0.0049028574 0.57200003
0.0070695244 -0.0048942859 0.57100004
0.0081571434 -0.0048942859 0.57100004
0.0092285722 -0.0048857145 0.57000005
0.010314287 -0.0048857145 0.57000005
0.011400001 -0.0048857145 0.57000005
0.012485716 -0.0048857145 0.57000005
0.013571429 -0.0048857145 0.57000005
0.014657144 -0.0048857145 0.57000005
0.015770476 -0.0048942859 0.57100004
0.016858097 -0.0048942859 0.57100004
0.017945716 -0.0048942859 0.57100004
0.019033335 -0.0048942859 0.57100004
0.020120954 -0.0048942859 0.57100004
0.021208573 -0.0048942859 0.57100004
0.022257144 -0.0048857145 0.57000005
0.023342859 -0.0048857145 0.57000005
0.024428573 -0.0048857145 0.57000005
0.025514288 -0.0048857145 0.57000005
0.026646668 -0.0048942859 0.57100004
0.027734287 -0.0048942859 0.57100004
0.030590478 -0.0050057145 0.58400005
0.032871429 -0.0050142859 0.58500004
0.033985715 -0.0050142859 0.58500004
0.035160001 -0.0050228573 0.58600003
0.036400001 -0.0050400002 0.588
0.03764762 -0.005057143 0.59000003
0.038837146 -0.0050657145 0.59100002
0.039962858 -0.0050657145 0.59100002
0.041088574 -0.0050657145 0.59100002
0.042214289 -0.0050657145 0.59100002
0.043340001 -0.0050657145 0.59100002
0.045591433 -0.0050657145 0.59100002
0.046796195 -0.0050742859 0.59200001
0.086082861 -0.0078257145 0.91300005
0.087821908 -0.0078257145 0.91300005
0.089560956 -0.0078257145 0.91300005
0.091500007 -0.0078428574 0.91500002
0.093242861 -0.0078428574 0.91500002
-0.068993337 -0.0061133336 0.91700006
-0.0016400001 -0.0038266669 0.574
-0.00054666668 -0.0038266669 0.574
0.00054666668 -0.0038266669 0.574
0.0016400001 -0.0038266669 0.574
0.0027333335 -0.0038266669 0.574
0.0038200002 -0.0038200002 0.57300001
0.0049028574 -0.0038133336 0.57200003
0.0059923814 -0.0038133336 0.57200003
0.0070819054 -0.0038133336 0.57200003
0.0081571434 -0.0038066669 0.57100004
0.0092447624 -0.0038066669 0.57100004
0.010332381 -0.0038066669 0.57100004
0.01142 -0.0038066669 0.57100004
0.01250762 -0.0038066669 0.57100004
0.013595239 -0.0038066669 0.57100004
0.014682858 -0.0038066669 0.57100004
0.015798096 -0.0038133336 0.57200003
0.016858097 -0.0038066669 0.57100004
0.017945716 -0.0038066669 0.57100004
0.019033335 -0.0038066669 0.57100004
0.020120954 -0.0038066669 0.57100004
0.021208573 -0.0038066669 0.57100004
0.022296192 -0.0038066669 0.57100004
0.023383811 -0.0038066669 0.57100004
0.02447143 -0.0038066669 0.57100004
0.025559049 -0.0038066669 0.57100004
0.026693335 -0.0038133336 0.57200003
0.029478097 -0.0038933335 0.58400005
0.030590478 -0.0038933335 0.58400005
0.031702857 -0.0038933335 0.58400005
0.032871429 -0.0039000004 0.58500004
0.033985715 -0.0039000004 0.58500004
0.035160001 -0.0039066668 0.58600003
0.036400001 -0.00392 0.588
0.03764762 -0.0039333338 0.59000003
0.038837146 -0.0039400002 0.59100002
0.039962858 -0.0039400002 0.59100002
0.041158099 -0.0039466671 0.59200001
0.042285718 -0.0039466671 0.59200001
0.043413337 -0.0039466671 0.59200001
0.044540957 -0.0039466671 0.59200001
0.045668576 -0.0039466671 0.59200001
0.08753334 -0.0060666669 0.91000003
0.089266673 -0.0060666669 0.91000003
-0.00054666668 -0.0027333335 0.574
0.00054761907 -0.0027380954 0.57500005
0.0016400001 -0.0027333335 0.574
0.0027333335 -0.0027333335 0.574
0.0038200002 -0.0027285716 0.57300001
0.0049114288 -0.0027285716 0.57300001
0.0060028573 -0.0027285716 0.57300001
0.0070819054 -0.0027238098 0.57200003
0.0081714289 -0.0027238098 0.57200003
0.0092447624 -0.0027190477 0.57100004
0.010332381 -0.0027190477 0.57100004
0.01142 -0.0027190477 0.57100004
0.01250762 -0.0027190477 0.57100004
0.013595239 -0.0027190477 0.57100004
0.014708572 -0.0027238098 0.57200003
0.015798096 -0.0027238098 0.57200003
0.01688762 -0.0027238098 0.57200003
0.017945716 -0.0027190477 0.57100004
0.019033335 -0.0027190477 0.57100004
0.020120954 -0.0027190477 0.57100004
0.021208573 -0.0027190477 0.57100004
0.022296192 -0.0027190477 0.57100004
0.023342859 -0.0027142859 0.57000005
0.024385717 -0.002709524 0.56900001
0.025469525 -0.002709524 0.56900001
0.029478097 -0.0027809525 0.58400005
0.030590478 -0.0027809525 0.58400005
0.031702857 -0.0027809525 0.58400005
0.03281524 -0.0027809525 0.58400005
0.033985715 -0.0027857146 0.58500004
0.035100002 -0.0027857146 0.58500004
0.036276191 -0.0027904764 0.58600003
0.03764762 -0.0028095241 0.59000003
0.038837146 -0.0028142859 0.59100002
0.039962858 -0.0028142859 0.59100002
0.041158099 -0.0028190478 0.59200001
0.042285718 -0.0028190478 0.59200001
0.043413337 -0.0028190478 0.59200001
0.044540957 -0.0028190478 0.59200001
0.045668576 -0.0028190478 0.59200001
-0.068466671 -0.0026000002 0.91000003
-0.00054761907 -0.0016428572 0.57500005
0.00054761907 -0.0016428572 0.57500005
0.0016428572 -0.0016428572 0.57500005
0.0027333335 -0.0016400001 0.574
0.0038200002 -0.001637143 0.57300001
0.0049114288 -0.001637143 0.57300001
0.0060028573 -0.001637143 0.57300001
0.0070819054 -0.0016342858 0.57200003
0.0081714289 -0.0016342858 0.57200003
0.0092609534 -0.0016342858 0.57200003
0.010350477 -0.0016342858 0.57200003
0.01144 -0.0016342858 0.57200003
0.012529525 -0.0016342858 0.57200003
0.013619049 -0.0016342858 0.57200003
0.014708572 -0.0016342858 0.57200003
0.015798096 -0.0016342858 0.57200003
0.01688762 -0.0016342858 0.57200003
0.017945716 -0.0016314287 0.57100004
0.019033335 -0.0016314287 0.57100004
0.020120954 -0.0016314287 0.57100004
0.021208573 -0.0016314287 0.57100004
0.022296192 -0.0016314287 0.57100004
0.023342859 -0.0016285715 0.57000005
0.02447143 -0.0016314287 0.57100004
0.025559049 -0.0016314287 0.57100004
0.028365716 -0.0016685715 0.58400005
0.029478097 -0.0016685715 0.58400005
0.030590478 -0.0016685715 0.58400005
0.031702857 -0.0016685715 0.58400005
0.03281524 -0.0016685715 0.58400005
0.033927619 -0.0016685715 0.58400005
0.035040002 -0.0016685715 0.58400005
0.036214288 -0.0016714287 0.58500004
0.038837146 -0.0016885715 0.59100002
0.039962858 -0.0016885715 0.59100002
0.041158099 -0.0016914287 0.59200001
0.042285718 -0.0016914287 0.59200001
0.043413337 -0.0016914287 0.59200001
0.044465717 -0.0016885715 0.59100002
0.045591433 -0.0016885715 0.59100002
-0.066366673 -0.00086190482 0.90500003
0.00054761907 -0.00054761907 0.57500005
0.0016428572 -0.00054761907 0.57500005
0.0027380954 -0.00054761907 0.57500005
0.0038266669 -0.00054666668 0.574
0.0049200002 -0.00054666668 0.574
0.0060133338 -0.00054666668 0.574
0.0070942864 -0.00054571434 0.57300001
0.0081714289 -0.00054476195 0.57200003
0.0092771435 -0.00054571434 0.57300001
0.010368573 -0.00054571434 0.57300001
0.011460001 -0.00054571434 0.57300001
0.01255143 -0.00054571434 0.57300001
0.013619049 -0.00054476195 0.57200003
0.014708572 -0.00054476195 0.57200003
0.015798096 -0.00054476195 0.57200003
0.01688762 -0.00054476195 0.57200003
0.017945716 -0.00054380955 0.57100004
0.019033335 -0.00054380955 0.57100004
0.020120954 -0.00054380955 0.57100004
0.021208573 -0.00054380955 0.57100004
0.022296192 -0.00054380955 0.57100004
0.023383811 -0.00054380955 0.57100004
0.02447143 -0.00054380955 0.57100004
0.025559049 -0.00054380955 0.57100004
0.029478097 -0.0005561905 0.58400005
0.030590478 -0.0005561905 0.58400005
0.031702857 -0.0005561905 0.58400005
0.03281524 -0.0005561905 0.58400005
0.033985715 -0.00055714289 0.58500004
0.035040002 -0.0005561905 0.58400005
0.039962858 -0.0005628572 0.59100002
0.041088574 -0.0005628572 0.59100002
0.042285718 -0.00056380953 0.59200001
0.043413337 -0.00056380953 0.59200001
0.044540957 -0.00056380953 0.59200001
0.045668576 -0.00056380953 0.59200001
-0.067940004 0.00086000003 0.90300006
-0.066073336 0.0008580953 0.90100002
0.00054857146 0.00054857146 0.57600003
0.0016428572 0.00054761907 0.57500005
0.0027380954 0.00054761907 0.57500005
0.0038333335 0.00054761907 0.57500005
0.0049200002 0.00054666668 0.574
0.0060133338 0.00054666668 0.574
0.0071066669 0.00054666668 0.574
0.008200001 0.00054666668 0.574
0.0092933336 0.00054666668 0.574
0.010386667 0.00054666668 0.574
0.011480001 0.00054666668 0.574
0.012573334 0.00054666668 0.574
0.013666668 0.00054666668 0.574
0.014734287 0.00054571434 0.57300001
0.015825715 0.00054571434 0.57300001
0.016917145 0.00054571434 0.57300001
0.017977145 0.00054476195 0.57200003
0.019066667 0.00054476195 0.57200003
0.020120954 0.00054380955 0.57100004
0.021245716 0.00054476195 0.57200003
0.022335239 0.00054476195 0.57200003
0.023424763 0.00054476195 0.57200003
0.024557145 0.00054571434 0.57300001
0.02560381 0.00054476195 0.57200003
0.030590478 0.0005561905 0.58400005
0.031702857 0.0005561905 0.58400005
0.03281524 0.0005561905 0.58400005
0.034043811 0.00055809529 0.58600003
0.042285718 0.00056380953 0.59200001
0.043413337 0.00056380953 0.59200001
0.044540957 0.00056380953 0.59200001
0.045591433 0.0005628572 0.59100002
-0.067789525 0.002574286 0.90100002
-0.066073336 0.002574286 0.90100002
-0.064357147 0.002574286 0.90100002
0.0027380954 0.0016428572 0.57500005
0.0038133336 0.0016342858 0.57200003
0.0049028574 0.0016342858 0.57200003
0.0059923814 0.0016342858 0.57200003
0.0071066669 0.0016400001 0.574
0.008200001 0.0016400001 0.574
0.0092933336 0.0016400001 0.574
0.010386667 0.0016400001 0.574
0.011480001 0.0016400001 0.574
0.012573334 0.0016400001 0.574
0.013666668 0.0016400001 0.574
0.014734287 0.001637143 0.57300001
0.015825715 0.001637143 0.57300001
0.01688762 0.0016342858 0.57200003
0.017914288 0.0016285715 0.57000005
0.019000001 0.0016285715 0.57000005
0.020085715 0.0016285715 0.57000005
0.021245716 0.0016342858 0.57200003
0.022335239 0.0016342858 0.57200003
0.023465715 0.001637143 0.57300001
0.024557145 0.001637143 0.57300001
0.02560381 0.0016342858 0.57200003
0.031702857 0.0016685715 0.58400005
0.032983813 0.0016771429 0.58700001
0.042285718 0.0016914287 0.59200001
0.043413337 0.0016914287 0.59200001
0.044465717 0.0016885715 0.59100002
0.045591433 0.0016885715 0.59100002
0.087893337 0.0025600002 0.89600003
0.0027285716 0.0027285716 0.57300001
0.0038200002 0.0027285716 0.57300001
0.0049114288 0.0027285716 0.57300001
0.0059923814 0.0027238098 0.57200003
0.0070942864 0.0027285716 0.57300001
0.008200001 0.0027333335 0.574
0.0093095247 0.0027380954 0.57500005
0.010404763 0.0027380954 0.57500005
0.011500001 0.0027380954 0.57500005
0.012595239 0.0027380954 0.57500005
0.013666668 0.0027333335 0.574
0.014760001 0.0027333335 0.574
0.015825715 0.0027285716 0.57300001
0.01688762 0.0027238098 0.57200003
0.017914288 0.0027142859 0.57000005
0.019000001 0.0027142859 0.57000005
0.020050477 0.002709524 0.56900001
0.02117143 0.0027142859 0.57000005
0.022257144 0.0027142859 0.57000005
0.023424763 0.0027238098 0.57200003
0.024557145 0.0027285716 0.57300001
0.02560381 0.0027238098 0.57200003
0.0027333335 0.0038266669 0.574
0.0038200002 0.0038200002 0.57300001
0.0049114288 0.0038200002 0.57300001
0.0060028573 0.0038200002 0.57300001
0.0071190479 0.0038333335 0.57500005
0.0082142865 0.0038333335 0.57500005
0.0093095247 0.0038333335 0.57500005
0.010404763 0.0038333335 0.57500005
0.011500001 0.0038333335 0.57500005
0.012595239 0.0038333335 0.57500005
0.013690477 0.0038333335 0.57500005
0.014760001 0.0038266669 0.574
0.015853334 0.0038266669 0.574
0.01688762 0.0038133336 0.57200003
0.017914288 0.0038000003 0.57000005
0.018966667 0.0037933337 0.56900001
0.020050477 0.0037933337 0.56900001
0.021208573 0.0038066669 0.57100004
0.022413334 0.0038266669 0.574
0.023506667 0.0038266669 0.574
0.024600001 0.0038266669 0.574
0.025738098 0.0038333335 0.57500005
0.0049200002 0.0049200002 0.574
0.0060133338 0.0049200002 0.574
0.0071314289 0.0049371431 0.57600003
0.0082285721 0.0049371431 0.57600003
0.0093257148 0.0049371431 0.57600003
0.010422857 0.0049371431 0.57600003
0.011520001 0.0049371431 0.57600003
0.012617144 0.0049371431 0.57600003
0.013714286 0.0049371431 0.57600003
0.014785715 0.0049285716 0.57500005
0.015880954 0.0049285716 0.57500005
0.016946668 0.0049200002 0.574
0.018040001 0.0049200002 0.574
0.019033335 0.0048942859 0.57100004
0.020085715 0.0048857145 0.57000005
0.021245716 0.0049028574 0.57200003
0.022413334 0.0049200002 0.574
0.023547621 0.0049285716 0.57500005
0.024642859 0.0049285716 0.57500005
0.025738098 0.0049285716 0.57500005
-0.063357145 0.0092923818 0.88700002
-0.061667625 0.0092923818 0.88700002
0.0049285716 0.0060238098 0.57500005
0.0060238098 0.0060238098 0.57500005
0.0071314289 0.0060342862 0.57600003
0.0082285721 0.0060342862 0.57600003
0.0093257148 0.0060342862 0.57600003
0.010422857 0.0060342862 0.57600003
0.011520001 0.0060342862 0.57600003
0.012617144 0.0060342862 0.57600003
0.013714286 0.0060342862 0.57600003
0.014785715 0.0060238098 0.57500005
0.015880954 0.0060238098 0.57500005
0.016946668 0.0060133338 0.574
0.018040001 0.0060133338 0.574
0.019033335 0.0059819054 0.57100004
0.020191429 0.0060028573 0.57300001
0.021282859 0.0060028573 0.57300001
0.022413334 0.0060133338 0.574
0.023547621 0.0060238098 0.57500005
0.024642859 0.0060238098 0.57500005
0.025738098 0.0060238098 0.57500005
0.085032389 0.0092609534 0.88400006
0.088400006 0.0092609534 0.88400006
0.090083815 0.0092609534 0.88400006
0.091767624 0.0092609534 0.88400006
-0.064826667 0.010944762 0.88400006
-0.063142858 0.010944762 0.88400006
-0.061459053 0.010944762 0.88400006
0.002757143 0.0071685719 0.57900006
0.0038600003 0.0071685719 0.57900006
0.0049628573 0.0071685719 0.57900006
0.0060447622 0.0071438099 0.57700002
0.0071438099 0.0071438099 0.57700002
0.0082428576 0.0071438099 0.57700002
0.0093419058 0.0071438099 0.57700002
0.010440953 0.0071438099 0.57700002
0.01154 0.0071438099 0.57700002
0.012617144 0.0071314289 0.57600003
0.013714286 0.0071314289 0.57600003
0.014811429 0.0071314289 0.57600003
0.015908573 0.0071314289 0.57600003
0.017005716 0.0071314289 0.57600003
0.018102858 0.0071314289 0.57600003
0.019200001 0.0071314289 0.57600003
-0.064680003 0.012600001 0.88200003
-0.062857144 0.01257143 0.88000005
-0.061180957 0.01257143 0.88000005
-0.059369527 0.012542858 0.87800002
-0.057828575 0.01257143 0.88000005
-0.056152385 0.01257143 0.88000005
0.0038666669 0.0082857152 0.58000004
0.0049714288 0.0082857152 0.58000004
0.0060657146 0.0082714288 0.57900006
0.0071685719 0.0082714288 0.57900006
0.0082714288 0.0082714288 0.57900006
0.0093580959 0.0082571432 0.57800001
0.010459049 0.0082571432 0.57800001
0.011520001 0.0082285721 0.57600003
0.012617144 0.0082285721 0.57600003
0.013714286 0.0082285721 0.57600003
0.014811429 0.0082285721 0.57600003
0.015908573 0.0082285721 0.57600003
0.016976191 0.0082142865 0.57500005
0.01807143 0.0082142865 0.57500005
0.019033335 0.0081571434 0.57100004
-0.062714286 0.014215239 0.87800002
-0.06104191 0.014215239 0.87800002
-0.05916667 0.014166668 0.87500006
-0.057697147 0.014215239 0.87800002
-0.056024764 0.014215239 0.87800002
-0.054166671 0.014166668 0.87500006
0.002757143 0.009374286 0.57900006
0.0038733336 0.0094066672 0.58100003
0.0049714288 0.0093904771 0.58000004
0.0060761911 0.0093904771 0.58000004
0.0071685719 0.009374286 0.57900006
0.0082714288 0.009374286 0.57900006
0.009374286 0.009374286 0.57900006
0.010477143 0.009374286 0.57900006
0.01156 0.0093580959 0.57800001
0.012617144 0.0093257148 0.57600003
0.013714286 0.0093257148 0.57600003
0.014811429 0.0093257148 0.57600003
0.015908573 0.0093257148 0.57600003
