# .PCD v0.7 - Point Cloud Data file format
VERSION 0.7
FIELDS x y z
SIZE 4 4 4
TYPE F F F
COUNT 1 1 1
WIDTH 1356
HEIGHT 1
VIEWPOINT 0 0 0 1 0 0 0
POINTS 1356
DATA ascii
-0.011700001 0.058500003 0.81900007
-0.010164763 0.058642861 0.82100004
-0.008600953 0.058642861 0.82100004
-0.0070371432 0.058642861 0.82100004
0.028285716 0.04714286 0.66000003
0.02954286 0.04714286 0.66000003
0.030846668 0.047214288 0.66100001
0.032057144 0.04714286 0.66000003
0.033364765 0.047214288 0.66100001
0.034623813 0.047214288 0.66100001
0.03588286 0.047214288 0.66100001
0.037198097 0.047285717 0.66200006
0.038400955 0.047214288 0.66100001
0.039600004 0.04714286 0.66000003
0.040919051 0.047214288 0.66100001
0.042114288 0.04714286 0.66000003
0.043371432 0.04714286 0.66000003
0.044628575 0.04714286 0.66000003
0.045746669 0.047000002 0.65800005
0.047000002 0.047000002 0.65800005
-0.10591906 0.056246672 0.76700002
-0.10459429 0.056320004 0.76800001
-0.10313144 0.056320004 0.76800001
-0.1015362 0.056246672 0.76700002
-0.10007524 0.056246672 0.76700002
-0.098357148 0.056100003 0.76500005
-0.096013337 0.05558667 0.75800002
-0.094569527 0.05558667 0.75800002
-0.092880003 0.055440005 0.75600004
-0.091440007 0.055440005 0.75600004
-0.089880958 0.055366669 0.75500005
-0.088442862 0.055366669 0.75500005
-0.087004766 0.055366669 0.75500005
-0.08556667 0.055366669 0.75500005
-0.084462866 0.05558667 0.75800002
-0.083019055 0.05558667 0.75800002
-0.081360005 0.055440005 0.75600004
-0.080131434 0.05558667 0.75800002
-0.078687623 0.05558667 0.75800002
-0.065953337 0.05580667 0.76100004
-0.064503811 0.05580667 0.76100004
-0.06280572 0.05558667 0.75800002
-0.061200004 0.055440005 0.75600004
-0.059760004 0.055440005 0.75600004
-0.058320004 0.055440005 0.75600004
-0.056804765 0.055366669 0.75500005
-0.055440005 0.055440005 0.75600004
0.02954286 0.048400003 0.66000003
0.030846668 0.048473336 0.66100001
0.032057144 0.048400003 0.66000003
0.033314288 0.048400003 0.66000003
0.034623813 0.048473336 0.66100001
0.03588286 0.048473336 0.66100001
0.037141908 0.048473336 0.66100001
0.038400955 0.048473336 0.66100001
0.039660003 0.048473336 0.66100001
0.040919051 0.048473336 0.66100001
0.042114288 0.048400003 0.66000003
0.043371432 0.048400003 0.66000003
0.044628575 0.048400003 0.66000003
0.048400003 0.048400003 0.66000003
-0.10591906 0.057707623 0.76700002
-0.10459429 0.057782862 0.76800001
-0.10313144 0.057782862 0.76800001
-0.10127144 0.057557147 0.76500005
-0.10007524 0.057707623 0.76700002
-0.098100007 0.057406671 0.76300001
-0.095760003 0.056880005 0.75600004
-0.094320007 0.056880005 0.75600004
-0.092757151 0.056804765 0.75500005
-0.091319054 0.056804765 0.75500005
-0.089880958 0.056804765 0.75500005
-0.088442862 0.056804765 0.75500005
-0.087004766 0.056804765 0.75500005
-0.085340008 0.056654289 0.75300002
-0.084240004 0.056880005 0.75600004
-0.082800008 0.056880005 0.75600004
-0.081360005 0.056880005 0.75600004
-0.079920009 0.056880005 0.75600004
-0.078480005 0.056880005 0.75600004
-0.064080007 0.056880005 0.75600004
-0.06280572 0.05703048 0.75800002
-0.061200004 0.056880005 0.75600004
-0.059680957 0.056804765 0.75500005
-0.058242861 0.056804765 0.75500005
-0.056804765 0.056804765 0.75500005
-0.055366669 0.056804765 0.75500005
0.02954286 0.049657147 0.66000003
0.030846668 0.049732383 0.66100001
0.032057144 0.049657147 0.66000003
0.033314288 0.049657147 0.66000003
0.034676194 0.049807623 0.66200006
0.035828575 0.049657147 0.66000003
0.037085716 0.049657147 0.66000003
0.03834286 0.049657147 0.66000003
0.039600004 0.049657147 0.66000003
0.040857144 0.049657147 0.66000003
0.042114288 0.049657147 0.66000003
0.043240003 0.049506672 0.65800005
0.044493336 0.049506672 0.65800005
0.045746669 0.049506672 0.65800005
0.047000002 0.049506672 0.65800005
0.04810667 0.049356192 0.65600002
0.049356192 0.049356192 0.65600002
0.052457146 0.04875429 0.648
-0.10591906 0.059168573 0.76700002
-0.10459429 0.059245717 0.76800001
-0.10299715 0.059168573 0.76700002
-0.10127144 0.059014291 0.76500005
-0.10007524 0.059168573 0.76700002
-0.098100007 0.058860004 0.76300001
-0.095633343 0.058242861 0.75500005
-0.093945719 0.058088575 0.75300002
-0.092511438 0.058088575 0.75300002
-0.090956196 0.058011431 0.75200003
-0.08964286 0.058088575 0.75300002
-0.088208579 0.058088575 0.75300002
-0.086659051 0.058011431 0.75200003
-0.08522667 0.058011431 0.75200003
-0.084128574 0.058242861 0.75500005
-0.082690485 0.058242861 0.75500005
-0.081252389 0.058242861 0.75500005
-0.079814292 0.058242861 0.75500005
-0.064080007 0.058320004 0.75600004
-0.062640004 0.058320004 0.75600004
-0.06111905 0.058242861 0.75500005
-0.059680957 0.058242861 0.75500005
-0.058242861 0.058242861 0.75500005
-0.056654289 0.058088575 0.75300002
-0.055220004 0.058088575 0.75300002
-0.053785719 0.058088575 0.75300002
-0.05249048 0.058242861 0.75500005
0.02807143 0.050528575 0.65500003
0.029408574 0.050682861 0.65700001
0.030660002 0.050682861 0.65700001
0.031960003 0.050760005 0.65800005
0.033213336 0.050760005 0.65800005
0.034571432 0.050914288 0.66000003
0.035828575 0.050914288 0.66000003
0.037085716 0.050914288 0.66000003
0.03834286 0.050914288 0.66000003
0.039600004 0.050914288 0.66000003
0.040857144 0.050914288 0.66000003
0.042114288 0.050914288 0.66000003
0.043240003 0.050760005 0.65800005
0.044493336 0.050760005 0.65800005
0.045746669 0.050760005 0.65800005
0.047000002 0.050760005 0.65800005
0.04810667 0.050605718 0.65600002
0.049280956 0.050528575 0.65500003
0.050374288 0.050374288 0.65300006
0.051460002 0.050220001 0.65100002
0.052619051 0.050142862 0.65000004
0.053857148 0.050142862 0.65000004
0.054925717 0.049988575 0.648
-0.10591906 0.060629528 0.76700002
-0.1044581 0.060629528 0.76700002
-0.097200006 0.059760004 0.75600004
-0.095380008 0.05952286 0.75300002
-0.093820959 0.059443813 0.75200003
-0.092388578 0.059443813 0.75200003
-0.090956196 0.059443813 0.75200003
-0.089523815 0.059443813 0.75200003
-0.088091433 0.059443813 0.75200003
-0.086659051 0.059443813 0.75200003
-0.085000008 0.059285719 0.75000006
-0.080714293 0.059285719 0.75000006
-0.079285719 0.059285719 0.75000006
-0.077649526 0.059127621 0.74800003
-0.064080007 0.059760004 0.75600004
-0.062557146 0.059680957 0.75500005
-0.06111905 0.059680957 0.75500005
-0.059680957 0.059680957 0.75500005
-0.058088575 0.05952286 0.75300002
-0.05657905 0.059443813 0.75200003
-0.055000003 0.059285719 0.75000006
-0.053571433 0.059285719 0.75000006
0.027985716 0.051618099 0.65300006
0.029363811 0.05185524 0.65600002
0.030566668 0.051776193 0.65500003
0.031862859 0.05185524 0.65600002
0.033112384 0.05185524 0.65600002
0.034414288 0.051934291 0.65700001
0.035665717 0.051934291 0.65700001
0.042114288 0.052171431 0.66000003
0.043240003 0.052013338 0.65800005
0.044493336 0.052013338 0.65800005
0.045885716 0.052171431 0.66000003
0.047000002 0.052013338 0.65800005
0.04810667 0.05185524 0.65600002
0.049280956 0.051776193 0.65500003
0.050374288 0.051618099 0.65300006
0.051539052 0.051539052 0.65200001
0.052700002 0.051460002 0.65100002
0.053940002 0.051460002 0.65100002
0.054925717 0.051222861 0.648
-0.095253341 0.060876194 0.75200003
-0.093571432 0.06071429 0.75000006
-0.092142865 0.06071429 0.75000006
-0.090714291 0.06071429 0.75000006
-0.089285724 0.06071429 0.75000006
-0.08785715 0.06071429 0.75000006
-0.063995242 0.06111905 0.75500005
-0.062557146 0.06111905 0.75500005
-0.06111905 0.06111905 0.75500005
-0.059680957 0.06111905 0.75500005
-0.058088575 0.060957149 0.75300002
-0.056654289 0.060957149 0.75300002
-0.055000003 0.06071429 0.75000006
-0.053571433 0.06071429 0.75000006
-0.051239051 0.05966191 0.73700005
-0.049767621 0.059580956 0.73600006
-0.04843143 0.05966191 0.73700005
-0.046963811 0.059580956 0.73600006
-0.0079095243 0.06111905 0.75500005
-0.0064542862 0.060957149 0.75300002
-0.0050200005 0.060957149 0.75300002
0.027985716 0.052861907 0.65300006
0.02931905 0.053023811 0.65500003
0.030566668 0.053023811 0.65500003
0.031814288 0.053023811 0.65500003
0.033061907 0.053023811 0.65500003
0.034309525 0.053023811 0.65500003
0.035014287 0.052214291 0.64500004
0.04198667 0.053266671 0.65800005
0.043240003 0.053266671 0.65800005
0.044493336 0.053266671 0.65800005
0.045746669 0.053266671 0.65800005
0.047000002 0.053266671 0.65800005
0.04810667 0.053104766 0.65600002
0.049280956 0.053023811 0.65500003
0.050374288 0.052861907 0.65300006
0.051618099 0.052861907 0.65300006
0.052861907 0.052861907 0.65300006
0.054105718 0.052861907 0.65300006
-0.095253341 0.062308576 0.75200003
-0.093571432 0.06214286 0.75000006
-0.092388578 0.062308576 0.75200003
-0.090956196 0.062308576 0.75200003
-0.075613335 0.061480004 0.74200004
-0.074200004 0.061480004 0.74200004
-0.072786674 0.061480004 0.74200004
-0.063825719 0.062391434 0.75300002
-0.06214286 0.06214286 0.75000006
-0.060957149 0.062391434 0.75300002
-0.05952286 0.062391434 0.75300002
-0.058088575 0.062391434 0.75300002
-0.05657905 0.062308576 0.75200003
-0.054413337 0.061480004 0.74200004
-0.052785717 0.061231434 0.73900002
-0.051239051 0.061065719 0.73700005
-0.049767621 0.060982861 0.73600006
-0.04843143 0.061065719 0.73700005
-0.046963811 0.060982861 0.73600006
-0.0093228575 0.062391434 0.75300002
-0.0079095243 0.062557146 0.75500005
-0.0064542862 0.062391434 0.75300002
-0.0050200005 0.062391434 0.75300002
0.026619049 0.053857148 0.65000004
0.027900001 0.053940002 0.65100002
0.029184764 0.05402286 0.65200001
0.030380001 0.053940002 0.65100002
0.040671431 0.054437146 0.65700001
0.043174289 0.054437146 0.65700001
0.044425718 0.054437146 0.65700001
0.046928573 0.054437146 0.65700001
0.04810667 0.054354288 0.65600002
0.049280956 0.054271434 0.65500003
0.050528575 0.054271434 0.65500003
0.051618099 0.054105718 0.65300006
0.052861907 0.054105718 0.65300006
0.054105718 0.054105718 0.65300006
0.14461429 0.065871432 0.79500002
0.14612858 0.065871432 0.79500002
-0.079853341 0.062893339 0.74200004
-0.078545719 0.062978096 0.74300003
-0.077026673 0.062893339 0.74200004
-0.075613335 0.062893339 0.74200004
-0.074200004 0.062893339 0.74200004
-0.072786674 0.062893339 0.74200004
-0.064826667 0.063401908 0.74800003
-0.063401908 0.063401908 0.74800003
-0.061977148 0.063401908 0.74800003
-0.060552385 0.063401908 0.74800003
-0.059127621 0.063401908 0.74800003
-0.057857148 0.063571431 0.75000006
-0.055901907 0.062978096 0.74300003
-0.054413337 0.062893339 0.74200004
-0.052857146 0.062723815 0.74000001
-0.051378097 0.06263905 0.73900002
-0.049835242 0.062469527 0.73700005
-0.04843143 0.062469527 0.73700005
-0.047027621 0.062469527 0.73700005
-0.014780001 0.06263905 0.73900002
-0.0093228575 0.063825719 0.75300002
-0.0079095243 0.063995242 0.75500005
-0.006471429 0.063995242 0.75500005
-0.0050333338 0.063995242 0.75500005
-0.0035952383 0.063995242 0.75500005
0.02629143 0.054417148 0.64200002
0.027471431 0.054332383 0.64100003
0.028692383 0.054332383 0.64100003
0.030053336 0.054586671 0.64400005
0.032557145 0.054671433 0.64500004
0.041859049 0.055603813 0.65600002
0.043108575 0.055603813 0.65600002
0.044358097 0.055603813 0.65600002
0.045607623 0.055603813 0.65600002
0.046928573 0.055688575 0.65700001
0.04810667 0.055603813 0.65600002
0.049356192 0.055603813 0.65600002
0.050528575 0.055519052 0.65500003
0.051776193 0.055519052 0.65500003
0.053023811 0.055519052 0.65500003
0.054271434 0.055519052 0.65500003
0.14274001 0.067216195 0.79300004
0.14425048 0.067216195 0.79300004
0.14576097 0.067216195 0.79300004
0.14727144 0.067216195 0.79300004
-0.079853341 0.064306669 0.74200004
-0.078440003 0.064306669 0.74200004
-0.077026673 0.064306669 0.74200004
-0.075613335 0.064306669 0.74200004
-0.074200004 0.064306669 0.74200004
-0.072590478 0.064133339 0.74000001
-0.071373336 0.064306669 0.74200004
-0.069960006 0.064306669 0.74200004
-0.068546668 0.064306669 0.74200004
-0.064566672 0.064566672 0.74500006
-0.063147627 0.064566672 0.74500006
-0.061728574 0.064566672 0.74500006
-0.060309529 0.064566672 0.74500006
-0.058890481 0.064566672 0.74500006
-0.057317145 0.064393334 0.74300003
-0.055901907 0.064393334 0.74300003
-0.054413337 0.064306669 0.74200004
-0.052857146 0.064133339 0.74000001
-0.051378097 0.064046673 0.73900002
-0.049970478 0.064046673 0.73900002
-0.048760004 0.064306669 0.74200004
-0.047410481 0.064393334 0.74300003
-0.046119049 0.064566672 0.74500006
-0.044580001 0.064393334 0.74300003
-0.018951429 0.063873336 0.73700005
-0.01754762 0.063873336 0.73700005
-0.01614381 0.063873336 0.73700005
-0.014720001 0.063786671 0.73600006
-0.013372382 0.064046673 0.73900002
-0.011964763 0.064046673 0.73900002
-0.0093228575 0.065260008 0.75300002
-0.0078885723 0.065260008 0.75300002
-0.006471429 0.065433338 0.75500005
-0.0050333338 0.065433338 0.75500005
-0.0035952383 0.065433338 0.75500005
0.02629143 0.055640005 0.64200002
0.027471431 0.055553336 0.64100003
0.028692383 0.055553336 0.64100003
0.030053336 0.055813339 0.64400005
0.031328574 0.055900004 0.64500004
0.032557145 0.055900004 0.64500004
0.04810667 0.056853335 0.65600002
0.049356192 0.056853335 0.65600002
0.050528575 0.05676667 0.65500003
0.051776193 0.05676667 0.65500003
0.053023811 0.05676667 0.65500003
0.054271434 0.05676667 0.65500003
0.05676667 0.05676667 0.65500003
0.13786002 0.068553336 0.79100001
0.14087334 0.068553336 0.79100001
0.14238001 0.068553336 0.79100001
0.14388667 0.068553336 0.79100001
0.14539334 0.068553336 0.79100001
0.14690001 0.068553336 0.79100001
-0.078440003 0.065720007 0.74200004
-0.076819055 0.065542862 0.74000001
-0.075613335 0.065720007 0.74200004
-0.074200004 0.065720007 0.74200004
-0.072590478 0.065542862 0.74000001
-0.071084768 0.065454289 0.73900002
-0.069960006 0.065720007 0.74200004
-0.068361908 0.065542862 0.74000001
-0.067133337 0.065720007 0.74200004
-0.065720007 0.065720007 0.74200004
-0.064306669 0.065720007 0.74200004
-0.062723815 0.065542862 0.74000001
-0.061314289 0.065542862 0.74000001
-0.06006667 0.065720007 0.74200004
-0.058495242 0.065542862 0.74000001
-0.057085719 0.065542862 0.74000001
-0.055676196 0.065542862 0.74000001
-0.054193337 0.065454289 0.73900002
-0.052785717 0.065454289 0.73900002
-0.051378097 0.065454289 0.73900002
-0.049835242 0.065277144 0.73700005
-0.048760004 0.065720007 0.74200004
-0.047410481 0.065808579 0.74300003
-0.046119049 0.065985717 0.74500006
-0.02032762 0.065188579 0.73600006
-0.018874288 0.065011434 0.73400003
-0.017476192 0.065011434 0.73400003
-0.016078096 0.065011434 0.73400003
-0.014720001 0.065188579 0.73600006
-0.013336191 0.065277144 0.73700005
-0.011964763 0.065454289 0.73900002
-0.010557144 0.065454289 0.73900002
-0.0091866674 0.065720007 0.74200004
-0.0077838101 0.065808579 0.74300003
-0.0064285719 0.066428579 0.75000006
-0.0050133336 0.066605717 0.75200003
-0.0035809525 0.066605717 0.75200003
-0.0021514287 0.066694289 0.75300002
-0.00071714289 0.066694289 0.75300002
0.00071714289 0.066694289 0.75300002
0.0021571431 0.066871434 0.75500005
0.016405715 0.056508575 0.63800001
0.017565716 0.056331433 0.63600004
0.018836191 0.056508575 0.63800001
0.020114288 0.05668572 0.64000005
0.021366669 0.056774288 0.64100003
0.022552382 0.05668572 0.64000005
0.023771429 0.05668572 0.64000005
0.024990479 0.05668572 0.64000005
0.026209526 0.05668572 0.64000005
0.027428573 0.05668572 0.64000005
0.02864762 0.05668572 0.64000005
0.029866669 0.05668572 0.64000005
0.031280003 0.057040002 0.64400005
0.032506667 0.057040002 0.64400005
0.033785716 0.057128575 0.64500004
0.035068575 0.057217147 0.64600003
0.03629905 0.057217147 0.64600003
0.037761908 0.057571433 0.65000004
0.039000001 0.057571433 0.65000004
0.040238097 0.057571433 0.65000004
0.041476194 0.057571433 0.65000004
0.04271429 0.057571433 0.65000004
0.043952383 0.057571433 0.65000004
0.04519048 0.057571433 0.65000004
0.046428576 0.057571433 0.65000004
0.048033338 0.058014289 0.65500003
0.049280956 0.058014289 0.65500003
0.050528575 0.058014289 0.65500003
0.051776193 0.058014289 0.65500003
0.053023811 0.058014289 0.65500003
0.054271434 0.058014289 0.65500003
0.055519052 0.058014289 0.65500003
0.05676667 0.058014289 0.65500003
0.058014289 0.058014289 0.65500003
-0.072590478 0.066952385 0.74000001
-0.071084768 0.066861913 0.73900002
-0.069771431 0.066952385 0.74000001
-0.068546668 0.067133337 0.74200004
-0.067133337 0.067133337 0.74200004
-0.065720007 0.067133337 0.74200004
-0.064306669 0.067133337 0.74200004
-0.062723815 0.066952385 0.74000001
-0.061314289 0.066952385 0.74000001
-0.06006667 0.067133337 0.74200004
-0.058416195 0.066861913 0.73900002
-0.057008576 0.066861913 0.73900002
-0.05545048 0.06668096 0.73700005
-0.054046672 0.06668096 0.73700005
-0.05264286 0.06668096 0.73700005
-0.051239051 0.06668096 0.73700005
-0.020272382 0.066409528 0.73400003
-0.018822858 0.066228576 0.73200005
-0.017428573 0.066228576 0.73200005
-0.016034286 0.066228576 0.73200005
-0.014640001 0.066228576 0.73200005
-0.013318096 0.066590481 0.73600006
-0.011932381 0.06668096 0.73700005
-0.010528572 0.06668096 0.73700005
-0.0091619054 0.066952385 0.74000001
-0.0078047626 0.067404769 0.74500006
-0.0064028576 0.067585722 0.74700004
-0.0049866671 0.067676194 0.74800003
-0.0035809525 0.068038099 0.75200003
-0.0021485717 0.068038099 0.75200003
-0.00071714289 0.068128578 0.75300002
0.00071714289 0.068128578 0.75300002
0.0021228574 0.067223817 0.74300003
0.0035380954 0.067223817 0.74300003
0.0049533336 0.067223817 0.74300003
0.0063428576 0.066952385 0.74000001
0.0077733337 0.067133337 0.74200004
0.013975239 0.057723813 0.63800001
0.016405715 0.057723813 0.63800001
0.017620953 0.057723813 0.63800001
0.018836191 0.057723813 0.63800001
0.020082859 0.057814289 0.63900006
0.021366669 0.057995241 0.64100003
0.022552382 0.057904765 0.64000005
0.023771429 0.057904765 0.64000005
0.024990479 0.057904765 0.64000005
0.026209526 0.057904765 0.64000005
0.027428573 0.057904765 0.64000005
0.02864762 0.057904765 0.64000005
0.029866669 0.057904765 0.64000005
0.031085717 0.057904765 0.64000005
0.032506667 0.05826667 0.64400005
0.033785716 0.058357146 0.64500004
0.035068575 0.058447622 0.64600003
0.036355242 0.058538098 0.64700001
0.037645716 0.058628574 0.648
0.039000001 0.058809526 0.65000004
0.040238097 0.058809526 0.65000004
0.041348573 0.058628574 0.648
0.042582858 0.058628574 0.648
0.043817144 0.058628574 0.648
0.04519048 0.058809526 0.65000004
0.046428576 0.058809526 0.65000004
0.047666669 0.058809526 0.65000004
0.049130481 0.059080955 0.65300006
0.050374288 0.059080955 0.65300006
0.051776193 0.059261907 0.65500003
0.053023811 0.059261907 0.65500003
0.054271434 0.059261907 0.65500003
0.055519052 0.059261907 0.65500003
0.05676667 0.059261907 0.65500003
0.058014289 0.059261907 0.65500003
0.059261907 0.059261907 0.65500003
-0.072296195 0.068084769 0.73700005
-0.071084768 0.068269528 0.73900002
-0.069771431 0.068361908 0.74000001
-0.068361908 0.068361908 0.74000001
-0.067133337 0.068546668 0.74200004
-0.065542862 0.068361908 0.74000001
-0.064133339 0.068361908 0.74000001
-0.06263905 0.068269528 0.73900002
-0.061231434 0.068269528 0.73900002
-0.06006667 0.068546668 0.74200004
-0.058258098 0.068084769 0.73700005
-0.056854289 0.068084769 0.73700005
-0.05545048 0.068084769 0.73700005
-0.053973336 0.067992382 0.73600006
-0.021581907 0.067530483 0.73100001
-0.020189526 0.067530483 0.73100001
-0.018745715 0.067345716 0.72900003
-0.017357145 0.067345716 0.72900003
-0.016012382 0.067530483 0.73100001
-0.014640001 0.067622863 0.73200005
-0.013281906 0.067807622 0.73400003
-0.011932381 0.068084769 0.73700005
-0.010557144 0.068269528 0.73900002
-0.0091619054 0.068361908 0.74000001
-0.0077733337 0.068546668 0.74200004
-0.0063857147 0.068823814 0.74500006
-0.0049800002 0.069008574 0.74700004
-0.0035714288 0.069285721 0.75000006
-0.0021485717 0.06947048 0.75200003
-0.00071619055 0.06947048 0.75200003
0.00071619055 0.06947048 0.75200003
0.0021514287 0.06956286 0.75300002
0.0035380954 0.068639055 0.74300003
0.0049533336 0.068639055 0.74300003
0.0063428576 0.068361908 0.74000001
0.0077733337 0.068546668 0.74200004
0.0091990484 0.068639055 0.74300003
0.017620953 0.058939051 0.63800001
0.018836191 0.058939051 0.63800001
0.020051429 0.058939051 0.63800001
0.021300001 0.059031431 0.63900006
0.022517145 0.059031431 0.63900006
0.023734286 0.059031431 0.63900006
0.024990479 0.059123814 0.64000005
0.026209526 0.059123814 0.64000005
0.027428573 0.059123814 0.64000005
0.02864762 0.059123814 0.64000005
0.029913336 0.059216194 0.64100003
0.031134287 0.059216194 0.64100003
0.032506667 0.059493337 0.64400005
0.033785716 0.059585717 0.64500004
0.035068575 0.0596781 0.64600003
0.03629905 0.0596781 0.64600003
0.037645716 0.05986286 0.648
0.039000001 0.060047623 0.65000004
0.040238097 0.060047623 0.65000004
0.041476194 0.060047623 0.65000004
0.042582858 0.05986286 0.648
0.043817144 0.05986286 0.648
0.04519048 0.060047623 0.65000004
0.046428576 0.060047623 0.65000004
0.047666669 0.060047623 0.65000004
0.048980001 0.060140003 0.65100002
0.050297145 0.060232386 0.65200001
0.051618099 0.060324766 0.65300006
0.053023811 0.060509529 0.65500003
0.054271434 0.060509529 0.65500003
0.055519052 0.060509529 0.65500003
0.056853335 0.060601909 0.65600002
0.058014289 0.060509529 0.65500003
0.059352383 0.060601909 0.65600002
0.060324766 0.060324766 0.65300006
0.06147429 0.060232386 0.65200001
0.062716193 0.060232386 0.65200001
-0.065542862 0.069771431 0.74000001
-0.064046673 0.069677144 0.73900002
-0.06263905 0.069677144 0.73900002
-0.061231434 0.069677144 0.73900002
-0.059823815 0.069677144 0.73900002
-0.058258098 0.069488578 0.73700005
-0.056854289 0.069488578 0.73700005
-0.05545048 0.069488578 0.73700005
-0.053973336 0.06939429 0.73600006
-0.037254289 0.062511429 0.66300005
-0.034728575 0.062511429 0.66300005
-0.021522859 0.068734288 0.72900003
-0.020134287 0.068734288 0.72900003
-0.018720001 0.068640001 0.72800004
-0.017357145 0.068734288 0.72900003
-0.015968572 0.068734288 0.72900003
-0.01462 0.068922862 0.73100001
-0.013281906 0.069205716 0.73400003
-0.011932381 0.069488578 0.73700005
-0.010557144 0.069677144 0.73900002
-0.0091495244 0.069677144 0.73900002
-0.0077733337 0.069960006 0.74200004
-0.0063600005 0.069960006 0.74200004
-0.0049666669 0.070242859 0.74500006
-0.003557143 0.070431434 0.74700004
-0.0021371429 0.070525721 0.74800003
-0.00071428576 0.070714287 0.75000006
0.00070952385 0.070242859 0.74500006
0.0021228574 0.070054293 0.74300003
0.0035380954 0.070054293 0.74300003
0.0049533336 0.070054293 0.74300003
0.0063428576 0.069771431 0.74000001
0.0077733337 0.069960006 0.74200004
0.0091866674 0.069960006 0.74200004
0.017620953 0.060154289 0.63800001
0.018836191 0.060154289 0.63800001
0.020082859 0.060248576 0.63900006
0.021300001 0.060248576 0.63900006
0.022517145 0.060248576 0.63900006
0.023734286 0.060248576 0.63900006
0.02495143 0.060248576 0.63900006
0.026209526 0.060342859 0.64000005
0.027428573 0.060342859 0.64000005
0.02864762 0.060342859 0.64000005
0.029913336 0.060437147 0.64100003
0.031134287 0.060437147 0.64100003
0.033733334 0.060720004 0.64400005
0.034960002 0.060720004 0.64400005
0.036242861 0.060814291 0.64500004
0.041348573 0.061097145 0.648
0.042517144 0.061002862 0.64700001
0.043749526 0.061002862 0.64700001
0.045051433 0.061097145 0.648
0.046428576 0.061285719 0.65000004
0.047520004 0.061097145 0.648
0.048904765 0.061285719 0.65000004
0.050297145 0.06147429 0.65200001
0.051539052 0.06147429 0.65200001
0.052861907 0.061568577 0.65300006
0.054105718 0.061568577 0.65300006
0.055349529 0.061568577 0.65300006
0.05676667 0.061757147 0.65500003
0.058014289 0.061757147 0.65500003
0.059261907 0.061757147 0.65500003
0.060232386 0.06147429 0.65200001
0.06147429 0.06147429 0.65200001
0.062620007 0.061380003 0.65100002
0.063958101 0.06147429 0.65200001
-0.065454289 0.071084768 0.73900002
-0.064046673 0.071084768 0.73900002
-0.062469527 0.070892386 0.73700005
-0.061065719 0.070892386 0.73700005
-0.05966191 0.070892386 0.73700005
-0.058258098 0.070892386 0.73700005
-0.056854289 0.070892386 0.73700005
-0.038517144 0.063774288 0.66300005
-0.037254289 0.063774288 0.66300005
-0.03599143 0.063774288 0.66300005
-0.034728575 0.063774288 0.66300005
-0.033415239 0.063678101 0.66200006
-0.022817144 0.069834292 0.72600001
-0.021434287 0.069834292 0.72600001
-0.020051429 0.069834292 0.72600001
-0.018668573 0.069834292 0.72600001
-0.017333334 0.070026673 0.72800004
-0.015946668 0.070026673 0.72800004
-0.014580001 0.07012286 0.72900003
-0.013245715 0.070411436 0.73200005
-0.011916191 0.070796192 0.73600006
-0.010528572 0.070892386 0.73700005
-0.0091495244 0.071084768 0.73900002
-0.0077523813 0.071180955 0.74000001
-0.0063600005 0.071373336 0.74200004
-0.0049533336 0.07146953 0.74300003
-0.0035380954 0.07146953 0.74300003
-0.0021228574 0.07146953 0.74300003
-0.00070761907 0.07146953 0.74300003
0.00070761907 0.07146953 0.74300003
0.0021228574 0.07146953 0.74300003
0.0035380954 0.07146953 0.74300003
0.0049533336 0.07146953 0.74300003
0.0063600005 0.071373336 0.74200004
0.0077838101 0.07146953 0.74300003
0.0091990484 0.07146953 0.74300003
0.021333335 0.061561909 0.64000005
0.022517145 0.061465718 0.63900006
0.023697145 0.061369527 0.63800001
0.02495143 0.061465718 0.63900006
0.026168574 0.061465718 0.63900006
0.027428573 0.061561909 0.64000005
0.02864762 0.061561909 0.64000005
0.029866669 0.061561909 0.64000005
0.031085717 0.061561909 0.64000005
0.043681908 0.062139053 0.64600003
0.045051433 0.062331434 0.648
0.046285719 0.062331434 0.648
0.047520004 0.062331434 0.648
0.04875429 0.062331434 0.648
0.050142862 0.062523812 0.65000004
0.051460002 0.062620007 0.65100002
0.052780956 0.062716193 0.65200001
0.05402286 0.062716193 0.65200001
0.055349529 0.062812388 0.65300006
0.056593336 0.062812388 0.65300006
0.057837147 0.062812388 0.65300006
0.059261907 0.063004769 0.65500003
0.060232386 0.062716193 0.65200001
0.06147429 0.062716193 0.65200001
0.062620007 0.062620007 0.65100002
0.063860007 0.062620007 0.65100002
0.065100007 0.062620007 0.65100002
-0.065277144 0.072296195 0.73700005
-0.063873336 0.072296195 0.73700005
-0.062469527 0.072296195 0.73700005
-0.061065719 0.072296195 0.73700005
-0.059580956 0.0721981 0.73600006
-0.058179051 0.0721981 0.73600006
-0.039780002 0.065037146 0.66300005
-0.038517144 0.065037146 0.66300005
-0.037198097 0.064939052 0.66200006
-0.035937145 0.064939052 0.66200006
-0.034676194 0.064939052 0.66200006
-0.033415239 0.064939052 0.66200006
-0.032105718 0.064840958 0.66100001
-0.022691431 0.070824765 0.72200006
-0.021345716 0.070922859 0.72300005
-0.019968573 0.070922859 0.72300005
-0.01859143 0.070922859 0.72300005
-0.017261906 0.071119055 0.72500002
-0.015880954 0.071119055 0.72500002
-0.014500001 0.071119055 0.72500002
-0.01322762 0.071707621 0.73100001
-0.011835239 0.071707621 0.73100001
-0.010514286 0.0721981 0.73600006
-0.0091247624 0.072296195 0.73700005
-0.0077419053 0.072492383 0.73900002
-0.0063428576 0.072590478 0.74000001
-0.0049333335 0.072590478 0.74000001
-0.0035333335 0.072786674 0.74200004
-0.0021200001 0.072786674 0.74200004
-0.00070666673 0.072786674 0.74200004
0.00070761907 0.072884768 0.74300003
0.0021228574 0.072884768 0.74300003
0.0035380954 0.072884768 0.74300003
0.0049533336 0.072884768 0.74300003
0.0063428576 0.072590478 0.74000001
0.043614287 0.063271433 0.64500004
0.044912383 0.063369527 0.64600003
0.04621429 0.063467622 0.64700001
0.047446668 0.063467622 0.64700001
0.04867905 0.063467622 0.64700001
0.049911432 0.063467622 0.64700001
0.051222861 0.063565716 0.648
0.052619051 0.063761912 0.65000004
0.053857148 0.063761912 0.65000004
0.055180002 0.063860007 0.65100002
0.056506671 0.063958101 0.65200001
0.057748575 0.063958101 0.65200001
0.059080955 0.064056195 0.65300006
0.060324766 0.064056195 0.65300006
0.06147429 0.063958101 0.65200001
0.062716193 0.063958101 0.65200001
0.063860007 0.063860007 0.65100002
0.065100007 0.063860007 0.65100002
0.066441908 0.063958101 0.65200001
-0.064046673 0.073900007 0.73900002
-0.06263905 0.073900007 0.73900002
-0.061065719 0.073700003 0.73700005
-0.059580956 0.073600002 0.73600006
-0.039780002 0.066300005 0.66300005
-0.038517144 0.066300005 0.66300005
-0.037198097 0.066200003 0.66200006
-0.035937145 0.066200003 0.66200006
-0.034676194 0.066200003 0.66200006
-0.033415239 0.066200003 0.66200006
-0.032105718 0.066100001 0.66100001
-0.030846668 0.066100001 0.66100001
-0.029587621 0.066100001 0.66100001
-0.023966668 0.071900003 0.71900004
-0.022628574 0.072000004 0.72000003
-0.021257143 0.072000004 0.72000003
-0.019885715 0.072000004 0.72000003
-0.018514287 0.072000004 0.72000003
-0.017190477 0.072200008 0.72200006
-0.015837144 0.072300002 0.72300005
-0.014460001 0.072300002 0.72300005
-0.013119048 0.072500005 0.72500002
-0.011754286 0.072600007 0.72600001
-0.010400001 0.072800003 0.72800004
-0.0090628574 0.073200002 0.73200005
-0.007668572 0.073200002 0.73200005
-0.0063085719 0.073600002 0.73600006
-0.0049266671 0.073900007 0.73900002
-0.0035333335 0.074200004 0.74200004
-0.0021200001 0.074200004 0.74200004
-0.00070476194 0.074000008 0.74000001
0.00070666673 0.074200004 0.74200004
0.0021200001 0.074200004 0.74200004
0.0035238098 0.074000008 0.74000001
0.0049333335 0.074000008 0.74000001
0.0063428576 0.074000008 0.74000001
0.043749526 0.064700007 0.64700001
0.044981908 0.064700007 0.64700001
0.046285719 0.064800002 0.648
0.047446668 0.064700007 0.64700001
0.04867905 0.064700007 0.64700001
0.049911432 0.064700007 0.64700001
0.051143814 0.064700007 0.64700001
0.052457146 0.064800002 0.648
0.053691432 0.064800002 0.648
0.054925717 0.064800002 0.648
0.056420002 0.065100007 0.65100002
0.057660002 0.065100007 0.65100002
0.058990479 0.065200001 0.65200001
0.060232386 0.065200001 0.65200001
0.06147429 0.065200001 0.65200001
0.062620007 0.065100007 0.65100002
0.063860007 0.065100007 0.65100002
0.065000005 0.065000005 0.65000004
0.066340007 0.065100007 0.65100002
0.067683816 0.065200001 0.65200001
0.068925716 0.065200001 0.65200001
-0.064566672 0.075919054 0.74500006
-0.062978096 0.075715244 0.74300003
-0.061480004 0.075613335 0.74200004
-0.039780002 0.067562863 0.66300005
-0.038517144 0.067562863 0.66300005
-0.037198097 0.067460954 0.66200006
-0.035937145 0.067460954 0.66200006
-0.034676194 0.067460954 0.66200006
-0.033415239 0.067460954 0.66200006
-0.032105718 0.067359053 0.66100001
-0.030846668 0.067359053 0.66100001
-0.029587621 0.067359053 0.66100001
-0.028285716 0.067257144 0.66000003
-0.026594287 0.072963811 0.71600002
-0.025336193 0.073269531 0.71900004
-0.023900002 0.07306572 0.71700001
-0.022628574 0.073371433 0.72000003
-0.021257143 0.073371433 0.72000003
-0.019885715 0.073371433 0.72000003
-0.018514287 0.073371433 0.72000003
-0.017142858 0.073371433 0.72000003
-0.01577143 0.073371433 0.72000003
-0.014440001 0.073575243 0.72200006
-0.013082858 0.073677145 0.72300005
-0.011705715 0.073677145 0.72300005
-0.010371429 0.073982865 0.72600001
-0.0090257153 0.074288577 0.72900003
-0.0076580956 0.074492387 0.73100001
-0.006291429 0.0747981 0.73400003
-0.0049066669 0.07500191 0.73600006
-0.0035190478 0.075307623 0.73900002
-0.0021114287 0.075307623 0.73900002
-0.00070190482 0.075103812 0.73700005
0.00070380955 0.075307623 0.73900002
0.0021142859 0.075409532 0.74000001
0.0035190478 0.075307623 0.73900002
0.0049333335 0.075409532 0.74000001
0.0061371434 0.072963811 0.71600002
0.043208573 0.065117151 0.63900006
0.044425718 0.065117151 0.63900006
0.04621429 0.065932386 0.64700001
0.047446668 0.065932386 0.64700001
0.04867905 0.065932386 0.64700001
0.049911432 0.065932386 0.64700001
0.051064767 0.065830484 0.64600003
0.052376192 0.065932386 0.64700001
0.053608574 0.065932386 0.64700001
0.054925717 0.066034287 0.648
0.056333337 0.066238098 0.65000004
0.057571433 0.066238098 0.65000004
0.058990479 0.066441908 0.65200001
0.060047623 0.066238098 0.65000004
0.06147429 0.066441908 0.65200001
0.062523812 0.066238098 0.65000004
0.063761912 0.066238098 0.65000004
0.065000005 0.066238098 0.65000004
0.066238098 0.066238098 0.65000004
0.067476198 0.066238098 0.65000004
0.068714291 0.066238098 0.65000004
-0.064740002 0.077545717 0.74700004
-0.062978096 0.077130482 0.74300003
-0.061480004 0.077026673 0.74200004
-0.039900001 0.06903334 0.66500002
-0.038517144 0.068825722 0.66300005
-0.037254289 0.068825722 0.66300005
-0.035937145 0.068721913 0.66200006
-0.034676194 0.068721913 0.66200006
-0.033415239 0.068721913 0.66200006
-0.032105718 0.068618096 0.66100001
-0.030893335 0.068721913 0.66200006
-0.029587621 0.068618096 0.66100001
-0.028285716 0.068514287 0.66000003
-0.027069526 0.068618096 0.66100001
-0.025265716 0.074431434 0.71700001
-0.023900002 0.074431434 0.71700001
-0.022628574 0.074742861 0.72000003
-0.021257143 0.074742861 0.72000003
-0.019858096 0.074639052 0.71900004
-0.018514287 0.074742861 0.72000003
-0.017142858 0.074742861 0.72000003
-0.01577143 0.074742861 0.72000003
-0.014400001 0.074742861 0.72000003
-0.013028572 0.074742861 0.72000003
-0.011657144 0.074742861 0.72000003
-0.010328572 0.075054288 0.72300005
-0.0089885723 0.075365722 0.72600001
-0.0076371431 0.075677149 0.72900003
-0.0062742862 0.075988576 0.73200005
-0.0048933337 0.076196194 0.73400003
-0.0035047622 0.076403812 0.73600006
-0.0021057145 0.076507621 0.73700005
-0.00070095243 0.076403812 0.73600006
0.00070190482 0.076507621 0.73700005
0.0021114287 0.076715246 0.73900002
0.0035190478 0.076715246 0.73900002
0.0048333337 0.075261913 0.72500002
0.0061371434 0.074327625 0.71600002
0.007500953 0.074327625 0.71600002
0.0088400003 0.074120007 0.71400005
0.010185715 0.074016199 0.71300006
0.027171431 0.06581524 0.634
0.028334288 0.065711431 0.63300002
0.043208573 0.066334292 0.63900006
0.04449524 0.066438101 0.64000005
0.046142861 0.067060955 0.64600003
0.047373336 0.067060955 0.64600003
0.048528574 0.066957146 0.64500004
0.049757145 0.066957146 0.64500004
0.050985716 0.066957146 0.64500004
0.052295242 0.067060955 0.64600003
0.053525716 0.067060955 0.64600003
0.054756194 0.067060955 0.64600003
0.056160003 0.067268573 0.648
0.057571433 0.067476198 0.65000004
0.058809526 0.067476198 0.65000004
0.060047623 0.067476198 0.65000004
0.06147429 0.067683816 0.65200001
0.062523812 0.067476198 0.65000004
0.063761912 0.067476198 0.65000004
0.065000005 0.067476198 0.65000004
0.066238098 0.067476198 0.65000004
0.067268573 0.067268573 0.648
0.068714291 0.067476198 0.65000004
-0.066251434 0.079074293 0.74800003
-0.064740002 0.078968577 0.74700004
-0.062978096 0.078545719 0.74300003
-0.061480004 0.078440003 0.74200004
-0.039780002 0.070088573 0.66300005
-0.038517144 0.070088573 0.66300005
-0.037254289 0.070088573 0.66300005
-0.035937145 0.069982864 0.66200006
-0.034676194 0.069982864 0.66200006
-0.033415239 0.069982864 0.66200006
-0.032105718 0.069877148 0.66100001
-0.030846668 0.069877148 0.66100001
-0.02954286 0.069771431 0.66000003
-0.028285716 0.069771431 0.66000003
-0.027069526 0.069877148 0.66100001
-0.025265716 0.075797148 0.71700001
-0.023900002 0.075797148 0.71700001
-0.022534287 0.075797148 0.71700001
-0.021257143 0.076114289 0.72000003
-0.019858096 0.076008573 0.71900004
-0.018488573 0.076008573 0.71900004
-0.017142858 0.076114289 0.72000003
-0.015749525 0.076008573 0.71900004
-0.014380001 0.076008573 0.71900004
-0.013028572 0.076114289 0.72000003
-0.011657144 0.076114289 0.72000003
-0.010328572 0.076431431 0.72300005
-0.0089885723 0.07674858 0.72600001
-0.0076266672 0.076960005 0.72800004
-0.0062485719 0.077065721 0.72900003
-0.0048733335 0.077277146 0.73100001
-0.0034809527 0.077277146 0.73100001
-0.0020914287 0.077382863 0.73200005
-0.00069714291 0.077382863 0.73200005
0.00069142861 0.07674858 0.72600001
0.0020742859 0.07674858 0.72600001
0.0034523811 0.076642863 0.72500002
0.0048333337 0.076642863 0.72500002
0.0061457148 0.075797148 0.71700001
0.007500953 0.075691432 0.71600002
0.0088400003 0.075480007 0.71400005
0.010185715 0.07537429 0.71300006
0.025922859 0.066917144 0.63300002
0.027128574 0.066917144 0.63300002
0.028334288 0.066917144 0.63300002
0.029540002 0.066917144 0.63300002
0.039247621 0.06702286 0.634
0.040455241 0.06702286 0.634
0.041728575 0.067128576 0.63500005
0.042938098 0.067128576 0.63500005
0.044147622 0.067128576 0.63500005
0.046142861 0.068291433 0.64600003
0.047373336 0.068291433 0.64600003
0.048528574 0.068185717 0.64500004
0.049757145 0.068185717 0.64500004
0.050985716 0.068185717 0.64500004
0.052214291 0.068185717 0.64500004
0.053442862 0.068185717 0.64500004
0.054671433 0.068185717 0.64500004
0.055986669 0.068291433 0.64600003
0.057217147 0.068291433 0.64600003
0.058809526 0.068714291 0.65000004
0.060047623 0.068714291 0.65000004
0.061380003 0.068820007 0.65100002
0.062523812 0.068714291 0.65000004
0.063761912 0.068714291 0.65000004
0.065000005 0.068714291 0.65000004
0.066034287 0.068502858 0.648
0.067268573 0.068502858 0.648
0.068714291 0.068714291 0.65000004
-0.070525721 0.080499053 0.74800003
-0.069100954 0.080499053 0.74800003
-0.067857146 0.080714293 0.75000006
-0.066162862 0.080391437 0.74700004
-0.064740002 0.080391437 0.74700004
-0.063147627 0.080176197 0.74500006
-0.061562862 0.079960957 0.74300003
-0.038517144 0.071351431 0.66300005
-0.037254289 0.071351431 0.66300005
-0.035937145 0.071243815 0.66200006
-0.034676194 0.071243815 0.66200006
-0.033415239 0.071243815 0.66200006
-0.032105718 0.071136191 0.66100001
-0.030846668 0.071136191 0.66100001
-0.02954286 0.071028575 0.66000003
-0.028200002 0.070813335 0.65800005
-0.027028574 0.071028575 0.66000003
-0.025693335 0.070813335 0.65800005
-0.023800002 0.076840006 0.71400005
-0.020617144 0.070598103 0.65600002
-0.01936762 0.070598103 0.65600002
-0.019720001 0.076840006 0.71400005
-0.018360002 0.076840006 0.71400005
-0.017047619 0.077055246 0.71600002
-0.015683811 0.077055246 0.71600002
-0.014320001 0.077055246 0.71600002
-0.012956192 0.077055246 0.71600002
-0.011608572 0.077162862 0.71700001
-0.010271429 0.077378102 0.71900004
-0.0089142863 0.077485718 0.72000003
-0.0075638099 0.077700958 0.72200006
-0.0061971433 0.077808574 0.72300005
-0.0048400005 0.078131437 0.72600001
-0.003457143 0.078131437 0.72600001
-0.0020800002 0.07834667 0.72800004
-0.00069142861 0.078131437 0.72600001
0.00069047621 0.078023814 0.72500002
0.0020657144 0.077808574 0.72300005
0.0034285716 0.077485718 0.72000003
0.0047933338 0.077378102 0.71900004
0.0061200005 0.076840006 0.71400005
0.0074695242 0.07673239 0.71300006
0.0088028582 0.07651715 0.71100003
0.010142858 0.076409526 0.71000004
0.011462858 0.076194294 0.708
0.016857143 0.076194294 0.708
0.024678096 0.06801524 0.63200003
0.025881907 0.06801524 0.63200003
0.027128574 0.068122864 0.63300002
0.028334288 0.068122864 0.63300002
0.029493336 0.06801524 0.63200003
0.030697145 0.06801524 0.63200003
0.031900954 0.06801524 0.63200003
0.033052385 0.067907624 0.63100004
0.034254286 0.067907624 0.63100004
0.035456192 0.067907624 0.63100004
0.036658097 0.067907624 0.63100004
0.037860002 0.067907624 0.63100004
0.039123811 0.06801524 0.63200003
0.040263813 0.067907624 0.63100004
0.041465718 0.067907624 0.63100004
0.042667624 0.067907624 0.63100004
0.043869525 0.067907624 0.63100004
0.045071431 0.067907624 0.63100004
0.046346668 0.06801524 0.63200003
0.048453335 0.069306672 0.64400005
0.049448576 0.068983816 0.64100003
0.050669529 0.068983816 0.64100003
0.051971432 0.069091432 0.64200002
0.053194288 0.069091432 0.64200002
0.054417148 0.069091432 0.64200002
0.055640005 0.069091432 0.64200002
0.056508575 0.06866096 0.63800001
0.057723813 0.06866096 0.63800001
0.05977048 0.069629528 0.64700001
0.061097145 0.069737144 0.648
0.062331434 0.069737144 0.648
0.063565716 0.069737144 0.648
0.064700007 0.069629528 0.64700001
0.065830484 0.069521911 0.64600003
0.067060955 0.069521911 0.64600003
0.068291433 0.069521911 0.64600003
0.069414288 0.069414288 0.64500004
-0.070525721 0.081923813 0.74800003
-0.069100954 0.081923813 0.74800003
-0.067857146 0.08214286 0.75000006
-0.066162862 0.081814289 0.74700004
-0.064566672 0.081595242 0.74500006
-0.06331715 0.081814289 0.74700004
-0.03736667 0.072833337 0.66500002
-0.03599143 0.07261429 0.66300005
-0.034728575 0.07261429 0.66300005
-0.033415239 0.072504766 0.66200006
-0.032154288 0.072504766 0.66200006
-0.030846668 0.072395243 0.66100001
-0.029453335 0.072066672 0.65800005
-0.028200002 0.072066672 0.65800005
-0.026946668 0.072066672 0.65800005
-0.025693335 0.072066672 0.65800005
-0.024440002 0.072066672 0.65800005
-0.023116192 0.071847625 0.65600002
-0.021866668 0.071847625 0.65600002
-0.020617144 0.071847625 0.65600002
-0.01936762 0.071847625 0.65600002
-0.018360002 0.078200005 0.71400005
-0.017000001 0.078200005 0.71400005
-0.015640002 0.078200005 0.71400005
-0.014280001 0.078200005 0.71400005
-0.012956192 0.078419052 0.71600002
-0.011592382 0.078419052 0.71600002
-0.010242858 0.078528576 0.71700001
-0.0089019053 0.078747623 0.71900004
-0.0075323815 0.078747623 0.71900004
-0.0048200004 0.079185717 0.72300005
-0.0034428574 0.079185717 0.72300005
-0.0020714288 0.079404764 0.72500002
-0.00068857148 0.079185717 0.72300005
0.00068761909 0.079076193 0.72200006
0.0020628574 0.079076193 0.72200006
0.0034238098 0.078747623 0.71900004
0.0047600004 0.078200005 0.71400005
0.0061114291 0.078090481 0.71300006
0.0074485717 0.077871434 0.71100003
0.0087657152 0.077542864 0.708
0.010100001 0.07743334 0.70700002
0.011414287 0.077214293 0.70500004
0.012739048 0.07710477 0.70400006
0.014100001 0.077214293 0.70500004
0.015552382 0.077761911 0.71000004
0.016857143 0.077542864 0.708
0.018205715 0.077542864 0.708
0.019609526 0.077761911 0.71000004
0.021050477 0.078090481 0.71300006
0.022314288 0.077761911 0.71000004
0.023800002 0.078200005 0.71400005
0.02663143 0.078528576 0.71700001
0.024678096 0.069219053 0.63200003
0.025881907 0.069219053 0.63200003
0.027085716 0.069219053 0.63200003
0.028334288 0.069328576 0.63300002
0.029493336 0.069219053 0.63200003
0.030697145 0.069219053 0.63200003
0.03185048 0.069109529 0.63100004
0.032947622 0.068890482 0.62900001
0.034145717 0.068890482 0.62900001
0.035343811 0.068890482 0.62900001
0.036483813 0.068780959 0.62800002
0.037740003 0.068890482 0.62900001
0.039061908 0.069109529 0.63100004
0.040263813 0.069109529 0.63100004
0.04133429 0.068890482 0.62900001
0.042532384 0.068890482 0.62900001
0.043869525 0.069109529 0.63100004
0.045071431 0.069109529 0.63100004
0.046273336 0.069109529 0.63100004
0.047550481 0.069219053 0.63200003
0.049062859 0.069657147 0.63600004
0.050511431 0.069985718 0.63900006
0.051728576 0.069985718 0.63900006
0.052945718 0.069985718 0.63900006
0.054247621 0.070095241 0.64000005
0.055293337 0.069876194 0.63800001
0.056508575 0.069876194 0.63800001
0.060814291 0.070642859 0.64500004
0.062042862 0.070642859 0.64500004
0.063369527 0.070752382 0.64600003
0.064600006 0.070752382 0.64600003
0.065728575 0.070642859 0.64500004
0.066957146 0.070642859 0.64500004
0.068185717 0.070642859 0.64500004
0.070642859 0.070642859 0.64500004
0.091071434 0.08378572 0.76500005
0.092528574 0.08378572 0.76500005
0.093985721 0.08378572 0.76500005
0.095442861 0.08378572 0.76500005
0.096900009 0.08378572 0.76500005
0.098357148 0.08378572 0.76500005
-0.070525721 0.08334858 0.74800003
-0.069100954 0.08334858 0.74800003
-0.067676194 0.08334858 0.74800003
-0.065985717 0.083014295 0.74500006
-0.064566672 0.083014295 0.74500006
-0.063147627 0.083014295 0.74500006
-0.037422858 0.074211434 0.66600001
-0.036100004 0.074100003 0.66500002
-0.034728575 0.073877148 0.66300005
-0.033465717 0.073877148 0.66300005
-0.032154288 0.073765717 0.66200006
-0.030893335 0.073765717 0.66200006
-0.029453335 0.073320001 0.65800005
-0.028200002 0.073320001 0.65800005
-0.026946668 0.073320001 0.65800005
-0.025693335 0.073320001 0.65800005
-0.023116192 0.073097147 0.65600002
-0.021866668 0.073097147 0.65600002
-0.020585716 0.072985716 0.65500003
-0.01927905 0.072762862 0.65300006
-0.016976191 0.079448573 0.71300006
-0.015640002 0.079560004 0.71400005
-0.014280001 0.079560004 0.71400005
-0.012920001 0.079560004 0.71400005
-0.01156 0.079560004 0.71400005
-0.010228572 0.079782866 0.71600002
-0.0088771433 0.079894289 0.71700001
-0.007511429 0.079894289 0.71700001
-0.0061714291 0.080228575 0.72000003
-0.0048000002 0.080228575 0.72000003
-0.0034380956 0.080451436 0.72200006
-0.0020657144 0.08056286 0.72300005
-0.00068761909 0.080451436 0.72200006
0.00068476197 0.080117151 0.71900004
0.0020457145 0.079782866 0.71600002
0.0034000003 0.079560004 0.71400005
0.0047400002 0.079225719 0.71100003
0.0060857148 0.079114288 0.71000004
0.0074171433 0.078891434 0.708
0.0087533342 0.078780003 0.70700002
0.010071429 0.078557149 0.70500004
0.011414287 0.078557149 0.70500004
0.012739048 0.078445718 0.70400006
0.014080001 0.078445718 0.70400006
0.015508573 0.078891434 0.708
0.016833335 0.078780003 0.70700002
0.018205715 0.078891434 0.708
0.019554287 0.078891434 0.708
0.020961907 0.079114288 0.71000004
0.022314288 0.079114288 0.71000004
0.023766669 0.079448573 0.71300006
0.025124764 0.079448573 0.71300006
0.023474287 0.070422865 0.63200003
0.024678096 0.070422865 0.63200003
0.025881907 0.070422865 0.63200003
0.027085716 0.070422865 0.63200003
0.028289525 0.070422865 0.63200003
0.029493336 0.070422865 0.63200003
0.030648574 0.070311435 0.63100004
0.03185048 0.070311435 0.63100004
0.032947622 0.070088573 0.62900001
0.034145717 0.070088573 0.62900001
0.035343811 0.070088573 0.62900001
0.036483813 0.069977149 0.62800002
0.037740003 0.070088573 0.62900001
0.038938098 0.070088573 0.62900001
0.040136192 0.070088573 0.62900001
0.04133429 0.070088573 0.62900001
0.042532384 0.070088573 0.62900001
0.043730479 0.070088573 0.62900001
0.044928573 0.070088573 0.62900001
0.046273336 0.070311435 0.63100004
0.047550481 0.070422865 0.63200003
0.049062859 0.070868574 0.63600004
0.05027429 0.070868574 0.63600004
0.051485717 0.070868574 0.63600004
0.052697148 0.070868574 0.63600004
0.054078098 0.071091436 0.63800001
0.055120002 0.070868574 0.63600004
0.056331433 0.070868574 0.63600004
0.057542861 0.070868574 0.63600004
0.059123814 0.07131429 0.64000005
0.060342859 0.07131429 0.64000005
0.062042862 0.07187143 0.64500004
0.063271433 0.07187143 0.64500004
0.064400002 0.071760006 0.64400005
0.065626673 0.071760006 0.64400005
0.066853337 0.071760006 0.64400005
0.068080008 0.071760006 0.64400005
0.069414288 0.07187143 0.64500004
0.070642859 0.07187143 0.64500004
0.073752388 0.07131429 0.64000005
0.076190479 0.07131429 0.64000005
0.077651434 0.071537144 0.64200002
0.07887429 0.071537144 0.64200002
0.080346674 0.071760006 0.64400005
0.081573337 0.071760006 0.64400005
0.082800008 0.071760006 0.64400005
0.084157147 0.07187143 0.64500004
0.085253336 0.071760006 0.64400005
0.086480007 0.071760006 0.64400005
-0.064566672 0.08443334 0.74500006
-0.038691431 0.075480007 0.66600001
-0.037422858 0.075480007 0.66600001
-0.036100004 0.075366668 0.66500002
-0.034728575 0.075140007 0.66300005
-0.033415239 0.075026669 0.66200006
-0.032154288 0.075026669 0.66200006
-0.030846668 0.074913338 0.66100001
-0.029587621 0.074913338 0.66100001
-0.028200002 0.074573338 0.65800005
-0.026946668 0.074573338 0.65800005
-0.025693335 0.074573338 0.65800005
-0.024328573 0.074233338 0.65500003
-0.023080954 0.074233338 0.65500003
-0.021833334 0.074233338 0.65500003
-0.020585716 0.074233338 0.65500003
-0.019249525 0.073893338 0.65200001
-0.017952383 0.073666669 0.65000004
-0.016714286 0.073666669 0.65000004
-0.015500001 0.073780008 0.65100002
-0.012901906 0.080806673 0.71300006
-0.01154381 0.080806673 0.71300006
-0.0102 0.080920003 0.71400005
-0.0088647623 0.081146672 0.71600002
-0.007511429 0.081260003 0.71700001
-0.0061714291 0.081600003 0.72000003
-0.0048000002 0.081600003 0.72000003
-0.0034285716 0.081600003 0.72000003
-0.0020628574 0.081826672 0.72200006
-0.00068476197 0.081486672 0.71900004
0.00068000006 0.080920003 0.71400005
0.0020314287 0.080580004 0.71100003
0.0033809526 0.080466673 0.71000004
0.0047333338 0.080466673 0.71000004
0.0060685719 0.080240004 0.708
0.0074066673 0.080126673 0.70700002
0.0087285722 0.079900004 0.70500004
0.010057144 0.079786673 0.70400006
0.011381906 0.079673335 0.70300001
0.012720954 0.079673335 0.70300001
0.014060001 0.079673335 0.70300001
0.015420954 0.079786673 0.70400006
0.016833335 0.080126673 0.70700002
0.018180002 0.080126673 0.70700002
0.019554287 0.080240004 0.708
0.020961907 0.080466673 0.71000004
0.022314288 0.080466673 0.71000004
0.023700001 0.080580004 0.71100003
