# .PCD v0.7 - Point Cloud Data file format
VERSION 0.7
FIELDS x y z
SIZE 4 4 4
TYPE F F F
COUNT 1 1 1
WIDTH 1336
HEIGHT 1
VIEWPOINT 0 0 0 1 0 0 0
POINTS 1336
DATA ascii
0.058771431 -0.086428575 0.72600001
0.060154289 -0.086428575 0.72600001
0.06170667 -0.086666673 0.72800004
0.063093334 -0.086666673 0.72800004
0.064480007 -0.086666673 0.72800004
0.065866672 -0.086666673 0.72800004
0.067345716 -0.086785719 0.72900003
0.06901715 -0.087142862 0.73200005
0.072492383 -0.087976195 0.73900002
0.074000008 -0.08809524 0.74000001
0.075613335 -0.088333338 0.74200004
0.077026673 -0.088333338 0.74200004
0.078228578 -0.08809524 0.74000001
0.0075638099 -0.084577151 0.72200006
0.0089761913 -0.08492858 0.72500002
0.029977145 -0.085748576 0.73200005
0.03137143 -0.085748576 0.73200005
0.032765716 -0.085748576 0.73200005
0.034160003 -0.085748576 0.73200005
0.035505716 -0.085631438 0.73100001
0.036898099 -0.085631438 0.73100001
0.038290478 -0.085631438 0.73100001
0.039682861 -0.085631438 0.73100001
0.041075241 -0.085631438 0.73100001
0.04246762 -0.085631438 0.73100001
0.043740004 -0.085397147 0.72900003
0.045128573 -0.085397147 0.72900003
0.046453338 -0.085280009 0.72800004
0.047708575 -0.085045718 0.72600001
0.049091432 -0.085045718 0.72600001
0.05047429 -0.085045718 0.72600001
0.051857147 -0.085045718 0.72600001
0.053240005 -0.085045718 0.72600001
0.054773338 -0.085280009 0.72800004
0.056160003 -0.085280009 0.72800004
0.057546671 -0.085280009 0.72800004
0.058933336 -0.085280009 0.72800004
0.060320005 -0.085280009 0.72800004
0.06170667 -0.085280009 0.72800004
0.063093334 -0.085280009 0.72800004
0.064480007 -0.085280009 0.72800004
0.065866672 -0.085280009 0.72800004
0.067253336 -0.085280009 0.72800004
0.074000008 -0.086685717 0.74000001
0.075613335 -0.086920008 0.74200004
0.076819055 -0.086685717 0.74000001
0.078228578 -0.086685717 0.74000001
0.0061714291 -0.082971431 0.72000003
0.0075638099 -0.083201908 0.72200006
0.0089514293 -0.083317146 0.72300005
0.03137143 -0.084354289 0.73200005
0.032765716 -0.084354289 0.73200005
0.034160003 -0.084354289 0.73200005
0.035505716 -0.084239051 0.73100001
0.036898099 -0.084239051 0.73100001
0.038290478 -0.084239051 0.73100001
0.039682861 -0.084239051 0.73100001
0.041075241 -0.084239051 0.73100001
0.042351432 -0.084008574 0.72900003
0.043740004 -0.084008574 0.72900003
0.04506667 -0.083893336 0.72800004
0.046453338 -0.083893336 0.72800004
0.047708575 -0.08366286 0.72600001
0.049091432 -0.08366286 0.72600001
0.05047429 -0.08366286 0.72600001
0.051857147 -0.08366286 0.72600001
0.05338667 -0.083893336 0.72800004
0.054848574 -0.084008574 0.72900003
0.056237146 -0.084008574 0.72900003
0.057546671 -0.083893336 0.72800004
0.058933336 -0.083893336 0.72800004
0.060402863 -0.084008574 0.72900003
0.061791431 -0.084008574 0.72900003
0.063093334 -0.083893336 0.72800004
0.064480007 -0.083893336 0.72800004
0.065866672 -0.083893336 0.72800004
0.067253336 -0.083893336 0.72800004
0.027262859 -0.083186671 0.73400003
0.028660955 -0.083186671 0.73400003
0.029977145 -0.082960002 0.73200005
0.031457145 -0.083186671 0.73400003
0.032765716 -0.082960002 0.73200005
0.034113336 -0.082846671 0.73100001
0.035408575 -0.082620002 0.72900003
0.036898099 -0.082846671 0.73100001
0.038290478 -0.082846671 0.73100001
0.039682861 -0.082846671 0.73100001
0.041075241 -0.082846671 0.73100001
0.042525716 -0.082960002 0.73200005
0.043860003 -0.082846671 0.73100001
0.045252383 -0.082846671 0.73100001
0.046644766 -0.082846671 0.73100001
0.047905717 -0.082620002 0.72900003
0.049294289 -0.082620002 0.72900003
0.050613336 -0.082506672 0.72800004
0.052000005 -0.082506672 0.72800004
0.05338667 -0.082506672 0.72800004
0.054848574 -0.082620002 0.72900003
0.056237146 -0.082620002 0.72900003
0.057546671 -0.082506672 0.72800004
0.058933336 -0.082506672 0.72800004
0.060402863 -0.082620002 0.72900003
0.061791431 -0.082620002 0.72900003
0.063180007 -0.082620002 0.72900003
0.064568579 -0.082620002 0.72900003
0.065866672 -0.082506672 0.72800004
0.067253336 -0.082506672 0.72800004
0.02873905 -0.082011431 0.73600006
0.030140955 -0.082011431 0.73600006
0.03154286 -0.082011431 0.73600006
0.039737146 -0.081565723 0.73200005
0.041131433 -0.081565723 0.73200005
0.042525716 -0.081565723 0.73200005
0.043920003 -0.081565723 0.73200005
0.0454381 -0.081788577 0.73400003
0.046708573 -0.081565723 0.73200005
0.048037145 -0.081454292 0.73100001
0.049429528 -0.081454292 0.73100001
0.050821908 -0.081454292 0.73100001
0.052071434 -0.081231438 0.72900003
0.05338667 -0.081120007 0.72800004
0.054773338 -0.081120007 0.72800004
0.056160003 -0.081120007 0.72800004
0.057546671 -0.081120007 0.72800004
0.058933336 -0.081120007 0.72800004
0.060402863 -0.081231438 0.72900003
0.061791431 -0.081231438 0.72900003
0.063180007 -0.081231438 0.72900003
0.064568579 -0.081231438 0.72900003
0.065957144 -0.081231438 0.72900003
0.067345716 -0.081231438 0.72900003
0.027337145 -0.08060953 0.73600006
0.02873905 -0.08060953 0.73600006
0.040117145 -0.080938101 0.73900002
0.042641908 -0.080390483 0.73400003
0.044040002 -0.080390483 0.73400003
0.0454381 -0.080390483 0.73400003
0.046708573 -0.080171436 0.73200005
0.048102859 -0.080171436 0.73200005
0.049497146 -0.080171436 0.73200005
0.050821908 -0.080061913 0.73100001
0.052071434 -0.079842865 0.72900003
0.05338667 -0.079733342 0.72800004
0.054773338 -0.079733342 0.72800004
0.056160003 -0.079733342 0.72800004
0.057546671 -0.079733342 0.72800004
0.058771431 -0.079514287 0.72600001
0.060320005 -0.079733342 0.72800004
0.061791431 -0.079842865 0.72900003
0.063180007 -0.079842865 0.72900003
0.064568579 -0.079842865 0.72900003
0.065957144 -0.079842865 0.72900003
0.024566669 -0.079315245 0.73700005
0.025970478 -0.079315245 0.73700005
0.027337145 -0.079207622 0.73600006
0.02873905 -0.079207622 0.73600006
0.030140955 -0.079207622 0.73600006
0.031671431 -0.079530485 0.73900002
0.03307905 -0.079530485 0.73900002
0.034533337 -0.079638101 0.74000001
0.036040001 -0.079853341 0.74200004
0.037453335 -0.079853341 0.74200004
0.040117145 -0.079530485 0.73900002
0.041243814 -0.078992389 0.73400003
0.042641908 -0.078992389 0.73400003
0.044040002 -0.078992389 0.73400003
0.0454381 -0.078992389 0.73400003
0.046708573 -0.078777149 0.73200005
0.048102859 -0.078777149 0.73200005
0.049429528 -0.078669526 0.73100001
0.050821908 -0.078669526 0.73100001
0.052071434 -0.078454293 0.72900003
0.053460002 -0.078454293 0.72900003
0.054773338 -0.07834667 0.72800004
0.056160003 -0.07834667 0.72800004
0.057546671 -0.07834667 0.72800004
0.058771431 -0.078131437 0.72600001
0.060320005 -0.07834667 0.72800004
0.06170667 -0.07834667 0.72800004
0.062920004 -0.078131437 0.72600001
0.064302862 -0.078131437 0.72600001
0.067404769 -0.080176197 0.74500006
0.023162859 -0.077911437 0.73700005
0.024566669 -0.077911437 0.73700005
0.025970478 -0.077911437 0.73700005
0.027337145 -0.07780572 0.73600006
0.02873905 -0.07780572 0.73600006
0.030140955 -0.07780572 0.73600006
0.031671431 -0.078122862 0.73900002
0.034533337 -0.078228578 0.74000001
0.036040001 -0.078440003 0.74200004
0.037453335 -0.078440003 0.74200004
0.038761906 -0.078228578 0.74000001
0.040117145 -0.078122862 0.73900002
0.041524764 -0.078122862 0.73900002
0.0427581 -0.07780572 0.73600006
0.044040002 -0.077594288 0.73400003
0.0454381 -0.077594288 0.73400003
0.046836194 -0.077594288 0.73400003
0.048102859 -0.077382863 0.73200005
0.049497146 -0.077382863 0.73200005
0.050821908 -0.077277146 0.73100001
0.052214291 -0.077277146 0.73100001
0.05360667 -0.077277146 0.73100001
0.054848574 -0.077065721 0.72900003
0.056237146 -0.077065721 0.72900003
0.057625718 -0.077065721 0.72900003
0.059014291 -0.077065721 0.72900003
0.060402863 -0.077065721 0.72900003
0.061791431 -0.077065721 0.72900003
0.063180007 -0.077065721 0.72900003
0.065808579 -0.078545719 0.74300003
0.067223817 -0.078545719 0.74300003
0.068639055 -0.078545719 0.74300003
0.069771431 -0.078228578 0.74000001
0.071180955 -0.078228578 0.74000001
0.023225715 -0.076715246 0.73900002
0.024633335 -0.076715246 0.73900002
0.026040955 -0.076715246 0.73900002
0.027448574 -0.076715246 0.73900002
0.028778097 -0.076507621 0.73700005
0.030263811 -0.076715246 0.73900002
0.031714287 -0.076819055 0.74000001
0.03312381 -0.076819055 0.74000001
0.034673337 -0.077130482 0.74300003
0.036088575 -0.077130482 0.74300003
0.037503812 -0.077130482 0.74300003
0.038866669 -0.077026673 0.74200004
0.040280003 -0.077026673 0.74200004
0.041693337 -0.077026673 0.74200004
0.042641908 -0.076196194 0.73400003
0.044040002 -0.076196194 0.73400003
0.0454381 -0.076196194 0.73400003
0.046836194 -0.076196194 0.73400003
0.048102859 -0.075988576 0.73200005
0.049497146 -0.075988576 0.73200005
0.050891433 -0.075988576 0.73200005
0.052285716 -0.075988576 0.73200005
0.053680003 -0.075988576 0.73200005
0.05499905 -0.075884767 0.73100001
0.056391433 -0.075884767 0.73100001
0.057783812 -0.075884767 0.73100001
0.059176195 -0.075884767 0.73100001
0.060568575 -0.075884767 0.73100001
0.062045719 -0.075988576 0.73200005
0.063440003 -0.075988576 0.73200005
0.065808579 -0.077130482 0.74300003
0.067223817 -0.077130482 0.74300003
0.068546668 -0.077026673 0.74200004
0.070054293 -0.077130482 0.74300003
0.07146953 -0.077130482 0.74300003
0.073080957 -0.077338099 0.74500006
0.023225715 -0.075307623 0.73900002
0.024633335 -0.075307623 0.73900002
0.028856192 -0.075307623 0.73900002
0.030304763 -0.075409532 0.74000001
0.031800002 -0.075613335 0.74200004
0.033258099 -0.075715244 0.74300003
0.034673337 -0.075715244 0.74300003
0.036088575 -0.075715244 0.74300003
0.037503812 -0.075715244 0.74300003
0.03891905 -0.075715244 0.74300003
0.040280003 -0.075613335 0.74200004
0.041693337 -0.075613335 0.74200004
0.042816192 -0.075103812 0.73700005
0.044160005 -0.07500191 0.73600006
0.0454381 -0.0747981 0.73400003
0.046836194 -0.0747981 0.73400003
0.048234288 -0.0747981 0.73400003
0.049497146 -0.074594289 0.73200005
0.050891433 -0.074594289 0.73200005
0.052285716 -0.074594289 0.73200005
0.053680003 -0.074594289 0.73200005
0.05499905 -0.074492387 0.73100001
0.056468576 -0.074594289 0.73200005
0.057862859 -0.074594289 0.73200005
0.059257146 -0.074594289 0.73200005
0.060651433 -0.074594289 0.73200005
0.062893339 -0.075613335 0.74200004
0.064306669 -0.075613335 0.74200004
0.065720007 -0.075613335 0.74200004
0.067133337 -0.075613335 0.74200004
0.068639055 -0.075715244 0.74300003
0.070242859 -0.075919054 0.74500006
0.071661912 -0.075919054 0.74500006
0.073080957 -0.075919054 0.74500006
0.074500002 -0.075919054 0.74500006
0.075919054 -0.075919054 0.74500006
0.02889524 -0.074000008 0.74000001
0.030304763 -0.074000008 0.74000001
0.031800002 -0.074200004 0.74200004
0.033213336 -0.074200004 0.74200004
0.034673337 -0.074300006 0.74300003
0.036088575 -0.074300006 0.74300003
0.037503812 -0.074300006 0.74300003
0.03891905 -0.074300006 0.74300003
0.040280003 -0.074200004 0.74200004
0.041693337 -0.074200004 0.74200004
0.042641908 -0.073400006 0.73400003
0.044040002 -0.073400006 0.73400003
0.0454381 -0.073400006 0.73400003
0.046836194 -0.073400006 0.73400003
0.048234288 -0.073400006 0.73400003
0.049632385 -0.073400006 0.73400003
0.050891433 -0.073200002 0.73200005
0.052285716 -0.073200002 0.73200005
0.053680003 -0.073200002 0.73200005
0.055074289 -0.073200002 0.73200005
0.056468576 -0.073200002 0.73200005
0.057862859 -0.073200002 0.73200005
0.05966191 -0.073700003 0.73700005
0.061065719 -0.073700003 0.73700005
0.06263905 -0.073900007 0.73900002
0.064393334 -0.074300006 0.74300003
0.065808579 -0.074300006 0.74300003
0.067223817 -0.074300006 0.74300003
0.068639055 -0.074300006 0.74300003
0.070242859 -0.074500002 0.74500006
0.071661912 -0.074500002 0.74500006
0.073080957 -0.074500002 0.74500006
0.074500002 -0.074500002 0.74500006
0.075919054 -0.074500002 0.74500006
0.03038667 -0.072786674 0.74200004
0.031842858 -0.072884768 0.74300003
0.033258099 -0.072884768 0.74300003
0.034673337 -0.072884768 0.74300003
0.036088575 -0.072884768 0.74300003
0.037503812 -0.072884768 0.74300003
0.03891905 -0.072884768 0.74300003
0.040280003 -0.072786674 0.74200004
0.041693337 -0.072786674 0.74200004
0.043106668 -0.072786674 0.74200004
0.044220004 -0.072296195 0.73700005
0.045561906 -0.0721981 0.73600006
0.046963811 -0.0721981 0.73600006
0.048234288 -0.072001912 0.73400003
0.049632385 -0.072001912 0.73400003
0.050891433 -0.071805716 0.73200005
0.052428573 -0.072001912 0.73400003
0.053680003 -0.071805716 0.73200005
0.055074289 -0.071805716 0.73200005
0.056777146 -0.0721981 0.73600006
0.058179051 -0.0721981 0.73600006
0.05966191 -0.072296195 0.73700005
0.061065719 -0.072296195 0.73700005
0.06263905 -0.072492383 0.73900002
0.064046673 -0.072492383 0.73900002
0.065808579 -0.072884768 0.74300003
0.067223817 -0.072884768 0.74300003
0.068639055 -0.072884768 0.74300003
0.070242859 -0.073080957 0.74500006
0.071661912 -0.073080957 0.74500006
0.073080957 -0.073080957 0.74500006
0.074500002 -0.073080957 0.74500006
0.075919054 -0.073080957 0.74500006
0.031842858 -0.07146953 0.74300003
0.033258099 -0.07146953 0.74300003
0.03462667 -0.071373336 0.74200004
0.036088575 -0.07146953 0.74300003
0.037503812 -0.07146953 0.74300003
0.03891905 -0.07146953 0.74300003
0.040280003 -0.071373336 0.74200004
0.041693337 -0.071373336 0.74200004
0.04299048 -0.071180955 0.74000001
0.044220004 -0.070892386 0.73700005
0.0454381 -0.070603818 0.73400003
0.046836194 -0.070603818 0.73400003
0.048234288 -0.070603818 0.73400003
0.049632385 -0.070603818 0.73400003
0.050891433 -0.070411436 0.73200005
0.052428573 -0.070603818 0.73400003
0.053680003 -0.070411436 0.73200005
0.055074289 -0.070411436 0.73200005
0.056622859 -0.070603818 0.73400003
0.058179051 -0.070796192 0.73600006
0.05966191 -0.070892386 0.73700005
0.061231434 -0.071084768 0.73900002
0.06263905 -0.071084768 0.73900002
0.064133339 -0.071180955 0.74000001
0.065808579 -0.07146953 0.74300003
0.067404769 -0.071661912 0.74500006
0.068639055 -0.07146953 0.74300003
0.070242859 -0.071661912 0.74500006
0.071661912 -0.071661912 0.74500006
0.073080957 -0.071661912 0.74500006
0.074500002 -0.071661912 0.74500006
0.075919054 -0.071661912 0.74500006
0.033258099 -0.070054293 0.74300003
0.034673337 -0.070054293 0.74300003
0.036088575 -0.070054293 0.74300003
0.037503812 -0.070054293 0.74300003
0.03891905 -0.070054293 0.74300003
0.040334288 -0.070054293 0.74300003
0.041749526 -0.070054293 0.74300003
0.043106668 -0.069960006 0.74200004
0.044340003 -0.069677144 0.73900002
0.045561906 -0.06939429 0.73600006
0.046963811 -0.06939429 0.73600006
0.048365716 -0.06939429 0.73600006
0.049632385 -0.069205716 0.73400003
0.051030479 -0.069205716 0.73400003
0.052428573 -0.069205716 0.73400003
0.053826671 -0.069205716 0.73400003
0.055224765 -0.069205716 0.73400003
0.056777146 -0.06939429 0.73600006
0.058258098 -0.069488578 0.73700005
0.059823815 -0.069677144 0.73900002
0.061314289 -0.069771431 0.74000001
0.062723815 -0.069771431 0.74000001
0.064306669 -0.069960006 0.74200004
0.065808579 -0.070054293 0.74300003
0.067404769 -0.070242859 0.74500006
0.068823814 -0.070242859 0.74500006
0.070242859 -0.070242859 0.74500006
0.071661912 -0.070242859 0.74500006
0.073080957 -0.070242859 0.74500006
0.074300006 -0.070054293 0.74300003
0.033258099 -0.068639055 0.74300003
0.034673337 -0.068639055 0.74300003
0.036088575 -0.068639055 0.74300003
0.037604764 -0.068823814 0.74500006
0.039023813 -0.068823814 0.74500006
0.040334288 -0.068639055 0.74300003
0.041749526 -0.068639055 0.74300003
0.043106668 -0.068546668 0.74200004
0.044340003 -0.068269528 0.73900002
0.045623813 -0.068084769 0.73700005
0.047027621 -0.068084769 0.73700005
0.04843143 -0.068084769 0.73700005
0.049767621 -0.067992382 0.73600006
0.051169526 -0.067992382 0.73600006
0.052571431 -0.067992382 0.73600006
0.053973336 -0.067992382 0.73600006
0.055375241 -0.067992382 0.73600006
0.056854289 -0.068084769 0.73700005
0.058416195 -0.068269528 0.73900002
0.059904765 -0.068361908 0.74000001
0.061562862 -0.068639055 0.74300003
0.062978096 -0.068639055 0.74300003
0.064393334 -0.068639055 0.74300003
0.065985717 -0.068823814 0.74500006
0.067585722 -0.069008574 0.74700004
0.069008574 -0.069008574 0.74700004
0.070242859 -0.068823814 0.74500006
0.071661912 -0.068823814 0.74500006
0.073080957 -0.068823814 0.74500006
0.074500002 -0.068823814 0.74500006
0.075919054 -0.068823814 0.74500006
0.031928573 -0.067404769 0.74500006
0.033258099 -0.067223817 0.74300003
0.03462667 -0.067133337 0.74200004
0.036088575 -0.067223817 0.74300003
0.037503812 -0.067223817 0.74300003
0.03891905 -0.067223817 0.74300003
0.040334288 -0.067223817 0.74300003
0.041693337 -0.067133337 0.74200004
0.043106668 -0.067133337 0.74200004
0.047027621 -0.06668096 0.73700005
0.051239051 -0.06668096 0.73700005
0.05264286 -0.06668096 0.73700005
0.054046672 -0.06668096 0.73700005
0.055600956 -0.066861913 0.73900002
0.057085719 -0.066952385 0.74000001
0.058495242 -0.066952385 0.74000001
0.06006667 -0.067133337 0.74200004
0.06189429 -0.067585722 0.74700004
0.06331715 -0.067585722 0.74700004
0.064740002 -0.067585722 0.74700004
0.066251434 -0.067676194 0.74800003
0.067676194 -0.067676194 0.74800003
0.069100954 -0.067676194 0.74800003
0.070431434 -0.067585722 0.74700004
0.071854293 -0.067585722 0.74700004
0.072884768 -0.067223817 0.74300003
0.074500002 -0.067404769 0.74500006
0.075919054 -0.067404769 0.74500006
0.033258099 -0.065808579 0.74300003
0.034673337 -0.065808579 0.74300003
0.036088575 -0.065808579 0.74300003
0.037604764 -0.065985717 0.74500006
0.03891905 -0.065808579 0.74300003
0.040334288 -0.065808579 0.74300003
0.041693337 -0.065720007 0.74200004
0.043106668 -0.065720007 0.74200004
0.055826671 -0.065720007 0.74200004
0.057240006 -0.065720007 0.74200004
0.058653336 -0.065720007 0.74200004
0.06006667 -0.065720007 0.74200004
0.061728574 -0.065985717 0.74500006
0.06331715 -0.066162862 0.74700004
0.064740002 -0.066162862 0.74700004
0.066251434 -0.066251434 0.74800003
0.067857146 -0.066428579 0.75000006
0.069285721 -0.066428579 0.75000006
0.070525721 -0.066251434 0.74800003
0.071854293 -0.066162862 0.74700004
0.073080957 -0.065985717 0.74500006
0.074500002 -0.065985717 0.74500006
0.033437144 -0.064740002 0.74700004
0.03476667 -0.064566672 0.74500006
0.036185715 -0.064566672 0.74500006
0.037604764 -0.064566672 0.74500006
0.039023813 -0.064566672 0.74500006
0.040334288 -0.064393334 0.74300003
0.041693337 -0.064306669 0.74200004
0.043106668 -0.064306669 0.74200004
0.056052383 -0.064566672 0.74500006
0.057471432 -0.064566672 0.74500006
0.058890481 -0.064566672 0.74500006
0.060309529 -0.064566672 0.74500006
0.061728574 -0.064566672 0.74500006
0.063147627 -0.064566672 0.74500006
0.064740002 -0.064740002 0.74700004
0.066251434 -0.064826667 0.74800003
0.067857146 -0.065000005 0.75000006
0.069285721 -0.065000005 0.75000006
0.070714287 -0.065000005 0.75000006
0.072142862 -0.065000005 0.75000006
0.073571436 -0.065000005 0.75000006
0.033437144 -0.06331715 0.74700004
0.03476667 -0.063147627 0.74500006
0.036185715 -0.063147627 0.74500006
0.037604764 -0.063147627 0.74500006
0.039023813 -0.063147627 0.74500006
0.040442862 -0.063147627 0.74500006
0.041693337 -0.062893339 0.74200004
0.056052383 -0.063147627 0.74500006
0.057471432 -0.063147627 0.74500006
0.058890481 -0.063147627 0.74500006
0.060309529 -0.063147627 0.74500006
0.061728574 -0.063147627 0.74500006
0.06331715 -0.06331715 0.74700004
0.064826667 -0.063401908 0.74800003
0.066428579 -0.063571431 0.75000006
0.067857146 -0.063571431 0.75000006
0.06947048 -0.063740954 0.75200003
0.070902862 -0.063740954 0.75200003
0.072335243 -0.063740954 0.75200003
0.073767625 -0.063740954 0.75200003
0.033481907 -0.061977148 0.74800003
0.034860004 -0.06189429 0.74700004
0.03628286 -0.06189429 0.74700004
0.037604764 -0.061728574 0.74500006
0.039023813 -0.061728574 0.74500006
0.040442862 -0.061728574 0.74500006
0.041749526 -0.061562862 0.74300003
0.058890481 -0.061728574 0.74500006
0.060147624 -0.061562862 0.74300003
0.061728574 -0.061728574 0.74500006
0.06331715 -0.06189429 0.74700004
0.064740002 -0.06189429 0.74700004
0.066251434 -0.061977148 0.74800003
0.068038099 -0.062308576 0.75200003
0.06947048 -0.062308576 0.75200003
0.070902862 -0.062308576 0.75200003
0.072335243 -0.062308576 0.75200003
0.073767625 -0.062308576 0.75200003
0.032228574 -0.060876194 0.75200003
0.03357143 -0.06071429 0.75000006
0.03490667 -0.060552385 0.74800003
0.03633143 -0.060552385 0.74800003
0.037705716 -0.060471434 0.74700004
0.039023813 -0.060309529 0.74500006
0.040442862 -0.060309529 0.74500006
0.041693337 -0.06006667 0.74200004
0.058890481 -0.060309529 0.74500006
0.060309529 -0.060309529 0.74500006
0.061728574 -0.060309529 0.74500006
0.065000005 -0.06071429 0.75000006
0.066605717 -0.060876194 0.75200003
0.068038099 -0.060876194 0.75200003
0.06956286 -0.060957149 0.75300002
0.070997149 -0.060957149 0.75300002
0.07243143 -0.060957149 0.75300002
0.073865719 -0.060957149 0.75300002
0.03357143 -0.059285719 0.75000006
0.03490667 -0.059127621 0.74800003
0.03633143 -0.059127621 0.74800003
0.037705716 -0.059048574 0.74700004
0.039128575 -0.059048574 0.74700004
0.040551431 -0.059048574 0.74700004
0.041749526 -0.058732383 0.74300003
0.070997149 -0.05952286 0.75300002
0.07243143 -0.05952286 0.75300002
0.04071429 -0.057857148 0.75000006
0.048825718 -0.055901907 0.74300003
0.050240956 -0.055901907 0.74300003
0.051586669 -0.055826671 0.74200004
0.045995243 -0.05448667 0.74300003
0.04734667 -0.054413337 0.74200004
0.048825718 -0.05448667 0.74300003
0.050240956 -0.05448667 0.74300003
0.051656194 -0.05448667 0.74300003
0.053071432 -0.05448667 0.74300003
0.048825718 -0.053071432 0.74300003
0.050240956 -0.053071432 0.74300003
0.051656194 -0.053071432 0.74300003
0.053071432 -0.053071432 0.74300003
0.032571431 -0.052838098 0.76000005
0.034063812 -0.052907623 0.76100004
0.035513334 -0.052907623 0.76100004
0.036962859 -0.052907623 0.76100004
0.038412385 -0.052907623 0.76100004
0.039704766 -0.052699052 0.75800002
0.050511431 -0.051934291 0.74700004
0.051934291 -0.051934291 0.74700004
0.053357147 -0.051934291 0.74700004
0.055000003 -0.052142862 0.75000006
0.056428574 -0.052142862 0.75000006
0.057857148 -0.052142862 0.75000006
0.059285719 -0.052142862 0.75000006
0.064080007 -0.052560002 0.75600004
0.065520003 -0.052560002 0.75600004
0.067137145 -0.052699052 0.75800002
0.068761908 -0.052838098 0.76000005
0.070486672 -0.05304667 0.76300001
0.032485716 -0.051255241 0.75800002
0.033929527 -0.051255241 0.75800002
0.035466667 -0.05139048 0.76000005
0.036914289 -0.05139048 0.76000005
0.038412385 -0.051458098 0.76100004
0.039809525 -0.05139048 0.76000005
0.049285717 -0.050714288 0.75000006
0.050714288 -0.050714288 0.75000006
0.052142862 -0.050714288 0.75000006
0.053571433 -0.050714288 0.75000006
0.055000003 -0.050714288 0.75000006
0.056428574 -0.050714288 0.75000006
0.058011431 -0.050849527 0.75200003
0.059443813 -0.050849527 0.75200003
0.061200004 -0.051120002 0.75600004
0.062640004 -0.051120002 0.75600004
0.06424953 -0.051255241 0.75800002
0.065693341 -0.051255241 0.75800002
0.06731429 -0.05139048 0.76000005
0.068852387 -0.051458098 0.76100004
0.033929527 -0.04981143 0.75800002
0.035373334 -0.04981143 0.75800002
0.036817145 -0.04981143 0.75800002
0.038361907 -0.049942862 0.76000005
0.039809525 -0.049942862 0.76000005
0.049417146 -0.049417146 0.75200003
0.050849527 -0.049417146 0.75200003
0.052281909 -0.049417146 0.75200003
0.053571433 -0.049285717 0.75000006
0.055146672 -0.049417146 0.75200003
0.05657905 -0.049417146 0.75200003
0.058011431 -0.049417146 0.75200003
0.059443813 -0.049417146 0.75200003
0.06111905 -0.049614288 0.75500005
0.062557146 -0.049614288 0.75500005
0.064080007 -0.049680002 0.75600004
0.065693341 -0.04981143 0.75800002
0.06731429 -0.049942862 0.76000005
0.068852387 -0.050008576 0.76100004
0.070486672 -0.050140005 0.76300001
0.020990478 -0.048495241 0.76000005
0.022379048 -0.048367623 0.75800002
0.023760002 -0.048240002 0.75600004
0.025200002 -0.048240002 0.75600004
0.033929527 -0.048367623 0.75800002
0.035373334 -0.048367623 0.75800002
0.036817145 -0.048367623 0.75800002
0.038361907 -0.048495241 0.76000005
0.039861906 -0.048559051 0.76100004
0.041257147 -0.048495241 0.76000005
0.049417146 -0.047984764 0.75200003
0.050849527 -0.047984764 0.75200003
0.052281909 -0.047984764 0.75200003
0.053571433 -0.047857147 0.75000006
0.055146672 -0.047984764 0.75200003
0.05657905 -0.047984764 0.75200003
0.058011431 -0.047984764 0.75200003
0.059443813 -0.047984764 0.75200003
0.061361909 -0.048367623 0.75800002
0.06280572 -0.048367623 0.75800002
0.06424953 -0.048367623 0.75800002
0.065866672 -0.048495241 0.76000005
0.067402862 -0.048559051 0.76100004
0.06903334 -0.048686668 0.76300001
0.070671432 -0.048814289 0.76500005
0.072128579 -0.048814289 0.76500005
0.073585719 -0.048814289 0.76500005
0.020935239 -0.046923812 0.75800002
0.022320002 -0.046800002 0.75600004
0.023760002 -0.046800002 0.75600004
0.025200002 -0.046800002 0.75600004
0.034063812 -0.047109526 0.76100004
0.035513334 -0.047109526 0.76100004
0.036817145 -0.046923812 0.75800002
0.038412385 -0.047109526 0.76100004
0.039861906 -0.047109526 0.76100004
0.041311432 -0.047109526 0.76100004
0.042704765 -0.047047623 0.76000005
0.044036195 -0.046923812 0.75800002
0.045480002 -0.046923812 0.75800002
0.051052384 -0.046738099 0.75500005
0.052699052 -0.046923812 0.75800002
0.053785719 -0.046614289 0.75300002
0.055220004 -0.046614289 0.75300002
0.056654289 -0.046614289 0.75300002
0.058088575 -0.046614289 0.75300002
0.059918098 -0.046923812 0.75800002
0.061361909 -0.046923812 0.75800002
0.06280572 -0.046923812 0.75800002
0.064419053 -0.047047623 0.76000005
0.065953337 -0.047109526 0.76100004
0.067402862 -0.047109526 0.76100004
0.069214292 -0.047357146 0.76500005
0.070671432 -0.047357146 0.76500005
0.072128579 -0.047357146 0.76500005
0.019542858 -0.045600004 0.76000005
0.020935239 -0.045480002 0.75800002
0.022320002 -0.045360003 0.75600004
0.023760002 -0.045360003 0.75600004
0.025166668 -0.045300003 0.75500005
0.02649905 -0.045120005 0.75200003
0.027931431 -0.045120005 0.75200003
0.032400001 -0.045360003 0.75600004
0.033929527 -0.045480002 0.75800002
0.035466667 -0.045600004 0.76000005
0.036817145 -0.045480002 0.75800002
0.038412385 -0.045660004 0.76100004
0.039861906 -0.045660004 0.76100004
0.041311432 -0.045660004 0.76100004
0.042704765 -0.045600004 0.76000005
0.044152383 -0.045600004 0.76000005
0.045480002 -0.045480002 0.75800002
0.046923812 -0.045480002 0.75800002
0.048367623 -0.045480002 0.75800002
0.049614288 -0.045300003 0.75500005
0.051052384 -0.045300003 0.75500005
0.052699052 -0.045480002 0.75800002
0.054142863 -0.045480002 0.75800002
0.05558667 -0.045480002 0.75800002
0.05703048 -0.045480002 0.75800002
0.058628574 -0.045600004 0.76000005
0.060155243 -0.045660004 0.76100004
0.061523814 -0.045600004 0.76000005
0.062971435 -0.045600004 0.76000005
0.064503811 -0.045660004 0.76100004
0.065953337 -0.045660004 0.76100004
0.067402862 -0.045660004 0.76100004
0.069214292 -0.045900002 0.76500005
0.070671432 -0.045900002 0.76500005
0.072128579 -0.045900002 0.76500005
0.019568572 -0.044210479 0.76100004
0.020990478 -0.044152383 0.76000005
0.022320002 -0.043920003 0.75600004
0.023728574 -0.043861907 0.75500005
0.025166668 -0.043861907 0.75500005
0.026534287 -0.043745719 0.75300002
0.027931431 -0.043687623 0.75200003
0.029363811 -0.043687623 0.75200003
0.030796193 -0.043687623 0.75200003
0.032357145 -0.043861907 0.75500005
0.033929527 -0.044036195 0.75800002
0.035466667 -0.044152383 0.76000005
0.036817145 -0.044036195 0.75800002
0.038412385 -0.044210479 0.76100004
0.039861906 -0.044210479 0.76100004
0.041311432 -0.044210479 0.76100004
0.042760957 -0.044210479 0.76100004
0.044152383 -0.044152383 0.76000005
0.045480002 -0.044036195 0.75800002
0.046923812 -0.044036195 0.75800002
0.048240002 -0.043920003 0.75600004
0.049680002 -0.043920003 0.75600004
0.051120002 -0.043920003 0.75600004
0.052699052 -0.044036195 0.75800002
0.054142863 -0.044036195 0.75800002
0.05558667 -0.044036195 0.75800002
0.057180956 -0.044152383 0.76000005
0.058705717 -0.044210479 0.76100004
0.060155243 -0.044210479 0.76100004
0.061523814 -0.044152383 0.76000005
0.062971435 -0.044152383 0.76000005
0.064503811 -0.044210479 0.76100004
0.065953337 -0.044210479 0.76100004
0.067402862 -0.044210479 0.76100004
0.06903334 -0.04432667 0.76300001
0.070671432 -0.044442859 0.76500005
0.072128579 -0.044442859 0.76500005
0.019568572 -0.042760957 0.76100004
0.020852383 -0.042423811 0.75500005
0.022290478 -0.042423811 0.75500005
0.023665715 -0.04231143 0.75300002
0.025100002 -0.04231143 0.75300002
0.026534287 -0.04231143 0.75300002
0.027931431 -0.042255241 0.75200003
0.029363811 -0.042255241 0.75200003
0.030837145 -0.04231143 0.75300002
0.032400001 -0.042480003 0.75600004
0.033929527 -0.042592384 0.75800002
0.035466667 -0.042704765 0.76000005
0.036817145 -0.042592384 0.75800002
0.038412385 -0.042760957 0.76100004
0.039861906 -0.042760957 0.76100004
0.041311432 -0.042760957 0.76100004
0.042760957 -0.042760957 0.76100004
0.044152383 -0.042704765 0.76000005
0.045600004 -0.042704765 0.76000005
0.047047623 -0.042704765 0.76000005
0.048367623 -0.042592384 0.75800002
0.049680002 -0.042480003 0.75600004
0.051120002 -0.042480003 0.75600004
0.052699052 -0.042592384 0.75800002
0.054142863 -0.042592384 0.75800002
0.05558667 -0.042592384 0.75800002
0.057180956 -0.042704765 0.76000005
0.058705717 -0.042760957 0.76100004
0.060155243 -0.042760957 0.76100004
0.061604764 -0.042760957 0.76100004
0.062971435 -0.042704765 0.76000005
0.064503811 -0.042760957 0.76100004
0.065953337 -0.042760957 0.76100004
0.067580007 -0.042873338 0.76300001
0.069214292 -0.042985719 0.76500005
0.070671432 -0.042985719 0.76500005
0.072128579 -0.042985719 0.76500005
0.019568572 -0.041311432 0.76100004
0.020769525 -0.04082286 0.75200003
0.022201907 -0.04082286 0.75200003
0.023665715 -0.040877145 0.75300002
0.025066668 -0.04082286 0.75200003
0.02649905 -0.04082286 0.75200003
0.027931431 -0.04082286 0.75200003
0.029285716 -0.04071429 0.75000006
0.030714288 -0.04071429 0.75000006
0.032485716 -0.041148573 0.75800002
0.034019049 -0.041257147 0.76000005
0.035513334 -0.041311432 0.76100004
0.036914289 -0.041257147 0.76000005
0.038412385 -0.041311432 0.76100004
0.039861906 -0.041311432 0.76100004
0.041311432 -0.041311432 0.76100004
0.042760957 -0.041311432 0.76100004
0.044210479 -0.041311432 0.76100004
0.045600004 -0.041257147 0.76000005
0.047047623 -0.041257147 0.76000005
0.048367623 -0.041148573 0.75800002
0.04981143 -0.041148573 0.75800002
0.052699052 -0.041148573 0.75800002
0.054142863 -0.041148573 0.75800002
0.055733338 -0.041257147 0.76000005
0.057180956 -0.041257147 0.76000005
0.058705717 -0.041311432 0.76100004
0.060155243 -0.041311432 0.76100004
0.061604764 -0.041311432 0.76100004
0.063054293 -0.041311432 0.76100004
0.064673334 -0.041420002 0.76300001
0.066126674 -0.041420002 0.76300001
0.067757145 -0.041528575 0.76500005
0.069214292 -0.041528575 0.76500005
0.070671432 -0.041528575 0.76500005
0.019568572 -0.039861906 0.76100004
0.020769525 -0.039390478 0.75200003
0.022201907 -0.039390478 0.75200003
0.02357143 -0.039285716 0.75000006
0.025066668 -0.039390478 0.75200003
0.026428573 -0.039285716 0.75000006
0.027857145 -0.039285716 0.75000006
0.029285716 -0.039285716 0.75000006
0.031164763 -0.039861906 0.76100004
0.032614287 -0.039861906 0.76100004
0.034063812 -0.039861906 0.76100004
0.035513334 -0.039861906 0.76100004
0.036962859 -0.039861906 0.76100004
0.038513336 -0.039966669 0.76300001
0.039861906 -0.039861906 0.76100004
0.041311432 -0.039861906 0.76100004
0.042760957 -0.039861906 0.76100004
0.044210479 -0.039861906 0.76100004
0.045600004 -0.039809525 0.76000005
0.055733338 -0.039809525 0.76000005
0.057180956 -0.039809525 0.76000005
0.058860004 -0.039966669 0.76300001
0.060313337 -0.039966669 0.76300001
0.061604764 -0.039861906 0.76100004
0.063054293 -0.039861906 0.76100004
0.064673334 -0.039966669 0.76300001
0.066300005 -0.040071432 0.76500005
0.06793429 -0.040176194 0.76700002
0.069395244 -0.040176194 0.76700002
0.070856199 -0.040176194 0.76700002
0.020769525 -0.037958097 0.75200003
0.022142859 -0.037857145 0.75000006
0.02357143 -0.037857145 0.75000006
0.025000002 -0.037857145 0.75000006
0.026428573 -0.037857145 0.75000006
0.028600002 -0.038866669 0.77000004
0.02971524 -0.038412385 0.76100004
0.031164763 -0.038412385 0.76100004
0.032614287 -0.038412385 0.76100004
0.034063812 -0.038412385 0.76100004
0.035513334 -0.038412385 0.76100004
0.036914289 -0.038361907 0.76000005
0.038412385 -0.038412385 0.76100004
0.039861906 -0.038412385 0.76100004
0.041311432 -0.038412385 0.76100004
0.042760957 -0.038412385 0.76100004
0.044210479 -0.038412385 0.76100004
0.05580667 -0.038412385 0.76100004
0.057406671 -0.038513336 0.76300001
0.058860004 -0.038513336 0.76300001
0.060313337 -0.038513336 0.76300001
0.061604764 -0.038412385 0.76100004
0.063054293 -0.038412385 0.76100004
0.064673334 -0.038513336 0.76300001
0.066300005 -0.038614288 0.76500005
0.067757145 -0.038614288 0.76500005
0.069214292 -0.038614288 0.76500005
0.070671432 -0.038614288 0.76500005
0.020714287 -0.036428574 0.75000006
0.022142859 -0.036428574 0.75000006
0.02357143 -0.036428574 0.75000006
0.027133334 -0.037400004 0.77000004
0.028600002 -0.037400004 0.77000004
0.030066669 -0.037400004 0.77000004
0.03145143 -0.037302859 0.76800001
0.032614287 -0.036962859 0.76100004
0.034063812 -0.036962859 0.76100004
0.035513334 -0.036962859 0.76100004
0.036962859 -0.036962859 0.76100004
0.038412385 -0.036962859 0.76100004
0.039861906 -0.036962859 0.76100004
0.041311432 -0.036962859 0.76100004
0.042760957 -0.036962859 0.76100004
0.044210479 -0.036962859 0.76100004
0.054500002 -0.037060004 0.76300001
0.05580667 -0.036962859 0.76100004
0.057406671 -0.037060004 0.76300001
0.059014291 -0.037157144 0.76500005
0.060313337 -0.037060004 0.76300001
0.061766669 -0.037060004 0.76300001
0.063054293 -0.036962859 0.76100004
0.064673334 -0.037060004 0.76300001
0.066300005 -0.037157144 0.76500005
0.06793429 -0.037254289 0.76700002
0.069214292 -0.037157144 0.76500005
0.070671432 -0.037157144 0.76500005
0.028600002 -0.035933334 0.77000004
0.030066669 -0.035933334 0.77000004
0.03145143 -0.035840001 0.76800001
0.032914288 -0.035840001 0.76800001
0.034377147 -0.035840001 0.76800001
0.035793334 -0.035793334 0.76700002
0.037157144 -0.035700001 0.76500005
0.038614288 -0.035700001 0.76500005
0.039966669 -0.035606667 0.76300001
0.041420002 -0.035606667 0.76300001
0.042873338 -0.035606667 0.76300001
0.05580667 -0.035513334 0.76100004
0.057406671 -0.035606667 0.76300001
0.059014291 -0.035700001 0.76500005
0.060313337 -0.035606667 0.76300001
0.061766669 -0.035606667 0.76300001
0.063385718 -0.035700001 0.76500005
0.064842865 -0.035700001 0.76500005
0.066473335 -0.035793334 0.76700002
0.06793429 -0.035793334 0.76700002
0.069395244 -0.035793334 0.76700002
0.070856199 -0.035793334 0.76700002
-0.00093047624 -0.043732382 0.97700006
0.027062859 -0.034377147 0.76800001
0.028600002 -0.034466669 0.77000004
0.030066669 -0.034466669 0.77000004
0.03145143 -0.034377147 0.76800001
0.032914288 -0.034377147 0.76800001
0.034377147 -0.034377147 0.76800001
0.035793334 -0.034332383 0.76700002
0.037157144 -0.034242861 0.76500005
0.038614288 -0.034242861 0.76500005
0.039966669 -0.034153335 0.76300001
0.041420002 -0.034153335 0.76300001
0.042985719 -0.034242861 0.76500005
0.055953339 -0.034153335 0.76300001
0.057406671 -0.034153335 0.76300001
0.059014291 -0.034242861 0.76500005
0.060313337 -0.034153335 0.76300001
0.061766669 -0.034153335 0.76300001
0.063220002 -0.034153335 0.76300001
0.064842865 -0.034242861 0.76500005
0.066300005 -0.034242861 0.76500005
0.068022862 -0.034377147 0.76800001
0.069485717 -0.034377147 0.76800001
0.070948578 -0.034377147 0.76800001
-0.00092761911 -0.041742861 0.97400004
0.00092571432 -0.041657146 0.97200006
0.0027771431 -0.041657146 0.97200006
0.0046285717 -0.041657146 0.97200006
0.0064600003 -0.041528575 0.96900004
0.027062859 -0.032914288 0.76800001
0.028525716 -0.032914288 0.76800001
0.029988574 -0.032914288 0.76800001
0.031410478 -0.032871429 0.76700002
0.032914288 -0.032914288 0.76800001
0.034377147 -0.032914288 0.76800001
0.035793334 -0.032871429 0.76700002
0.037157144 -0.032785717 0.76500005
0.038614288 -0.032785717 0.76500005
0.039966669 -0.032700002 0.76300001
0.041528575 -0.032785717 0.76500005
0.042985719 -0.032785717 0.76500005
0.044442859 -0.032785717 0.76500005
0.045900002 -0.032785717 0.76500005
0.054500002 -0.032700002 0.76300001
0.055953339 -0.032700002 0.76300001
0.057557147 -0.032785717 0.76500005
0.059014291 -0.032785717 0.76500005
0.060471434 -0.032785717 0.76500005
0.061766669 -0.032700002 0.76300001
0.063220002 -0.032700002 0.76300001
0.064842865 -0.032785717 0.76500005
0.066300005 -0.032785717 0.76500005
0.06793429 -0.032871429 0.76700002
0.069395244 -0.032871429 0.76700002
0.0046142861 -0.039682861 0.96900004
0.0064600003 -0.039682861 0.96900004
0.0083057145 -0.039682861 0.96900004
0.025666669 -0.031533334 0.77000004
0.027133334 -0.031533334 0.77000004
0.028600002 -0.031533334 0.77000004
0.029988574 -0.03145143 0.76800001
0.031410478 -0.031410478 0.76700002
0.032914288 -0.03145143 0.76800001
0.034332383 -0.031410478 0.76700002
0.035793334 -0.031410478 0.76700002
0.037157144 -0.031328574 0.76500005
0.03871524 -0.031410478 0.76700002
0.040071432 -0.031328574 0.76500005
0.041528575 -0.031328574 0.76500005
0.042985719 -0.031328574 0.76500005
0.044442859 -0.031328574 0.76500005
0.045900002 -0.031328574 0.76500005
0.047357146 -0.031328574 0.76500005
0.053185716 -0.031328574 0.76500005
0.05464286 -0.031328574 0.76500005
0.055953339 -0.03124667 0.76300001
0.057557147 -0.031328574 0.76500005
0.059014291 -0.031328574 0.76500005
0.060471434 -0.031328574 0.76500005
0.061766669 -0.03124667 0.76300001
0.063220002 -0.03124667 0.76300001
0.064842865 -0.031328574 0.76500005
0.066300005 -0.031328574 0.76500005
0.067757145 -0.031328574 0.76500005
0.069214292 -0.031328574 0.76500005
0.0046000001 -0.037720002 0.96600002
0.0064400006 -0.037720002 0.96600002
0.0082800006 -0.037720002 0.96600002
0.010088572 -0.03760286 0.96300006
0.024262859 -0.030144764 0.77200001
0.025666669 -0.030066669 0.77000004
0.027133334 -0.030066669 0.77000004
0.028600002 -0.030066669 0.77000004
0.029988574 -0.029988574 0.76800001
0.03145143 -0.029988574 0.76800001
0.032914288 -0.029988574 0.76800001
0.034377147 -0.029988574 0.76800001
0.035793334 -0.029949525 0.76700002
0.037302859 -0.029988574 0.76800001
0.03871524 -0.029949525 0.76700002
0.040176194 -0.029949525 0.76700002
0.041637145 -0.029949525 0.76700002
0.0430981 -0.029949525 0.76700002
0.04455905 -0.029949525 0.76700002
0.046020001 -0.029949525 0.76700002
0.047357146 -0.02987143 0.76500005
0.048814289 -0.02987143 0.76500005
0.050271433 -0.02987143 0.76500005
0.051728576 -0.02987143 0.76500005
0.053185716 -0.02987143 0.76500005
0.05464286 -0.02987143 0.76500005
0.056100003 -0.02987143 0.76500005
0.057557147 -0.02987143 0.76500005
0.059014291 -0.02987143 0.76500005
0.060471434 -0.02987143 0.76500005
0.061766669 -0.029793335 0.76300001
0.063220002 -0.029793335 0.76300001
0.064673334 -0.029793335 0.76300001
0.066300005 -0.02987143 0.76500005
0.067757145 -0.02987143 0.76500005
0.096918099 -0.03857905 0.98800004
0.098800004 -0.03857905 0.98800004
0.0064200005 -0.035768572 0.96300006
0.008237143 -0.035694286 0.96100003
0.010067619 -0.035694286 0.96100003
0.025666669 -0.028600002 0.77000004
0.027133334 -0.028600002 0.77000004
0.028525716 -0.028525716 0.76800001
0.029988574 -0.028525716 0.76800001
0.03145143 -0.028525716 0.76800001
0.032914288 -0.028525716 0.76800001
0.034377147 -0.028525716 0.76800001
0.035840001 -0.028525716 0.76800001
0.037302859 -0.028525716 0.76800001
0.038765717 -0.028525716 0.76800001
0.040176194 -0.028488573 0.76700002
0.041637145 -0.028488573 0.76700002
0.043154288 -0.028525716 0.76800001
0.04455905 -0.028488573 0.76700002
0.046020001 -0.028488573 0.76700002
0.047357146 -0.028414287 0.76500005
0.048814289 -0.028414287 0.76500005
0.050271433 -0.028414287 0.76500005
0.051728576 -0.028414287 0.76500005
0.053185716 -0.028414287 0.76500005
0.05464286 -0.028414287 0.76500005
0.056100003 -0.028414287 0.76500005
0.057557147 -0.028414287 0.76500005
0.059168573 -0.028488573 0.76700002
0.060471434 -0.028414287 0.76500005
0.061928574 -0.028414287 0.76500005
0.063385718 -0.028414287 0.76500005
0.064673334 -0.028340003 0.76300001
0.066300005 -0.028414287 0.76500005
0.067580007 -0.028340003 0.76300001
0.069395244 -0.028488573 0.76700002
0.070856199 -0.028488573 0.76700002
0.10017239 -0.036511432 0.98300004
0.10204477 -0.036511432 0.98300004
0.025666669 -0.027133334 0.77000004
0.027062859 -0.027062859 0.76800001
0.028525716 -0.027062859 0.76800001
0.029988574 -0.027062859 0.76800001
0.03145143 -0.027062859 0.76800001
0.032914288 -0.027062859 0.76800001
0.034377147 -0.027062859 0.76800001
0.035840001 -0.027062859 0.76800001
0.037400004 -0.027133334 0.77000004
0.038866669 -0.027133334 0.77000004
0.040228575 -0.027062859 0.76800001
0.04169143 -0.027062859 0.76800001
0.043154288 -0.027062859 0.76800001
0.04455905 -0.02702762 0.76700002
0.046020001 -0.02702762 0.76700002
0.047357146 -0.026957145 0.76500005
0.048814289 -0.026957145 0.76500005
0.050271433 -0.026957145 0.76500005
0.051728576 -0.026957145 0.76500005
0.053185716 -0.026957145 0.76500005
0.05464286 -0.026957145 0.76500005
0.056100003 -0.026957145 0.76500005
0.057557147 -0.026957145 0.76500005
0.059168573 -0.02702762 0.76700002
0.060629528 -0.02702762 0.76700002
0.062090479 -0.02702762 0.76700002
0.063385718 -0.026957145 0.76500005
0.064842865 -0.026957145 0.76500005
0.066300005 -0.026957145 0.76500005
0.067757145 -0.026957145 0.76500005
0.094747625 -0.034709524 0.98500007
0.096427627 -0.034639049 0.98300004
0.09830001 -0.034639049 0.98300004
0.099866673 -0.034533337 0.98000002
0.10173334 -0.034533337 0.98000002
0.025666669 -0.025666669 0.77000004
0.027062859 -0.025600001 0.76800001
0.028525716 -0.025600001 0.76800001
0.029988574 -0.025600001 0.76800001
0.03145143 -0.025600001 0.76800001
0.032914288 -0.025600001 0.76800001
0.034377147 -0.025600001 0.76800001
0.035840001 -0.025600001 0.76800001
0.037400004 -0.025666669 0.77000004
0.038866669 -0.025666669 0.77000004
0.040438097 -0.025733335 0.77200001
0.041962858 -0.025766669 0.77300006
0.043154288 -0.025600001 0.76800001
0.044617146 -0.025600001 0.76800001
0.046020001 -0.025566669 0.76700002
0.047357146 -0.025500001 0.76500005
0.048814289 -0.025500001 0.76500005
0.050271433 -0.025500001 0.76500005
0.051728576 -0.025500001 0.76500005
0.053324766 -0.025566669 0.76700002
0.05464286 -0.025500001 0.76500005
0.056246672 -0.025566669 0.76700002
0.057707623 -0.025566669 0.76700002
0.062171433 -0.025600001 0.76800001
0.064842865 -0.025500001 0.76500005
0.066300005 -0.025500001 0.76500005
0.094555244 -0.03276667 0.98300004
0.096427627 -0.03276667 0.98300004
0.098000005 -0.032666668 0.98000002
0.099866673 -0.032666668 0.98000002
0.10173334 -0.032666668 0.98000002
0.025666669 -0.024200002 0.77000004
0.027062859 -0.024137145 0.76800001
0.028600002 -0.024200002 0.77000004
0.029988574 -0.024137145 0.76800001
0.03145143 -0.024137145 0.76800001
0.032914288 -0.024137145 0.76800001
0.034466669 -0.024200002 0.77000004
0.035933334 -0.024200002 0.77000004
0.037400004 -0.024200002 0.77000004
0.038967621 -0.024262859 0.77200001
0.040438097 -0.024262859 0.77200001
0.04169143 -0.024137145 0.76800001
0.043154288 -0.024137145 0.76800001
0.044617146 -0.024137145 0.76800001
0.046020001 -0.024105716 0.76700002
0.047357146 -0.024042858 0.76500005
0.048814289 -0.024042858 0.76500005
0.050402861 -0.024105716 0.76700002
0.051728576 -0.024042858 0.76500005
0.053324766 -0.024105716 0.76700002
0.054785717 -0.024105716 0.76700002
0.056246672 -0.024105716 0.76700002
0.057933338 -0.024200002 0.77000004
0.066300005 -0.024042858 0.76500005
0.067757145 -0.024042858 0.76500005
0.025666669 -0.022733334 0.77000004
0.027133334 -0.022733334 0.77000004
0.028600002 -0.022733334 0.77000004
0.030066669 -0.022733334 0.77000004
0.031533334 -0.022733334 0.77000004
0.033000004 -0.022733334 0.77000004
0.034556191 -0.022792382 0.77200001
0.036026668 -0.022792382 0.77200001
0.037497144 -0.022792382 0.77200001
0.038967621 -0.022792382 0.77200001
0.040438097 -0.022792382 0.77200001
0.041800003 -0.022733334 0.77000004
0.043154288 -0.022674287 0.76800001
0.04455905 -0.022644764 0.76700002
0.045900002 -0.022585716 0.76500005
0.047480956 -0.022644764 0.76700002
0.048814289 -0.022585716 0.76500005
0.050402861 -0.022644764 0.76700002
0.051863812 -0.022644764 0.76700002
0.053324766 -0.022644764 0.76700002
0.054785717 -0.022644764 0.76700002
0.056320004 -0.022674287 0.76800001
0.057933338 -0.022733334 0.77000004
0.066473335 -0.022644764 0.76700002
0.027133334 -0.021266667 0.77000004
0.028600002 -0.021266667 0.77000004
0.030144764 -0.021321906 0.77200001
0.031656191 -0.021349525 0.77300006
0.033085715 -0.021321906 0.77200001
0.034556191 -0.021321906 0.77200001
0.036026668 -0.021321906 0.77200001
0.037497144 -0.021321906 0.77200001
0.038967621 -0.021321906 0.77200001
0.041908573 -0.021321906 0.77200001
0.04337905 -0.021321906 0.77200001
0.047542859 -0.02121143 0.76800001
0.049005717 -0.02121143 0.76800001
0.050468575 -0.02121143 0.76800001
0.051931433 -0.02121143 0.76800001
0.053394288 -0.02121143 0.76800001
0.055000003 -0.021266667 0.77000004
0.056613337 -0.021321906 0.77200001
0.058083814 -0.021321906 0.77200001
0.028711431 -0.019877145 0.77300006
0.030183811 -0.019877145 0.77300006
0.031656191 -0.019877145 0.77300006
0.033085715 -0.019851429 0.77200001
0.034556191 -0.019851429 0.77200001
0.036026668 -0.019851429 0.77200001
0.050600003 -0.019800002 0.77000004
0.051931433 -0.019748572 0.76800001
0.053533338 -0.019800002 0.77000004
0.055142861 -0.019851429 0.77200001
0.056613337 -0.019851429 0.77200001
0.028785717 -0.018452382 0.77500004
0.030261906 -0.018452382 0.77500004
0.031738099 -0.018452382 0.77500004
0.033128574 -0.018404763 0.77300006
0.034600955 -0.018404763 0.77300006
0.036166668 -0.018452382 0.77500004
0.037642859 -0.018452382 0.77500004
0.050600003 -0.018333334 0.77000004
0.052066669 -0.018333334 0.77000004
0.053672384 -0.018380953 0.77200001
0.055142861 -0.018380953 0.77200001
0.05668667 -0.018404763 0.77300006
0.05815905 -0.018404763 0.77300006
0.025966669 -0.017063811 0.77900004
0.027450478 -0.017063811 0.77900004
0.028934287 -0.017063811 0.77900004
0.030418098 -0.017063811 0.77900004
0.031820003 -0.017020002 0.77700001
0.03321429 -0.016976191 0.77500004
0.034690477 -0.016976191 0.77500004
0.036166668 -0.016976191 0.77500004
0.037642859 -0.016976191 0.77500004
0.03911905 -0.016976191 0.77500004
0.050731432 -0.016910477 0.77200001
0.052201908 -0.016910477 0.77200001
0.05374191 -0.016932381 0.77300006
0.05521429 -0.016932381 0.77300006
0.05668667 -0.016932381 0.77300006
0.05815905 -0.016932381 0.77300006
0.059631433 -0.016932381 0.77300006
0.030340003 -0.015540001 0.77700001
0.031820003 -0.015540001 0.77700001
0.033128574 -0.015460001 0.77300006
0.034600955 -0.015460001 0.77300006
0.036166668 -0.015500001 0.77500004
0.037642859 -0.015500001 0.77500004
0.03911905 -0.015500001 0.77500004
0.040595241 -0.015500001 0.77500004
0.050797146 -0.015460001 0.77300006
0.052269526 -0.015460001 0.77300006
0.05374191 -0.015460001 0.77300006
0.05521429 -0.015460001 0.77300006
0.05668667 -0.015460001 0.77300006
0.05815905 -0.015460001 0.77300006
0.059631433 -0.015460001 0.77300006
0.030418098 -0.014096191 0.77900004
0.031901907 -0.014096191 0.77900004
0.03321429 -0.014023811 0.77500004
0.034600955 -0.01398762 0.77300006
0.036166668 -0.014023811 0.77500004
0.037545718 -0.01398762 0.77300006
0.039018098 -0.01398762 0.77300006
0.040490478 -0.01398762 0.77300006
0.041962858 -0.01398762 0.77300006
0.050928574 -0.014023811 0.77500004
0.052269526 -0.01398762 0.77300006
0.05374191 -0.01398762 0.77300006
0.05521429 -0.01398762 0.77300006
0.05668667 -0.01398762 0.77300006
0.05815905 -0.01398762 0.77300006
0.059631433 -0.01398762 0.77300006
0.061261907 -0.014023811 0.77500004
0.062738098 -0.014023811 0.77500004
0.030340003 -0.012580001 0.77700001
0.031820003 -0.012580001 0.77700001
0.033128574 -0.012515238 0.77300006
0.034556191 -0.012499048 0.77200001
0.036073335 -0.012515238 0.77300006
0.037497144 -0.012499048 0.77200001
