# .PCD v0.7 - Point Cloud Data file format
VERSION 0.7
FIELDS x y z
SIZE 4 4 4
TYPE F F F
COUNT 1 1 1
WIDTH 1352
HEIGHT 1
VIEWPOINT 0 0 0 1 0 0 0
POINTS 1352
DATA ascii
-0.17226763 -0.062812388 0.65300006
-0.17154764 -0.063004769 0.65500003
-0.17030001 -0.063004769 0.65500003
-0.16905239 -0.063004769 0.65500003
-0.16729239 -0.062812388 0.65300006
-0.16604859 -0.062812388 0.65300006
-0.16455239 -0.062716193 0.65200001
-0.16331048 -0.062716193 0.65200001
-0.16157144 -0.062523812 0.65000004
-0.15984002 -0.062331434 0.648
-0.15860572 -0.062331434 0.648
-0.15737143 -0.062331434 0.648
-0.15613715 -0.062331434 0.648
-0.15490286 -0.062331434 0.648
-0.15343145 -0.062235244 0.64700001
-0.15196382 -0.062139053 0.64600003
-0.15026668 -0.061946671 0.64400005
-0.14904001 -0.061946671 0.64400005
-0.14781335 -0.061946671 0.64400005
-0.14658667 -0.061946671 0.64400005
-0.14536001 -0.061946671 0.64400005
-0.14413334 -0.061946671 0.64400005
-0.14290668 -0.061946671 0.64400005
-0.1419 -0.062042862 0.64500004
-0.14045334 -0.061946671 0.64400005
-0.13944286 -0.062042862 0.64500004
-0.13821429 -0.062042862 0.64500004
-0.13698572 -0.062042862 0.64500004
-0.13575715 -0.062042862 0.64500004
-0.13473715 -0.062139053 0.64600003
-0.13371333 -0.062235244 0.64700001
-0.13248096 -0.062235244 0.64700001
-0.13145144 -0.062331434 0.648
-0.13021715 -0.062331434 0.648
-0.12938096 -0.062523812 0.65000004
-0.12814286 -0.062523812 0.65000004
-0.12710001 -0.062620007 0.65100002
-0.12605335 -0.062716193 0.65200001
-0.12500286 -0.062812388 0.65300006
-0.12375905 -0.062812388 0.65300006
-0.12326572 -0.063197143 0.65700001
-0.12201429 -0.063197143 0.65700001
-0.18599048 -0.062417146 0.66200006
-0.18472953 -0.062417146 0.66200006
-0.1829143 -0.062228575 0.66000003
-0.18110667 -0.062040005 0.65800005
-0.17958002 -0.061945718 0.65700001
-0.17778572 -0.061757147 0.65500003
-0.17653811 -0.061757147 0.65500003
-0.17529048 -0.061757147 0.65500003
-0.17351145 -0.061568577 0.65300006
-0.17226763 -0.061568577 0.65300006
-0.17154764 -0.061757147 0.65500003
-0.16978002 -0.061568577 0.65300006
-0.16905239 -0.061757147 0.65500003
-0.16729239 -0.061568577 0.65300006
-0.16604859 -0.061568577 0.65300006
-0.16455239 -0.06147429 0.65200001
-0.16331048 -0.06147429 0.65200001
-0.16157144 -0.061285719 0.65000004
-0.15984002 -0.061097145 0.648
-0.15860572 -0.061097145 0.648
-0.15737143 -0.061097145 0.648
-0.15613715 -0.061097145 0.648
-0.15490286 -0.061097145 0.648
-0.15343145 -0.061002862 0.64700001
-0.15219906 -0.061002862 0.64700001
-0.15050001 -0.060814291 0.64500004
-0.14904001 -0.060720004 0.64400005
-0.14781335 -0.060720004 0.64400005
-0.14658667 -0.060720004 0.64400005
-0.14536001 -0.060720004 0.64400005
-0.14413334 -0.060720004 0.64400005
-0.14290668 -0.060720004 0.64400005
-0.1419 -0.060814291 0.64500004
-0.14045334 -0.060720004 0.64400005
-0.13922668 -0.060720004 0.64400005
-0.13821429 -0.060814291 0.64500004
-0.13698572 -0.060814291 0.64500004
-0.13575715 -0.060814291 0.64500004
-0.13473715 -0.060908575 0.64600003
-0.13371333 -0.061002862 0.64700001
-0.13268572 -0.061097145 0.648
-0.13145144 -0.061097145 0.648
-0.13021715 -0.061097145 0.648
-0.12898287 -0.061097145 0.648
-0.12814286 -0.061285719 0.65000004
-0.12729524 -0.06147429 0.65200001
-0.12624668 -0.061568577 0.65300006
-0.12500286 -0.061568577 0.65300006
-0.1241381 -0.061757147 0.65500003
-0.1230781 -0.061851434 0.65600002
-0.12201429 -0.061945718 0.65700001
-0.1829143 -0.060971431 0.66000003
-0.18110667 -0.060786672 0.65800005
-0.17958002 -0.060694288 0.65700001
-0.17778572 -0.060509529 0.65500003
-0.17653811 -0.060509529 0.65500003
-0.17475525 -0.060324766 0.65300006
-0.17351145 -0.060324766 0.65300006
-0.17226763 -0.060324766 0.65300006
-0.17154764 -0.060509529 0.65500003
-0.16978002 -0.060324766 0.65300006
-0.16905239 -0.060509529 0.65500003
-0.16729239 -0.060324766 0.65300006
-0.16604859 -0.060324766 0.65300006
-0.16480477 -0.060324766 0.65300006
-0.16331048 -0.060232386 0.65200001
-0.16182001 -0.060140003 0.65100002
-0.16033335 -0.060047623 0.65000004
-0.15909524 -0.060047623 0.65000004
-0.15737143 -0.05986286 0.648
-0.15661906 -0.060047623 0.65000004
-0.15490286 -0.05986286 0.648
-0.15343145 -0.05977048 0.64700001
-0.15196382 -0.0596781 0.64600003
-0.15050001 -0.059585717 0.64500004
-0.14927144 -0.059585717 0.64500004
-0.14804287 -0.059585717 0.64500004
-0.1468143 -0.059585717 0.64500004
-0.14558573 -0.059585717 0.64500004
-0.14435716 -0.059585717 0.64500004
-0.14290668 -0.059493337 0.64400005
-0.1419 -0.059585717 0.64500004
-0.14067143 -0.059585717 0.64500004
-0.13922668 -0.059493337 0.64400005
-0.13821429 -0.059585717 0.64500004
-0.13719811 -0.0596781 0.64600003
-0.13596763 -0.0596781 0.64600003
-0.13494572 -0.05977048 0.64700001
-0.13371333 -0.05977048 0.64700001
-0.13268572 -0.05986286 0.648
-0.13145144 -0.05986286 0.648
-0.13061905 -0.060047623 0.65000004
-0.12898287 -0.05986286 0.648
-0.12814286 -0.060047623 0.65000004
-0.12729524 -0.060232386 0.65200001
-0.12605335 -0.060232386 0.65200001
-0.12481143 -0.060232386 0.65200001
-0.12375905 -0.060324766 0.65300006
-0.12289049 -0.060509529 0.65500003
-0.12164287 -0.060509529 0.65500003
-0.1829143 -0.059714291 0.66000003
-0.18110667 -0.059533339 0.65800005
-0.17958002 -0.059442863 0.65700001
-0.17778572 -0.059261907 0.65500003
-0.17653811 -0.059261907 0.65500003
-0.17529048 -0.059261907 0.65500003
-0.17404287 -0.059261907 0.65500003
-0.17279525 -0.059261907 0.65500003
-0.17154764 -0.059261907 0.65500003
-0.17030001 -0.059261907 0.65500003
-0.16905239 -0.059261907 0.65500003
-0.16780478 -0.059261907 0.65500003
-0.16604859 -0.059080955 0.65300006
-0.16480477 -0.059080955 0.65300006
-0.16356096 -0.059080955 0.65300006
-0.16182001 -0.058900002 0.65100002
-0.16082668 -0.058990479 0.65200001
-0.15934001 -0.058900002 0.65100002
-0.15785715 -0.058809526 0.65000004
-0.15686001 -0.058900002 0.65100002
-0.15562001 -0.058900002 0.65100002
-0.15438001 -0.058900002 0.65100002
-0.15172859 -0.058357146 0.64500004
-0.15026668 -0.05826667 0.64400005
-0.14904001 -0.05826667 0.64400005
-0.14781335 -0.05826667 0.64400005
-0.1468143 -0.058357146 0.64500004
-0.14558573 -0.058357146 0.64500004
-0.14458096 -0.058447622 0.64600003
-0.14335048 -0.058447622 0.64600003
-0.14212 -0.058447622 0.64600003
-0.14067143 -0.058357146 0.64500004
-0.13944286 -0.058357146 0.64500004
-0.13821429 -0.058357146 0.64500004
-0.13719811 -0.058447622 0.64600003
-0.13596763 -0.058447622 0.64600003
-0.13473715 -0.058447622 0.64600003
-0.13371333 -0.058538098 0.64700001
-0.13248096 -0.058538098 0.64700001
-0.13145144 -0.058628574 0.648
-0.13021715 -0.058628574 0.648
-0.12898287 -0.058628574 0.648
-0.12814286 -0.058809526 0.65000004
-0.12729524 -0.058990479 0.65200001
-0.12605335 -0.058990479 0.65200001
-0.12481143 -0.058990479 0.65200001
-0.12375905 -0.059080955 0.65300006
-0.12289049 -0.059261907 0.65500003
-0.12164287 -0.059261907 0.65500003
-0.18236001 -0.058280002 0.65800005
-0.18110667 -0.058280002 0.65800005
-0.17958002 -0.058191434 0.65700001
-0.17832859 -0.058191434 0.65700001
-0.17680763 -0.058102861 0.65600002
-0.17555811 -0.058102861 0.65600002
-0.17404287 -0.058014289 0.65500003
-0.17279525 -0.058014289 0.65500003
-0.17154764 -0.058014289 0.65500003
-0.17030001 -0.058014289 0.65500003
-0.16905239 -0.058014289 0.65500003
-0.16729239 -0.057837147 0.65300006
-0.16604859 -0.057837147 0.65300006
-0.16480477 -0.057837147 0.65300006
-0.16331048 -0.057748575 0.65200001
-0.16182001 -0.057660002 0.65100002
-0.16082668 -0.057748575 0.65200001
-0.15958478 -0.057748575 0.65200001
-0.15810001 -0.057660002 0.65100002
-0.15686001 -0.057660002 0.65100002
-0.15562001 -0.057660002 0.65100002
-0.15050001 -0.057128575 0.64500004
-0.14927144 -0.057128575 0.64500004
-0.14804287 -0.057128575 0.64500004
-0.1468143 -0.057128575 0.64500004
-0.14581144 -0.057217147 0.64600003
-0.14458096 -0.057217147 0.64600003
-0.14335048 -0.057217147 0.64600003
-0.14212 -0.057217147 0.64600003
-0.14088954 -0.057217147 0.64600003
-0.13944286 -0.057128575 0.64500004
-0.13842858 -0.057217147 0.64600003
-0.13719811 -0.057217147 0.64600003
-0.13617811 -0.05730572 0.64700001
-0.13494572 -0.05730572 0.64700001
-0.13371333 -0.05730572 0.64700001
-0.13268572 -0.057394288 0.648
-0.13145144 -0.057394288 0.648
-0.13021715 -0.057394288 0.648
-0.12938096 -0.057571433 0.65000004
-0.12814286 -0.057571433 0.65000004
-0.12710001 -0.057660002 0.65100002
-0.12605335 -0.057748575 0.65200001
-0.12481143 -0.057748575 0.65200001
-0.12356953 -0.057748575 0.65200001
-0.12251525 -0.057837147 0.65300006
-0.12164287 -0.058014289 0.65500003
-0.18110667 -0.057026669 0.65800005
-0.17958002 -0.056940004 0.65700001
-0.17805715 -0.056853335 0.65600002
-0.17680763 -0.056853335 0.65600002
-0.17555811 -0.056853335 0.65600002
-0.17430858 -0.056853335 0.65600002
-0.17305906 -0.056853335 0.65600002
-0.17180954 -0.056853335 0.65600002
-0.17056002 -0.056853335 0.65600002
-0.16905239 -0.05676667 0.65500003
-0.16780478 -0.05676667 0.65500003
-0.16604859 -0.056593336 0.65300006
-0.16480477 -0.056593336 0.65300006
-0.16356096 -0.056593336 0.65300006
-0.16231716 -0.056593336 0.65300006
-0.16082668 -0.056506671 0.65200001
-0.15982953 -0.056593336 0.65300006
-0.15858573 -0.056593336 0.65300006
-0.15734191 -0.056593336 0.65300006
-0.15609811 -0.056593336 0.65300006
-0.1548543 -0.056593336 0.65300006
-0.15243429 -0.056160003 0.648
-0.15096667 -0.056073338 0.64700001
-0.14950287 -0.055986669 0.64600003
-0.1482724 -0.055986669 0.64600003
-0.14726953 -0.056073338 0.64700001
-0.14603715 -0.056073338 0.64700001
-0.14480478 -0.056073338 0.64700001
-0.14357239 -0.056073338 0.64700001
-0.14234 -0.056073338 0.64700001
-0.14110763 -0.056073338 0.64700001
-0.13987525 -0.056073338 0.64700001
-0.13864286 -0.056073338 0.64700001
-0.13741049 -0.056073338 0.64700001
-0.13617811 -0.056073338 0.64700001
-0.13515429 -0.056160003 0.648
-0.13392001 -0.056160003 0.648
-0.13268572 -0.056160003 0.648
-0.13185716 -0.056333337 0.65000004
-0.13061905 -0.056333337 0.65000004
-0.12938096 -0.056333337 0.65000004
-0.12834001 -0.056420002 0.65100002
-0.12729524 -0.056506671 0.65200001
-0.12605335 -0.056506671 0.65200001
-0.12481143 -0.056506671 0.65200001
-0.12375905 -0.056593336 0.65300006
-0.12232763 -0.056506671 0.65200001
-0.18110667 -0.055773336 0.65800005
-0.17985335 -0.055773336 0.65800005
-0.17832859 -0.055688575 0.65700001
-0.17707716 -0.055688575 0.65700001
-0.17582573 -0.055688575 0.65700001
-0.1745743 -0.055688575 0.65700001
-0.17305906 -0.055603813 0.65600002
-0.17207144 -0.055688575 0.65700001
-0.17056002 -0.055603813 0.65600002
-0.16905239 -0.055519052 0.65500003
-0.16780478 -0.055519052 0.65500003
-0.16604859 -0.055349529 0.65300006
-0.16480477 -0.055349529 0.65300006
-0.16356096 -0.055349529 0.65300006
-0.16231716 -0.055349529 0.65300006
-0.16107334 -0.055349529 0.65300006
-0.15982953 -0.055349529 0.65300006
-0.15858573 -0.055349529 0.65300006
-0.15734191 -0.055349529 0.65300006
-0.1565762 -0.055519052 0.65500003
-0.1548543 -0.055349529 0.65300006
-0.15243429 -0.054925717 0.648
-0.15096667 -0.054840956 0.64700001
-0.14950287 -0.054756194 0.64600003
-0.14850192 -0.054840956 0.64700001
-0.14726953 -0.054840956 0.64700001
-0.14603715 -0.054840956 0.64700001
-0.14480478 -0.054840956 0.64700001
-0.14357239 -0.054840956 0.64700001
-0.14234 -0.054840956 0.64700001
-0.14110763 -0.054840956 0.64700001
-0.13987525 -0.054840956 0.64700001
-0.13864286 -0.054840956 0.64700001
-0.13741049 -0.054840956 0.64700001
-0.13638858 -0.054925717 0.648
-0.13557144 -0.05509524 0.65000004
-0.13433334 -0.05509524 0.65000004
-0.13309525 -0.05509524 0.65000004
-0.13206001 -0.055180002 0.65100002
-0.13102096 -0.055264767 0.65200001
-0.12977906 -0.055264767 0.65200001
-0.12853715 -0.055264767 0.65200001
-0.12729524 -0.055264767 0.65200001
-0.12624668 -0.055349529 0.65300006
-0.12500286 -0.055349529 0.65300006
-0.12375905 -0.055349529 0.65300006
-0.12251525 -0.055349529 0.65300006
-0.18110667 -0.054520003 0.65800005
-0.17985335 -0.054520003 0.65800005
-0.17860001 -0.054520003 0.65800005
-0.17707716 -0.054437146 0.65700001
-0.17582573 -0.054437146 0.65700001
-0.1745743 -0.054437146 0.65700001
-0.17332287 -0.054437146 0.65700001
-0.17207144 -0.054437146 0.65700001
-0.17056002 -0.054354288 0.65600002
-0.16905239 -0.054271434 0.65500003
-0.16780478 -0.054271434 0.65500003
-0.16604859 -0.054105718 0.65300006
-0.16480477 -0.054105718 0.65300006
-0.16356096 -0.054105718 0.65300006
-0.16231716 -0.054105718 0.65300006
-0.16107334 -0.054105718 0.65300006
-0.15982953 -0.054105718 0.65300006
-0.15858573 -0.054105718 0.65300006
-0.15734191 -0.054105718 0.65300006
-0.1565762 -0.054271434 0.65500003
-0.1548543 -0.054105718 0.65300006
-0.15243429 -0.053691432 0.648
-0.15096667 -0.053608574 0.64700001
-0.14973429 -0.053608574 0.64700001
-0.14850192 -0.053608574 0.64700001
-0.14726953 -0.053608574 0.64700001
-0.14626287 -0.053691432 0.648
-0.14480478 -0.053608574 0.64700001
-0.14357239 -0.053608574 0.64700001
-0.14256001 -0.053691432 0.648
-0.14110763 -0.053608574 0.64700001
-0.13987525 -0.053608574 0.64700001
-0.13864286 -0.053608574 0.64700001
-0.13741049 -0.053608574 0.64700001
-0.13638858 -0.053691432 0.648
-0.13557144 -0.053857148 0.65000004
-0.13433334 -0.053857148 0.65000004
-0.13309525 -0.053857148 0.65000004
-0.13206001 -0.053940002 0.65100002
-0.13102096 -0.05402286 0.65200001
-0.12977906 -0.05402286 0.65200001
-0.12853715 -0.05402286 0.65200001
-0.12749049 -0.054105718 0.65300006
-0.12624668 -0.054105718 0.65300006
-0.12500286 -0.054105718 0.65300006
-0.1241381 -0.054271434 0.65500003
-0.1230781 -0.054354288 0.65600002
-0.12182858 -0.054354288 0.65600002
-0.17985335 -0.053266671 0.65800005
-0.17860001 -0.053266671 0.65800005
-0.17734668 -0.053266671 0.65800005
-0.17609334 -0.053266671 0.65800005
-0.1745743 -0.053185716 0.65700001
-0.17358668 -0.053266671 0.65800005
-0.17233334 -0.053266671 0.65800005
-0.17108001 -0.053266671 0.65800005
-0.16982667 -0.053266671 0.65800005
-0.16806096 -0.053104766 0.65600002
-0.16655715 -0.053023811 0.65500003
-0.16480477 -0.052861907 0.65300006
-0.16356096 -0.052861907 0.65300006
-0.16231716 -0.052861907 0.65300006
-0.16107334 -0.052861907 0.65300006
-0.15982953 -0.052861907 0.65300006
-0.15858573 -0.052861907 0.65300006
-0.15710096 -0.052780956 0.65200001
-0.15585905 -0.052780956 0.65200001
-0.15438001 -0.052700002 0.65100002
-0.15243429 -0.052457146 0.648
-0.15120001 -0.052457146 0.648
-0.14973429 -0.052376192 0.64700001
-0.14850192 -0.052376192 0.64700001
-0.14726953 -0.052376192 0.64700001
-0.14626287 -0.052457146 0.648
-0.14502858 -0.052457146 0.648
-0.1437943 -0.052457146 0.648
-0.14256001 -0.052457146 0.648
-0.14132573 -0.052457146 0.648
-0.14009143 -0.052457146 0.648
-0.13885716 -0.052457146 0.648
-0.13762286 -0.052457146 0.648
-0.13638858 -0.052457146 0.648
-0.13557144 -0.052619051 0.65000004
-0.13433334 -0.052619051 0.65000004
-0.13330001 -0.052700002 0.65100002
-0.13226287 -0.052780956 0.65200001
-0.13102096 -0.052780956 0.65200001
-0.12977906 -0.052780956 0.65200001
-0.12873429 -0.052861907 0.65300006
-0.12749049 -0.052861907 0.65300006
-0.12624668 -0.052861907 0.65300006
-0.12500286 -0.052861907 0.65300006
-0.12432763 -0.053104766 0.65600002
-0.12326572 -0.053185716 0.65700001
-0.12201429 -0.053185716 0.65700001
-0.17985335 -0.052013338 0.65800005
-0.17914286 -0.052171431 0.66000003
-0.17734668 -0.052013338 0.65800005
-0.17609334 -0.052013338 0.65800005
-0.17484002 -0.052013338 0.65800005
-0.17358668 -0.052013338 0.65800005
-0.17285715 -0.052171431 0.66000003
-0.17108001 -0.052013338 0.65800005
-0.16982667 -0.052013338 0.65800005
-0.16780478 -0.051776193 0.65500003
-0.16655715 -0.051776193 0.65500003
-0.16455239 -0.051539052 0.65200001
-0.16331048 -0.051539052 0.65200001
-0.16206858 -0.051539052 0.65200001
-0.16082668 -0.051539052 0.65200001
-0.15982953 -0.051618099 0.65300006
-0.15834287 -0.051539052 0.65200001
-0.15686001 -0.051460002 0.65100002
-0.15562001 -0.051460002 0.65100002
-0.15366858 -0.051222861 0.648
-0.15243429 -0.051222861 0.648
-0.15096667 -0.051143814 0.64700001
-0.14973429 -0.051143814 0.64700001
-0.14850192 -0.051143814 0.64700001
-0.14749715 -0.051222861 0.648
-0.14626287 -0.051222861 0.648
-0.14502858 -0.051222861 0.648
-0.1437943 -0.051222861 0.648
-0.14256001 -0.051222861 0.648
-0.14132573 -0.051222861 0.648
-0.14009143 -0.051222861 0.648
-0.13885716 -0.051222861 0.648
-0.13762286 -0.051222861 0.648
-0.13680953 -0.051380955 0.65000004
-0.13578001 -0.051460002 0.65100002
-0.13454001 -0.051460002 0.65100002
-0.13350476 -0.051539052 0.65200001
-0.13226287 -0.051539052 0.65200001
-0.13082001 -0.051460002 0.65100002
-0.12997811 -0.051618099 0.65300006
-0.12873429 -0.051618099 0.65300006
-0.12749049 -0.051618099 0.65300006
-0.12663335 -0.051776193 0.65500003
-0.12538572 -0.051776193 0.65500003
-0.12432763 -0.05185524 0.65600002
-0.12326572 -0.051934291 0.65700001
-0.12201429 -0.051934291 0.65700001
-0.17985335 -0.050760005 0.65800005
-0.17860001 -0.050760005 0.65800005
-0.17734668 -0.050760005 0.65800005
-0.17609334 -0.050760005 0.65800005
-0.17484002 -0.050760005 0.65800005
-0.17358668 -0.050760005 0.65800005
-0.17285715 -0.050914288 0.66000003
-0.17160001 -0.050914288 0.66000003
-0.17034286 -0.050914288 0.66000003
-0.16729239 -0.050374288 0.65300006
-0.16604859 -0.050374288 0.65300006
-0.16480477 -0.050374288 0.65300006
-0.16356096 -0.050374288 0.65300006
-0.16206858 -0.050297145 0.65200001
-0.16107334 -0.050374288 0.65300006
-0.15982953 -0.050374288 0.65300006
-0.15834287 -0.050297145 0.65200001
-0.15686001 -0.050220001 0.65100002
-0.15562001 -0.050220001 0.65100002
-0.15366858 -0.049988575 0.648
-0.15243429 -0.049988575 0.648
-0.15120001 -0.049988575 0.648
-0.14973429 -0.049911432 0.64700001
-0.14850192 -0.049911432 0.64700001
-0.14749715 -0.049988575 0.648
-0.14626287 -0.049988575 0.648
-0.14502858 -0.049988575 0.648
-0.1437943 -0.049988575 0.648
-0.14256001 -0.049988575 0.648
-0.14132573 -0.049988575 0.648
-0.14009143 -0.049988575 0.648
-0.13885716 -0.049988575 0.648
-0.13804764 -0.050142862 0.65000004
-0.13680953 -0.050142862 0.65000004
-0.13578001 -0.050220001 0.65100002
-0.13474667 -0.050297145 0.65200001
-0.13350476 -0.050297145 0.65200001
-0.13226287 -0.050297145 0.65200001
-0.13102096 -0.050297145 0.65200001
-0.12997811 -0.050374288 0.65300006
-0.12873429 -0.050374288 0.65300006
-0.12749049 -0.050374288 0.65300006
-0.12663335 -0.050528575 0.65500003
-0.12557715 -0.050605718 0.65600002
-0.12432763 -0.050605718 0.65600002
-0.12326572 -0.050682861 0.65700001
-0.12201429 -0.050682861 0.65700001
-0.18110667 -0.049506672 0.65800005
-0.17985335 -0.049506672 0.65800005
-0.17860001 -0.049506672 0.65800005
-0.17734668 -0.049506672 0.65800005
-0.17662859 -0.049657147 0.66000003
-0.17484002 -0.049506672 0.65800005
-0.1741143 -0.049657147 0.66000003
-0.17285715 -0.049657147 0.66000003
-0.17160001 -0.049657147 0.66000003
-0.17034286 -0.049657147 0.66000003
-0.16780478 -0.049280956 0.65500003
-0.16655715 -0.049280956 0.65500003
-0.16480477 -0.049130481 0.65300006
-0.16356096 -0.049130481 0.65300006
-0.16231716 -0.049130481 0.65300006
-0.16107334 -0.049130481 0.65300006
-0.15982953 -0.049130481 0.65300006
-0.15834287 -0.049055241 0.65200001
-0.15710096 -0.049055241 0.65200001
-0.15562001 -0.048980001 0.65100002
-0.15414287 -0.048904765 0.65000004
-0.15243429 -0.04875429 0.648
-0.15120001 -0.04875429 0.648
-0.14973429 -0.04867905 0.64700001
-0.14873144 -0.04875429 0.648
-0.14749715 -0.04875429 0.648
-0.14626287 -0.04875429 0.648
-0.14502858 -0.04875429 0.648
-0.1437943 -0.04875429 0.648
-0.14256001 -0.04875429 0.648
-0.14132573 -0.04875429 0.648
-0.14009143 -0.04875429 0.648
-0.13885716 -0.04875429 0.648
-0.13804764 -0.048904765 0.65000004
-0.13680953 -0.048904765 0.65000004
-0.13598858 -0.049055241 0.65200001
-0.13474667 -0.049055241 0.65200001
-0.13350476 -0.049055241 0.65200001
-0.13226287 -0.049055241 0.65200001
-0.13102096 -0.049055241 0.65200001
-0.12997811 -0.049130481 0.65300006
-0.12873429 -0.049130481 0.65300006
-0.12749049 -0.049130481 0.65300006
-0.12682667 -0.049356192 0.65600002
-0.12576859 -0.049431432 0.65700001
-0.12451715 -0.049431432 0.65700001
-0.12345334 -0.049506672 0.65800005
-0.1222 -0.049506672 0.65800005
-0.12094668 -0.049506672 0.65800005
-0.18040001 -0.048400003 0.66000003
-0.17914286 -0.048400003 0.66000003
-0.17788573 -0.048400003 0.66000003
-0.17662859 -0.048400003 0.66000003
-0.17484002 -0.048253335 0.65800005
-0.1741143 -0.048400003 0.66000003
-0.17285715 -0.048400003 0.66000003
-0.17160001 -0.048400003 0.66000003
-0.17034286 -0.048400003 0.66000003
-0.16780478 -0.048033338 0.65500003
-0.16655715 -0.048033338 0.65500003
-0.16530953 -0.048033338 0.65500003
-0.16356096 -0.04788667 0.65300006
-0.16231716 -0.04788667 0.65300006
-0.16107334 -0.04788667 0.65300006
-0.15982953 -0.04788667 0.65300006
-0.15858573 -0.04788667 0.65300006
-0.15710096 -0.047813337 0.65200001
-0.15585905 -0.047813337 0.65200001
-0.15438001 -0.047740005 0.65100002
-0.15290478 -0.047666669 0.65000004
-0.15166667 -0.047666669 0.65000004
-0.14996572 -0.047520004 0.648
-0.14873144 -0.047520004 0.648
-0.14749715 -0.047520004 0.648
-0.14626287 -0.047520004 0.648
-0.14480478 -0.047446668 0.64700001
-0.14357239 -0.047446668 0.64700001
-0.14256001 -0.047520004 0.648
-0.14132573 -0.047520004 0.648
-0.14009143 -0.047520004 0.648
-0.13928573 -0.047666669 0.65000004
-0.13804764 -0.047666669 0.65000004
-0.13702001 -0.047740005 0.65100002
-0.13598858 -0.047813337 0.65200001
-0.13474667 -0.047813337 0.65200001
-0.13370954 -0.04788667 0.65300006
-0.13226287 -0.047813337 0.65200001
-0.13102096 -0.047813337 0.65200001
-0.12997811 -0.04788667 0.65300006
-0.12873429 -0.04788667 0.65300006
-0.12788096 -0.048033338 0.65500003
-0.12702 -0.048180003 0.65700001
-0.12576859 -0.048180003 0.65700001
-0.12451715 -0.048180003 0.65700001
-0.12345334 -0.048253335 0.65800005
-0.1222 -0.048253335 0.65800005
-0.12094668 -0.048253335 0.65800005
-0.18040001 -0.04714286 0.66000003
-0.17914286 -0.04714286 0.66000003
-0.17788573 -0.04714286 0.66000003
-0.17662859 -0.04714286 0.66000003
-0.17484002 -0.047000002 0.65800005
-0.17358668 -0.047000002 0.65800005
-0.17285715 -0.04714286 0.66000003
-0.17160001 -0.04714286 0.66000003
-0.17034286 -0.04714286 0.66000003
-0.16908573 -0.04714286 0.66000003
-0.16655715 -0.046785716 0.65500003
-0.16530953 -0.046785716 0.65500003
-0.16406192 -0.046785716 0.65500003
-0.16231716 -0.046642859 0.65300006
-0.16107334 -0.046642859 0.65300006
-0.15982953 -0.046642859 0.65300006
-0.15858573 -0.046642859 0.65300006
-0.15734191 -0.046642859 0.65300006
-0.15585905 -0.04657143 0.65200001
-0.15438001 -0.046500005 0.65100002
-0.15290478 -0.046428576 0.65000004
-0.15166667 -0.046428576 0.65000004
-0.14996572 -0.046285719 0.648
-0.14873144 -0.046285719 0.648
-0.14749715 -0.046285719 0.648
-0.14603715 -0.04621429 0.64700001
-0.14480478 -0.04621429 0.64700001
-0.14357239 -0.04621429 0.64700001
-0.14234 -0.04621429 0.64700001
-0.14132573 -0.046285719 0.648
-0.14009143 -0.046285719 0.648
-0.13928573 -0.046428576 0.65000004
-0.13826001 -0.046500005 0.65100002
-0.13723049 -0.04657143 0.65200001
-0.13598858 -0.04657143 0.65200001
-0.13474667 -0.04657143 0.65200001
-0.13370954 -0.046642859 0.65300006
-0.13226287 -0.04657143 0.65200001
-0.13102096 -0.04657143 0.65200001
-0.12997811 -0.046642859 0.65300006
-0.12873429 -0.046642859 0.65300006
-0.12788096 -0.046785716 0.65500003
-0.12702 -0.046928573 0.65700001
-0.12576859 -0.046928573 0.65700001
-0.12470668 -0.047000002 0.65800005
-0.12345334 -0.047000002 0.65800005
-0.1222 -0.047000002 0.65800005
-0.12094668 -0.047000002 0.65800005
-0.18067335 -0.045955241 0.66100001
-0.17914286 -0.045885716 0.66000003
-0.17788573 -0.045885716 0.66000003
-0.17609334 -0.045746669 0.65800005
-0.17484002 -0.045746669 0.65800005
-0.17358668 -0.045746669 0.65800005
-0.17233334 -0.045746669 0.65800005
-0.17108001 -0.045746669 0.65800005
-0.16982667 -0.045746669 0.65800005
-0.16655715 -0.045538098 0.65500003
-0.16530953 -0.045538098 0.65500003
-0.16406192 -0.045538098 0.65500003
-0.16281429 -0.045538098 0.65500003
-0.16107334 -0.045399051 0.65300006
-0.15982953 -0.045399051 0.65300006
-0.15858573 -0.045399051 0.65300006
-0.15734191 -0.045399051 0.65300006
-0.15609811 -0.045399051 0.65300006
-0.15461715 -0.045329526 0.65200001
-0.15314001 -0.045260005 0.65100002
-0.15166667 -0.04519048 0.65000004
-0.14996572 -0.045051433 0.648
-0.14873144 -0.045051433 0.648
-0.14726953 -0.044981908 0.64700001
-0.14603715 -0.044981908 0.64700001
-0.14480478 -0.044981908 0.64700001
-0.14357239 -0.044981908 0.64700001
-0.14234 -0.044981908 0.64700001
-0.14132573 -0.045051433 0.648
-0.14009143 -0.045051433 0.648
-0.13928573 -0.04519048 0.65000004
-0.13826001 -0.045260005 0.65100002
-0.13723049 -0.045329526 0.65200001
-0.13598858 -0.045329526 0.65200001
-0.13474667 -0.045329526 0.65200001
-0.13370954 -0.045399051 0.65300006
-0.13226287 -0.045329526 0.65200001
-0.13102096 -0.045329526 0.65200001
-0.12997811 -0.045399051 0.65300006
-0.12873429 -0.045399051 0.65300006
-0.12749049 -0.045399051 0.65300006
-0.12702 -0.045677144 0.65700001
-0.12576859 -0.045677144 0.65700001
-0.12470668 -0.045746669 0.65800005
-0.12345334 -0.045746669 0.65800005
-0.1222 -0.045746669 0.65800005
-0.18040001 -0.044628575 0.66000003
-0.17914286 -0.044628575 0.66000003
-0.17788573 -0.044628575 0.66000003
-0.17609334 -0.044493336 0.65800005
-0.17484002 -0.044493336 0.65800005
-0.17358668 -0.044493336 0.65800005
-0.17285715 -0.044628575 0.66000003
-0.16481334 -0.044493336 0.65800005
-0.16356002 -0.044493336 0.65800005
-0.16206001 -0.044425718 0.65700001
-0.16056383 -0.044358097 0.65600002
-0.15955715 -0.044425718 0.65700001
-0.15806477 -0.044358097 0.65600002
-0.15681525 -0.044358097 0.65600002
-0.1548543 -0.04415524 0.65300006
-0.15337525 -0.044087622 0.65200001
-0.15190001 -0.044020005 0.65100002
-0.15042858 -0.043952383 0.65000004
-0.14919049 -0.043952383 0.65000004
-0.14749715 -0.043817144 0.648
-0.14626287 -0.043817144 0.648
-0.14480478 -0.043749526 0.64700001
-0.14357239 -0.043749526 0.64700001
-0.14256001 -0.043817144 0.648
-0.14132573 -0.043817144 0.648
-0.14052382 -0.043952383 0.65000004
-0.13950001 -0.044020005 0.65100002
-0.13847239 -0.044087622 0.65200001
-0.13723049 -0.044087622 0.65200001
-0.13619715 -0.04415524 0.65300006
-0.13495333 -0.04415524 0.65300006
-0.13370954 -0.04415524 0.65300006
-0.13246572 -0.04415524 0.65300006
-0.13122192 -0.04415524 0.65300006
-0.12997811 -0.04415524 0.65300006
-0.12873429 -0.04415524 0.65300006
-0.12721334 -0.044493336 0.65800005
-0.12596001 -0.044493336 0.65800005
-0.12470668 -0.044493336 0.65800005
-0.12345334 -0.044493336 0.65800005
-0.1222 -0.044493336 0.65800005
-0.18110667 -0.043240003 0.65800005
-0.17985335 -0.043240003 0.65800005
-0.17860001 -0.043240003 0.65800005
-0.17734668 -0.043240003 0.65800005
-0.17609334 -0.043240003 0.65800005
-0.17484002 -0.043240003 0.65800005
-0.17358668 -0.043240003 0.65800005
-0.16356002 -0.043240003 0.65800005
-0.16230668 -0.043240003 0.65800005
-0.16056383 -0.043108575 0.65600002
-0.15955715 -0.043174289 0.65700001
-0.15830572 -0.043174289 0.65700001
-0.15705429 -0.043174289 0.65700001
-0.15532859 -0.043042861 0.65500003
-0.15361048 -0.042911433 0.65300006
-0.15213335 -0.042845719 0.65200001
-0.15042858 -0.04271429 0.65000004
-0.14919049 -0.04271429 0.65000004
-0.14749715 -0.042582858 0.648
-0.14626287 -0.042582858 0.648
-0.14480478 -0.042517144 0.64700001
-0.14357239 -0.042517144 0.64700001
-0.14256001 -0.042582858 0.648
-0.14176191 -0.04271429 0.65000004
-0.14052382 -0.04271429 0.65000004
-0.13950001 -0.042780004 0.65100002
-0.13847239 -0.042845719 0.65200001
-0.13744096 -0.042911433 0.65300006
-0.13619715 -0.042911433 0.65300006
-0.13495333 -0.042911433 0.65300006
-0.13370954 -0.042911433 0.65300006
-0.13246572 -0.042911433 0.65300006
-0.13122192 -0.042911433 0.65300006
-0.12997811 -0.042911433 0.65300006
-0.12721334 -0.043240003 0.65800005
-0.12596001 -0.043240003 0.65800005
-0.12470668 -0.043240003 0.65800005
-0.12345334 -0.043240003 0.65800005
-0.1222 -0.043240003 0.65800005
-0.12094668 -0.043240003 0.65800005
-0.17958002 -0.04192286 0.65700001
-0.17860001 -0.04198667 0.65800005
-0.17734668 -0.04198667 0.65800005
-0.17582573 -0.04192286 0.65700001
-0.16230668 -0.04198667 0.65800005
-0.16056383 -0.041859049 0.65600002
-0.15980001 -0.04198667 0.65800005
-0.15854667 -0.04198667 0.65800005
-0.15705429 -0.04192286 0.65700001
-0.15556572 -0.041859049 0.65600002
-0.15361048 -0.041667622 0.65300006
-0.15213335 -0.041603811 0.65200001
-0.15066001 -0.041540004 0.65100002
-0.14942001 -0.041540004 0.65100002
-0.14749715 -0.041348573 0.648
-0.14626287 -0.041348573 0.648
-0.14502858 -0.041348573 0.648
-0.1437943 -0.041348573 0.648
-0.14300001 -0.041476194 0.65000004
-0.14198001 -0.041540004 0.65100002
-0.14095619 -0.041603811 0.65200001
-0.1397143 -0.041603811 0.65200001
-0.13868476 -0.041667622 0.65300006
-0.13744096 -0.041667622 0.65300006
-0.13619715 -0.041667622 0.65300006
-0.13495333 -0.041667622 0.65300006
-0.13370954 -0.041667622 0.65300006
-0.13246572 -0.041667622 0.65300006
-0.13122192 -0.041667622 0.65300006
-0.12257144 -0.042114288 0.66000003
-0.1214981 -0.042178098 0.66100001
-0.12023906 -0.042178098 0.66100001
-0.18083145 -0.040671431 0.65700001
-0.17958002 -0.040671431 0.65700001
-0.17860001 -0.040733337 0.65800005
-0.17734668 -0.040733337 0.65800005
-0.17609334 -0.040733337 0.65800005
-0.16230668 -0.040733337 0.65800005
-0.16080858 -0.040671431 0.65700001
-0.15980001 -0.040733337 0.65800005
-0.15854667 -0.040733337 0.65800005
-0.15729335 -0.040733337 0.65800005
-0.15580286 -0.040671431 0.65700001
-0.15408096 -0.040547621 0.65500003
-0.15236668 -0.04042381 0.65300006
-0.15066001 -0.040300004 0.65100002
-0.14942001 -0.040300004 0.65100002
-0.14795239 -0.040238097 0.65000004
-0.1467143 -0.040238097 0.65000004
-0.14547621 -0.040238097 0.65000004
-0.1442381 -0.040238097 0.65000004
-0.14322001 -0.040300004 0.65100002
-0.1421981 -0.040361907 0.65200001
-0.14095619 -0.040361907 0.65200001
-0.13992858 -0.04042381 0.65300006
-0.13868476 -0.04042381 0.65300006
-0.13744096 -0.04042381 0.65300006
-0.13619715 -0.04042381 0.65300006
-0.13495333 -0.04042381 0.65300006
-0.13370954 -0.04042381 0.65300006
-0.13246572 -0.04042381 0.65300006
-0.13122192 -0.04042381 0.65300006
-0.12257144 -0.040857144 0.66000003
-0.12168191 -0.040980954 0.66200006
-0.12042096 -0.040980954 0.66200006
-0.17985335 -0.039480001 0.65800005
-0.16105334 -0.039480001 0.65800005
-0.16028573 -0.039600004 0.66000003
-0.15902857 -0.039600004 0.66000003
-0.15777144 -0.039600004 0.66000003
-0.15604001 -0.039480001 0.65800005
-0.15478668 -0.039480001 0.65800005
-0.15353334 -0.039480001 0.65800005
-0.15066001 -0.039060004 0.65100002
-0.14942001 -0.039060004 0.65100002
-0.14818001 -0.039060004 0.65100002
-0.14694001 -0.039060004 0.65100002
-0.14570001 -0.039060004 0.65100002
-0.14446001 -0.039060004 0.65100002
-0.14344001 -0.039120004 0.65200001
-0.14241619 -0.039180003 0.65300006
-0.14117239 -0.039180003 0.65300006
-0.14035715 -0.039300002 0.65500003
-0.13910954 -0.039300002 0.65500003
-0.13786191 -0.039300002 0.65500003
-0.13619715 -0.039180003 0.65300006
-0.13536668 -0.039300002 0.65500003
-0.13411906 -0.039300002 0.65500003
-0.13287143 -0.039300002 0.65500003
-0.13162382 -0.039300002 0.65500003
-0.12294286 -0.039720003 0.66200006
-0.12168191 -0.039720003 0.66200006
-0.12005715 -0.039600004 0.66000003
-0.16178763 -0.038400955 0.66100001
-0.16052859 -0.038400955 0.66100001
-0.15926954 -0.038400955 0.66100001
-0.15801048 -0.038400955 0.66100001
-0.1565143 -0.03834286 0.66000003
-0.15525715 -0.03834286 0.66000003
-0.15089144 -0.037878096 0.65200001
-0.14964953 -0.037878096 0.65200001
-0.14840762 -0.037878096 0.65200001
-0.14716573 -0.037878096 0.65200001
-0.14592382 -0.037878096 0.65200001
-0.14468192 -0.037878096 0.65200001
-0.14366001 -0.037936192 0.65300006
-0.14241619 -0.037936192 0.65300006
-0.14117239 -0.037936192 0.65300006
-0.14057145 -0.03811048 0.65600002
-0.13910954 -0.038052384 0.65500003
-0.13807239 -0.03811048 0.65600002
-0.13661429 -0.038052384 0.65500003
-0.13557334 -0.03811048 0.65600002
-0.13411906 -0.038052384 0.65500003
-0.1330743 -0.03811048 0.65600002
-0.13182478 -0.03811048 0.65600002
-0.12420382 -0.038459051 0.66200006
-0.12312858 -0.038517144 0.66300005
-0.12186572 -0.038517144 0.66300005
-0.12042096 -0.038459051 0.66200006
-0.16178763 -0.037141908 0.66100001
-0.16052859 -0.037141908 0.66100001
-0.15951049 -0.037198097 0.66200006
-0.15801048 -0.037141908 0.66100001
-0.15675144 -0.037141908 0.66100001
-0.1554924 -0.037141908 0.66100001
-0.15423334 -0.037141908 0.66100001
-0.15112287 -0.036692385 0.65300006
-0.14987905 -0.036692385 0.65300006
-0.14863525 -0.036692385 0.65300006
-0.14739144 -0.036692385 0.65300006
-0.14614762 -0.036692385 0.65300006
-0.14490382 -0.036692385 0.65300006
-0.14410001 -0.036804765 0.65500003
-0.1428524 -0.036804765 0.65500003
-0.14160477 -0.036804765 0.65500003
-0.14035715 -0.036804765 0.65500003
-0.13932191 -0.036860954 0.65600002
-0.13807239 -0.036860954 0.65600002
-0.13682286 -0.036860954 0.65600002
-0.13557334 -0.036860954 0.65600002
-0.13432382 -0.036860954 0.65600002
-0.1330743 -0.036860954 0.65600002
-0.13182478 -0.036860954 0.65600002
-0.12312858 -0.037254289 0.66300005
-0.12168191 -0.037198097 0.66200006
-0.12042096 -0.037198097 0.66200006
-0.16304667 -0.03588286 0.66100001
-0.16178763 -0.03588286 0.66100001
-0.16052859 -0.03588286 0.66100001
-0.15951049 -0.035937145 0.66200006
-0.15824953 -0.035937145 0.66200006
-0.15698858 -0.035937145 0.66200006
-0.1554924 -0.03588286 0.66100001
-0.15423334 -0.03588286 0.66100001
-0.15112287 -0.035448574 0.65300006
-0.14987905 -0.035448574 0.65300006
-0.14863525 -0.035448574 0.65300006
-0.14739144 -0.035448574 0.65300006
-0.14614762 -0.035448574 0.65300006
-0.14490382 -0.035448574 0.65300006
-0.14432001 -0.035611432 0.65600002
-0.14307049 -0.035611432 0.65600002
-0.14182097 -0.035611432 0.65600002
-0.13932191 -0.035611432 0.65600002
-0.13828287 -0.035665717 0.65700001
-0.13703144 -0.035665717 0.65700001
-0.13578001 -0.035665717 0.65700001
-0.13452858 -0.035665717 0.65700001
-0.13327715 -0.035665717 0.65700001
-0.13202572 -0.035665717 0.65700001
-0.13077429 -0.035665717 0.65700001
-0.12508573 -0.035828575 0.66000003
-0.12420382 -0.035937145 0.66200006
-0.12312858 -0.03599143 0.66300005
-0.12168191 -0.035937145 0.66200006
-0.12042096 -0.035937145 0.66200006
-0.11934001 -0.03599143 0.66300005
-0.11843334 -0.036100004 0.66500002
-0.16581525 -0.034676194 0.66200006
-0.1645543 -0.034676194 0.66200006
-0.16304667 -0.034623813 0.66100001
-0.16178763 -0.034623813 0.66100001
-0.16052859 -0.034623813 0.66100001
-0.15951049 -0.034676194 0.66200006
-0.15824953 -0.034676194 0.66200006
-0.15698858 -0.034676194 0.66200006
-0.1554924 -0.034623813 0.66100001
-0.15446667 -0.034676194 0.66200006
-0.15320572 -0.034676194 0.66200006
-0.15079716 -0.034414288 0.65700001
-0.14863525 -0.034204762 0.65300006
-0.14739144 -0.034204762 0.65300006
-0.14614762 -0.034204762 0.65300006
-0.14490382 -0.034204762 0.65300006
-0.14410001 -0.034309525 0.65500003
-0.1428524 -0.034309525 0.65500003
-0.14160477 -0.034309525 0.65500003
-0.14035715 -0.034309525 0.65500003
-0.13849334 -0.034466669 0.65800005
-0.13724001 -0.034466669 0.65800005
-0.13598667 -0.034466669 0.65800005
-0.13473335 -0.034466669 0.65800005
-0.13348001 -0.034466669 0.65800005
-0.13222668 -0.034466669 0.65800005
-0.13097334 -0.034466669 0.65800005
-0.12798667 -0.034676194 0.66200006
-0.1256543 -0.034728575 0.66300005
-0.12439144 -0.034728575 0.66300005
-0.12312858 -0.034728575 0.66300005
-0.12186572 -0.034728575 0.66300005
-0.12042096 -0.034676194 0.66200006
-0.11934001 -0.034728575 0.66300005
-0.11807715 -0.034728575 0.66300005
-0.16935429 -0.033617146 0.66600001
-0.16783334 -0.033566669 0.66500002
-0.16581525 -0.033415239 0.66200006
-0.1645543 -0.033415239 0.66200006
-0.16329335 -0.033415239 0.66200006
-0.16178763 -0.033364765 0.66100001
-0.16052859 -0.033364765 0.66100001
-0.15951049 -0.033415239 0.66200006
-0.15801048 -0.033364765 0.66100001
-0.15698858 -0.033415239 0.66200006
-0.1554924 -0.033364765 0.66100001
-0.15423334 -0.033364765 0.66100001
-0.15297429 -0.033364765 0.66100001
-0.15079716 -0.033162858 0.65700001
-0.14909048 -0.033061907 0.65500003
-0.14739144 -0.032960955 0.65300006
-0.14614762 -0.032960955 0.65300006
-0.14490382 -0.032960955 0.65300006
-0.14366001 -0.032960955 0.65300006
-0.1428524 -0.033061907 0.65500003
-0.14160477 -0.033061907 0.65500003
-0.13514286 -0.033314288 0.66000003
-0.13388573 -0.033314288 0.66000003
-0.13262857 -0.033314288 0.66000003
-0.13137144 -0.033314288 0.66000003
-0.13011429 -0.033314288 0.66000003
-0.12924762 -0.033415239 0.66200006
-0.12798667 -0.033415239 0.66200006
-0.12672572 -0.033415239 0.66200006
-0.12527524 -0.033364765 0.66100001
-0.12439144 -0.033465717 0.66300005
-0.1235 -0.033566669 0.66500002
-0.12186572 -0.033465717 0.66300005
-0.12042096 -0.033415239 0.66200006
-0.11934001 -0.033465717 0.66300005
-0.11843334 -0.033566669 0.66500002
-0.17214954 -0.032397144 0.66700006
-0.17087907 -0.032397144 0.66700006
-0.16935429 -0.032348573 0.66600001
-0.16808572 -0.032348573 0.66600001
-0.16606572 -0.032202858 0.66300005
-0.16480286 -0.032202858 0.66300005
-0.16329335 -0.032154288 0.66200006
-0.1620324 -0.032154288 0.66200006
-0.16077144 -0.032154288 0.66200006
-0.15951049 -0.032154288 0.66200006
-0.15824953 -0.032154288 0.66200006
-0.15698858 -0.032154288 0.66200006
-0.1554924 -0.032105718 0.66100001
-0.15446667 -0.032154288 0.66200006
-0.15297429 -0.032105718 0.66100001
-0.15102668 -0.031960003 0.65800005
-0.1493181 -0.031862859 0.65600002
-0.14739144 -0.031717144 0.65300006
-0.14614762 -0.031717144 0.65300006
-0.14468192 -0.031668574 0.65200001
-0.14366001 -0.031717144 0.65300006
-0.14241619 -0.031717144 0.65300006
-0.14117239 -0.031717144 0.65300006
-0.13640001 -0.032057144 0.66000003
-0.13534763 -0.032105718 0.66100001
-0.13388573 -0.032057144 0.66000003
-0.13262857 -0.032057144 0.66000003
-0.13157049 -0.032105718 0.66100001
-0.13050859 -0.032154288 0.66200006
-0.12905239 -0.032105718 0.66100001
-0.12779334 -0.032105718 0.66100001
-0.12634286 -0.032057144 0.66000003
-0.12527524 -0.032105718 0.66100001
-0.12186572 -0.032202858 0.66300005
-0.12042096 -0.032154288 0.66200006
-0.11934001 -0.032202858 0.66300005
-0.17087907 -0.031126669 0.66700006
-0.16935429 -0.031080002 0.66600001
-0.16808572 -0.031080002 0.66600001
-0.16656668 -0.031033335 0.66500002
-0.16480286 -0.030940002 0.66300005
-0.16329335 -0.030893335 0.66200006
-0.1620324 -0.030893335 0.66200006
-0.16077144 -0.030893335 0.66200006
-0.15975145 -0.030940002 0.66300005
-0.15848859 -0.030940002 0.66300005
-0.15698858 -0.030893335 0.66200006
-0.15572762 -0.030893335 0.66200006
-0.15446667 -0.030893335 0.66200006
-0.15320572 -0.030893335 0.66200006
-0.15148573 -0.030800002 0.66000003
-0.14954573 -0.030660002 0.65700001
-0.14784287 -0.030566668 0.65500003
-0.14614762 -0.030473335 0.65300006
-0.14468192 -0.030426668 0.65200001
-0.14366001 -0.030473335 0.65300006
-0.1428524 -0.030566668 0.65500003
-0.14117239 -0.030473335 0.65300006
-0.17214954 -0.029856192 0.66700006
-0.17062287 -0.029811431 0.66600001
-0.16935429 -0.029811431 0.66600001
-0.16808572 -0.029811431 0.66600001
-0.16656668 -0.029766669 0.66500002
-0.16480286 -0.029677145 0.66300005
-0.16354001 -0.029677145 0.66300005
-0.16227715 -0.029677145 0.66300005
-0.1610143 -0.029677145 0.66300005
-0.15975145 -0.029677145 0.66300005
-0.15824953 -0.029632382 0.66200006
-0.15722573 -0.029677145 0.66300005
-0.15596287 -0.029677145 0.66300005
-0.15470001 -0.029677145 0.66300005
-0.15320572 -0.029632382 0.66200006
-0.15148573 -0.02954286 0.66000003
-0.14977334 -0.029453335 0.65800005
-0.14784287 -0.02931905 0.65500003
-0.14614762 -0.029229525 0.65300006
-0.14490382 -0.029229525 0.65300006
-0.14366001 -0.029229525 0.65300006
-0.14307049 -0.029363811 0.65600002
-0.17087907 -0.028585717 0.66700006
-0.16960858 -0.028585717 0.66700006
-0.16833811 -0.028585717 0.66700006
-0.16681716 -0.028542859 0.66600001
-0.16530001 -0.028500002 0.66500002
-0.16354001 -0.028414287 0.66300005
-0.16227715 -0.028414287 0.66300005
-0.1610143 -0.028414287 0.66300005
-0.15975145 -0.028414287 0.66300005
-0.15848859 -0.028414287 0.66300005
-0.15722573 -0.028414287 0.66300005
-0.15596287 -0.028414287 0.66300005
-0.15470001 -0.028414287 0.66300005
-0.15343715 -0.028414287 0.66300005
-0.15171525 -0.028328573 0.66100001
-0.15022857 -0.028285716 0.66000003
-0.14806858 -0.028114287 0.65600002
-0.14659525 -0.02807143 0.65500003
-0.14490382 -0.027985716 0.65300006
-0.14410001 -0.02807143 0.65500003
-0.14307049 -0.028114287 0.65600002
-0.17292382 -0.027438097 0.67000002
-0.17087907 -0.02731524 0.66700006
-0.16960858 -0.02731524 0.66700006
-0.16833811 -0.02731524 0.66700006
-0.16706763 -0.02731524 0.66700006
-0.16530001 -0.027233334 0.66500002
-0.16403334 -0.027233334 0.66500002
-0.16276668 -0.027233334 0.66500002
-0.16150001 -0.027233334 0.66500002
-0.16023335 -0.027233334 0.66500002
-0.15848859 -0.02715143 0.66300005
-0.15722573 -0.02715143 0.66300005
-0.15596287 -0.02715143 0.66300005
-0.15470001 -0.02715143 0.66300005
-0.15343715 -0.02715143 0.66300005
-0.15171525 -0.027069526 0.66100001
-0.15022857 -0.027028574 0.66000003
-0.14806858 -0.026864763 0.65600002
-0.14659525 -0.026823811 0.65500003
-0.14490382 -0.026741907 0.65300006
-0.14366001 -0.026741907 0.65300006
-0.17139144 -0.026122859 0.66900003
-0.17011715 -0.026122859 0.66900003
-0.16884287 -0.026122859 0.66900003
-0.16706763 -0.026044764 0.66700006
-0.16554858 -0.026005715 0.66600001
-0.16428001 -0.026005715 0.66600001
-0.16301145 -0.026005715 0.66600001
-0.16198573 -0.026044764 0.66700006
-0.16071525 -0.026044764 0.66700006
-0.15896668 -0.025966669 0.66500002
-0.15770002 -0.025966669 0.66500002
-0.15666859 -0.026005715 0.66600001
-0.15540001 -0.026005715 0.66600001
-0.15413144 -0.026005715 0.66600001
-0.14852001 -0.025693335 0.65800005
-0.17011715 -0.024848573 0.66900003
-0.16884287 -0.024848573 0.66900003
-0.16756858 -0.024848573 0.66900003
-0.16579716 -0.024774287 0.66700006
-0.16452667 -0.024774287 0.66700006
-0.1632562 -0.024774287 0.66700006
-0.16198573 -0.024774287 0.66700006
-0.16071525 -0.024774287 0.66700006
-0.15896668 -0.024700001 0.66500002
-0.15770002 -0.024700001 0.66500002
-0.15666859 -0.024737144 0.66600001
-0.15540001 -0.024737144 0.66600001
-0.16909525 -0.023609525 0.67000002
-0.16756858 -0.023574287 0.66900003
-0.16374573 -0.023574287 0.66900003
-0.16247144 -0.023574287 0.66900003
-0.16119716 -0.023574287 0.66900003
-0.15920572 -0.023468573 0.66600001
-0.15793715 -0.023468573 0.66600001
-0.15690382 -0.02350381 0.66700006
-0.15563335 -0.02350381 0.66700006
-0.16247144 -0.022300001 0.66900003
-0.16167906 -0.022366669 0.671
-0.16016191 -0.022333335 0.67000002
-0.15864858 -0.022300001 0.66900003
-0.15690382 -0.022233335 0.66700006
-0.15563335 -0.022233335 0.66700006
-0.16016191 -0.021057144 0.67000002
-0.15563335 -0.020962859 0.66700006
-0.15436287 -0.020962859 0.66700006
-0.16284001 -0.019320002 0.96600002
-0.1605 -0.01926 0.96300006
-0.15866573 -0.01926 0.96300006
-0.16468 -0.017480001 0.96600002
-0.13886 -0.0078600002 0.91700006
-0.16864096 -0.0045933337 0.68900001
-0.16684286 -0.0045800004 0.68700004
-0.16529335 -0.0045733335 0.68600005
-0.16326953 -0.0045533339 0.68300003
-0.16995335 -0.0032809526 0.68900001
-0.16864096 -0.0032809526 0.68900001
-0.1666 -0.0032666668 0.68600005
-0.16529335 -0.0032666668 0.68600005
-0.16326953 -0.0032523812 0.68300003
-0.17126572 -0.0019685715 0.68900001
-0.16946001 -0.0019628573 0.68700004
-0.16864096 -0.0019685715 0.68900001
-0.1666 -0.00196 0.68600005
-0.16529335 -0.00196 0.68600005
-0.16350858 -0.0019542859 0.68400002
-0.17076859 -0.00065428577 0.68700004
-0.16946001 -0.00065428577 0.68700004
-0.16815144 -0.00065428577 0.68700004
-0.1666 -0.00065333338 0.68600005
-0.16481143 -0.00065142859 0.68400002
-0.16326953 -0.00065047626 0.68300003
-0.17076859 0.00065428577 0.68700004
-0.16946001 0.00065428577 0.68700004
-0.16815144 0.00065428577 0.68700004
-0.1666 0.00065333338 0.68600005
-0.16481143 0.00065142859 0.68400002
-0.16326953 0.00065047626 0.68300003
-0.17257811 0.0019685715 0.68900001
-0.17076859 0.0019628573 0.68700004
-0.16946001 0.0019628573 0.68700004
-0.16815144 0.0019628573 0.68700004
-0.1666 0.00196 0.68600005
-0.16529335 0.00196 0.68600005
-0.16350858 0.0019542859 0.68400002
-0.17052001 0.0032666668 0.68600005
-0.16946001 0.0032714289 0.68700004
-0.16864096 0.0032809526 0.68900001
-0.16684286 0.0032714289 0.68700004
-0.16529335 0.0032666668 0.68600005
-0.16350858 0.0032571431 0.68400002
-0.15442859 0.0032857144 0.69000006
-0.1528924 0.0032809526 0.68900001
-0.17257811 0.0045933337 0.68900001
-0.17076859 0.0045800004 0.68700004
-0.16946001 0.0045800004 0.68700004
-0.16864096 0.0045933337 0.68900001
-0.16684286 0.0045800004 0.68700004
-0.16481143 0.0045600003 0.68400002
-0.16350858 0.0045600003 0.68400002
-0.15768287 0.0045800004 0.68700004
-0.15682954 0.0045933337 0.68900001
-0.15574287 0.0046000001 0.69000006
-0.15442859 0.0046000001 0.69000006
-0.15311429 0.0046000001 0.69000006
-0.16946001 0.005888572 0.68700004
-0.16864096 0.0059057148 0.68900001
-0.16732858 0.0059057148 0.68900001
-0.16529335 0.0058800005 0.68600005
-0.16350858 0.0058628577 0.68400002
-0.16268001 0.0058800005 0.68600005
-0.16160858 0.005888572 0.68700004
-0.16030002 0.005888572 0.68700004
-0.15899144 0.005888572 0.68700004
-0.15768287 0.005888572 0.68700004
-0.15682954 0.0059057148 0.68900001
-0.15551715 0.0059057148 0.68900001
-0.15442859 0.0059142862 0.69000006
-0.15311429 0.0059142862 0.69000006
-0.15158001 0.0059057148 0.68900001
-0.16995335 0.0072180959 0.68900001
-0.16864096 0.0072180959 0.68900001
-0.16732858 0.0072180959 0.68900001
-0.16529335 0.0071866671 0.68600005
-0.16398668 0.0071866671 0.68600005
-0.16268001 0.0071866671 0.68600005
-0.16160858 0.0071971435 0.68700004
-0.16030002 0.0071971435 0.68700004
-0.15899144 0.0071971435 0.68700004
-0.15768287 0.0071971435 0.68700004
-0.15682954 0.0072180959 0.68900001
-0.15574287 0.0072285719 0.69000006
-0.15442859 0.0072285719 0.69000006
-0.15311429 0.0072285719 0.69000006
-0.15158001 0.0072180959 0.68900001
-0.14983144 0.0071971435 0.68700004
-0.14852287 0.0071971435 0.68700004
-0.14657144 0.0071657146 0.68400002
-0.17094001 0.0085800001 0.69300002
-0.16268001 0.0084933341 0.68600005
-0.16137335 0.0084933341 0.68600005
-0.16030002 0.0085057151 0.68700004
-0.1594543 0.0085304771 0.68900001
-0.15814191 0.0085304771 0.68900001
-0.15682954 0.0085304771 0.68900001
-0.15574287 0.0085428581 0.69000006
-0.15442859 0.0085428581 0.69000006
-0.15311429 0.0085428581 0.69000006
-0.15158001 0.0085304771 0.68900001
-0.14983144 0.0085057151 0.68700004
-0.14852287 0.0085057151 0.68700004
-0.16268001 0.009800001 0.68600005
-0.16137335 0.009800001 0.68600005
-0.16030002 0.0098142866 0.68700004
-0.1594543 0.0098428577 0.68900001
-0.15814191 0.0098428577 0.68900001
-0.15682954 0.0098428577 0.68900001
-0.15574287 0.0098571433 0.69000006
-0.15442859 0.0098571433 0.69000006
-0.15311429 0.0098571433 0.69000006
-0.15158001 0.0098428577 0.68900001
-0.14983144 0.0098142866 0.68700004
-0.14830668 0.009800001 0.68600005
-0.16090287 0.011074287 0.68400002
-0.16030002 0.011122858 0.68700004
-0.1594543 0.011155238 0.68900001
-0.15814191 0.011155238 0.68900001
-0.15705715 0.011171429 0.69000006
-0.15574287 0.011171429 0.69000006
-0.15442859 0.011171429 0.69000006
-0.15311429 0.011171429 0.69000006
-0.15158001 0.011155238 0.68900001
-0.14961334 0.011106667 0.68600005
-0.14830668 0.011106667 0.68600005
-0.14700001 0.011106667 0.68600005
-0.14569335 0.011106667 0.68600005
-0.14438668 0.011106667 0.68600005
-0.16038001 0.01254 0.69300002
-0.15860096 0.01250381 0.69100004
-0.15728477 0.01250381 0.69100004
-0.15596858 0.01250381 0.69100004
-0.15442859 0.012485716 0.69000006
-0.15311429 0.012485716 0.69000006
-0.15158001 0.01246762 0.68900001
-0.14983144 0.01243143 0.68700004
-0.14852287 0.01243143 0.68700004
-0.14700001 0.012413334 0.68600005
-0.14569335 0.012413334 0.68600005
