# .PCD v0.7 - Point Cloud Data file format
VERSION 0.7
FIELDS x y z
SIZE 4 4 4
TYPE F F F
COUNT 1 1 1
WIDTH 1406
HEIGHT 1
VIEWPOINT 0 0 0 1 0 0 0
POINTS 1406
DATA ascii
-0.083409533 0.10660953 0.58000004
-0.082304768 0.10660953 0.58000004
-0.081480004 0.10697715 0.58200002
-0.080371432 0.10697715 0.58200002
-0.079535246 0.10734477 0.58400005
-0.078288577 0.10716096 0.583
-0.077178098 0.10716096 0.583
-0.076067626 0.10716096 0.583
-0.074957147 0.10716096 0.583
-0.073846668 0.10716096 0.583
-0.072736196 0.10716096 0.583
-0.071502864 0.10697715 0.58200002
-0.070515245 0.10716096 0.583
-0.069404766 0.10716096 0.583
-0.068294287 0.10716096 0.583
-0.067299053 0.10734477 0.58400005
-0.066300005 0.10752858 0.58500004
-0.065074287 0.10734477 0.58400005
-0.064071432 0.10752858 0.58500004
-0.063064769 0.10771239 0.58600003
-0.061948575 0.10771239 0.58600003
-0.061040003 0.10808001 0.588
-0.059920006 0.10808001 0.588
-0.058900002 0.10826381 0.58900005
-0.057876196 0.10844763 0.59000003
-0.056848574 0.10863143 0.59100002
-0.055722862 0.10863143 0.59100002
-0.054689527 0.10881525 0.59200001
-0.053471431 0.10863143 0.59100002
-0.052345719 0.10863143 0.59100002
-0.051220004 0.10863143 0.59100002
-0.11876287 0.10975715 0.59100002
-0.11763715 0.10975715 0.59100002
-0.11651143 0.10975715 0.59100002
-0.11519048 0.10957143 0.59000003
-0.11406668 0.10957143 0.59000003
-0.11294287 0.10957143 0.59000003
-0.11162953 0.10938572 0.58900005
-0.11013239 0.1090143 0.58700001
-0.10882858 0.10882858 0.58600003
-0.10716096 0.10827143 0.583
-0.10586858 0.10808572 0.58200002
-0.10476001 0.10808572 0.58200002
-0.10365143 0.10808572 0.58200002
-0.10254286 0.10808572 0.58200002
-0.10143429 0.10808572 0.58200002
-0.10032572 0.10808572 0.58200002
-0.099217147 0.10808572 0.58200002
-0.097940005 0.10790001 0.58100003
-0.096833341 0.10790001 0.58100003
-0.095726676 0.10790001 0.58100003
-0.09445715 0.1077143 0.58000004
-0.093191437 0.10752858 0.57900006
-0.09208858 0.10752858 0.57900006
-0.090985723 0.10752858 0.57900006
-0.089882866 0.10752858 0.57900006
-0.088780008 0.10752858 0.57900006
-0.087677151 0.10752858 0.57900006
-0.086574294 0.10752858 0.57900006
-0.085471436 0.10752858 0.57900006
-0.084368579 0.10752858 0.57900006
-0.083409533 0.1077143 0.58000004
-0.082304768 0.1077143 0.58000004
-0.081340007 0.10790001 0.58100003
-0.080371432 0.10808572 0.58200002
-0.079399049 0.10827143 0.583
-0.078288577 0.10827143 0.583
-0.077045716 0.10808572 0.58200002
-0.075937144 0.10808572 0.58200002
-0.07482858 0.10808572 0.58200002
-0.073720008 0.10808572 0.58200002
-0.072486669 0.10790001 0.58100003
-0.071257144 0.1077143 0.58000004
-0.07027334 0.10790001 0.58100003
-0.069285721 0.10808572 0.58200002
-0.068177149 0.10808572 0.58200002
-0.067183815 0.10827143 0.583
-0.066186674 0.10845715 0.58400005
-0.065074287 0.10845715 0.58400005
-0.063961908 0.10845715 0.58400005
-0.062957145 0.10864286 0.58500004
-0.061842863 0.10864286 0.58500004
-0.060832385 0.10882858 0.58600003
-0.0598181 0.1090143 0.58700001
-0.058800004 0.10920001 0.588
-0.057778098 0.10938572 0.58900005
-0.056752384 0.10957143 0.59000003
-0.055722862 0.10975715 0.59100002
-0.054597147 0.10975715 0.59100002
-0.053471431 0.10975715 0.59100002
-0.052345719 0.10975715 0.59100002
-0.051220004 0.10975715 0.59100002
-0.050094288 0.10975715 0.59100002
-0.11988858 0.11088286 0.59100002
-0.11856192 0.11069524 0.59000003
-0.1174381 0.11069524 0.59000003
-0.11631429 0.11069524 0.59000003
-0.11519048 0.11069524 0.59000003
-0.11387334 0.11050763 0.58900005
-0.11256 0.11032001 0.588
-0.11144001 0.11032001 0.588
-0.11013239 0.11013239 0.58700001
-0.10882858 0.10994477 0.58600003
-0.10697715 0.10919429 0.58200002
-0.10568667 0.10900667 0.58100003
-0.10458001 0.10900667 0.58100003
-0.10347334 0.10900667 0.58100003
-0.10236667 0.10900667 0.58100003
-0.10126001 0.10900667 0.58100003
-0.10015334 0.10900667 0.58100003
-0.09904667 0.10900667 0.58100003
-0.097940005 0.10900667 0.58100003
-0.096833341 0.10900667 0.58100003
-0.095726676 0.10900667 0.58100003
-0.094294295 0.10863143 0.57900006
-0.093191437 0.10863143 0.57900006
-0.09208858 0.10863143 0.57900006
-0.090828575 0.10844382 0.57800001
-0.089727625 0.10844382 0.57800001
-0.088626675 0.10844382 0.57800001
-0.087525718 0.10844382 0.57800001
-0.086574294 0.10863143 0.57900006
-0.085471436 0.10863143 0.57900006
-0.084368579 0.10863143 0.57900006
-0.083265722 0.10863143 0.57900006
-0.082162865 0.10863143 0.57900006
-0.081060007 0.10863143 0.57900006
-0.079819053 0.10844382 0.57800001
-0.078990482 0.10881905 0.58000004
-0.078020006 0.10900667 0.58100003
-0.076913342 0.10900667 0.58100003
-0.075676195 0.10881905 0.58000004
-0.074700005 0.10900667 0.58100003
-0.073593341 0.10900667 0.58100003
-0.072361909 0.10881905 0.58000004
-0.071257144 0.10881905 0.58000004
-0.070152387 0.10881905 0.58000004
-0.069166668 0.10900667 0.58100003
-0.068060003 0.10900667 0.58100003
-0.067068577 0.10919429 0.58200002
-0.066073336 0.10938191 0.583
-0.064962864 0.10938191 0.583
-0.063852385 0.10938191 0.583
-0.062849529 0.10956953 0.58400005
-0.061737146 0.10956953 0.58400005
-0.060832385 0.10994477 0.58600003
-0.059716195 0.10994477 0.58600003
-0.058800004 0.11032001 0.588
-0.057680003 0.11032001 0.588
-0.056752384 0.11069524 0.59000003
-0.055722862 0.11088286 0.59100002
-0.054597147 0.11088286 0.59100002
-0.053471431 0.11088286 0.59100002
-0.052345719 0.11088286 0.59100002
-0.051220004 0.11088286 0.59100002
-0.11876287 0.11200858 0.59100002
-0.11763715 0.11200858 0.59100002
-0.11631429 0.11181906 0.59000003
-0.11499525 0.11162953 0.58900005
-0.11368001 0.11144001 0.588
-0.11256 0.11144001 0.588
-0.11125048 0.11125048 0.58700001
-0.11032001 0.11144001 0.588
-0.10458001 0.11011334 0.58100003
-0.10347334 0.11011334 0.58100003
-0.10236667 0.11011334 0.58100003
-0.10126001 0.11011334 0.58100003
-0.10015334 0.11011334 0.58100003
-0.09904667 0.11011334 0.58100003
-0.097940005 0.11011334 0.58100003
-0.096833341 0.11011334 0.58100003
-0.095397152 0.10973429 0.57900006
-0.094294295 0.10973429 0.57900006
-0.093191437 0.10973429 0.57900006
-0.091929533 0.10954477 0.57800001
-0.090828575 0.10954477 0.57800001
-0.089727625 0.10954477 0.57800001
-0.088626675 0.10954477 0.57800001
-0.087525718 0.10954477 0.57800001
-0.086424768 0.10954477 0.57800001
-0.085323818 0.10954477 0.57800001
-0.084222861 0.10954477 0.57800001
-0.083121911 0.10954477 0.57800001
-0.082020961 0.10954477 0.57800001
-0.080920003 0.10954477 0.57800001
-0.079819053 0.10954477 0.57800001
-0.078718103 0.10954477 0.57800001
-0.077751435 0.10973429 0.57900006
-0.076648578 0.10973429 0.57900006
-0.075545721 0.10973429 0.57900006
-0.074442863 0.10973429 0.57900006
-0.073466673 0.10992382 0.58000004
-0.072361909 0.10992382 0.58000004
-0.071257144 0.10992382 0.58000004
-0.070152387 0.10992382 0.58000004
-0.069047622 0.10992382 0.58000004
-0.068060003 0.11011334 0.58100003
-0.067068577 0.11030287 0.58200002
-0.065960005 0.11030287 0.58200002
-0.064962864 0.11049239 0.583
-0.063852385 0.11049239 0.583
-0.062741905 0.11049239 0.583
-0.061737146 0.11068191 0.58400005
-0.060728576 0.11087143 0.58500004
-0.059716195 0.11106096 0.58600003
-0.058700003 0.11125048 0.58700001
-0.057680003 0.11144001 0.588
-0.056752384 0.11181906 0.59000003
-0.055722862 0.11200858 0.59100002
-0.054597147 0.11200858 0.59100002
-0.053471431 0.11200858 0.59100002
-0.052434288 0.1121981 0.59200001
-0.051306669 0.1121981 0.59200001
-0.11368001 0.11256 0.588
-0.11236858 0.11236858 0.58700001
-0.10458001 0.11122001 0.58100003
-0.10365143 0.11141144 0.58200002
-0.10236667 0.11122001 0.58100003
-0.10126001 0.11122001 0.58100003
-0.10015334 0.11122001 0.58100003
-0.09904667 0.11122001 0.58100003
-0.097940005 0.11122001 0.58100003
-0.096833341 0.11122001 0.58100003
-0.095397152 0.11083715 0.57900006
-0.094294295 0.11083715 0.57900006
-0.093191437 0.11083715 0.57900006
-0.091929533 0.11064572 0.57800001
-0.090828575 0.11064572 0.57800001
-0.089727625 0.11064572 0.57800001
-0.088626675 0.11064572 0.57800001
-0.087525718 0.11064572 0.57800001
-0.086424768 0.11064572 0.57800001
-0.085323818 0.11064572 0.57800001
-0.08407715 0.11045429 0.57700002
-0.083121911 0.11064572 0.57800001
-0.08187905 0.11045429 0.57700002
-0.080780007 0.11045429 0.57700002
-0.07954286 0.11026286 0.57600003
-0.078581907 0.11045429 0.57700002
-0.077617146 0.11064572 0.57800001
-0.076648578 0.11083715 0.57900006
-0.075545721 0.11083715 0.57900006
-0.074314289 0.11064572 0.57800001
-0.073340006 0.11083715 0.57900006
-0.072361909 0.11102858 0.58000004
-0.071257144 0.11102858 0.58000004
-0.070152387 0.11102858 0.58000004
-0.069047622 0.11102858 0.58000004
-0.067942865 0.11102858 0.58000004
-0.066953339 0.11122001 0.58100003
-0.065846674 0.11122001 0.58100003
-0.064851433 0.11141144 0.58200002
-0.063633338 0.11122001 0.58100003
-0.062634289 0.11141144 0.58200002
-0.061525717 0.11141144 0.58200002
-0.060520958 0.11160287 0.583
-0.05961429 0.11198572 0.58500004
-0.058700003 0.11236858 0.58700001
-0.057581909 0.11236858 0.58700001
-0.056656193 0.11275144 0.58900005
-0.055628575 0.11294287 0.59000003
-0.054597147 0.11313429 0.59100002
-0.053471431 0.11313429 0.59100002
-0.052434288 0.11332572 0.59200001
-0.051306669 0.11332572 0.59200001
-0.10458001 0.11232667 0.58100003
-0.10347334 0.11232667 0.58100003
-0.10236667 0.11232667 0.58100003
-0.10126001 0.11232667 0.58100003
-0.10015334 0.11232667 0.58100003
-0.09904667 0.11232667 0.58100003
-0.097940005 0.11232667 0.58100003
-0.096833341 0.11232667 0.58100003
-0.095397152 0.11194 0.57900006
-0.094131432 0.11174668 0.57800001
-0.093030483 0.11174668 0.57800001
-0.091929533 0.11174668 0.57800001
-0.090671435 0.11155334 0.57700002
-0.089572385 0.11155334 0.57700002
-0.088473342 0.11155334 0.57700002
-0.087525718 0.11174668 0.57800001
-0.086424768 0.11174668 0.57800001
-0.0851762 0.11155334 0.57700002
-0.08407715 0.11155334 0.57700002
-0.0829781 0.11155334 0.57700002
-0.081737146 0.11136001 0.57600003
-0.080640003 0.11136001 0.57600003
-0.07954286 0.11136001 0.57600003
-0.078445718 0.11136001 0.57600003
-0.077482864 0.11155334 0.57700002
-0.076383814 0.11155334 0.57700002
-0.075284764 0.11155334 0.57700002
-0.074185722 0.11155334 0.57700002
-0.073213339 0.11174668 0.57800001
-0.072237149 0.11194 0.57900006
-0.071134292 0.11194 0.57900006
-0.070031434 0.11194 0.57900006
-0.069047622 0.11213334 0.58000004
-0.068060003 0.11232667 0.58100003
-0.066953339 0.11232667 0.58100003
-0.065846674 0.11232667 0.58100003
-0.064740002 0.11232667 0.58100003
-0.063523814 0.11213334 0.58000004
-0.062526673 0.11232667 0.58100003
-0.061420005 0.11232667 0.58100003
-0.060313337 0.11232667 0.58100003
-0.058600005 0.11329334 0.58600003
-0.057680003 0.11368001 0.588
-0.056656193 0.11387334 0.58900005
-0.055628575 0.11406668 0.59000003
-0.054504767 0.11406668 0.59000003
-0.053471431 0.11426001 0.59100002
-0.052345719 0.11426001 0.59100002
-0.051220004 0.11426001 0.59100002
-0.10476001 0.11362858 0.58200002
-0.10347334 0.11343334 0.58100003
-0.10236667 0.11343334 0.58100003
-0.10126001 0.11343334 0.58100003
-0.10015334 0.11343334 0.58100003
-0.09904667 0.11343334 0.58100003
-0.097940005 0.11343334 0.58100003
-0.096666671 0.1132381 0.58000004
-0.09523239 0.11284763 0.57800001
-0.094131432 0.11284763 0.57800001
-0.093030483 0.11284763 0.57800001
-0.091770485 0.11265239 0.57700002
-0.090671435 0.11265239 0.57700002
-0.089572385 0.11265239 0.57700002
-0.088473342 0.11265239 0.57700002
-0.087374292 0.11265239 0.57700002
-0.086275242 0.11265239 0.57700002
-0.0851762 0.11265239 0.57700002
-0.08407715 0.11265239 0.57700002
-0.0829781 0.11265239 0.57700002
-0.08187905 0.11265239 0.57700002
-0.080640003 0.11245715 0.57600003
-0.07954286 0.11245715 0.57600003
-0.078445718 0.11245715 0.57600003
-0.077482864 0.11265239 0.57700002
-0.076383814 0.11265239 0.57700002
-0.075284764 0.11265239 0.57700002
-0.074057147 0.11245715 0.57600003
-0.073086672 0.11265239 0.57700002
-0.072112389 0.11284763 0.57800001
-0.071011432 0.11284763 0.57800001
-0.069910482 0.11284763 0.57800001
-0.068928577 0.11304286 0.57900006
-0.06782572 0.11304286 0.57900006
-0.066838101 0.1132381 0.58000004
-0.065733336 0.1132381 0.58000004
-0.064517148 0.11304286 0.57900006
-0.063195243 0.11265239 0.57700002
-0.062203813 0.11284763 0.57800001
-0.06110286 0.11284763 0.57800001
-0.059794288 0.11245715 0.57600003
-0.058697145 0.11245715 0.57600003
-0.057600003 0.11245715 0.57600003
-0.05650286 0.11245715 0.57600003
-0.055405717 0.11245715 0.57600003
-0.10458001 0.11454001 0.58100003
-0.10347334 0.11454001 0.58100003
-0.10236667 0.11454001 0.58100003
-0.10126001 0.11454001 0.58100003
-0.10015334 0.11454001 0.58100003
-0.09904667 0.11454001 0.58100003
-0.097940005 0.11454001 0.58100003
-0.096666671 0.11434287 0.58000004
-0.09523239 0.11394858 0.57800001
-0.094131432 0.11394858 0.57800001
-0.092869528 0.11375143 0.57700002
-0.091770485 0.11375143 0.57700002
-0.090514295 0.11355429 0.57600003
-0.089417152 0.11355429 0.57600003
-0.088473342 0.11375143 0.57700002
-0.087374292 0.11375143 0.57700002
-0.086275242 0.11375143 0.57700002
-0.085028574 0.11355429 0.57600003
-0.08407715 0.11375143 0.57700002
-0.0829781 0.11375143 0.57700002
-0.08187905 0.11375143 0.57700002
-0.080640003 0.11355429 0.57600003
-0.07954286 0.11355429 0.57600003
-0.078445718 0.11355429 0.57600003
-0.077348575 0.11355429 0.57600003
-0.076251432 0.11355429 0.57600003
-0.075023815 0.11335715 0.57500005
-0.073800005 0.11316001 0.574
-0.072833337 0.11335715 0.57500005
-0.071738102 0.11335715 0.57500005
-0.069905721 0.11217429 0.56900001
-0.068821907 0.11217429 0.56900001
-0.067619056 0.11197715 0.56800002
-0.067708574 0.11394858 0.57800001
-0.066607624 0.11394858 0.57800001
-0.065506674 0.11394858 0.57800001
-0.064182863 0.11355429 0.57600003
-0.06308572 0.11355429 0.57600003
-0.061988577 0.11355429 0.57600003
-0.060891431 0.11355429 0.57600003
-0.059794288 0.11355429 0.57600003
-0.058697145 0.11355429 0.57600003
-0.057600003 0.11355429 0.57600003
-0.05650286 0.11355429 0.57600003
-0.055309527 0.11335715 0.57500005
-0.10771239 0.11664191 0.58600003
-0.10659619 0.11664191 0.58600003
-0.10440001 0.11544763 0.58000004
-0.10329524 0.11544763 0.58000004
-0.10219048 0.11544763 0.58000004
-0.10108572 0.11544763 0.58000004
-0.099980958 0.11544763 0.58000004
-0.098876201 0.11544763 0.58000004
-0.097771436 0.11544763 0.58000004
-0.096666671 0.11544763 0.58000004
-0.09523239 0.11504953 0.57800001
-0.094131432 0.11504953 0.57800001
-0.092869528 0.11485048 0.57700002
-0.091611437 0.11465143 0.57600003
-0.090514295 0.11465143 0.57600003
-0.089417152 0.11465143 0.57600003
-0.088320009 0.11465143 0.57600003
-0.087374292 0.11485048 0.57700002
-0.086275242 0.11485048 0.57700002
-0.085028574 0.11465143 0.57600003
-0.083931431 0.11465143 0.57600003
-0.0829781 0.11485048 0.57700002
-0.081737146 0.11465143 0.57600003
-0.080640003 0.11465143 0.57600003
-0.07954286 0.11465143 0.57600003
-0.078445718 0.11465143 0.57600003
-0.077214293 0.11445239 0.57500005
-0.07611905 0.11445239 0.57500005
-0.07489334 0.11425334 0.574
-0.07367143 0.11405429 0.57300001
-0.072326675 0.1136562 0.57100004
-0.071114287 0.11345715 0.57000005
-0.069905721 0.1132581 0.56900001
-0.068821907 0.1132581 0.56900001
-0.067619056 0.11305905 0.56800002
-0.066654287 0.1132581 0.56900001
-0.066146672 0.11425334 0.574
-0.065053336 0.11425334 0.574
-0.063960001 0.11425334 0.574
-0.062866673 0.11425334 0.574
-0.061665718 0.11405429 0.57300001
-0.060680006 0.11425334 0.574
-0.05958667 0.11425334 0.574
-0.058493339 0.11425334 0.574
-0.057400003 0.11425334 0.574
-0.056404766 0.11445239 0.57500005
-0.055309527 0.11445239 0.57500005
-0.054214288 0.11445239 0.57500005
-0.10752858 0.11755715 0.58500004
-0.10623239 0.1173562 0.58400005
-0.10440001 0.11655239 0.58000004
-0.10329524 0.11655239 0.58000004
-0.10219048 0.11655239 0.58000004
-0.10108572 0.11655239 0.58000004
-0.099808581 0.11635143 0.57900006
-0.098876201 0.11655239 0.58000004
-0.097602867 0.11635143 0.57900006
-0.096500009 0.11635143 0.57900006
-0.09523239 0.11615048 0.57800001
-0.093968578 0.11594953 0.57700002
-0.092869528 0.11594953 0.57700002
-0.091611437 0.11574858 0.57600003
-0.090514295 0.11574858 0.57600003
-0.089417152 0.11574858 0.57600003
-0.088320009 0.11574858 0.57600003
-0.087374292 0.11594953 0.57700002
-0.086125717 0.11574858 0.57600003
-0.085028574 0.11574858 0.57600003
-0.083931431 0.11574858 0.57600003
-0.082834288 0.11574858 0.57600003
-0.081737146 0.11574858 0.57600003
-0.080640003 0.11574858 0.57600003
-0.07954286 0.11574858 0.57600003
-0.078445718 0.11574858 0.57600003
-0.077214293 0.11554763 0.57500005
-0.075986668 0.11534668 0.574
-0.074762858 0.11514572 0.57300001
-0.073414288 0.11474381 0.57100004
-0.072326675 0.11474381 0.57100004
-0.071114287 0.11454286 0.57000005
-0.069905721 0.11434191 0.56900001
-0.068821907 0.11434191 0.56900001
-0.067619056 0.11414096 0.56800002
-0.066654287 0.11434191 0.56900001
-0.065685719 0.11454286 0.57000005
-0.064713337 0.11474381 0.57100004
-0.063737147 0.11494477 0.57200003
-0.062647626 0.11494477 0.57200003
-0.061558098 0.11494477 0.57200003
-0.060574289 0.11514572 0.57300001
-0.059482861 0.11514572 0.57300001
-0.058391433 0.11514572 0.57300001
-0.057400003 0.11534668 0.574
-0.056306671 0.11534668 0.574
-0.055405717 0.11574858 0.57600003
-0.054214288 0.11554763 0.57500005
-0.053119052 0.11554763 0.57500005
-0.052023813 0.11554763 0.57500005
-0.051194288 0.11615048 0.57800001
-0.050093338 0.11615048 0.57800001
-0.10716096 0.11826573 0.583
-0.10586858 0.11806286 0.58200002
-0.10458001 0.11786 0.58100003
-0.10329524 0.11765715 0.58000004
-0.10219048 0.11765715 0.58000004
-0.10108572 0.11765715 0.58000004
-0.099808581 0.11745429 0.57900006
-0.098705724 0.11745429 0.57900006
-0.097602867 0.11745429 0.57900006
-0.096500009 0.11745429 0.57900006
-0.09523239 0.11725143 0.57800001
-0.094131432 0.11725143 0.57800001
-0.092869528 0.11704858 0.57700002
-0.091770485 0.11704858 0.57700002
-0.090671435 0.11704858 0.57700002
-0.089417152 0.11684572 0.57600003
-0.088473342 0.11704858 0.57700002
-0.087374292 0.11704858 0.57700002
-0.086125717 0.11684572 0.57600003
-0.084880956 0.11664286 0.57500005
-0.08378572 0.11664286 0.57500005
-0.082690485 0.11664286 0.57500005
-0.081595242 0.11664286 0.57500005
-0.080500007 0.11664286 0.57500005
-0.079404764 0.11664286 0.57500005
-0.078309529 0.11664286 0.57500005
-0.077080004 0.11644001 0.574
-0.075854294 0.11623715 0.57300001
-0.074632384 0.11603429 0.57200003
-0.073285721 0.11562858 0.57000005
-0.072200008 0.11562858 0.57000005
-0.070989527 0.11542572 0.56900001
-0.069905721 0.11542572 0.56900001
-0.068700954 0.11522286 0.56800002
-0.067500003 0.11502001 0.56700003
-0.066537149 0.11522286 0.56800002
-0.065455243 0.11522286 0.56800002
-0.064600006 0.11562858 0.57000005
-0.063625716 0.11583143 0.57100004
-0.062538102 0.11583143 0.57100004
-0.061558098 0.11603429 0.57200003
-0.060362861 0.11583143 0.57100004
-0.059275243 0.11583143 0.57100004
-0.058187623 0.11583143 0.57100004
-0.057200003 0.11603429 0.57200003
-0.056208573 0.11623715 0.57300001
-0.055213336 0.11644001 0.574
-0.054120004 0.11644001 0.574
-0.053119052 0.11664286 0.57500005
-0.051194288 0.11725143 0.57800001
-0.050093338 0.11725143 0.57800001
-0.10716096 0.1193762 0.583
-0.10586858 0.11917143 0.58200002
-0.10440001 0.11876191 0.58000004
-0.10329524 0.11876191 0.58000004
-0.1020143 0.11855715 0.57900006
-0.10091144 0.11855715 0.57900006
-0.099808581 0.11855715 0.57900006
-0.098705724 0.11855715 0.57900006
-0.097602867 0.11855715 0.57900006
-0.09633334 0.11835239 0.57800001
-0.09523239 0.11835239 0.57800001
-0.093968578 0.11814763 0.57700002
-0.092869528 0.11814763 0.57700002
-0.091770485 0.11814763 0.57700002
-0.090671435 0.11814763 0.57700002
-0.089417152 0.11794286 0.57600003
-0.088473342 0.11814763 0.57700002
-0.087374292 0.11814763 0.57700002
-0.086275242 0.11814763 0.57700002
-0.084880956 0.11773811 0.57500005
-0.083931431 0.11794286 0.57600003
-0.082690485 0.11773811 0.57500005
-0.081595242 0.11773811 0.57500005
-0.080500007 0.11773811 0.57500005
-0.079404764 0.11773811 0.57500005
-0.077628575 0.11671429 0.57000005
-0.076677151 0.11691906 0.57100004
-0.07558953 0.11691906 0.57100004
-0.074371435 0.11671429 0.57000005
-0.073157147 0.11650953 0.56900001
-0.07207334 0.11650953 0.56900001
-0.070864767 0.11630477 0.56800002
-0.069782861 0.11630477 0.56800002
-0.068580002 0.11610001 0.56700003
-0.067500003 0.11610001 0.56700003
-0.066420004 0.11610001 0.56700003
-0.065340005 0.11610001 0.56700003
-0.064486668 0.11650953 0.56900001
-0.06329143 0.11630477 0.56800002
-0.062428575 0.11671429 0.57000005
-0.061450481 0.11691906 0.57100004
-0.060362861 0.11691906 0.57100004
-0.059171431 0.11671429 0.57000005
-0.058085717 0.11671429 0.57000005
-0.056900002 0.11650953 0.56900001
-0.056012385 0.11691906 0.57100004
-0.055020954 0.11712382 0.57200003
-0.054025717 0.11732858 0.57300001
-0.052934289 0.11732858 0.57300001
-0.052385718 0.11855715 0.57900006
-0.05128286 0.11855715 0.57900006
-0.050180003 0.11855715 0.57900006
-0.049161907 0.11876191 0.58000004
-0.10716096 0.12048668 0.583
-0.10586858 0.12028001 0.58200002
-0.10440001 0.11986668 0.58000004
-0.10311715 0.11966 0.57900006
-0.1020143 0.11966 0.57900006
-0.10091144 0.11966 0.57900006
-0.099636197 0.11945334 0.57800001
-0.098705724 0.11966 0.57900006
-0.09743429 0.11945334 0.57800001
-0.09616667 0.11924668 0.57700002
-0.095067628 0.11924668 0.57700002
-0.093968578 0.11924668 0.57700002
-0.092869528 0.11924668 0.57700002
-0.091770485 0.11924668 0.57700002
-0.090514295 0.11904 0.57600003
-0.089417152 0.11904 0.57600003
-0.088473342 0.11924668 0.57700002
-0.087374292 0.11924668 0.57700002
-0.086275242 0.11924668 0.57700002
-0.084880956 0.11883334 0.57500005
-0.083931431 0.11904 0.57600003
-0.082402863 0.11842 0.57300001
-0.081311435 0.11842 0.57300001
-0.079660006 0.11759334 0.56900001
-0.078438103 0.11738668 0.56800002
-0.077356197 0.11738668 0.56800002
-0.07640858 0.11759334 0.56900001
-0.075324766 0.11759334 0.56900001
-0.074110478 0.11738668 0.56800002
-0.072900005 0.11718 0.56700003
-0.071820006 0.11718 0.56700003
-0.070740007 0.11718 0.56700003
-0.069660008 0.11718 0.56700003
-0.068459049 0.11697334 0.56600004
-0.067380957 0.11697334 0.56600004
-0.06618572 0.11676668 0.565
-0.065109529 0.11676668 0.565
-0.064033337 0.11676668 0.565
-0.062957145 0.11676668 0.565
-0.061880957 0.11676668 0.565
-0.060804766 0.11676668 0.565
-0.05983429 0.11697334 0.56600004
-0.058756195 0.11697334 0.56600004
-0.0576781 0.11697334 0.56600004
-0.056700002 0.11718 0.56700003
-0.055620003 0.11718 0.56700003
-0.054540005 0.11718 0.56700003
-0.053460002 0.11718 0.56700003
-0.052472383 0.11738668 0.56800002
-0.052204765 0.11924668 0.57700002
-0.051194288 0.11945334 0.57800001
-0.050180003 0.11966 0.57900006
-0.049161907 0.11986668 0.58000004
-0.10440001 0.12097143 0.58000004
-0.10329524 0.12097143 0.58000004
-0.1020143 0.12076286 0.57900006
-0.10091144 0.12076286 0.57900006
-0.099808581 0.12076286 0.57900006
-0.098705724 0.12076286 0.57900006
-0.09743429 0.12055429 0.57800001
-0.09633334 0.12055429 0.57800001
-0.09523239 0.12055429 0.57800001
-0.094131432 0.12055429 0.57800001
-0.093030483 0.12055429 0.57800001
-0.091770485 0.12034572 0.57700002
-0.090671435 0.12034572 0.57700002
-0.089572385 0.12034572 0.57700002
-0.088473342 0.12034572 0.57700002
-0.087374292 0.12034572 0.57700002
-0.086275242 0.12034572 0.57700002
-0.084733337 0.11972 0.574
-0.083640009 0.11972 0.574
-0.08211524 0.11909429 0.57100004
-0.080885723 0.11888573 0.57000005
-0.079660006 0.11867715 0.56900001
-0.078438103 0.11846858 0.56800002
-0.077356197 0.11846858 0.56800002
-0.076274291 0.11846858 0.56800002
-0.075324766 0.11867715 0.56900001
-0.073980004 0.11826001 0.56700003
-0.07277143 0.11805144 0.56600004
-0.071820006 0.11826001 0.56700003
-0.070740007 0.11826001 0.56700003
-0.069537148 0.11805144 0.56600004
-0.068459049 0.11805144 0.56600004
-0.067261912 0.11784287 0.565
-0.06618572 0.11784287 0.565
-0.065109529 0.11784287 0.565
-0.063920006 0.1176343 0.56400001
-0.062845722 0.1176343 0.56400001
-0.061771434 0.1176343 0.56400001
-0.060697146 0.1176343 0.56400001
-0.059622861 0.1176343 0.56400001
-0.058652386 0.11784287 0.565
-0.057576194 0.11784287 0.565
-0.056500003 0.11784287 0.565
-0.055423815 0.11784287 0.565
-0.054443814 0.11805144 0.56600004
-0.053460002 0.11826001 0.56700003
-0.052380003 0.11826001 0.56700003
-0.050928574 0.11992858 0.57500005
-0.050006669 0.12034572 0.57700002
-0.049077146 0.12076286 0.57900006
-0.10440001 0.1220762 0.58000004
-0.10329524 0.1220762 0.58000004
-0.1020143 0.12186572 0.57900006
-0.10091144 0.12186572 0.57900006
-0.099808581 0.12186572 0.57900006
-0.098705724 0.12186572 0.57900006
-0.097602867 0.12186572 0.57900006
-0.09633334 0.12165525 0.57800001
-0.09523239 0.12165525 0.57800001
-0.094131432 0.12165525 0.57800001
-0.093030483 0.12165525 0.57800001
-0.091929533 0.12165525 0.57800001
-0.090671435 0.12144477 0.57700002
-0.089572385 0.12144477 0.57700002
-0.088473342 0.12144477 0.57700002
-0.087374292 0.12144477 0.57700002
-0.086275242 0.12144477 0.57700002
-0.084733337 0.12081334 0.574
-0.083640009 0.12081334 0.574
-0.081540003 0.11934001 0.56700003
-0.080460005 0.11934001 0.56700003
-0.079380006 0.11934001 0.56700003
-0.078300007 0.11934001 0.56700003
-0.077220008 0.11934001 0.56700003
-0.076140001 0.11934001 0.56700003
-0.075060003 0.11934001 0.56700003
-0.073980004 0.11934001 0.56700003
-0.07277143 0.11912953 0.56600004
-0.071693338 0.11912953 0.56600004
-0.070615239 0.11912953 0.56600004
-0.069537148 0.11912953 0.56600004
-0.068338096 0.11891905 0.565
-0.067142859 0.11870858 0.56400001
-0.066068575 0.11870858 0.56400001
-0.064879052 0.1184981 0.56300002
-0.063806668 0.1184981 0.56300002
-0.062734291 0.1184981 0.56300002
-0.06166191 0.1184981 0.56300002
-0.06058953 0.1184981 0.56300002
-0.059517145 0.1184981 0.56300002
-0.058548577 0.11870858 0.56400001
-0.057474289 0.11870858 0.56400001
-0.056400005 0.11870858 0.56400001
-0.055423815 0.11891905 0.565
-0.054347623 0.11891905 0.565
-0.053271431 0.11891905 0.565
-0.052287623 0.11912953 0.56600004
-0.051300004 0.11934001 0.56700003
-0.050006669 0.12144477 0.57700002
-0.049246669 0.12228668 0.58100003
-0.10329524 0.12318096 0.58000004
-0.1020143 0.12296858 0.57900006
-0.10091144 0.12296858 0.57900006
-0.099808581 0.12296858 0.57900006
-0.098705724 0.12296858 0.57900006
-0.097602867 0.12296858 0.57900006
-0.09633334 0.1227562 0.57800001
-0.09523239 0.1227562 0.57800001
-0.094131432 0.1227562 0.57800001
-0.093030483 0.1227562 0.57800001
-0.091929533 0.1227562 0.57800001
-0.090671435 0.12254382 0.57700002
-0.089417152 0.12233143 0.57600003
-0.088473342 0.12254382 0.57700002
-0.087222859 0.12233143 0.57600003
-0.086275242 0.12254382 0.57700002
-0.083700009 0.12042001 0.56700003
-0.082620002 0.12042001 0.56700003
-0.081540003 0.12042001 0.56700003
-0.080460005 0.12042001 0.56700003
-0.079380006 0.12042001 0.56700003
-0.07816191 0.12020763 0.56600004
-0.077083811 0.12020763 0.56600004
-0.07587143 0.11999524 0.565
-0.074795246 0.11999524 0.565
-0.073719054 0.11999524 0.565
-0.072642863 0.11999524 0.565
-0.071566671 0.11999524 0.565
-0.070490479 0.11999524 0.565
-0.069414288 0.11999524 0.565
-0.068217151 0.11978287 0.56400001
-0.067023814 0.11957049 0.56300002
-0.065951429 0.11957049 0.56300002
-0.064763814 0.1193581 0.56200004
-0.063693337 0.1193581 0.56200004
-0.06262286 0.1193581 0.56200004
-0.061552387 0.1193581 0.56200004
-0.06048191 0.1193581 0.56200004
-0.059411433 0.1193581 0.56200004
-0.058444764 0.11957049 0.56300002
-0.057372384 0.11957049 0.56300002
-0.056300003 0.11957049 0.56300002
-0.055325717 0.11978287 0.56400001
-0.054251432 0.11978287 0.56400001
-0.053271431 0.11999524 0.565
-0.05219524 0.11999524 0.565
-0.051300004 0.12042001 0.56700003
-0.050574288 0.12126953 0.57100004
-0.049486671 0.12126953 0.57100004
-0.048907623 0.12254382 0.57700002
-0.1020143 0.12407143 0.57900006
-0.10073715 0.12385715 0.57800001
-0.099636197 0.12385715 0.57800001
-0.098705724 0.12407143 0.57900006
-0.097602867 0.12407143 0.57900006
-0.09633334 0.12385715 0.57800001
-0.09523239 0.12385715 0.57800001
-0.094131432 0.12385715 0.57800001
-0.093030483 0.12385715 0.57800001
-0.091929533 0.12385715 0.57800001
-0.090671435 0.12364286 0.57700002
-0.089572385 0.12364286 0.57700002
-0.088473342 0.12364286 0.57700002
-0.087222859 0.12342858 0.57600003
-0.084780008 0.12150001 0.56700003
-0.083700009 0.12150001 0.56700003
-0.082620002 0.12150001 0.56700003
-0.081540003 0.12150001 0.56700003
-0.080318101 0.12128572 0.56600004
-0.079240002 0.12128572 0.56600004
-0.07816191 0.12128572 0.56600004
-0.076947622 0.12107144 0.565
-0.07587143 0.12107144 0.565
-0.074795246 0.12107144 0.565
-0.073719054 0.12107144 0.565
-0.072514288 0.12085715 0.56400001
-0.071440004 0.12085715 0.56400001
-0.070365719 0.12085715 0.56400001
-0.069168575 0.12064286 0.56300002
-0.067975245 0.12042858 0.56200004
-0.066785716 0.12021429 0.56100005
-0.065834291 0.12042858 0.56200004
-0.064648576 0.12021429 0.56100005
-0.063580006 0.12021429 0.56100005
-0.062511429 0.12021429 0.56100005
-0.061442859 0.12021429 0.56100005
-0.06037429 0.12021429 0.56100005
-0.05930572 0.12021429 0.56100005
-0.058340956 0.12042858 0.56200004
-0.057270478 0.12042858 0.56200004
-0.056200005 0.12042858 0.56200004
-0.055129528 0.12042858 0.56200004
-0.054155242 0.12064286 0.56300002
-0.053082861 0.12064286 0.56300002
-0.05219524 0.12107144 0.565
-0.051119052 0.12107144 0.565
-0.050220001 0.12150001 0.56700003
-0.049053337 0.12128572 0.56600004
-0.047975242 0.12128572 0.56600004
-0.099636197 0.12495811 0.57800001
-0.098705724 0.1251743 0.57900006
-0.097602867 0.1251743 0.57900006
-0.09633334 0.12495811 0.57800001
-0.09523239 0.12495811 0.57800001
-0.094131432 0.12495811 0.57800001
-0.093030483 0.12495811 0.57800001
-0.091929533 0.12495811 0.57800001
-0.090671435 0.12474191 0.57700002
-0.089417152 0.12452573 0.57600003
-0.088473342 0.12474191 0.57700002
-0.087374292 0.12474191 0.57700002
-0.084780008 0.12258001 0.56700003
-0.083700009 0.12258001 0.56700003
-0.082620002 0.12258001 0.56700003
-0.081396192 0.12236382 0.56600004
-0.080176197 0.12214763 0.565
-0.079100005 0.12214763 0.565
-0.078023814 0.12214763 0.565
-0.076947622 0.12214763 0.565
-0.075737149 0.12193143 0.56400001
-0.074662864 0.12193143 0.56400001
-0.07358858 0.12193143 0.56400001
-0.072385721 0.12171525 0.56300002
-0.071186669 0.12149905 0.56200004
-0.069991432 0.12128287 0.56100005
-0.068922862 0.12128287 0.56100005
-0.067854293 0.12128287 0.56100005
-0.06666667 0.12106667 0.56
-0.065600008 0.12106667 0.56
-0.064533338 0.12106667 0.56
-0.063466668 0.12106667 0.56
-0.062400006 0.12106667 0.56
-0.061333336 0.12106667 0.56
-0.06026667 0.12106667 0.56
-0.059200004 0.12106667 0.56
-0.058237147 0.12128287 0.56100005
-0.057168577 0.12128287 0.56100005
-0.056100003 0.12128287 0.56100005
-0.055031434 0.12128287 0.56100005
-0.05396286 0.12128287 0.56100005
-0.052894291 0.12128287 0.56100005
-0.051825717 0.12128287 0.56100005
-0.051028576 0.12193143 0.56400001
-0.050131433 0.12236382 0.56600004
-0.049053337 0.12236382 0.56600004
-0.098705724 0.12627715 0.57900006
-0.097602867 0.12627715 0.57900006
-0.09633334 0.12605906 0.57800001
-0.09523239 0.12605906 0.57800001
-0.094131432 0.12605906 0.57800001
-0.093030483 0.12605906 0.57800001
-0.091770485 0.12584096 0.57700002
-0.090514295 0.12562287 0.57600003
-0.089417152 0.12562287 0.57600003
-0.088320009 0.12562287 0.57600003
-0.087222859 0.12562287 0.57600003
-0.084780008 0.12366001 0.56700003
-0.083700009 0.12366001 0.56700003
-0.082474291 0.12344191 0.56600004
-0.081252389 0.12322382 0.565
-0.080176197 0.12322382 0.565
-0.079100005 0.12322382 0.565
-0.078023814 0.12322382 0.565
-0.076947622 0.12322382 0.565
-0.075737149 0.12300573 0.56400001
-0.074530482 0.12278762 0.56300002
-0.073327623 0.12256953 0.56200004
-0.072128579 0.12235144 0.56100005
-0.070933335 0.12213334 0.56
-0.069741912 0.12191524 0.55900002
-0.06867715 0.12191524 0.55900002
-0.067612387 0.12191524 0.55900002
-0.066547625 0.12191524 0.55900002
-0.065482862 0.12191524 0.55900002
-0.0644181 0.12191524 0.55900002
-0.063353337 0.12191524 0.55900002
-0.062288575 0.12191524 0.55900002
-0.061223812 0.12191524 0.55900002
-0.06015905 0.12191524 0.55900002
-0.059094291 0.12191524 0.55900002
-0.058133338 0.12213334 0.56
-0.057066672 0.12213334 0.56
-0.056000005 0.12213334 0.56
-0.054933336 0.12213334 0.56
-0.05396286 0.12235144 0.56100005
-0.052894291 0.12235144 0.56100005
-0.051825717 0.12235144 0.56100005
-0.050757147 0.12235144 0.56100005
-0.050131433 0.12344191 0.56600004
-0.049053337 0.12344191 0.56600004
-0.098876201 0.12760001 0.58000004
-0.097771436 0.12760001 0.58000004
-0.096500009 0.12738001 0.57900006
-0.09523239 0.12716001 0.57800001
-0.094131432 0.12716001 0.57800001
-0.093030483 0.12716001 0.57800001
-0.091770485 0.12694001 0.57700002
-0.090514295 0.12672001 0.57600003
-0.089417152 0.12672001 0.57600003
-0.088166669 0.12650001 0.57500005
-0.086011432 0.12496001 0.56800002
-0.084780008 0.12474 0.56700003
-0.083700009 0.12474 0.56700003
-0.082474291 0.12452001 0.56600004
-0.081252389 0.12430001 0.565
-0.080176197 0.12430001 0.565
-0.079100005 0.12430001 0.565
-0.078023814 0.12430001 0.565
-0.076811433 0.12408001 0.56400001
-0.075602859 0.12386001 0.56300002
-0.0743981 0.12364001 0.56200004
-0.073066674 0.12320001 0.56
-0.07187143 0.12298001 0.55900002
-0.070806675 0.12298001 0.55900002
-0.069617145 0.12276001 0.55800003
-0.06855429 0.12276001 0.55800003
-0.067491435 0.12276001 0.55800003
-0.066428579 0.12276001 0.55800003
-0.065248579 0.12254 0.55700004
-0.064302862 0.12276001 0.55800003
-0.063126668 0.12254 0.55700004
-0.062065717 0.12254 0.55700004
-0.061114289 0.12276001 0.55800003
-0.060051434 0.12276001 0.55800003
-0.058882862 0.12254 0.55700004
-0.05792572 0.12276001 0.55800003
-0.056964766 0.12298001 0.55900002
-0.055900004 0.12298001 0.55900002
-0.054933336 0.12320001 0.56
-0.05386667 0.12320001 0.56
-0.052800003 0.12320001 0.56
-0.051733337 0.12320001 0.56
-0.050757147 0.12342001 0.56100005
-0.05004286 0.12430001 0.565
-0.048966669 0.12430001 0.565
-0.047890481 0.12430001 0.565
-0.097771436 0.12870477 0.58000004
-0.096500009 0.12848286 0.57900006
-0.09523239 0.12826096 0.57800001
-0.094131432 0.12826096 0.57800001
-0.093030483 0.12826096 0.57800001
-0.091770485 0.12803906 0.57700002
-0.090514295 0.12781715 0.57600003
-0.089261912 0.12759525 0.57500005
-0.088166669 0.12759525 0.57500005
-0.086011432 0.12604192 0.56800002
-0.084929526 0.12604192 0.56800002
-0.083552383 0.1255981 0.56600004
-0.082474291 0.1255981 0.56600004
-0.081252389 0.12537619 0.565
-0.080176197 0.12537619 0.565
-0.078960001 0.12515429 0.56400001
-0.077885717 0.12515429 0.56400001
-0.076675244 0.12493239 0.56300002
-0.075468577 0.12471049 0.56200004
-0.074133337 0.12426668 0.56
-0.072936192 0.12404477 0.55900002
-0.071742862 0.12382287 0.55800003
-0.070680007 0.12382287 0.55800003
-0.069492385 0.12360096 0.55700004
-0.06843143 0.12360096 0.55700004
-0.067370482 0.12360096 0.55700004
-0.066309527 0.12360096 0.55700004
-0.065131433 0.12337906 0.55600005
-0.064072385 0.12337906 0.55600005
-0.063013338 0.12337906 0.55600005
-0.06195429 0.12337906 0.55600005
-0.060895242 0.12337906 0.55600005
-0.059836194 0.12337906 0.55600005
-0.058777146 0.12337906 0.55600005
-0.057821907 0.12360096 0.55700004
-0.056760956 0.12360096 0.55700004
-0.055700004 0.12360096 0.55700004
-0.054835241 0.12404477 0.55900002
-0.053770479 0.12404477 0.55900002
-0.052705716 0.12404477 0.55900002
-0.051733337 0.12426668 0.56
-0.050666671 0.12426668 0.56
-0.049777146 0.12471049 0.56200004
-0.048793338 0.12493239 0.56300002
-0.047805719 0.12515429 0.56400001
-0.097602867 0.12958573 0.57900006
-0.096500009 0.12958573 0.57900006
-0.09523239 0.12936191 0.57800001
-0.094131432 0.12936191 0.57800001
-0.092869528 0.1291381 0.57700002
-0.091611437 0.1289143 0.57600003
-0.090357147 0.12869048 0.57500005
-0.089261912 0.12869048 0.57500005
-0.088013336 0.12846668 0.574
-0.086011432 0.12712382 0.56800002
-0.084929526 0.12712382 0.56800002
-0.083552383 0.1266762 0.56600004
-0.08232858 0.12645239 0.565
-0.081252389 0.12645239 0.565
-0.080034293 0.12622859 0.56400001
-0.078820005 0.12600477 0.56300002
-0.077609532 0.12578095 0.56200004
-0.076402865 0.12555715 0.56100005
-0.075200006 0.12533334 0.56
-0.073736198 0.12466192 0.55700004
-0.072675243 0.12466192 0.55700004
-0.071485721 0.12443811 0.55600005
-0.070426673 0.12443811 0.55600005
-0.069367625 0.12443811 0.55600005
-0.068308577 0.12443811 0.55600005
-0.067249529 0.12443811 0.55600005
-0.066071436 0.12421429 0.55500001
-0.065014288 0.12421429 0.55500001
-0.063957147 0.12421429 0.55500001
-0.062900007 0.12421429 0.55500001
-0.061842863 0.12421429 0.55500001
-0.060785718 0.12421429 0.55500001
-0.059728574 0.12421429 0.55500001
-0.058671433 0.12421429 0.55500001
-0.057614289 0.12421429 0.55500001
-0.05665905 0.12443811 0.55600005
-0.055500004 0.12421429 0.55500001
-0.054737147 0.12488572 0.55800003
-0.053674288 0.12488572 0.55800003
-0.052705716 0.12510954 0.55900002
-0.051640958 0.12510954 0.55900002
-0.050666671 0.12533334 0.56
-0.049600001 0.12533334 0.56
-0.048706669 0.12578095 0.56200004
-0.047636192 0.12578095 0.56200004
-0.046648573 0.12600477 0.56300002
-0.045738097 0.12645239 0.565
-0.096666671 0.1309143 0.58000004
-0.09523239 0.13046287 0.57800001
-0.094131432 0.13046287 0.57800001
-0.092869528 0.13023715 0.57700002
-0.091611437 0.13001144 0.57600003
-0.090357147 0.12978572 0.57500005
-0.088951431 0.1293343 0.57300001
-0.086940005 0.12798001 0.56700003
-0.085708573 0.1277543 0.56600004
-0.084480956 0.12752858 0.565
-0.083404765 0.12752858 0.565
-0.082182862 0.12730287 0.56400001
-0.080964766 0.12707715 0.56300002
-0.079750478 0.12685144 0.56200004
-0.078540005 0.12662572 0.56100005
-0.077333339 0.12640001 0.56
-0.07613048 0.1261743 0.55900002
-0.074797146 0.12572287 0.55700004
-0.073603816 0.12549715 0.55600005
-0.072544768 0.12549715 0.55600005
-0.071357146 0.12527144 0.55500001
-0.070300005 0.12527144 0.55500001
-0.069242865 0.12527144 0.55500001
-0.068185717 0.12527144 0.55500001
-0.067007624 0.12504572 0.55400002
-0.065952383 0.12504572 0.55400002
-0.06489715 0.12504572 0.55400002
-0.063726671 0.12482001 0.55300003
-0.062673338 0.12482001 0.55300003
-0.061620004 0.12482001 0.55300003
-0.060566671 0.12482001 0.55300003
-0.059513338 0.12482001 0.55300003
-0.058460005 0.12482001 0.55300003
-0.05751048 0.12504572 0.55400002
-0.056455243 0.12504572 0.55400002
-0.055300005 0.12482001 0.55300003
-0.054344766 0.12504572 0.55400002
-0.053385716 0.12527144 0.55500001
-0.052328575 0.12527144 0.55500001
-0.051363815 0.12549715 0.55600005
-0.050304767 0.12549715 0.55600005
-0.049245719 0.12549715 0.55600005
-0.048273336 0.12572287 0.55700004
-0.047127623 0.12549715 0.55600005
-0.046234287 0.12594858 0.55800003
-0.045171432 0.12594858 0.55800003
-0.044503812 0.12707715 0.56300002
-0.042968575 0.12572287 0.55700004
-0.041832384 0.12549715 0.55600005
-0.040700004 0.12527144 0.55500001
-0.039642859 0.12527144 0.55500001
-0.11970096 0.14522097 0.63800001
-0.11848572 0.14522097 0.63800001
-0.11745429 0.14544858 0.63900006
-0.094294295 0.13179144 0.57900006
-0.092869528 0.1313362 0.57700002
-0.091611437 0.13110858 0.57600003
-0.090514295 0.13110858 0.57600003
-0.088175245 0.12928763 0.56800002
-0.086940005 0.12906002 0.56700003
-0.085708573 0.12883238 0.56600004
-0.084480956 0.12860477 0.565
-0.083404765 0.12860477 0.565
-0.082182862 0.12837715 0.56400001
-0.080964766 0.12814954 0.56300002
-0.079466671 0.12746668 0.56
-0.078400008 0.12746668 0.56
-0.077057146 0.12701143 0.55800003
-0.075858101 0.12678382 0.55700004
-0.074662864 0.1265562 0.55600005
-0.073603816 0.1265562 0.55600005
-0.072414294 0.12632857 0.55500001
-0.071357146 0.12632857 0.55500001
-0.070300005 0.12632857 0.55500001
-0.069242865 0.12632857 0.55500001
-0.068062864 0.12610096 0.55400002
-0.067007624 0.12610096 0.55400002
-0.065833338 0.12587334 0.55300003
-0.064780004 0.12587334 0.55300003
-0.063726671 0.12587334 0.55300003
-0.062673338 0.12587334 0.55300003
-0.061620004 0.12587334 0.55300003
-0.060457148 0.12564573 0.55200005
-0.059513338 0.12587334 0.55300003
-0.058460005 0.12587334 0.55300003
-0.057406671 0.12587334 0.55300003
-0.056353338 0.12587334 0.55300003
-0.055200003 0.12564573 0.55200005
-0.054246671 0.12587334 0.55300003
-0.053193338 0.12587334 0.55300003
-0.052234288 0.12610096 0.55400002
-0.051179051 0.12610096 0.55400002
-0.050214291 0.12632857 0.55500001
-0.049157146 0.12632857 0.55500001
-0.048100002 0.12632857 0.55500001
-0.047042862 0.12632857 0.55500001
-0.046068575 0.1265562 0.55600005
-0.045009527 0.1265562 0.55600005
-0.04418762 0.12723906 0.55900002
-0.042968575 0.12678382 0.55700004
-0.041907623 0.12678382 0.55700004
-0.040846668 0.12678382 0.55700004
-0.12577716 0.1464362 0.63800001
-0.12456191 0.1464362 0.63800001
-0.12334667 0.1464362 0.63800001
-0.12213144 0.1464362 0.63800001
-0.12053715 0.14597715 0.63600004
-0.11932572 0.14597715 0.63600004
-0.11811429 0.14597715 0.63600004
-0.11727048 0.1464362 0.63800001
-0.094294295 0.13289429 0.57900006
-0.092869528 0.13243525 0.57700002
-0.088175245 0.13036953 0.56800002
-0.086940005 0.13014001 0.56700003
-0.085708573 0.12991048 0.56600004
-0.084480956 0.12968096 0.565
-0.083404765 0.12968096 0.565
-0.082182862 0.12945144 0.56400001
-0.080820955 0.12899239 0.56200004
-0.079466671 0.12853335 0.56
-0.078260005 0.12830381 0.55900002
-0.077057146 0.12807429 0.55800003
-0.075858101 0.12784477 0.55700004
-0.074662864 0.12761524 0.55600005
-0.073471434 0.12738572 0.55500001
-0.072414294 0.12738572 0.55500001
-0.071357146 0.12738572 0.55500001
-0.070173338 0.1271562 0.55400002
-0.069118097 0.1271562 0.55400002
-0.067940004 0.12692668 0.55300003
-0.066886671 0.12692668 0.55300003
-0.065714292 0.12669715 0.55200005
-0.064662859 0.12669715 0.55200005
-0.063611433 0.12669715 0.55200005
-0.062560007 0.12669715 0.55200005
-0.061508577 0.12669715 0.55200005
-0.060457148 0.12669715 0.55200005
-0.059405718 0.12669715 0.55200005
-0.058354288 0.12669715 0.55200005
-0.057302862 0.12669715 0.55200005
-0.056251433 0.12669715 0.55200005
-0.055100005 0.12646763 0.551
-0.054050479 0.12646763 0.551
-0.053000957 0.12646763 0.551
-0.051951431 0.12646763 0.551
-0.050994288 0.12669715 0.55200005
-0.049942862 0.12669715 0.55200005
-0.048980001 0.12692668 0.55300003
-0.048100002 0.12738572 0.55500001
-0.047042862 0.12738572 0.55500001
-0.045985717 0.12738572 0.55500001
-0.044928573 0.12738572 0.55500001
-0.043871433 0.12738572 0.55500001
-0.042891432 0.12761524 0.55600005
-0.041832384 0.12761524 0.55600005
-0.040773336 0.12761524 0.55600005
-0.12053715 0.14718857 0.63600004
-0.088020004 0.13122001 0.56700003
-0.086786672 0.13098858 0.56600004
-0.085708573 0.13098858 0.56600004
-0.084480956 0.13075715 0.565
-0.083257146 0.13052572 0.56400001
-0.082037151 0.13029429 0.56300002
-0.080820955 0.13006286 0.56200004
-0.079324767 0.12936857 0.55900002
-0.078120008 0.12913716 0.55800003
-0.076919049 0.12890573 0.55700004
-0.075721912 0.1286743 0.55600005
-0.074662864 0.1286743 0.55600005
-0.073471434 0.12844287 0.55500001
-0.072414294 0.12844287 0.55500001
-0.071357146 0.12844287 0.55500001
-0.070173338 0.12821144 0.55400002
-0.068993337 0.12798001 0.55300003
-0.067940004 0.12798001 0.55300003
-0.066765718 0.12774858 0.55200005
-0.065714292 0.12774858 0.55200005
-0.064545721 0.12751715 0.551
-0.063496195 0.12751715 0.551
-0.062446672 0.12751715 0.551
-0.061397146 0.12751715 0.551
-0.060347624 0.12751715 0.551
-0.059298098 0.12751715 0.551
-0.058248576 0.12751715 0.551
-0.05719905 0.12751715 0.551
-0.056149527 0.12751715 0.551
-0.055000003 0.12728572 0.55000001
-0.05385429 0.12705429 0.54900002
-0.052904766 0.12728572 0.55000001
-0.051857147 0.12728572 0.55000001
-0.050809529 0.12728572 0.55000001
-0.049761906 0.12728572 0.55000001
-0.048980001 0.12798001 0.55300003
-0.047926668 0.12798001 0.55300003
-0.046873335 0.12798001 0.55300003
-0.045902859 0.12821144 0.55400002
-0.044847623 0.12821144 0.55400002
-0.043871433 0.12844287 0.55500001
-0.042814288 0.12844287 0.55500001
-0.041757144 0.12844287 0.55500001
-0.040626671 0.12821144 0.55400002
-0.039571431 0.12821144 0.55400002
-0.088020004 0.1323 0.56700003
-0.086786672 0.13206668 0.56600004
-0.085708573 0.13206668 0.56600004
-0.084480956 0.13183334 0.565
-0.083257146 0.13160001 0.56400001
-0.082037151 0.13136667 0.56300002
-0.080677152 0.13090001 0.56100005
-0.079324767 0.13043334 0.55900002
-0.078120008 0.13020001 0.55800003
-0.076919049 0.12996668 0.55700004
-0.075721912 0.12973334 0.55600005
-0.074528575 0.1295 0.55500001
-0.073471434 0.1295 0.55500001
-0.072414294 0.1295 0.55500001
-0.071228579 0.12926668 0.55400002
-0.070046671 0.12903334 0.55300003
-0.068993337 0.12903334 0.55300003
-0.067817144 0.1288 0.55200005
-0.066644765 0.12856668 0.551
-0.065595239 0.12856668 0.551
-0.064545721 0.12856668 0.551
-0.063496195 0.12856668 0.551
-0.062446672 0.12856668 0.551
-0.061285719 0.12833335 0.55000001
-0.060238101 0.12833335 0.55000001
-0.059190482 0.12833335 0.55000001
-0.058142859 0.12833335 0.55000001
-0.057095241 0.12833335 0.55000001
-0.055945717 0.12810001 0.54900002
-0.054900005 0.12810001 0.54900002
-0.05385429 0.12810001 0.54900002
-0.052808575 0.12810001 0.54900002
-0.05176286 0.12810001 0.54900002
-0.050717145 0.12810001 0.54900002
-0.04967143 0.12810001 0.54900002
-0.04880286 0.12856668 0.551
-0.047840003 0.1288 0.55200005
-0.046788573 0.1288 0.55200005
-0.045820002 0.12903334 0.55300003
-0.044766668 0.12903334 0.55300003
-0.043792386 0.12926668 0.55400002
-0.042814288 0.1295 0.55500001
-0.041757144 0.1295 0.55500001
-0.040700004 0.1295 0.55500001
-0.039642859 0.1295 0.55500001
-0.087864764 0.13314477 0.56600004
-0.086786672 0.13314477 0.56600004
-0.085557148 0.13290954 0.565
-0.084480956 0.13290954 0.565
-0.083109528 0.13243906 0.56300002
-0.081891432 0.13220382 0.56200004
-0.080533341 0.13173334 0.56
-0.079324767 0.1314981 0.55900002
-0.077980004 0.13102762 0.55700004
-0.07678096 0.13079239 0.55600005
-0.075585723 0.13055715 0.55500001
-0.074528575 0.13055715 0.55500001
-0.073471434 0.13055715 0.55500001
-0.072414294 0.13055715 0.55500001
-0.071100004 0.13008668 0.55300003
-0.069920003 0.12985143 0.55200005
-0.068868577 0.12985143 0.55200005
-0.067694291 0.1296162 0.551
-0.066644765 0.1296162 0.551
-0.065476194 0.12938096 0.55000001
-0.064428575 0.12938096 0.55000001
-0.063265719 0.12914573 0.54900002
-0.062220003 0.12914573 0.54900002
-0.061062861 0.12891048 0.54800004
-0.06001905 0.12891048 0.54800004
-0.058975242 0.12891048 0.54800004
-0.057931431 0.12891048 0.54800004
-0.056887623 0.12891048 0.54800004
-0.055843811 0.12891048 0.54800004
-0.054800004 0.12891048 0.54800004
-0.053756192 0.12891048 0.54800004
-0.052712385 0.12891048 0.54800004
-0.051668573 0.12891048 0.54800004
-0.050717145 0.12914573 0.54900002
-0.04967143 0.12914573 0.54900002
-0.048714288 0.12938096 0.55000001
-0.047753338 0.1296162 0.551
-0.046788573 0.12985143 0.55200005
-0.045737147 0.12985143 0.55200005
-0.044766668 0.13008668 0.55300003
-0.043713335 0.13008668 0.55300003
-0.042737145 0.13032192 0.55400002
-0.041757144 0.13055715 0.55500001
-0.040700004 0.13055715 0.55500001
-0.039642859 0.13055715 0.55500001
-0.038585715 0.13055715 0.55500001
-0.087864764 0.13422287 0.56600004
-0.08663334 0.13398573 0.565
-0.085557148 0.13398573 0.565
-0.08433143 0.13374858 0.56400001
-0.083109528 0.13351144 0.56300002
-0.081745721 0.13303715 0.56100005
-0.080533341 0.13280001 0.56
-0.079182863 0.13232572 0.55800003
-0.077840008 0.13185143 0.55600005
-0.07678096 0.13185143 0.55600005
-0.075585723 0.1316143 0.55500001
-0.074528575 0.1316143 0.55500001
-0.073339052 0.13137715 0.55400002
-0.072283812 0.13137715 0.55400002
-0.070971437 0.13090287 0.55200005
-0.069793336 0.13066572 0.551
-0.068743818 0.13066572 0.551
-0.067571431 0.13042858 0.55000001
-0.06640286 0.13019143 0.54900002
-0.065357149 0.13019143 0.54900002
-0.064194292 0.12995429 0.54800004
-0.06315048 0.12995429 0.54800004
-0.062106669 0.12995429 0.54800004
-0.060951434 0.12971716 0.54700005
