# .PCD v0.7 - Point Cloud Data file format
VERSION 0.7
FIELDS x y z
SIZE 4 4 4
TYPE F F F
COUNT 1 1 1
WIDTH 1408
HEIGHT 1
VIEWPOINT 0 0 0 1 0 0 0
POINTS 1408
DATA ascii
0.1456762 0.079847626 0.64000005
0.0075895241 0.077646673 0.61300004
0.0087571433 0.077646673 0.61300004
0.0099247629 0.077646673 0.61300004
0.011092382 0.077646673 0.61300004
0.012300001 0.077900007 0.61500001
0.013471429 0.077900007 0.61500001
0.014690477 0.078153342 0.61700004
0.019391431 0.078153342 0.61700004
0.020533334 0.078026675 0.61600006
0.021706669 0.078026675 0.61600006
0.022842858 0.077900007 0.61500001
0.024014287 0.077900007 0.61500001
0.025144763 0.07777334 0.61400002
0.026357144 0.077900007 0.61500001
0.027483812 0.07777334 0.61400002
0.028653335 0.07777334 0.61400002
0.02982286 0.07777334 0.61400002
0.030941907 0.077646673 0.61300004
0.032109525 0.077646673 0.61300004
0.033277147 0.077646673 0.61300004
0.034388572 0.077520005 0.61200005
0.03555429 0.077520005 0.61200005
0.036720004 0.077520005 0.61200005
0.037885718 0.077520005 0.61200005
0.10911715 0.080180004 0.63300002
0.11032286 0.080180004 0.63300002
0.11152858 0.080180004 0.63300002
0.1127343 0.080180004 0.63300002
0.11394001 0.080180004 0.63300002
0.11514572 0.080180004 0.63300002
0.11635143 0.080180004 0.63300002
0.11755715 0.080180004 0.63300002
0.11876287 0.080180004 0.63300002
0.11996858 0.080180004 0.63300002
0.12117429 0.080180004 0.63300002
0.12238001 0.080180004 0.63300002
0.12358572 0.080180004 0.63300002
0.12498858 0.080306672 0.634
0.12619621 0.080306672 0.634
0.12740381 0.080306672 0.634
0.12861143 0.080306672 0.634
0.12981905 0.080306672 0.634
0.13123333 0.080433339 0.63500005
0.13223429 0.080306672 0.634
0.13365239 0.080433339 0.63500005
0.13486192 0.080433339 0.63500005
0.13671429 0.080813341 0.63800001
0.13792953 0.080813341 0.63800001
0.13914478 0.080813341 0.63800001
0.14036001 0.080813341 0.63800001
0.14157525 0.080813341 0.63800001
0.14279048 0.080813341 0.63800001
0.14423144 0.080940008 0.63900006
0.14544858 0.080940008 0.63900006
-0.00058285717 0.078685716 0.61200005
0.00058285717 0.078685716 0.61200005
0.0040733335 0.078557149 0.611
0.006411429 0.078685716 0.61200005
0.0075895241 0.07881429 0.61300004
0.0087571433 0.07881429 0.61300004
0.0099247629 0.07881429 0.61300004
0.011074287 0.078685716 0.61200005
0.012260001 0.07881429 0.61300004
0.013449525 0.078942865 0.61400002
0.014642858 0.079071432 0.61500001
0.015788572 0.078942865 0.61400002
0.016958097 0.078942865 0.61400002
0.018157143 0.079071432 0.61500001
0.019328572 0.079071432 0.61500001
0.020500001 0.079071432 0.61500001
0.021636192 0.078942865 0.61400002
0.022805715 0.078942865 0.61400002
0.023936192 0.07881429 0.61300004
0.025103811 0.07881429 0.61300004
0.026271431 0.07881429 0.61300004
0.027394287 0.078685716 0.61200005
0.028560001 0.078685716 0.61200005
0.029725716 0.078685716 0.61200005
0.030891431 0.078685716 0.61200005
0.032057144 0.078685716 0.61200005
0.033168573 0.078557149 0.611
0.03416381 0.078171432 0.60800004
0.035321906 0.078171432 0.60800004
0.036480002 0.078171432 0.60800004
0.037576191 0.078042865 0.60700005
0.084420003 0.077528574 0.60300004
0.10688858 0.080614291 0.62700003
0.10808286 0.080614291 0.62700003
0.10945144 0.080742866 0.62800002
0.11082382 0.080871433 0.62900001
0.11237811 0.081128575 0.63100004
0.11358001 0.081128575 0.63100004
0.11478191 0.081128575 0.63100004
0.11598381 0.081128575 0.63100004
0.11718572 0.081128575 0.63100004
0.11838762 0.081128575 0.63100004
0.11958953 0.081128575 0.63100004
0.12079144 0.081128575 0.63100004
0.12199334 0.081128575 0.63100004
0.12339048 0.08125715 0.63200003
0.12459429 0.08125715 0.63200003
0.12579811 0.08125715 0.63200003
0.12700191 0.08125715 0.63200003
0.12820572 0.08125715 0.63200003
0.12940954 0.08125715 0.63200003
0.13082001 0.081385717 0.63300002
0.13202572 0.081385717 0.63300002
0.13344191 0.081514291 0.634
0.13443716 0.081385717 0.63300002
0.13585715 0.081514291 0.634
0.13706477 0.081514291 0.634
0.13849048 0.081642866 0.63500005
0.13948001 0.081514291 0.634
0.14090954 0.081642866 0.63500005
0.14211905 0.081642866 0.63500005
0.14332858 0.081642866 0.63500005
0.14476572 0.081771433 0.63600004
0.14574763 0.081642866 0.63500005
-0.00058285717 0.079851434 0.61200005
0.00058285717 0.079851434 0.61200005
0.0017485715 0.079851434 0.61200005
0.0029095239 0.079720959 0.611
0.0040733335 0.079720959 0.611
0.0052200002 0.079460002 0.60900003
0.006411429 0.079851434 0.61200005
0.0075771431 0.079851434 0.61200005
0.0087428577 0.079851434 0.61200005
0.0099085718 0.079851434 0.61200005
0.011074287 0.079851434 0.61200005
0.012260001 0.079981908 0.61300004
0.01342762 0.079981908 0.61300004
0.014595239 0.079981908 0.61300004
0.015737144 0.079851434 0.61200005
0.016902858 0.079851434 0.61200005
0.018098097 0.079981908 0.61300004
0.019297143 0.080112383 0.61400002
0.020433335 0.079981908 0.61300004
0.021600954 0.079981908 0.61300004
0.022731431 0.079851434 0.61200005
0.023897145 0.079851434 0.61200005
0.025062859 0.079851434 0.61200005
0.026228573 0.079851434 0.61200005
0.027349526 0.079720959 0.611
0.028513335 0.079720959 0.611
0.02953143 0.079329528 0.60800004
0.030740002 0.079460002 0.60900003
0.031847622 0.079329528 0.60800004
0.032951429 0.079199053 0.60700005
0.034051429 0.079068579 0.60600001
0.035205718 0.079068579 0.60600001
0.036360003 0.079068579 0.60600001
0.037452385 0.078938097 0.60500002
0.038604766 0.078938097 0.60500002
0.039757144 0.078938097 0.60500002
0.079329528 0.079329528 0.60800004
0.080355242 0.079199053 0.60700005
0.081242859 0.078938097 0.60500002
0.083409533 0.078807622 0.60400003
0.084420003 0.078677148 0.60300004
0.085568577 0.078677148 0.60300004
0.10416667 0.081547625 0.625
0.10552572 0.0816781 0.62600005
0.1067181 0.0816781 0.62600005
0.10808286 0.081808574 0.62700003
0.10927715 0.081808574 0.62700003
0.11064763 0.081939057 0.62800002
0.11184382 0.081939057 0.62800002
0.11322001 0.082069531 0.62900001
0.1144181 0.082069531 0.62900001
0.11561619 0.082069531 0.62900001
0.11681429 0.082069531 0.62900001
0.11801239 0.082069531 0.62900001
0.11921048 0.082069531 0.62900001
0.12079144 0.08233048 0.63100004
0.12199334 0.08233048 0.63100004
0.12319525 0.08233048 0.63100004
0.12459429 0.082460955 0.63200003
0.12559906 0.08233048 0.63100004
0.12700191 0.082460955 0.63200003
0.12820572 0.082460955 0.63200003
0.12940954 0.082460955 0.63200003
0.13061334 0.082460955 0.63200003
0.13181715 0.082460955 0.63200003
0.13302097 0.082460955 0.63200003
0.13443716 0.082591437 0.63300002
0.13564287 0.082591437 0.63300002
0.13684858 0.082591437 0.63300002
0.13827239 0.082721911 0.634
0.13948001 0.082721911 0.634
0.14068763 0.082721911 0.634
0.14189525 0.082721911 0.634
0.14332858 0.082852386 0.63500005
0.1445381 0.082852386 0.63500005
0.14574763 0.082852386 0.63500005
0.14672573 0.082721911 0.634
-0.012180001 0.080620006 0.60900003
-0.011020001 0.080620006 0.60900003
-0.0098600006 0.080620006 0.60900003
-0.0087000001 0.080620006 0.60900003
-0.0075400006 0.080620006 0.60900003
-0.0052457144 0.081017151 0.61200005
-0.0040800003 0.081017151 0.61200005
-0.0029190478 0.081149526 0.61300004
-0.0017514287 0.081149526 0.61300004
-0.00058285717 0.081017151 0.61200005
0.00058285717 0.081017151 0.61200005
0.0017485715 0.081017151 0.61200005
0.0029095239 0.08088477 0.611
0.0040600002 0.080620006 0.60900003
0.0052200002 0.080620006 0.60900003
0.0064009526 0.08088477 0.611
0.0075647626 0.08088477 0.611
0.0087428577 0.081017151 0.61200005
0.0098923817 0.08088477 0.611
0.011056191 0.08088477 0.611
0.012240001 0.081017151 0.61200005
0.01338381 0.08088477 0.611
0.014500001 0.080620006 0.60900003
0.01571143 0.08088477 0.611
0.01682 0.080620006 0.60900003
0.01803905 0.08088477 0.611
0.019265715 0.081149526 0.61300004
0.020400001 0.081017151 0.61200005
0.021565715 0.081017151 0.61200005
0.022694288 0.08088477 0.611
0.023858096 0.08088477 0.611
0.025021907 0.08088477 0.611
0.026100002 0.080620006 0.60900003
0.027215241 0.080487624 0.60800004
0.028373335 0.080487624 0.60800004
0.029482858 0.080355242 0.60700005
0.030588573 0.08022286 0.60600001
0.03174286 0.08022286 0.60600001
0.03284286 0.080090478 0.60500002
0.033995241 0.080090478 0.60500002
0.035147622 0.080090478 0.60500002
0.036360003 0.08022286 0.60600001
0.037452385 0.080090478 0.60500002
0.038540956 0.079958104 0.60400003
0.03969143 0.079958104 0.60400003
0.04077429 0.079825722 0.60300004
0.078300007 0.080620006 0.60900003
0.079199053 0.080355242 0.60700005
0.08022286 0.08022286 0.60600001
0.081242859 0.080090478 0.60500002
0.082395241 0.080090478 0.60500002
0.083409533 0.079958104 0.60400003
0.084560007 0.079958104 0.60400003
0.085568577 0.079825722 0.60300004
0.10314096 0.082870483 0.62600005
0.10433334 0.082870483 0.62600005
0.10552572 0.082870483 0.62600005
0.1067181 0.082870483 0.62600005
0.10808286 0.083002865 0.62700003
0.10927715 0.083002865 0.62700003
0.11064763 0.083135247 0.62800002
0.11184382 0.083135247 0.62800002
0.11322001 0.083267622 0.62900001
0.1142362 0.083135247 0.62800002
0.11543239 0.083135247 0.62800002
0.11662858 0.083135247 0.62800002
0.11801239 0.083267622 0.62900001
0.11921048 0.083267622 0.62900001
0.12040858 0.083267622 0.62900001
0.12160668 0.083267622 0.62900001
0.12319525 0.083532386 0.63100004
0.12439715 0.083532386 0.63100004
0.12559906 0.083532386 0.63100004
0.12680095 0.083532386 0.63100004
0.12800287 0.083532386 0.63100004
0.12920476 0.083532386 0.63100004
0.13061334 0.083664767 0.63200003
0.13181715 0.083664767 0.63200003
0.13302097 0.083664767 0.63200003
0.13422477 0.083664767 0.63200003
0.13542858 0.083664767 0.63200003
0.13684858 0.083797149 0.63300002
0.13827239 0.083929531 0.634
0.13926001 0.083797149 0.63300002
0.14068763 0.083929531 0.634
0.14167143 0.083797149 0.63300002
0.14310287 0.083929531 0.634
0.14431049 0.083929531 0.634
0.14551811 0.083929531 0.634
0.14672573 0.083929531 0.634
-0.014500001 0.081780009 0.60900003
-0.013340001 0.081780009 0.60900003
-0.012180001 0.081780009 0.60900003
-0.0087000001 0.081780009 0.60900003
-0.0052457144 0.082182862 0.61200005
-0.0040800003 0.082182862 0.61200005
-0.0029190478 0.082317151 0.61300004
-0.0017514287 0.082317151 0.61300004
-0.00058285717 0.082182862 0.61200005
0.00058285717 0.082182862 0.61200005
0.0017485715 0.082182862 0.61200005
0.0029095239 0.08204858 0.611
0.0040600002 0.081780009 0.60900003
0.005237143 0.08204858 0.611
0.0064009526 0.08204858 0.611
0.0075400006 0.081780009 0.60900003
0.0087285722 0.08204858 0.611
0.0098600006 0.081780009 0.60900003
0.011056191 0.08204858 0.611
0.012220001 0.08204858 0.611
0.013340001 0.081780009 0.60900003
0.014452382 0.08151143 0.60700005
0.015608572 0.08151143 0.60700005
0.016764764 0.08151143 0.60700005
0.017891429 0.081377149 0.60600001
0.019202858 0.08204858 0.611
0.020366669 0.08204858 0.611
0.021530477 0.08204858 0.611
0.022620002 0.081780009 0.60900003
0.023780001 0.081780009 0.60900003
0.024940001 0.081780009 0.60900003
0.026057145 0.08164572 0.60800004
0.027170477 0.08151143 0.60700005
0.028280001 0.081377149 0.60600001
0.029385716 0.081242859 0.60500002
0.030538097 0.081242859 0.60500002
0.031638097 0.081108578 0.60400003
0.032788575 0.081108578 0.60400003
0.033939049 0.081108578 0.60400003
0.035089526 0.081108578 0.60400003
0.036300004 0.081242859 0.60500002
0.037390478 0.081108578 0.60400003
0.038540956 0.081108578 0.60400003
0.03969143 0.081108578 0.60400003
0.04077429 0.080974288 0.60300004
0.078042865 0.08151143 0.60700005
0.079068579 0.081377149 0.60600001
0.080090478 0.081242859 0.60500002
0.081242859 0.081242859 0.60500002
0.082395241 0.081242859 0.60500002
0.083547622 0.081242859 0.60500002
0.084560007 0.081108578 0.60400003
0.085568577 0.080974288 0.60300004
0.10314096 0.084062859 0.62600005
0.10433334 0.084062859 0.62600005
0.10552572 0.084062859 0.62600005
0.1067181 0.084062859 0.62600005
0.10808286 0.084197149 0.62700003
0.10927715 0.084197149 0.62700003
0.11047143 0.084197149 0.62700003
0.11184382 0.08433143 0.62800002
0.11304001 0.08433143 0.62800002
0.1142362 0.08433143 0.62800002
0.11543239 0.08433143 0.62800002
0.11662858 0.08433143 0.62800002
0.11782477 0.08433143 0.62800002
0.11902096 0.08433143 0.62800002
0.12021715 0.08433143 0.62800002
0.12141334 0.08433143 0.62800002
0.12280477 0.08446572 0.62900001
0.12400287 0.08446572 0.62900001
0.12520096 0.08446572 0.62900001
0.12680095 0.084734291 0.63100004
0.12800287 0.084734291 0.63100004
0.12920476 0.084734291 0.63100004
0.13040668 0.084734291 0.63100004
0.13160858 0.084734291 0.63100004
0.13281049 0.084734291 0.63100004
0.13401239 0.084734291 0.63100004
0.1352143 0.084734291 0.63100004
0.13663238 0.08486858 0.63200003
0.1380543 0.085002862 0.63300002
0.13904001 0.08486858 0.63200003
0.14046572 0.085002862 0.63300002
0.14167143 0.085002862 0.63300002
0.14310287 0.085137151 0.634
0.14431049 0.085137151 0.634
0.14551811 0.085137151 0.634
0.14672573 0.085137151 0.634
-0.015634287 0.082803816 0.60800004
-0.014500001 0.082940005 0.60900003
-0.013340001 0.082940005 0.60900003
-0.012180001 0.082940005 0.60900003
-0.011020001 0.082940005 0.60900003
-0.0098600006 0.082940005 0.60900003
-0.0087000001 0.082940005 0.60900003
-0.0075276196 0.082803816 0.60800004
-0.0063695242 0.082803816 0.60800004
-0.0052457144 0.08334858 0.61200005
-0.0040800003 0.08334858 0.61200005
-0.0029095239 0.083212383 0.611
-0.0017485715 0.08334858 0.61200005
-0.00058285717 0.08334858 0.61200005
0.00058285717 0.08334858 0.61200005
0.0017485715 0.08334858 0.61200005
0.0029095239 0.083212383 0.611
0.0040600002 0.082940005 0.60900003
0.0052200002 0.082940005 0.60900003
0.0063800006 0.082940005 0.60900003
0.0075276196 0.082803816 0.60800004
0.0087000001 0.082940005 0.60900003
0.0098276194 0.082667626 0.60700005
0.01098381 0.082667626 0.60700005
0.01216 0.082803816 0.60800004
0.013274287 0.082531437 0.60600001
0.014404763 0.082395241 0.60500002
0.015557144 0.082395241 0.60500002
0.016709525 0.082395241 0.60500002
0.017832382 0.082259052 0.60400003
0.018982857 0.082259052 0.60400003
0.020133335 0.082259052 0.60400003
0.021354288 0.082531437 0.60600001
0.022545716 0.082667626 0.60700005
0.023701906 0.082667626 0.60700005
0.024858097 0.082667626 0.60700005
0.026014287 0.082667626 0.60700005
0.027125716 0.082531437 0.60600001
0.028233334 0.082395241 0.60500002
0.029385716 0.082395241 0.60500002
0.030538097 0.082395241 0.60500002
0.031638097 0.082259052 0.60400003
0.032788575 0.082259052 0.60400003
0.033939049 0.082259052 0.60400003
0.035089526 0.082259052 0.60400003
0.036240004 0.082259052 0.60400003
0.037328575 0.082122862 0.60300004
0.038477145 0.082122862 0.60300004
0.039625715 0.082122862 0.60300004
0.040706668 0.081986673 0.60200006
0.077785723 0.082395241 0.60500002
0.078938097 0.082395241 0.60500002
0.079958104 0.082259052 0.60400003
0.081108578 0.082259052 0.60400003
0.082259052 0.082259052 0.60400003
0.083409533 0.082259052 0.60400003
0.084560007 0.082259052 0.60400003
0.10314096 0.085255243 0.62600005
0.10416667 0.085119054 0.625
0.10552572 0.085255243 0.62600005
0.1067181 0.085255243 0.62600005
0.10791048 0.085255243 0.62600005
0.10927715 0.085391432 0.62700003
0.11047143 0.085391432 0.62700003
0.11184382 0.085527621 0.62800002
0.11322001 0.085663818 0.62900001
0.1142362 0.085527621 0.62800002
0.11543239 0.085527621 0.62800002
0.11662858 0.085527621 0.62800002
0.11763715 0.085391432 0.62700003
0.11883143 0.085391432 0.62700003
0.12002572 0.085391432 0.62700003
0.12122001 0.085391432 0.62700003
0.12260953 0.085527621 0.62800002
0.12380572 0.085527621 0.62800002
0.12520096 0.085663818 0.62900001
0.12639906 0.085663818 0.62900001
0.12759715 0.085663818 0.62900001
0.12920476 0.085936196 0.63100004
0.13040668 0.085936196 0.63100004
0.13160858 0.085936196 0.63100004
0.13281049 0.085936196 0.63100004
0.13401239 0.085936196 0.63100004
0.1352143 0.085936196 0.63100004
0.13663238 0.086072385 0.63200003
0.1378362 0.086072385 0.63200003
0.13904001 0.086072385 0.63200003
0.14046572 0.086208574 0.63300002
0.14167143 0.086208574 0.63300002
0.14310287 0.086344771 0.634
0.14431049 0.086344771 0.634
0.14551811 0.086344771 0.634
0.1464943 0.086208574 0.63300002
-0.015634287 0.083961911 0.60800004
-0.014476191 0.083961911 0.60800004
-0.013318096 0.083961911 0.60800004
-0.01216 0.083961911 0.60800004
-0.011001905 0.083961911 0.60800004
-0.0098438105 0.083961911 0.60800004
-0.0086857146 0.083961911 0.60800004
-0.0075276196 0.083961911 0.60800004
-0.0063695242 0.083961911 0.60800004
-0.005237143 0.084376194 0.611
-0.0040733335 0.084376194 0.611
-0.0029095239 0.084376194 0.611
-0.0017485715 0.08451429 0.61200005
-0.00058190478 0.084376194 0.611
0.00058285717 0.08451429 0.61200005
0.0017485715 0.08451429 0.61200005
0.0029095239 0.084376194 0.611
0.0040533338 0.083961911 0.60800004
0.0052114287 0.083961911 0.60800004
0.0063695242 0.083961911 0.60800004
0.0075276196 0.083961911 0.60800004
0.0086857146 0.083961911 0.60800004
0.0098114293 0.083685718 0.60600001
0.01094762 0.083547622 0.60500002
0.012120001 0.083685718 0.60600001
0.013252382 0.083547622 0.60500002
0.014404763 0.083547622 0.60500002
0.015557144 0.083547622 0.60500002
0.016681906 0.083409533 0.60400003
0.017832382 0.083409533 0.60400003
0.018982857 0.083409533 0.60400003
0.020133335 0.083409533 0.60400003
0.021283811 0.083409533 0.60400003
0.02247143 0.083547622 0.60500002
0.023623811 0.083547622 0.60500002
0.02473524 0.083409533 0.60400003
0.031690478 0.083547622 0.60500002
0.035089526 0.083409533 0.60400003
0.036240004 0.083409533 0.60400003
0.037328575 0.083271436 0.60300004
0.038477145 0.083271436 0.60300004
0.039625715 0.083271436 0.60300004
0.040706668 0.08313334 0.60200006
0.078938097 0.083547622 0.60500002
0.079958104 0.083409533 0.60400003
0.080974288 0.083271436 0.60300004
0.082122862 0.083271436 0.60300004
0.083409533 0.083409533 0.60400003
0.084420003 0.083271436 0.60300004
0.10416667 0.08630953 0.625
0.10535715 0.08630953 0.625
0.1067181 0.086447626 0.62600005
0.10791048 0.086447626 0.62600005
0.10927715 0.086585723 0.62700003
0.11047143 0.086585723 0.62700003
0.11184382 0.086723812 0.62800002
0.11304001 0.086723812 0.62800002
0.1142362 0.086723812 0.62800002
0.11524858 0.086585723 0.62700003
0.11644287 0.086585723 0.62700003
0.11763715 0.086585723 0.62700003
0.11864191 0.086447626 0.62600005
0.12002572 0.086585723 0.62700003
0.12102667 0.086447626 0.62600005
0.12241429 0.086585723 0.62700003
0.12360858 0.086585723 0.62700003
0.12500191 0.086723812 0.62800002
0.1261981 0.086723812 0.62800002
0.12739429 0.086723812 0.62800002
0.12879525 0.086861908 0.62900001
0.12999335 0.086861908 0.62900001
0.13119143 0.086861908 0.62900001
0.13281049 0.087138101 0.63100004
0.13401239 0.087138101 0.63100004
0.1352143 0.087138101 0.63100004
0.13663238 0.087276198 0.63200003
0.1378362 0.087276198 0.63200003
0.13904001 0.087276198 0.63200003
0.14046572 0.087414294 0.63300002
0.14144763 0.087276198 0.63200003
0.14287715 0.087414294 0.63300002
0.14408286 0.087414294 0.63300002
0.14528859 0.087414294 0.63300002
0.1464943 0.087414294 0.63300002
-0.067992382 0.10304001 0.73600006
-0.015608572 0.084980004 0.60700005
-0.014452382 0.084980004 0.60700005
-0.013318096 0.085120007 0.60800004
-0.01216 0.085120007 0.60800004
-0.011001905 0.085120007 0.60800004
-0.0098276194 0.084980004 0.60700005
-0.008671429 0.084980004 0.60700005
-0.0075276196 0.085120007 0.60800004
-0.0063695242 0.085120007 0.60800004
-0.0052200002 0.085260004 0.60900003
-0.0040733335 0.085540004 0.611
-0.0029095239 0.085540004 0.611
-0.0017485715 0.085680008 0.61200005
-0.00058190478 0.085540004 0.611
0.00058190478 0.085540004 0.611
0.0017457145 0.085540004 0.611
0.0029000002 0.085260004 0.60900003
0.0040533338 0.085120007 0.60800004
0.0052114287 0.085120007 0.60800004
0.0063695242 0.085120007 0.60800004
0.0075152386 0.084980004 0.60700005
0.0086571435 0.084840007 0.60600001
0.0097952392 0.084700003 0.60500002
0.010929525 0.084560007 0.60400003
0.012080001 0.084560007 0.60400003
0.013230477 0.084560007 0.60400003
0.014380953 0.084560007 0.60400003
0.01553143 0.084560007 0.60400003
0.016654287 0.084420003 0.60300004
0.017802859 0.084420003 0.60300004
0.018982857 0.084560007 0.60400003
0.020100001 0.084420003 0.60300004
0.021283811 0.084560007 0.60400003
0.022434287 0.084560007 0.60400003
0.023584763 0.084560007 0.60400003
0.02473524 0.084560007 0.60400003
0.038349528 0.084140003 0.60100001
0.039494287 0.084140003 0.60100001
0.040300954 0.083440006 0.59600002
0.041436192 0.083440006 0.59600002
0.071724765 0.083020009 0.59300005
0.073468573 0.083720006 0.59800005
0.074732386 0.083860002 0.59900004
0.075873338 0.083860002 0.59900004
0.076885723 0.083720006 0.59800005
0.078155242 0.083860002 0.59900004
0.079296194 0.083860002 0.59900004
0.080437146 0.083860002 0.59900004
0.082122862 0.084420003 0.60300004
0.083271436 0.084420003 0.60300004
0.084420003 0.084420003 0.60300004
0.10400001 0.087360002 0.62400001
0.10535715 0.087500006 0.625
0.10654762 0.087500006 0.625
0.1077381 0.087500006 0.625
0.10910287 0.087640002 0.62600005
0.11029524 0.087640002 0.62600005
0.11166572 0.087780006 0.62700003
0.11286001 0.087780006 0.62700003
0.11405429 0.087780006 0.62700003
0.11524858 0.087780006 0.62700003
0.11625715 0.087640002 0.62600005
0.11744953 0.087640002 0.62600005
0.11864191 0.087640002 0.62600005
0.1198343 0.087640002 0.62600005
0.12102667 0.087640002 0.62600005
0.12221906 0.087640002 0.62600005
0.12341144 0.087640002 0.62600005
0.12460382 0.087640002 0.62600005
0.12599716 0.087780006 0.62700003
0.12719144 0.087780006 0.62700003
0.12859048 0.087920003 0.62800002
0.12978667 0.087920003 0.62800002
0.13119143 0.088060006 0.62900001
0.13238953 0.088060006 0.62900001
0.13358763 0.088060006 0.62900001
0.1352143 0.088340007 0.63100004
0.1364162 0.088340007 0.63100004
0.1378362 0.088480003 0.63200003
0.13882001 0.088340007 0.63100004
0.14024381 0.088480003 0.63200003
0.14144763 0.088480003 0.63200003
0.14265144 0.088480003 0.63200003
0.14408286 0.088620007 0.63300002
0.14528859 0.088620007 0.63300002
0.1464943 0.088620007 0.63300002
0.14793335 0.088760003 0.634
-0.016764764 0.0861362 0.60700005
-0.015608572 0.0861362 0.60700005
-0.014452382 0.0861362 0.60700005
-0.013296192 0.0861362 0.60700005
-0.012140001 0.0861362 0.60700005
-0.01098381 0.0861362 0.60700005
-0.0098276194 0.0861362 0.60700005
-0.008671429 0.0861362 0.60700005
-0.0075152386 0.0861362 0.60700005
-0.0063590482 0.0861362 0.60700005
-0.0052114287 0.086278103 0.60800004
-0.0040733335 0.086703815 0.611
-0.0029095239 0.086703815 0.611
-0.0017485715 0.086845718 0.61200005
-0.00058190478 0.086703815 0.611
0.00058285717 0.086845718 0.61200005
0.0017457145 0.086703815 0.611
0.0029000002 0.086420007 0.60900003
0.0040533338 0.086278103 0.60800004
0.0052028573 0.0861362 0.60700005
0.0063590482 0.0861362 0.60700005
0.0075028576 0.085994288 0.60600001
0.0086428579 0.085852385 0.60500002
0.0097790482 0.085710481 0.60400003
0.010929525 0.085710481 0.60400003
0.012060001 0.085568577 0.60300004
0.013208573 0.085568577 0.60300004
0.014380953 0.085710481 0.60400003
0.01553143 0.085710481 0.60400003
0.016654287 0.085568577 0.60300004
0.017802859 0.085568577 0.60300004
0.018951429 0.085568577 0.60300004
0.020100001 0.085568577 0.60300004
0.021283811 0.085710481 0.60400003
0.022434287 0.085710481 0.60400003
0.023584763 0.085710481 0.60400003
0.040300954 0.084575243 0.59600002
0.04136667 0.08443334 0.59500003
0.071724765 0.084149532 0.59300005
0.073222861 0.084575243 0.59600002
0.074607626 0.084859051 0.59800005
0.07574667 0.084859051 0.59800005
0.076885723 0.084859051 0.59800005
0.078155242 0.085000955 0.59900004
0.079296194 0.085000955 0.59900004
0.080437146 0.085000955 0.59900004
0.081986673 0.085426673 0.60200006
0.08313334 0.085426673 0.60200006
0.084280007 0.085426673 0.60200006
0.10400001 0.088548578 0.62400001
0.10535715 0.088690482 0.625
0.10654762 0.088690482 0.625
0.1077381 0.088690482 0.625
0.10910287 0.088832386 0.62600005
0.11029524 0.088832386 0.62600005
0.11148763 0.088832386 0.62600005
0.11268001 0.088832386 0.62600005
0.11387239 0.088832386 0.62600005
0.11506477 0.088832386 0.62600005
0.11607143 0.088690482 0.625
0.11726191 0.088690482 0.625
0.11845239 0.088690482 0.625
0.1198343 0.088832386 0.62600005
0.12102667 0.088832386 0.62600005
0.12221906 0.088832386 0.62600005
0.12341144 0.088832386 0.62600005
0.12460382 0.088832386 0.62600005
0.12599716 0.08897429 0.62700003
0.12698857 0.088832386 0.62600005
0.12838572 0.08897429 0.62700003
0.12958001 0.08897429 0.62700003
0.13098286 0.089116193 0.62800002
0.13238953 0.089258105 0.62900001
0.13358763 0.089258105 0.62900001
0.13478573 0.089258105 0.62900001
0.1364162 0.089541912 0.63100004
0.13761811 0.089541912 0.63100004
0.13882001 0.089541912 0.63100004
0.14002192 0.089541912 0.63100004
0.14122382 0.089541912 0.63100004
0.14265144 0.089683816 0.63200003
0.14385524 0.089683816 0.63200003
0.14505906 0.089683816 0.63200003
0.14626287 0.089683816 0.63200003
0.14770001 0.08982572 0.63300002
0.14890572 0.08982572 0.63300002
-0.015582859 0.087148577 0.60600001
-0.014428573 0.087148577 0.60600001
-0.013296192 0.087292388 0.60700005
-0.012140001 0.087292388 0.60700005
-0.01098381 0.087292388 0.60700005
-0.0098276194 0.087292388 0.60700005
-0.008671429 0.087292388 0.60700005
-0.0075152386 0.087292388 0.60700005
-0.0063590482 0.087292388 0.60700005
-0.0052028573 0.087292388 0.60700005
-0.0040533338 0.087436199 0.60800004
-0.0028952383 0.087436199 0.60800004
-0.0017342858 0.087292388 0.60700005
-0.00058190478 0.087867625 0.611
0.00058190478 0.087867625 0.611
0.0017400001 0.087580003 0.60900003
0.0028952383 0.087436199 0.60800004
0.0040533338 0.087436199 0.60800004
0.0052028573 0.087292388 0.60700005
0.0063485717 0.087148577 0.60600001
0.0074780956 0.086860955 0.60400003
0.0086142858 0.086717151 0.60300004
0.009762858 0.086717151 0.60300004
0.010911429 0.086717151 0.60300004
0.012060001 0.086717151 0.60300004
0.013208573 0.086717151 0.60300004
0.014357144 0.086717151 0.60300004
0.015505715 0.086717151 0.60300004
0.016626667 0.08657334 0.60200006
0.017802859 0.086717151 0.60300004
0.018951429 0.086717151 0.60300004
0.020100001 0.086717151 0.60300004
0.021248573 0.086717151 0.60300004
0.022397144 0.086717151 0.60300004
0.039231431 0.085854292 0.597
0.040300954 0.085710481 0.59600002
0.04136667 0.08556667 0.59500003
0.042500004 0.08556667 0.59500003
0.043633334 0.08556667 0.59500003
0.071845718 0.085422866 0.59400004
0.073222861 0.085710481 0.59600002
0.074607626 0.085998103 0.59800005
0.075620003 0.085854292 0.597
0.076757148 0.085854292 0.597
0.078024767 0.085998103 0.59800005
0.07903143 0.085854292 0.597
0.080302864 0.085998103 0.59800005
0.08130572 0.085854292 0.597
0.082995243 0.086429529 0.60100001
0.084280007 0.08657334 0.60200006
0.085426673 0.08657334 0.60200006
0.10383334 0.089593336 0.62300003
0.10518858 0.089737147 0.62400001
0.10637715 0.089737147 0.62400001
0.1077381 0.089880958 0.625
0.10910287 0.090024769 0.62600005
0.11029524 0.090024769 0.62600005
0.11148763 0.090024769 0.62600005
0.11268001 0.090024769 0.62600005
0.11387239 0.090024769 0.62600005
0.11506477 0.090024769 0.62600005
0.11607143 0.089880958 0.625
0.11726191 0.089880958 0.625
0.11845239 0.089880958 0.625
0.11964287 0.089880958 0.625
0.12083334 0.089880958 0.625
0.12202382 0.089880958 0.625
0.12341144 0.090024769 0.62600005
0.12460382 0.090024769 0.62600005
0.1257962 0.090024769 0.62600005
0.12698857 0.090024769 0.62600005
0.12818097 0.090024769 0.62600005
0.12937334 0.090024769 0.62600005
0.13077429 0.09016858 0.62700003
0.13217905 0.090312384 0.62800002
0.13337524 0.090312384 0.62800002
0.13457143 0.090312384 0.62800002
0.13598382 0.090456195 0.62900001
0.13718191 0.090456195 0.62900001
0.13882001 0.090743817 0.63100004
0.14002192 0.090743817 0.63100004
0.14122382 0.090743817 0.63100004
0.14242573 0.090743817 0.63100004
0.14385524 0.090887628 0.63200003
0.14505906 0.090887628 0.63200003
0.14626287 0.090887628 0.63200003
0.14770001 0.091031432 0.63300002
0.14867048 0.090887628 0.63200003
-0.015557144 0.088157147 0.60500002
-0.014428573 0.088302866 0.60600001
-0.013274287 0.088302866 0.60600001
-0.012120001 0.088302866 0.60600001
-0.010965715 0.088302866 0.60600001
-0.0098114293 0.088302866 0.60600001
-0.0086571435 0.088302866 0.60600001
-0.0075028576 0.088302866 0.60600001
-0.0063485717 0.088302866 0.60600001
-0.0051857145 0.088157147 0.60500002
-0.0040400005 0.088302866 0.60600001
-0.0028857144 0.088302866 0.60600001
-0.0017342858 0.088448577 0.60700005
-0.00057809526 0.088448577 0.60700005
0.00057809526 0.088448577 0.60700005
0.0017342858 0.088448577 0.60700005
0.0028904765 0.088448577 0.60700005
0.0040466669 0.088448577 0.60700005
0.0051942859 0.088302866 0.60600001
0.0063380958 0.088157147 0.60500002
0.0074657146 0.087865718 0.60300004
0.0086000003 0.087720007 0.60200006
0.009746667 0.087720007 0.60200006
0.010893334 0.087720007 0.60200006
0.01204 0.087720007 0.60200006
0.013186667 0.087720007 0.60200006
0.014333334 0.087720007 0.60200006
0.015480001 0.087720007 0.60200006
0.016626667 0.087720007 0.60200006
0.017773334 0.087720007 0.60200006
0.018920001 0.087720007 0.60200006
0.020066667 0.087720007 0.60200006
0.021213334 0.087720007 0.60200006
0.022322858 0.087574288 0.60100001
0.039165717 0.086845718 0.59600002
0.040233336 0.086700007 0.59500003
0.04136667 0.086700007 0.59500003
0.042500004 0.086700007 0.59500003
0.043560002 0.086554289 0.59400004
0.044766668 0.086700007 0.59500003
0.045977145 0.086845718 0.59600002
0.047112383 0.086845718 0.59600002
0.04824762 0.086845718 0.59600002
0.050433338 0.086700007 0.59500003
0.07196667 0.086700007 0.59500003
0.073345721 0.086991437 0.597
0.074607626 0.087137148 0.59800005
0.075620003 0.086991437 0.597
0.076757148 0.086991437 0.597
0.077894293 0.086991437 0.597
0.07903143 0.086991437 0.597
0.080168575 0.086991437 0.597
0.08130572 0.086991437 0.597
0.082580961 0.087137148 0.59800005
0.084140003 0.087574288 0.60100001
0.08528477 0.087574288 0.60100001
0.10347048 0.091508575 0.62800002
0.10416667 0.091071434 0.625
0.10502001 0.090780005 0.62300003
0.10637715 0.090925723 0.62400001
0.1077381 0.091071434 0.625
0.10892858 0.091071434 0.625
0.11029524 0.091217145 0.62600005
0.11148763 0.091217145 0.62600005
0.11268001 0.091217145 0.62600005
0.11369048 0.091071434 0.625
0.11506477 0.091217145 0.62600005
0.11607143 0.091071434 0.625
0.11726191 0.091071434 0.625
0.11845239 0.091071434 0.625
0.11964287 0.091071434 0.625
0.12083334 0.091071434 0.625
0.12202382 0.091071434 0.625
0.1232143 0.091071434 0.625
0.12460382 0.091217145 0.62600005
0.1257962 0.091217145 0.62600005
0.12678573 0.091071434 0.625
0.12818097 0.091217145 0.62600005
0.12937334 0.091217145 0.62600005
0.13077429 0.091362864 0.62700003
0.13196857 0.091362864 0.62700003
0.13316287 0.091362864 0.62700003
0.13457143 0.091508575 0.62800002
0.13598382 0.091654293 0.62900001
0.13718191 0.091654293 0.62900001
0.13838001 0.091654293 0.62900001
0.14002192 0.091945723 0.63100004
0.14122382 0.091945723 0.63100004
0.14242573 0.091945723 0.63100004
0.14362763 0.091945723 0.63100004
0.14482953 0.091945723 0.63100004
0.14603144 0.091945723 0.63100004
0.14770001 0.092237152 0.63300002
0.14867048 0.092091434 0.63200003
-0.10053334 0.10746668 0.72800004
-0.099146672 0.10746668 0.72800004
-0.01657143 0.088571437 0.60000002
-0.015505715 0.089014292 0.60300004
-0.014380953 0.08916191 0.60400003
-0.013208573 0.089014292 0.60300004
-0.01204 0.088866673 0.60200006
-0.010911429 0.089014292 0.60300004
-0.0097790482 0.08916191 0.60400003
-0.0086142858 0.089014292 0.60300004
-0.0074780956 0.08916191 0.60400003
-0.0062857149 0.088571437 0.60000002
-0.0051428573 0.088571437 0.60000002
-0.0040000002 0.088571437 0.60000002
-0.0028571431 0.088571437 0.60000002
-0.0017114286 0.088423818 0.59900004
-0.00057047623 0.088423818 0.59900004
0.00057142862 0.088571437 0.60000002
0.0017142858 0.088571437 0.60000002
0.0028571431 0.088571437 0.60000002
0.0040000002 0.088571437 0.60000002
0.0051428573 0.088571437 0.60000002
0.0062857149 0.088571437 0.60000002
0.007428572 0.088571437 0.60000002
0.0085857147 0.088719055 0.60100001
0.0097142868 0.088571437 0.60000002
0.010857143 0.088571437 0.60000002
0.012000001 0.088571437 0.60000002
0.013142858 0.088571437 0.60000002
0.014285715 0.088571437 0.60000002
0.015402858 0.088423818 0.59900004
0.01657143 0.088571437 0.60000002
0.017684763 0.088423818 0.59900004
0.018857144 0.088571437 0.60000002
0.020000001 0.088571437 0.60000002
0.021142859 0.088571437 0.60000002
0.040233336 0.087833337 0.59500003
0.04136667 0.087833337 0.59500003
0.042500004 0.087833337 0.59500003
0.043633334 0.087833337 0.59500003
0.044766668 0.087833337 0.59500003
0.045977145 0.087980956 0.59600002
0.047112383 0.087980956 0.59600002
0.04816667 0.087833337 0.59500003
0.049134288 0.087538101 0.59300005
0.050348576 0.087685719 0.59400004
0.053471431 0.087242864 0.59100002
0.054597147 0.087242864 0.59100002
0.07196667 0.087833337 0.59500003
0.073222861 0.087980956 0.59600002
0.074358098 0.087980956 0.59600002
0.075493336 0.087980956 0.59600002
0.076628573 0.087980956 0.59600002
0.077763818 0.087980956 0.59600002
0.078899056 0.087980956 0.59600002
0.080034293 0.087980956 0.59600002
0.08130572 0.088128574 0.597
0.082580961 0.0882762 0.59800005
0.083860002 0.088423818 0.59900004
0.085000955 0.088423818 0.59900004
0.086285718 0.088571437 0.60000002
0.10347048 0.092704765 0.62800002
0.10416667 0.09226191 0.625
0.10518858 0.092114292 0.62400001
0.10620667 0.091966674 0.62300003
0.10756572 0.092114292 0.62400001
0.10892858 0.09226191 0.625
0.11011905 0.09226191 0.625
0.11130953 0.09226191 0.625
0.11268001 0.092409529 0.62600005
0.11369048 0.09226191 0.625
0.11488096 0.09226191 0.625
0.11607143 0.09226191 0.625
0.11726191 0.09226191 0.625
0.11845239 0.09226191 0.625
0.11964287 0.09226191 0.625
0.12083334 0.09226191 0.625
0.12202382 0.09226191 0.625
0.1232143 0.09226191 0.625
0.12440477 0.09226191 0.625
0.12559524 0.09226191 0.625
0.12678573 0.09226191 0.625
0.12797619 0.09226191 0.625
0.12916668 0.09226191 0.625
0.13056572 0.092409529 0.62600005
0.13196857 0.092557147 0.62700003
0.13316287 0.092557147 0.62700003
0.13457143 0.092704765 0.62800002
0.13598382 0.092852384 0.62900001
0.13718191 0.092852384 0.62900001
0.13838001 0.092852384 0.62900001
0.1395781 0.092852384 0.62900001
0.14122382 0.093147628 0.63100004
0.14242573 0.093147628 0.63100004
0.14362763 0.093147628 0.63100004
0.14482953 0.093147628 0.63100004
0.14603144 0.093147628 0.63100004
0.14746667 0.093295246 0.63200003
0.14843525 0.093147628 0.63100004
-0.016543811 0.08956477 0.59900004
-0.015454287 0.089863814 0.60100001
-0.014357144 0.090162866 0.60300004
-0.013186667 0.09001334 0.60200006
-0.012000001 0.089714289 0.60000002
-0.010857143 0.089714289 0.60000002
-0.009746667 0.09001334 0.60200006
-0.0086000003 0.09001334 0.60200006
-0.0074533341 0.09001334 0.60200006
-0.0062752385 0.08956477 0.59900004
-0.0051428573 0.089714289 0.60000002
-0.0039933338 0.08956477 0.59900004
-0.0028523812 0.08956477 0.59900004
-0.0017114286 0.08956477 0.59900004
-0.00057142862 0.089714289 0.60000002
0.00057047623 0.08956477 0.59900004
0.0017114286 0.08956477 0.59900004
0.0028523812 0.08956477 0.59900004
0.0039933338 0.08956477 0.59900004
0.0051342859 0.08956477 0.59900004
0.0062857149 0.089714289 0.60000002
0.007428572 0.089714289 0.60000002
0.0085714292 0.089714289 0.60000002
0.0097142868 0.089714289 0.60000002
0.010857143 0.089714289 0.60000002
0.012000001 0.089714289 0.60000002
0.013142858 0.089714289 0.60000002
0.014285715 0.089714289 0.60000002
0.015402858 0.08956477 0.59900004
0.016516192 0.089415245 0.59800005
0.017655239 0.089415245 0.59800005
0.018762859 0.089265719 0.597
0.019866668 0.089116193 0.59600002
0.021001907 0.089116193 0.59600002
0.021988573 0.088518098 0.59200001
0.023116192 0.088518098 0.59200001
0.024243811 0.088518098 0.59200001
0.02537143 0.088518098 0.59200001
0.02649905 0.088518098 0.59200001
0.042500004 0.088966675 0.59500003
0.043633334 0.088966675 0.59500003
0.044691432 0.088817149 0.59400004
0.045900002 0.088966675 0.59500003
0.047033336 0.088966675 0.59500003
0.053471431 0.08836858 0.59100002
0.054597147 0.08836858 0.59100002
0.07083334 0.088966675 0.59500003
0.071845718 0.088817149 0.59400004
0.072977148 0.088817149 0.59400004
0.074233338 0.088966675 0.59500003
0.075366668 0.088966675 0.59500003
0.076628573 0.089116193 0.59600002
0.077763818 0.089116193 0.59600002
0.078899056 0.089116193 0.59600002
0.080168575 0.089265719 0.597
0.081441909 0.089415245 0.59800005
0.08271905 0.08956477 0.59900004
0.084000006 0.089714289 0.60000002
0.085142866 0.089714289 0.60000002
0.086285718 0.089714289 0.60000002
0.10502001 0.093153343 0.62300003
0.10620667 0.093153343 0.62300003
0.10756572 0.093302861 0.62400001
0.10875429 0.093302861 0.62400001
0.10994286 0.093302861 0.62400001
0.11113144 0.093302861 0.62400001
0.11232001 0.093302861 0.62400001
0.11350858 0.093302861 0.62400001
0.11469715 0.093302861 0.62400001
0.11588572 0.093302861 0.62400001
0.1170743 0.093302861 0.62400001
0.11826286 0.093302861 0.62400001
0.11964287 0.093452387 0.625
0.12083334 0.093452387 0.625
0.12202382 0.093452387 0.625
0.1232143 0.093452387 0.625
0.12440477 0.093452387 0.625
0.12559524 0.093452387 0.625
0.12678573 0.093452387 0.625
0.12797619 0.093452387 0.625
0.12937334 0.093601912 0.62600005
0.13077429 0.093751438 0.62700003
0.13196857 0.093751438 0.62700003
0.13337524 0.093900956 0.62800002
0.13457143 0.093900956 0.62800002
0.13598382 0.094050482 0.62900001
0.13718191 0.094050482 0.62900001
0.13838001 0.094050482 0.62900001
0.1395781 0.094050482 0.62900001
0.1407762 0.094050482 0.62900001
0.1419743 0.094050482 0.62900001
0.14362763 0.094349533 0.63100004
0.14505906 0.094499052 0.63200003
0.14626287 0.094499052 0.63200003
0.14746667 0.094499052 0.63200003
0.14843525 0.094349533 0.63100004
-0.016516192 0.09055429 0.59800005
-0.015402858 0.090705723 0.59900004
-0.013120953 0.090705723 0.59900004
-0.011960001 0.09055429 0.59800005
-0.010820953 0.09055429 0.59800005
-0.0096657146 0.090402864 0.597
-0.0085428581 0.09055429 0.59800005
-0.007416191 0.090705723 0.59900004
-0.0062752385 0.090705723 0.59900004
-0.0051342859 0.090705723 0.59900004
-0.0039933338 0.090705723 0.59900004
-0.0028476191 0.09055429 0.59800005
-0.0017085716 0.09055429 0.59800005
-0.00056952384 0.09055429 0.59800005
0.00056952384 0.09055429 0.59800005
0.0017057144 0.090402864 0.597
0.0028428573 0.090402864 0.597
0.00398 0.090402864 0.597
0.0051342859 0.090705723 0.59900004
0.0062752385 0.090705723 0.59900004
0.007416191 0.090705723 0.59900004
0.0085571436 0.090705723 0.59900004
0.0096980957 0.090705723 0.59900004
0.010839049 0.090705723 0.59900004
0.011980001 0.090705723 0.59900004
0.013142858 0.090857148 0.60000002
0.014261906 0.090705723 0.59900004
0.015402858 0.090705723 0.59900004
0.016488573 0.090402864 0.597
0.017625716 0.090402864 0.597
0.01873143 0.090251431 0.59600002
0.019866668 0.090251431 0.59600002
0.021001907 0.090251431 0.59600002
0.021988573 0.089645721 0.59200001
0.023116192 0.089645721 0.59200001
0.024202859 0.089494288 0.59100002
0.025328573 0.089494288 0.59100002
0.02649905 0.089645721 0.59200001
0.042500004 0.090100005 0.59500003
0.043560002 0.08994858 0.59400004
0.044691432 0.08994858 0.59400004
0.050179049 0.089645721 0.59200001
0.051220004 0.089494288 0.59100002
0.052345719 0.089494288 0.59100002
0.053471431 0.089494288 0.59100002
0.054597147 0.089494288 0.59100002
0.055722862 0.089494288 0.59100002
0.071845718 0.08994858 0.59400004
0.072977148 0.08994858 0.59400004
0.074233338 0.090100005 0.59500003
0.075366668 0.090100005 0.59500003
0.076628573 0.090251431 0.59600002
0.077763818 0.090251431 0.59600002
0.07903143 0.090402864 0.597
0.080168575 0.090402864 0.597
0.081441909 0.09055429 0.59800005
0.082580961 0.09055429 0.59800005
0.084000006 0.090857148 0.60000002
0.085000955 0.090705723 0.59900004
0.086141914 0.090705723 0.59900004
0.10620667 0.094340004 0.62300003
0.10739334 0.094340004 0.62300003
0.10858001 0.094340004 0.62300003
0.10994286 0.094491437 0.62400001
0.11113144 0.094491437 0.62400001
0.11232001 0.094491437 0.62400001
0.11350858 0.094491437 0.62400001
0.11451334 0.094340004 0.62300003
0.11588572 0.094491437 0.62400001
0.1170743 0.094491437 0.62400001
0.11826286 0.094491437 0.62400001
0.11964287 0.094642863 0.625
0.12064001 0.094491437 0.62400001
0.12202382 0.094642863 0.625
0.1232143 0.094642863 0.625
0.12440477 0.094642863 0.625
0.12559524 0.094642863 0.625
0.12678573 0.094642863 0.625
0.12797619 0.094642863 0.625
0.12937334 0.094794288 0.62600005
0.13077429 0.094945721 0.62700003
0.13196857 0.094945721 0.62700003
0.13337524 0.095097147 0.62800002
0.13478573 0.09524858 0.62900001
0.13598382 0.09524858 0.62900001
0.13718191 0.09524858 0.62900001
0.13838001 0.09524858 0.62900001
0.1395781 0.09524858 0.62900001
0.1407762 0.09524858 0.62900001
0.1419743 0.09524858 0.62900001
0.14362763 0.095551431 0.63100004
0.14482953 0.095551431 0.63100004
0.14603144 0.095551431 0.63100004
0.14746667 0.095702864 0.63200003
0.14843525 0.095551431 0.63100004
-0.0096657146 0.091540009 0.597
-0.0085285716 0.091540009 0.597
-0.00740381 0.091693342 0.59800005
-0.0062647625 0.091693342 0.59800005
-0.0051257145 0.091693342 0.59800005
-0.0039866669 0.091693342 0.59800005
-0.0028476191 0.091693342 0.59800005
-0.0017085716 0.091693342 0.59800005
-0.00056952384 0.091693342 0.59800005
0.00056857144 0.091540009 0.597
0.0017028572 0.091386676 0.59600002
0.0028380954 0.091386676 0.59600002
0.00398 0.091540009 0.597
0.0051257145 0.091693342 0.59800005
0.0062647625 0.091693342 0.59800005
0.007416191 0.091846675 0.59900004
0.0085571436 0.091846675 0.59900004
0.0096980957 0.091846675 0.59900004
0.010820953 0.091693342 0.59800005
0.011980001 0.091846675 0.59900004
0.014261906 0.091846675 0.59900004
0.016460953 0.091386676 0.59600002
0.022062859 0.091080002 0.59400004
0.023194287 0.091080002 0.59400004
0.024243811 0.090773337 0.59200001
0.025328573 0.090620004 0.59100002
0.02649905 0.090773337 0.59200001
0.042428575 0.091080002 0.59400004
0.043560002 0.091080002 0.59400004
0.044616193 0.09092667 0.59300005
0.045745715 0.09092667 0.59300005
0.048968576 0.090620004 0.59100002
0.050094288 0.090620004 0.59100002
0.051220004 0.090620004 0.59100002
0.052345719 0.090620004 0.59100002
0.053471431 0.090620004 0.59100002
0.054597147 0.090620004 0.59100002
0.055722862 0.090620004 0.59100002
0.071724765 0.09092667 0.59300005
0.072977148 0.091080002 0.59400004
0.074233338 0.091233343 0.59500003
0.075366668 0.091233343 0.59500003
0.076628573 0.091386676 0.59600002
0.077763818 0.091386676 0.59600002
0.07903143 0.091540009 0.597
0.080168575 0.091540009 0.597
0.081441909 0.091693342 0.59800005
0.082580961 0.091693342 0.59800005
0.083860002 0.091846675 0.59900004
0.085000955 0.091846675 0.59900004
0.086141914 0.091846675 0.59900004
0.1060362 0.09537334 0.62200004
0.10722096 0.09537334 0.62200004
0.10840572 0.09537334 0.62200004
0.10976668 0.095526673 0.62300003
0.11095334 0.095526673 0.62300003
0.11232001 0.095680006 0.62400001
0.11350858 0.095680006 0.62400001
0.11469715 0.095680006 0.62400001
0.11588572 0.095680006 0.62400001
0.11726191 0.095833339 0.625
0.11845239 0.095833339 0.625
0.11964287 0.095833339 0.625
0.12083334 0.095833339 0.625
0.12202382 0.095833339 0.625
0.1232143 0.095833339 0.625
0.12440477 0.095833339 0.625
0.12559524 0.095833339 0.625
0.12678573 0.095833339 0.625
0.12818097 0.095986672 0.62600005
0.12937334 0.095986672 0.62600005
0.13098286 0.096293338 0.62800002
0.13196857 0.096140005 0.62700003
0.13337524 0.096293338 0.62800002
0.13457143 0.096293338 0.62800002
0.13598382 0.096446671 0.62900001
0.13718191 0.096446671 0.62900001
0.13838001 0.096446671 0.62900001
0.1395781 0.096446671 0.62900001
0.1407762 0.096446671 0.62900001
0.1419743 0.096446671 0.62900001
0.14362763 0.096753336 0.63100004
0.14482953 0.096753336 0.63100004
0.14626287 0.096906669 0.63200003
0.14746667 0.096906669 0.63200003
0.14843525 0.096753336 0.63100004
-0.0085000005 0.092366673 0.59500003
-0.007391429 0.092677146 0.597
-0.0062647625 0.092832386 0.59800005
-0.0051257145 0.092832386 0.59800005
-0.0039866669 0.092832386 0.59800005
-0.0028428573 0.092677146 0.597
-0.0017085716 0.092832386 0.59800005
-0.00056857144 0.092677146 0.597
0.00056857144 0.092677146 0.597
0.0017028572 0.092521913 0.59600002
0.0028380954 0.092521913 0.59600002
0.0039733336 0.092521913 0.59600002
0.0051085716 0.092521913 0.59600002
0.0062438101 0.092521913 0.59600002
0.00740381 0.092832386 0.59800005
0.0096819056 0.092832386 0.59800005
0.015325715 0.092521913 0.59600002
0.016433334 0.092366673 0.59500003
0.022062859 0.092211433 0.59400004
0.023194287 0.092211433 0.59400004
0.024243811 0.09190096 0.59200001
0.025328573 0.091745719 0.59100002
0.026454287 0.091745719 0.59100002
0.038968574 0.0920562 0.59300005
0.040098097 0.0920562 0.59300005
0.04122762 0.0920562 0.59300005
0.042357147 0.0920562 0.59300005
0.043413337 0.09190096 0.59200001
0.044540957 0.09190096 0.59200001
0.045668576 0.09190096 0.59200001
0.048968576 0.091745719 0.59100002
0.050094288 0.091745719 0.59100002
0.051133338 0.091590479 0.59000003
0.052257147 0.091590479 0.59000003
0.053380955 0.091590479 0.59000003
0.054504767 0.091590479 0.59000003
0.055628575 0.091590479 0.59000003
0.056752384 0.091590479 0.59000003
0.057778098 0.091435246 0.58900005
0.059100002 0.091745719 0.59100002
0.070714287 0.092211433 0.59400004
0.071724765 0.0920562 0.59300005
0.072977148 0.092211433 0.59400004
0.074233338 0.092366673 0.59500003
0.075366668 0.092366673 0.59500003
0.076628573 0.092521913 0.59600002
0.077763818 0.092521913 0.59600002
0.07903143 0.092677146 0.597
0.080168575 0.092677146 0.597
0.081441909 0.092832386 0.59800005
0.082580961 0.092832386 0.59800005
0.083860002 0.092987627 0.59900004
0.085000955 0.092987627 0.59900004
0.086141914 0.092987627 0.59900004
0.087282866 0.092987627 0.59900004
0.088423818 0.092987627 0.59900004
0.1060362 0.096558101 0.62200004
0.10722096 0.096558101 0.62200004
0.10840572 0.096558101 0.62200004
0.10976668 0.096713342 0.62300003
0.11095334 0.096713342 0.62300003
0.1125 0.097023815 0.625
0.11369048 0.097023815 0.625
0.11488096 0.097023815 0.625
0.11607143 0.097023815 0.625
0.11726191 0.097023815 0.625
0.11845239 0.097023815 0.625
0.11964287 0.097023815 0.625
0.12064001 0.096868575 0.62400001
0.12202382 0.097023815 0.625
0.1232143 0.097023815 0.625
0.12440477 0.097023815 0.625
0.12559524 0.097023815 0.625
0.12678573 0.097023815 0.625
0.12818097 0.097179055 0.62600005
0.12937334 0.097179055 0.62600005
0.13098286 0.097489528 0.62800002
0.13196857 0.097334296 0.62700003
0.13337524 0.097489528 0.62800002
0.13457143 0.097489528 0.62800002
0.13598382 0.097644769 0.62900001
0.13718191 0.097644769 0.62900001
0.13838001 0.097644769 0.62900001
0.1395781 0.097644769 0.62900001
0.14122382 0.097955242 0.63100004
0.14242573 0.097955242 0.63100004
0.14362763 0.097955242 0.63100004
0.14505906 0.098110482 0.63200003
0.14626287 0.098110482 0.63200003
0.14770001 0.098265722 0.63300002
0.14867048 0.098110482 0.63200003
-0.0096333344 0.093500003 0.59500003
-0.0085000005 0.093500003 0.59500003
-0.007379048 0.093657151 0.59600002
-0.0062647625 0.093971431 0.59800005
-0.0051000002 0.093500003 0.59500003
-0.0039866669 0.093971431 0.59800005
-0.0028428573 0.093814291 0.597
-0.0017057144 0.093814291 0.597
-0.00056857144 0.093814291 0.597
0.00056761911 0.093657151 0.59600002
0.0017028572 0.093657151 0.59600002
0.0028380954 0.093657151 0.59600002
0.0039666668 0.093500003 0.59500003
0.0051000002 0.093500003 0.59500003
0.0062228576 0.093342863 0.59400004
0.021988573 0.093028575 0.59200001
0.023116192 0.093028575 0.59200001
0.024202859 0.092871435 0.59100002
0.025285715 0.092714295 0.59000003
0.026454287 0.092871435 0.59100002
0.03890286 0.093028575 0.59200001
0.040030479 0.093028575 0.59200001
0.040949527 0.092557147 0.58900005
0.042214289 0.092871435 0.59100002
0.043340001 0.092871435 0.59100002
0.044465717 0.092871435 0.59100002
0.049840003 0.092400007 0.588
0.051133338 0.092714295 0.59000003
0.052257147 0.092714295 0.59000003
0.053380955 0.092714295 0.59000003
0.054504767 0.092714295 0.59000003
0.055628575 0.092714295 0.59000003
0.056656193 0.092557147 0.58900005
