# .PCD v0.7 - Point Cloud Data file format
VERSION 0.7
FIELDS x y z
SIZE 4 4 4
TYPE F F F
COUNT 1 1 1
WIDTH 1351
HEIGHT 1
VIEWPOINT 0 0 0 1 0 0 0
POINTS 1351
DATA ascii
-0.061856195 -0.10810382 0.60700005
-0.060700003 -0.10810382 0.60700005
-0.059543815 -0.10810382 0.60700005
-0.058483813 -0.10828191 0.60800004
-0.057420004 -0.10846001 0.60900003
-0.056260005 -0.10846001 0.60900003
-0.055100005 -0.10846001 0.60900003
-0.053940002 -0.10846001 0.60900003
-0.052953336 -0.1088162 0.611
-0.051789526 -0.1088162 0.611
-0.050708573 -0.10899429 0.61200005
-0.049542859 -0.10899429 0.61200005
-0.048456192 -0.10917239 0.61300004
-0.047365718 -0.10935048 0.61400002
-0.046196193 -0.10935048 0.61400002
-0.045100003 -0.10952858 0.61500001
-0.043928575 -0.10952858 0.61500001
-0.042826671 -0.10970668 0.61600006
-0.041720957 -0.10988477 0.61700004
-0.040742859 -0.11041906 0.62
-0.039561909 -0.11041906 0.62
-0.038504764 -0.11077525 0.62200004
-0.037440002 -0.11113144 0.62400001
-0.036251429 -0.11113144 0.62400001
-0.083122864 -0.10906191 0.61900002
-0.081811436 -0.10888572 0.61800003
-0.080634288 -0.10888572 0.61800003
-0.079200007 -0.10853334 0.61600006
-0.078026675 -0.10853334 0.61600006
-0.076728575 -0.10835715 0.61500001
-0.07531143 -0.10800477 0.61300004
-0.074022859 -0.10782858 0.61200005
-0.072500005 -0.10730001 0.60900003
-0.071574293 -0.10765239 0.611
-0.070180006 -0.10730001 0.60900003
-0.068906672 -0.10712381 0.60800004
-0.067748576 -0.10712381 0.60800004
-0.066590481 -0.10712381 0.60800004
-0.065324768 -0.10694762 0.60700005
-0.064168572 -0.10694762 0.60700005
-0.063012384 -0.10694762 0.60700005
-0.061856195 -0.10694762 0.60700005
-0.060700003 -0.10694762 0.60700005
-0.059543815 -0.10694762 0.60700005
-0.058483813 -0.10712381 0.60800004
-0.057420004 -0.10730001 0.60900003
-0.056260005 -0.10730001 0.60900003
-0.055280957 -0.10765239 0.611
-0.054117147 -0.10765239 0.611
-0.052953336 -0.10765239 0.611
-0.051874287 -0.10782858 0.61200005
-0.050708573 -0.10782858 0.61200005
-0.049542859 -0.10782858 0.61200005
-0.048456192 -0.10800477 0.61300004
-0.047365718 -0.10818096 0.61400002
-0.046196193 -0.10818096 0.61400002
-0.045100003 -0.10835715 0.61500001
-0.043928575 -0.10835715 0.61500001
-0.042896193 -0.10870953 0.61700004
-0.041788574 -0.10888572 0.61800003
-0.040742859 -0.1092381 0.62
-0.039561909 -0.1092381 0.62
-0.038504764 -0.10959049 0.62200004
-0.037320003 -0.10959049 0.62200004
-0.036135241 -0.10959049 0.62200004
-0.082988575 -0.10770858 0.61800003
-0.081811436 -0.10770858 0.61800003
-0.080634288 -0.10770858 0.61800003
-0.079328574 -0.10753429 0.61700004
-0.078026675 -0.10736001 0.61600006
-0.076728575 -0.10718572 0.61500001
-0.07543429 -0.10701144 0.61400002
-0.074143812 -0.10683715 0.61300004
-0.072738104 -0.10648858 0.611
-0.071574293 -0.10648858 0.611
-0.070410483 -0.10648858 0.611
-0.069020003 -0.10614001 0.60900003
-0.067860007 -0.10614001 0.60900003
-0.066700004 -0.10614001 0.60900003
-0.065432385 -0.10596572 0.60800004
-0.064274289 -0.10596572 0.60800004
-0.063116193 -0.10596572 0.60800004
-0.061958101 -0.10596572 0.60800004
-0.060800005 -0.10596572 0.60800004
-0.059641909 -0.10596572 0.60800004
-0.058580004 -0.10614001 0.60900003
-0.057608575 -0.10648858 0.611
-0.056444764 -0.10648858 0.611
-0.055371433 -0.10666286 0.61200005
-0.054205719 -0.10666286 0.61200005
-0.053040005 -0.10666286 0.61200005
-0.051874287 -0.10666286 0.61200005
-0.050791431 -0.10683715 0.61300004
-0.049623813 -0.10683715 0.61300004
-0.048456192 -0.10683715 0.61300004
-0.047365718 -0.10701144 0.61400002
-0.046196193 -0.10701144 0.61400002
-0.045100003 -0.10718572 0.61500001
-0.044000003 -0.10736001 0.61600006
-0.042896193 -0.10753429 0.61700004
-0.041788574 -0.10770858 0.61800003
-0.040742859 -0.10805715 0.62
-0.039561909 -0.10805715 0.62
-0.038504764 -0.10840572 0.62200004
-0.037200004 -0.10805715 0.62
-0.03601905 -0.10805715 0.62
-0.082988575 -0.10653143 0.61800003
-0.081811436 -0.10653143 0.61800003
-0.080503814 -0.10635906 0.61700004
-0.079328574 -0.10635906 0.61700004
-0.078026675 -0.10618667 0.61600006
-0.076728575 -0.10601429 0.61500001
-0.07555715 -0.10601429 0.61500001
-0.074264765 -0.10584191 0.61400002
-0.072857149 -0.10549715 0.61200005
-0.071691431 -0.10549715 0.61200005
-0.070410483 -0.10532477 0.611
-0.069246672 -0.10532477 0.611
-0.068082862 -0.10532477 0.611
-0.066700004 -0.10498001 0.60900003
-0.065432385 -0.10480762 0.60800004
-0.064274289 -0.10480762 0.60800004
-0.063116193 -0.10480762 0.60800004
-0.061958101 -0.10480762 0.60800004
-0.060900003 -0.10498001 0.60900003
-0.059740003 -0.10498001 0.60900003
-0.058772385 -0.10532477 0.611
-0.057608575 -0.10532477 0.611
-0.056537148 -0.10549715 0.61200005
-0.055371433 -0.10549715 0.61200005
-0.054205719 -0.10549715 0.61200005
-0.05312667 -0.10566953 0.61300004
-0.051959053 -0.10566953 0.61300004
-0.050791431 -0.10566953 0.61300004
-0.049623813 -0.10566953 0.61300004
-0.048535243 -0.10584191 0.61400002
-0.047365718 -0.10584191 0.61400002
-0.046271432 -0.10601429 0.61500001
-0.045173336 -0.10618667 0.61600006
-0.044000003 -0.10618667 0.61600006
-0.042965718 -0.10653143 0.61800003
-0.041856192 -0.10670382 0.61900002
-0.040742859 -0.10687619 0.62
-0.039561909 -0.10687619 0.62
-0.038504764 -0.10722096 0.62200004
-0.037320003 -0.10722096 0.62200004
-0.081811436 -0.10535429 0.61800003
-0.080634288 -0.10535429 0.61800003
-0.079328574 -0.10518382 0.61700004
-0.078153342 -0.10518382 0.61700004
-0.076853335 -0.10501334 0.61600006
-0.07555715 -0.10484286 0.61500001
-0.074385718 -0.10484286 0.61500001
-0.07309524 -0.10467239 0.61400002
-0.071691431 -0.10433143 0.61200005
-0.070525721 -0.10433143 0.61200005
-0.069246672 -0.10416096 0.611
-0.068082862 -0.10416096 0.611
-0.066700004 -0.10382 0.60900003
-0.065540001 -0.10382 0.60900003
-0.064380005 -0.10382 0.60900003
-0.063220002 -0.10382 0.60900003
-0.061958101 -0.10364953 0.60800004
-0.060900003 -0.10382 0.60900003
-0.059740003 -0.10382 0.60900003
-0.058772385 -0.10416096 0.611
-0.057608575 -0.10416096 0.611
-0.056537148 -0.10433143 0.61200005
-0.055371433 -0.10433143 0.61200005
-0.054294288 -0.10450191 0.61300004
-0.05312667 -0.10450191 0.61300004
-0.051959053 -0.10450191 0.61300004
-0.050791431 -0.10450191 0.61300004
-0.049704764 -0.10467239 0.61400002
-0.048535243 -0.10467239 0.61400002
-0.047365718 -0.10467239 0.61400002
-0.046271432 -0.10484286 0.61500001
-0.045173336 -0.10501334 0.61600006
-0.044071432 -0.10518382 0.61700004
-0.042965718 -0.10535429 0.61800003
-0.041856192 -0.10552477 0.61900002
-0.040742859 -0.10569525 0.62
-0.039689526 -0.1060362 0.62200004
-0.038690478 -0.10654762 0.625
-0.037560001 -0.1067181 0.62600005
-0.083257146 -0.10451429 0.62
-0.081811436 -0.10417715 0.61800003
-0.080634288 -0.10417715 0.61800003
-0.079328574 -0.10400858 0.61700004
-0.078153342 -0.10400858 0.61700004
-0.076853335 -0.10384001 0.61600006
-0.075680003 -0.10384001 0.61600006
-0.074385718 -0.10367144 0.61500001
-0.073214293 -0.10367144 0.61500001
-0.071808577 -0.10333429 0.61300004
-0.070525721 -0.10316572 0.61200005
-0.069246672 -0.10299715 0.611
-0.068082862 -0.10299715 0.611
-0.066919051 -0.10299715 0.611
-0.065755241 -0.10299715 0.611
-0.06459143 -0.10299715 0.611
-0.06342762 -0.10299715 0.611
-0.062060002 -0.10266001 0.60900003
-0.061100002 -0.10299715 0.611
-0.059936196 -0.10299715 0.611
-0.058772385 -0.10299715 0.611
-0.057608575 -0.10299715 0.611
-0.056537148 -0.10316572 0.61200005
-0.055371433 -0.10316572 0.61200005
-0.054294288 -0.10333429 0.61300004
-0.05312667 -0.10333429 0.61300004
-0.051959053 -0.10333429 0.61300004
-0.050791431 -0.10333429 0.61300004
-0.049623813 -0.10333429 0.61300004
-0.048535243 -0.10350286 0.61400002
-0.047365718 -0.10350286 0.61400002
-0.046346668 -0.10384001 0.61600006
-0.045173336 -0.10384001 0.61600006
-0.044071432 -0.10400858 0.61700004
-0.042965718 -0.10417715 0.61800003
-0.041856192 -0.10434572 0.61900002
-0.040742859 -0.10451429 0.62
-0.039689526 -0.10485143 0.62200004
-0.038690478 -0.10535715 0.625
-0.083660007 -0.10383334 0.62300003
-0.081943817 -0.10316668 0.61900002
-0.080634288 -0.10300001 0.61800003
-0.079457149 -0.10300001 0.61800003
-0.078153342 -0.10283334 0.61700004
-0.076978102 -0.10283334 0.61700004
-0.075680003 -0.10266668 0.61600006
-0.07450667 -0.10266668 0.61600006
-0.073333338 -0.10266668 0.61600006
-0.071925722 -0.10233334 0.61400002
-0.070640959 -0.10216668 0.61300004
-0.069360003 -0.10200001 0.61200005
-0.068194292 -0.10200001 0.61200005
-0.067028575 -0.10200001 0.61200005
-0.065862864 -0.10200001 0.61200005
-0.06459143 -0.10183334 0.611
-0.06342762 -0.10183334 0.611
-0.062263813 -0.10183334 0.611
-0.061100002 -0.10183334 0.611
-0.059936196 -0.10183334 0.611
-0.058772385 -0.10183334 0.611
-0.057608575 -0.10183334 0.611
-0.056537148 -0.10200001 0.61200005
-0.055371433 -0.10200001 0.61200005
-0.054294288 -0.10216668 0.61300004
-0.05312667 -0.10216668 0.61300004
-0.051959053 -0.10216668 0.61300004
-0.050791431 -0.10216668 0.61300004
-0.049623813 -0.10216668 0.61300004
-0.048535243 -0.10233334 0.61400002
-0.047442861 -0.10250001 0.61500001
-0.046346668 -0.10266668 0.61600006
-0.045173336 -0.10266668 0.61600006
-0.044142861 -0.10300001 0.61800003
-0.043035243 -0.10316668 0.61900002
-0.041923814 -0.10333334 0.62
-0.040940002 -0.10383334 0.62300003
-0.039561909 -0.10333334 0.62
-0.038690478 -0.10416667 0.625
-0.083660007 -0.10264667 0.62300003
-0.082076199 -0.10215238 0.62
-0.080764771 -0.10198762 0.61900002
-0.079585716 -0.10198762 0.61900002
-0.078280002 -0.10182286 0.61800003
-0.076978102 -0.1016581 0.61700004
-0.075802863 -0.1016581 0.61700004
-0.07450667 -0.10149334 0.61600006
-0.073214293 -0.10132858 0.61500001
-0.071925722 -0.10116382 0.61400002
-0.070756197 -0.10116382 0.61400002
-0.069473341 -0.10099906 0.61300004
-0.068305716 -0.10099906 0.61300004
-0.067028575 -0.1008343 0.61200005
-0.065862864 -0.1008343 0.61200005
-0.064697146 -0.1008343 0.61200005
-0.063531436 -0.1008343 0.61200005
-0.062365718 -0.1008343 0.61200005
-0.061200004 -0.1008343 0.61200005
-0.06003429 -0.1008343 0.61200005
-0.058868576 -0.1008343 0.61200005
-0.057702862 -0.1008343 0.61200005
-0.056537148 -0.1008343 0.61200005
-0.055371433 -0.1008343 0.61200005
-0.054294288 -0.10099906 0.61300004
-0.05312667 -0.10099906 0.61300004
-0.051959053 -0.10099906 0.61300004
-0.050791431 -0.10099906 0.61300004
-0.049704764 -0.10116382 0.61400002
-0.04861429 -0.10132858 0.61500001
-0.047520004 -0.10149334 0.61600006
-0.046346668 -0.10149334 0.61600006
-0.045320004 -0.10182286 0.61800003
-0.04421429 -0.10198762 0.61900002
-0.043104764 -0.10215238 0.62
-0.042059049 -0.10248191 0.62200004
-0.041005716 -0.10281143 0.62400001
-0.039880954 -0.1029762 0.625
-0.038752384 -0.10314096 0.62600005
-0.083660007 -0.10146001 0.62300003
-0.082340956 -0.10129715 0.62200004
-0.080895245 -0.10097144 0.62
-0.079714291 -0.10097144 0.62
-0.078406669 -0.10080858 0.61900002
-0.077102862 -0.10064572 0.61800003
-0.075802863 -0.10048287 0.61700004
-0.07450667 -0.10032 0.61600006
-0.073333338 -0.10032 0.61600006
-0.07204286 -0.10015715 0.61500001
-0.070756197 -0.099994294 0.61400002
-0.069586672 -0.099994294 0.61400002
-0.068417147 -0.099994294 0.61400002
-0.067138098 -0.099831432 0.61300004
-0.06597048 -0.099831432 0.61300004
-0.064802863 -0.099831432 0.61300004
-0.063635245 -0.099831432 0.61300004
-0.062467624 -0.099831432 0.61300004
-0.061300006 -0.099831432 0.61300004
-0.06003429 -0.099668577 0.61200005
-0.058868576 -0.099668577 0.61200005
-0.057702862 -0.099668577 0.61200005
-0.056629527 -0.099831432 0.61300004
-0.05546191 -0.099831432 0.61300004
-0.054294288 -0.099831432 0.61300004
-0.05312667 -0.099831432 0.61300004
-0.051959053 -0.099831432 0.61300004
-0.050874289 -0.099994294 0.61400002
-0.049785718 -0.10015715 0.61500001
-0.048693337 -0.10032 0.61600006
-0.047520004 -0.10032 0.61600006
-0.046421908 -0.10048287 0.61700004
-0.045393337 -0.10080858 0.61900002
-0.04421429 -0.10080858 0.61900002
-0.043104764 -0.10097144 0.62
-0.04212667 -0.10146001 0.62300003
-0.041005716 -0.10162286 0.62400001
-0.039880954 -0.10178572 0.625
-0.038752384 -0.10194858 0.62600005
-0.083794288 -0.1004343 0.62400001
-0.082473338 -0.10027334 0.62300003
-0.081156194 -0.10011239 0.62200004
-0.079714291 -0.099790484 0.62
-0.078533337 -0.099790484 0.62
-0.077227622 -0.099629529 0.61900002
-0.075802863 -0.099307626 0.61700004
-0.07450667 -0.099146672 0.61600006
-0.073333338 -0.099146672 0.61600006
-0.07204286 -0.098985724 0.61500001
-0.070871435 -0.098985724 0.61500001
-0.069586672 -0.098824769 0.61400002
-0.068417147 -0.098824769 0.61400002
-0.067247622 -0.098824769 0.61400002
-0.066078097 -0.098824769 0.61400002
-0.064802863 -0.098663814 0.61300004
-0.063635245 -0.098663814 0.61300004
-0.062467624 -0.098663814 0.61300004
-0.061300006 -0.098663814 0.61300004
-0.06003429 -0.098502867 0.61200005
-0.058868576 -0.098502867 0.61200005
-0.057702862 -0.098502867 0.61200005
-0.056629527 -0.098663814 0.61300004
-0.05546191 -0.098663814 0.61300004
-0.054382861 -0.098824769 0.61400002
-0.053213336 -0.098824769 0.61400002
-0.052043814 -0.098824769 0.61400002
-0.050957147 -0.098985724 0.61500001
-0.049785718 -0.098985724 0.61500001
-0.048693337 -0.099146672 0.61600006
-0.047597148 -0.099307626 0.61700004
-0.046497148 -0.099468581 0.61800003
-0.045393337 -0.099629529 0.61900002
-0.044285718 -0.099790484 0.62
-0.043243811 -0.10011239 0.62200004
-0.042194288 -0.1004343 0.62400001
-0.04107143 -0.10059524 0.625
-0.039944764 -0.1007562 0.62600005
-0.038814288 -0.10091715 0.62700003
-0.083794288 -0.09924572 0.62400001
-0.082473338 -0.099086672 0.62300003
-0.081156194 -0.098927625 0.62200004
-0.079714291 -0.098609529 0.62
-0.078533337 -0.098609529 0.62
-0.077227622 -0.098450482 0.61900002
-0.075802863 -0.098132387 0.61700004
-0.07450667 -0.097973339 0.61600006
-0.073333338 -0.097973339 0.61600006
-0.07204286 -0.097814292 0.61500001
-0.070871435 -0.097814292 0.61500001
-0.069700003 -0.097814292 0.61500001
-0.068417147 -0.097655244 0.61400002
-0.067247622 -0.097655244 0.61400002
-0.066078097 -0.097655244 0.61400002
-0.064908579 -0.097655244 0.61400002
-0.063635245 -0.097496197 0.61300004
-0.062467624 -0.097496197 0.61300004
-0.061300006 -0.097496197 0.61300004
-0.060132384 -0.097496197 0.61300004
-0.058964767 -0.097496197 0.61300004
-0.057702862 -0.097337149 0.61200005
-0.056629527 -0.097496197 0.61300004
-0.05546191 -0.097496197 0.61300004
-0.054382861 -0.097655244 0.61400002
-0.053213336 -0.097655244 0.61400002
-0.052128576 -0.097814292 0.61500001
-0.050957147 -0.097814292 0.61500001
-0.049866669 -0.097973339 0.61600006
-0.048693337 -0.097973339 0.61600006
-0.047597148 -0.098132387 0.61700004
-0.046421908 -0.098132387 0.61700004
-0.045393337 -0.098450482 0.61900002
-0.044285718 -0.098609529 0.62
-0.043243811 -0.098927625 0.62200004
-0.042194288 -0.09924572 0.62400001
-0.041005716 -0.09924572 0.62400001
-0.039880954 -0.099404767 0.625
-0.038752384 -0.099563815 0.62600005
-0.083794288 -0.098057151 0.62400001
-0.08260572 -0.098057151 0.62400001
-0.081286669 -0.097900003 0.62300003
-0.079971433 -0.097742863 0.62200004
-0.078786671 -0.097742863 0.62200004
-0.07735239 -0.097428575 0.62
-0.076048575 -0.097271435 0.61900002
-0.074748576 -0.097114295 0.61800003
-0.073333338 -0.096800007 0.61600006
-0.07204286 -0.096642867 0.61500001
-0.070871435 -0.096642867 0.61500001
-0.069700003 -0.096642867 0.61500001
-0.068528578 -0.096642867 0.61500001
-0.067357145 -0.096642867 0.61500001
-0.06618572 -0.096642867 0.61500001
-0.064908579 -0.096485719 0.61400002
-0.063739054 -0.096485719 0.61400002
-0.062569529 -0.096485719 0.61400002
-0.061300006 -0.096328579 0.61300004
-0.060230479 -0.096485719 0.61400002
-0.058964767 -0.096328579 0.61300004
-0.057797145 -0.096328579 0.61300004
-0.056721907 -0.096485719 0.61400002
-0.055552386 -0.096485719 0.61400002
-0.054471433 -0.096642867 0.61500001
-0.053300004 -0.096642867 0.61500001
-0.052128576 -0.096642867 0.61500001
-0.051040005 -0.096800007 0.61600006
-0.049866669 -0.096800007 0.61600006
-0.048772383 -0.096957147 0.61700004
-0.047597148 -0.096957147 0.61700004
-0.046421908 -0.096957147 0.61700004
-0.045393337 -0.097271435 0.61900002
-0.044285718 -0.097428575 0.62
-0.043243811 -0.097742863 0.62200004
-0.042194288 -0.098057151 0.62400001
-0.041005716 -0.098057151 0.62400001
-0.039880954 -0.098214291 0.625
-0.038752384 -0.098371439 0.62600005
-0.037560001 -0.098371439 0.62600005
-0.08260572 -0.096868575 0.62400001
-0.081417151 -0.096868575 0.62400001
-0.080100007 -0.096713342 0.62300003
-0.078913338 -0.096713342 0.62300003
-0.07760191 -0.096558101 0.62200004
-0.076171435 -0.096247628 0.62
-0.074869528 -0.096092388 0.61900002
-0.073571436 -0.095937148 0.61800003
-0.072277151 -0.095781907 0.61700004
-0.070871435 -0.095471434 0.61500001
-0.069700003 -0.095471434 0.61500001
-0.068528578 -0.095471434 0.61500001
-0.067357145 -0.095471434 0.61500001
-0.06618572 -0.095471434 0.61500001
-0.065014288 -0.095471434 0.61500001
-0.063739054 -0.095316194 0.61400002
-0.062569529 -0.095316194 0.61400002
-0.061400004 -0.095316194 0.61400002
-0.060230479 -0.095316194 0.61400002
-0.059060957 -0.095316194 0.61400002
-0.057891432 -0.095316194 0.61400002
-0.056721907 -0.095316194 0.61400002
-0.055642862 -0.095471434 0.61500001
-0.054471433 -0.095471434 0.61500001
-0.053300004 -0.095471434 0.61500001
-0.052213337 -0.095626675 0.61600006
-0.051122859 -0.095781907 0.61700004
-0.049866669 -0.095626675 0.61600006
-0.048772383 -0.095781907 0.61700004
-0.047597148 -0.095781907 0.61700004
-0.046497148 -0.095937148 0.61800003
-0.045393337 -0.096092388 0.61900002
-0.044428576 -0.096558101 0.62200004
-0.043382861 -0.096868575 0.62400001
-0.042261906 -0.097023815 0.625
-0.04107143 -0.097023815 0.625
-0.039880954 -0.097023815 0.625
-0.038752384 -0.097179055 0.62600005
-0.037500001 -0.097023815 0.625
-0.08260572 -0.095680006 0.62400001
-0.081417151 -0.095680006 0.62400001
-0.080100007 -0.095526673 0.62300003
-0.078913338 -0.095526673 0.62300003
-0.07760191 -0.09537334 0.62200004
-0.076171435 -0.095066674 0.62
-0.074869528 -0.094913341 0.61900002
-0.073571436 -0.094760008 0.61800003
-0.072277151 -0.094606675 0.61700004
-0.070986673 -0.094453342 0.61600006
-0.069700003 -0.094300009 0.61500001
-0.068528578 -0.094300009 0.61500001
-0.067466669 -0.094453342 0.61600006
-0.06618572 -0.094300009 0.61500001
-0.065014288 -0.094300009 0.61500001
-0.063842863 -0.094300009 0.61500001
-0.062569529 -0.094146676 0.61400002
-0.061500005 -0.094300009 0.61500001
-0.060328577 -0.094300009 0.61500001
-0.059157148 -0.094300009 0.61500001
-0.057891432 -0.094146676 0.61400002
-0.056814291 -0.094300009 0.61500001
-0.055642862 -0.094300009 0.61500001
-0.054560002 -0.094453342 0.61600006
-0.05338667 -0.094453342 0.61600006
-0.052213337 -0.094453342 0.61600006
-0.051122859 -0.094606675 0.61700004
-0.049947623 -0.094606675 0.61700004
-0.048772383 -0.094606675 0.61700004
-0.047674287 -0.094760008 0.61800003
-0.046497148 -0.094760008 0.61800003
-0.045393337 -0.094913341 0.61900002
-0.044428576 -0.09537334 0.62200004
-0.043452382 -0.095833339 0.625
-0.042261906 -0.095833339 0.625
-0.04107143 -0.095833339 0.625
-0.039880954 -0.095833339 0.625
-0.038752384 -0.095986672 0.62600005
-0.037560001 -0.095986672 0.62600005
-0.081417151 -0.094491437 0.62400001
-0.080228575 -0.094491437 0.62400001
-0.078913338 -0.094340004 0.62300003
-0.07772667 -0.094340004 0.62300003
-0.076417148 -0.094188578 0.62200004
-0.074990481 -0.09388572 0.62
-0.073690481 -0.093734294 0.61900002
-0.072277151 -0.093431436 0.61700004
-0.070871435 -0.093128577 0.61500001
-0.069700003 -0.093128577 0.61500001
-0.068528578 -0.093128577 0.61500001
-0.067357145 -0.093128577 0.61500001
-0.06618572 -0.093128577 0.61500001
-0.065014288 -0.093128577 0.61500001
-0.063739054 -0.092977151 0.61400002
-0.062569529 -0.092977151 0.61400002
-0.061500005 -0.093128577 0.61500001
-0.060328577 -0.093128577 0.61500001
-0.059157148 -0.093128577 0.61500001
-0.057985719 -0.093128577 0.61500001
-0.05690667 -0.093280002 0.61600006
-0.055733338 -0.093280002 0.61600006
-0.054560002 -0.093280002 0.61600006
-0.05338667 -0.093280002 0.61600006
-0.052213337 -0.093280002 0.61600006
-0.051122859 -0.093431436 0.61700004
-0.049947623 -0.093431436 0.61700004
-0.04885143 -0.093582861 0.61800003
-0.047674287 -0.093582861 0.61800003
-0.046572383 -0.093734294 0.61900002
-0.045466669 -0.09388572 0.62
-0.044428576 -0.094188578 0.62200004
-0.043382861 -0.094491437 0.62400001
-0.042194288 -0.094491437 0.62400001
-0.04107143 -0.094642863 0.625
-0.039880954 -0.094642863 0.625
-0.038752384 -0.094794288 0.62600005
-0.037560001 -0.094794288 0.62600005
-0.080228575 -0.093302861 0.62400001
-0.078913338 -0.093153343 0.62300003
-0.07772667 -0.093153343 0.62300003
-0.076417148 -0.093003817 0.62200004
-0.074990481 -0.092704765 0.62
-0.073809527 -0.092704765 0.62
-0.072511435 -0.092555247 0.61900002
-0.070986673 -0.09210667 0.61600006
-0.069813341 -0.09210667 0.61600006
-0.068640001 -0.09210667 0.61600006
-0.067466669 -0.09210667 0.61600006
-0.066293336 -0.09210667 0.61600006
-0.065014288 -0.091957152 0.61500001
-0.063842863 -0.091957152 0.61500001
-0.06267143 -0.091957152 0.61500001
-0.061500005 -0.091957152 0.61500001
-0.060426671 -0.09210667 0.61600006
-0.059157148 -0.091957152 0.61500001
-0.058080003 -0.09210667 0.61600006
-0.05690667 -0.09210667 0.61600006
-0.055733338 -0.09210667 0.61600006
-0.054560002 -0.09210667 0.61600006
-0.05338667 -0.09210667 0.61600006
-0.052298099 -0.092256196 0.61700004
-0.051122859 -0.092256196 0.61700004
-0.049947623 -0.092256196 0.61700004
-0.04885143 -0.092405722 0.61800003
-0.04775143 -0.092555247 0.61900002
-0.046572383 -0.092555247 0.61900002
-0.045466669 -0.092704765 0.62
-0.044500005 -0.093153343 0.62300003
-0.043382861 -0.093302861 0.62400001
-0.042194288 -0.093302861 0.62400001
-0.04107143 -0.093452387 0.625
-0.039880954 -0.093452387 0.625
-0.038690478 -0.093452387 0.625
-0.080228575 -0.092114292 0.62400001
-0.078913338 -0.091966674 0.62300003
-0.07772667 -0.091966674 0.62300003
-0.076417148 -0.091819055 0.62200004
-0.075232387 -0.091819055 0.62200004
-0.073809527 -0.091523819 0.62
-0.072394289 -0.091228575 0.61800003
-0.070986673 -0.090933338 0.61600006
-0.069813341 -0.090933338 0.61600006
-0.068640001 -0.090933338 0.61600006
-0.067466669 -0.090933338 0.61600006
-0.066293336 -0.090933338 0.61600006
-0.065120004 -0.090933338 0.61600006
-0.063842863 -0.090785719 0.61500001
-0.06267143 -0.090785719 0.61500001
-0.061500005 -0.090785719 0.61500001
-0.060426671 -0.090933338 0.61600006
-0.059253339 -0.090933338 0.61600006
-0.058080003 -0.090933338 0.61600006
-0.05690667 -0.090933338 0.61600006
-0.055733338 -0.090933338 0.61600006
-0.054560002 -0.090933338 0.61600006
-0.05338667 -0.090933338 0.61600006
-0.052298099 -0.091080956 0.61700004
-0.051122859 -0.091080956 0.61700004
-0.049947623 -0.091080956 0.61700004
-0.04885143 -0.091228575 0.61800003
-0.04775143 -0.091376193 0.61900002
-0.046647623 -0.091523819 0.62
-0.045466669 -0.091523819 0.62
-0.044500005 -0.091966674 0.62300003
-0.043382861 -0.092114292 0.62400001
-0.042194288 -0.092114292 0.62400001
-0.04107143 -0.09226191 0.625
-0.039880954 -0.09226191 0.625
-0.038690478 -0.09226191 0.625
-0.079040006 -0.090925723 0.62400001
-0.077851437 -0.090925723 0.62400001
-0.076540008 -0.090780005 0.62300003
-0.075232387 -0.090634294 0.62200004
-0.073809527 -0.090342864 0.62
-0.072511435 -0.090197146 0.61900002
-0.071101911 -0.089905716 0.61700004
-0.069926672 -0.089905716 0.61700004
-0.068751432 -0.089905716 0.61700004
-0.067576192 -0.089905716 0.61700004
-0.066293336 -0.089760005 0.61600006
-0.065120004 -0.089760005 0.61600006
-0.063946672 -0.089760005 0.61600006
-0.062773339 -0.089760005 0.61600006
-0.061600003 -0.089760005 0.61600006
-0.060426671 -0.089760005 0.61600006
-0.059253339 -0.089760005 0.61600006
-0.058080003 -0.089760005 0.61600006
-0.05699905 -0.089905716 0.61700004
-0.055823814 -0.089905716 0.61700004
-0.054648574 -0.089905716 0.61700004
-0.053560004 -0.090051435 0.61800003
-0.05238286 -0.090051435 0.61800003
-0.051205717 -0.090051435 0.61800003
-0.050028574 -0.090051435 0.61800003
-0.048930481 -0.090197146 0.61900002
-0.04775143 -0.090197146 0.61900002
-0.046647623 -0.090342864 0.62
-0.045466669 -0.090342864 0.62
-0.075232387 -0.089449532 0.62200004
-0.074047625 -0.089449532 0.62200004
-0.072628573 -0.08916191 0.62
-0.071217149 -0.088874288 0.61800003
-0.070040002 -0.088874288 0.61800003
-0.068751432 -0.088730484 0.61700004
-0.067576192 -0.088730484 0.61700004
-0.06640096 -0.088730484 0.61700004
-0.065120004 -0.088586673 0.61600006
-0.063946672 -0.088586673 0.61600006
-0.062773339 -0.088586673 0.61600006
-0.061600003 -0.088586673 0.61600006
-0.060426671 -0.088586673 0.61600006
-0.059253339 -0.088586673 0.61600006
-0.058080003 -0.088586673 0.61600006
-0.05690667 -0.088586673 0.61600006
-0.055733338 -0.088586673 0.61600006
-0.054648574 -0.088730484 0.61700004
-0.053473338 -0.088730484 0.61700004
-0.05238286 -0.088874288 0.61800003
-0.051205717 -0.088874288 0.61800003
-0.050028574 -0.088874288 0.61800003
-0.048930481 -0.089018099 0.61900002
-0.047828574 -0.08916191 0.62
-0.046948574 -0.089737147 0.62400001
-0.045760002 -0.089737147 0.62400001
-0.075353339 -0.088406675 0.62300003
-0.07416667 -0.088406675 0.62300003
-0.072628573 -0.087980956 0.62
-0.071332388 -0.087839052 0.61900002
-0.070040002 -0.087697148 0.61800003
-0.068862863 -0.087697148 0.61800003
-0.067685716 -0.087697148 0.61800003
-0.066508576 -0.087697148 0.61800003
-0.06522572 -0.087555245 0.61700004
-0.064050481 -0.087555245 0.61700004
-0.062875241 -0.087555245 0.61700004
-0.061700005 -0.087555245 0.61700004
-0.060524765 -0.087555245 0.61700004
-0.059349529 -0.087555245 0.61700004
-0.05817429 -0.087555245 0.61700004
-0.05699905 -0.087555245 0.61700004
-0.055823814 -0.087555245 0.61700004
-0.054737147 -0.087697148 0.61800003
-0.053646669 -0.087839052 0.61900002
-0.052467622 -0.087839052 0.61900002
-0.051371433 -0.087980956 0.62
-0.050190479 -0.087980956 0.62
-0.049246669 -0.088406675 0.62300003
-0.048137147 -0.088548578 0.62400001
-0.047023814 -0.088690482 0.625
-0.045760002 -0.088548578 0.62400001
-0.075595245 -0.087500006 0.625
-0.074404769 -0.087500006 0.625
-0.072980002 -0.087220006 0.62300003
-0.071447626 -0.086800009 0.62
-0.070153341 -0.086660005 0.61900002
-0.068974294 -0.086660005 0.61900002
-0.067795239 -0.086660005 0.61900002
-0.066616192 -0.086660005 0.61900002
-0.065437146 -0.086660005 0.61900002
-0.064258099 -0.086660005 0.61900002
-0.063079052 -0.086660005 0.61900002
-0.061900005 -0.086660005 0.61900002
-0.06062286 -0.086520009 0.61800003
-0.059541907 -0.086660005 0.61900002
-0.058268577 -0.086520009 0.61800003
-0.057091434 -0.086520009 0.61800003
-0.05591429 -0.086520009 0.61800003
-0.054825719 -0.086660005 0.61900002
-0.053646669 -0.086660005 0.61900002
-0.052467622 -0.086660005 0.61900002
-0.051371433 -0.086800009 0.62
-0.050352383 -0.087080009 0.62200004
-0.049246669 -0.087220006 0.62300003
-0.048137147 -0.087360002 0.62400001
-0.047023814 -0.087500006 0.625
-0.045833338 -0.087500006 0.625
-0.07583715 -0.086585723 0.62700003
-0.074404769 -0.08630953 0.625
-0.072980002 -0.086033337 0.62300003
-0.071678102 -0.08589524 0.62200004
-0.070266671 -0.085619055 0.62
-0.069085717 -0.085619055 0.62
-0.067904763 -0.085619055 0.62
-0.066723816 -0.085619055 0.62
-0.065542862 -0.085619055 0.62
-0.064361908 -0.085619055 0.62
-0.063180953 -0.085619055 0.62
-0.062000003 -0.085619055 0.62
-0.060720958 -0.085480958 0.61900002
-0.059541907 -0.085480958 0.61900002
-0.05836286 -0.085480958 0.61900002
-0.057183813 -0.085480958 0.61900002
-0.056004766 -0.085480958 0.61900002
-0.054914288 -0.085619055 0.62
-0.053733338 -0.085619055 0.62
-0.052467622 -0.085480958 0.61900002
-0.051371433 -0.085619055 0.62
-0.050352383 -0.08589524 0.62200004
-0.049246669 -0.086033337 0.62300003
-0.048137147 -0.086171433 0.62400001
-0.047023814 -0.08630953 0.625
-0.045833338 -0.08630953 0.625
-0.044642862 -0.08630953 0.625
-0.075958103 -0.085527621 0.62800002
-0.074523814 -0.085255243 0.62600005
-0.073097147 -0.084982865 0.62400001
-0.07179334 -0.084846675 0.62300003
-0.07049334 -0.084710479 0.62200004
-0.069308579 -0.084710479 0.62200004
-0.067904763 -0.0844381 0.62
-0.066723816 -0.0844381 0.62
-0.065542862 -0.0844381 0.62
-0.064361908 -0.0844381 0.62
-0.063180953 -0.0844381 0.62
-0.062000003 -0.0844381 0.62
-0.060819052 -0.0844381 0.62
-0.059638098 -0.0844381 0.62
-0.058457147 -0.0844381 0.62
-0.057276193 -0.0844381 0.62
-0.056095243 -0.0844381 0.62
-0.055268575 -0.084982865 0.62400001
-0.053906672 -0.084710479 0.62200004
-0.052552383 -0.0844381 0.62
-0.051371433 -0.0844381 0.62
-0.050352383 -0.084710479 0.62200004
-0.049246669 -0.084846675 0.62300003
-0.048137147 -0.084982865 0.62400001
-0.047023814 -0.085119054 0.625
-0.045833338 -0.085119054 0.625
-0.044642862 -0.085119054 0.625
-0.043521907 -0.085255243 0.62600005
-0.037064765 -0.086889528 0.63800001
-0.035849527 -0.086889528 0.63800001
-0.077277146 -0.08446572 0.62900001
-0.07583715 -0.084197149 0.62700003
-0.074523814 -0.084062859 0.62600005
-0.073214293 -0.083928578 0.625
-0.071908578 -0.083794288 0.62400001
-0.070606671 -0.083660007 0.62300003
-0.069420002 -0.083660007 0.62300003
-0.068123817 -0.083525717 0.62200004
-0.066939048 -0.083525717 0.62200004
-0.065754287 -0.083525717 0.62200004
-0.064569525 -0.083525717 0.62200004
-0.063384764 -0.083525717 0.62200004
-0.062200002 -0.083525717 0.62200004
-0.061015241 -0.083525717 0.62200004
-0.059830479 -0.083525717 0.62200004
-0.058645718 -0.083525717 0.62200004
-0.057276193 -0.083257146 0.62
-0.056457147 -0.083794288 0.62400001
-0.055268575 -0.083794288 0.62400001
-0.054080002 -0.083794288 0.62400001
-0.052552383 -0.083257146 0.62
-0.051371433 -0.083257146 0.62
-0.050352383 -0.083525717 0.62200004
-0.049325716 -0.083794288 0.62400001
-0.048137147 -0.083794288 0.62400001
-0.047023814 -0.083928578 0.625
-0.045833338 -0.083928578 0.625
-0.044642862 -0.083928578 0.625
-0.043521907 -0.084062859 0.62600005
-0.037064765 -0.085674293 0.63800001
-0.035849527 -0.085674293 0.63800001
-0.034634288 -0.085674293 0.63800001
-0.074404769 -0.082738101 0.625
-0.073214293 -0.082738101 0.625
-0.071908578 -0.08260572 0.62400001
-0.070720002 -0.08260572 0.62400001
-0.069420002 -0.082473338 0.62300003
-0.068233341 -0.082473338 0.62300003
-0.066939048 -0.082340956 0.62200004
-0.065860003 -0.082473338 0.62300003
-0.064569525 -0.082340956 0.62200004
-0.063384764 -0.082340956 0.62200004
-0.062200002 -0.082340956 0.62200004
-0.061015241 -0.082340956 0.62200004
-0.059830479 -0.082340956 0.62200004
-0.058645718 -0.082340956 0.62200004
-0.057460956 -0.082340956 0.62200004
-0.056276195 -0.082340956 0.62200004
-0.055268575 -0.08260572 0.62400001
-0.054080002 -0.08260572 0.62400001
-0.052891433 -0.08260572 0.62400001
-0.051537145 -0.082340956 0.62200004
-0.050433338 -0.082473338 0.62300003
-0.049325716 -0.08260572 0.62400001
-0.048137147 -0.08260572 0.62400001
-0.047023814 -0.082738101 0.625
-0.045833338 -0.082738101 0.625
-0.044642862 -0.082738101 0.625
-0.043521907 -0.082870483 0.62600005
-0.037122861 -0.084591433 0.63900006
-0.035905715 -0.084591433 0.63900006
-0.074404769 -0.081547625 0.625
-0.073214293 -0.081547625 0.625
-0.071908578 -0.081417151 0.62400001
-0.070606671 -0.081286669 0.62300003
-0.069531433 -0.081417151 0.62400001
-0.068233341 -0.081286669 0.62300003
-0.067046672 -0.081286669 0.62300003
-0.065860003 -0.081286669 0.62300003
-0.064673334 -0.081286669 0.62300003
-0.063384764 -0.081156194 0.62200004
-0.062200002 -0.081156194 0.62200004
-0.060819052 -0.080895245 0.62
-0.059638098 -0.080895245 0.62
-0.058457147 -0.080895245 0.62
-0.057460956 -0.081156194 0.62200004
-0.056276195 -0.081156194 0.62200004
-0.055268575 -0.081417151 0.62400001
-0.054080002 -0.081417151 0.62400001
-0.052891433 -0.081417151 0.62400001
-0.051620003 -0.081286669 0.62300003
-0.050514288 -0.081417151 0.62400001
-0.049325716 -0.081417151 0.62400001
-0.04821429 -0.081547625 0.625
-0.047023814 -0.081547625 0.625
-0.045833338 -0.081547625 0.625
-0.044714287 -0.0816781 0.62600005
-0.043521907 -0.0816781 0.62600005
-0.042464763 -0.081939057 0.62800002
-0.038280003 -0.083243817 0.63800001
-0.037064765 -0.083243817 0.63800001
-0.035849527 -0.083243817 0.63800001
-0.074404769 -0.080357149 0.625
-0.073097147 -0.080228575 0.62400001
-0.071908578 -0.080228575 0.62400001
-0.070720002 -0.080228575 0.62400001
-0.069531433 -0.080228575 0.62400001
-0.068233341 -0.080100007 0.62300003
-0.066939048 -0.079971433 0.62200004
-0.065754287 -0.079971433 0.62200004
-0.064569525 -0.079971433 0.62200004
-0.063180953 -0.079714291 0.62
-0.062000003 -0.079714291 0.62
-0.060819052 -0.079714291 0.62
-0.059638098 -0.079714291 0.62
-0.058457147 -0.079714291 0.62
-0.057276193 -0.079714291 0.62
-0.056276195 -0.079971433 0.62200004
-0.055180002 -0.080100007 0.62300003
-0.054080002 -0.080228575 0.62400001
-0.052806672 -0.080100007 0.62300003
-0.051702861 -0.080228575 0.62400001
-0.050514288 -0.080228575 0.62400001
-0.049404766 -0.080357149 0.625
-0.04821429 -0.080357149 0.625
-0.04709905 -0.080485716 0.62600005
-0.04590667 -0.080485716 0.62600005
-0.044714287 -0.080485716 0.62600005
-0.043521907 -0.080485716 0.62600005
-0.042397145 -0.080614291 0.62700003
-0.041268576 -0.080742866 0.62800002
-0.04039143 -0.081385717 0.63300002
-0.039309528 -0.081642866 0.63500005
-0.038100004 -0.081642866 0.63500005
-0.036890477 -0.081642866 0.63500005
-0.035737146 -0.081771433 0.63600004
-0.034525715 -0.081771433 0.63600004
-0.033261906 -0.081642866 0.63500005
-0.074285716 -0.079040006 0.62400001
-0.073097147 -0.079040006 0.62400001
-0.071908578 -0.079040006 0.62400001
-0.070720002 -0.079040006 0.62400001
-0.069308579 -0.078786671 0.62200004
-0.067904763 -0.078533337 0.62
-0.066939048 -0.078786671 0.62200004
-0.065754287 -0.078786671 0.62200004
-0.064569525 -0.078786671 0.62200004
-0.063180953 -0.078533337 0.62
-0.061900005 -0.078406669 0.61900002
-0.060720958 -0.078406669 0.61900002
-0.059638098 -0.078533337 0.62
-0.058457147 -0.078533337 0.62
-0.057276193 -0.078533337 0.62
-0.056276195 -0.078786671 0.62200004
-0.055180002 -0.078913338 0.62300003
-0.054080002 -0.079040006 0.62400001
-0.052891433 -0.079040006 0.62400001
-0.051702861 -0.079040006 0.62400001
-0.050595243 -0.079166673 0.625
-0.049483813 -0.07929334 0.62600005
-0.048291434 -0.07929334 0.62600005
-0.04709905 -0.07929334 0.62600005
-0.04590667 -0.07929334 0.62600005
-0.044785716 -0.079420008 0.62700003
-0.043591432 -0.079420008 0.62700003
-0.042464763 -0.079546675 0.62800002
-0.04133429 -0.079673335 0.62900001
-0.040327623 -0.080053337 0.63200003
-0.039247621 -0.080306672 0.634
-0.038100004 -0.080433339 0.63500005
-0.036890477 -0.080433339 0.63500005
-0.035680953 -0.080433339 0.63500005
-0.034525715 -0.080560006 0.63600004
-0.033261906 -0.080433339 0.63500005
-0.032052383 -0.080433339 0.63500005
-0.072980002 -0.07772667 0.62300003
-0.07179334 -0.07772667 0.62300003
-0.07049334 -0.07760191 0.62200004
-0.069308579 -0.07760191 0.62200004
-0.068123817 -0.07760191 0.62200004
-0.066939048 -0.07760191 0.62200004
-0.065754287 -0.07760191 0.62200004
-0.064361908 -0.07735239 0.62
-0.063180953 -0.07735239 0.62
-0.061900005 -0.077227622 0.61900002
-0.060720958 -0.077227622 0.61900002
-0.059541907 -0.077227622 0.61900002
-0.05836286 -0.077227622 0.61900002
-0.057276193 -0.07735239 0.62
-0.056095243 -0.07735239 0.62
-0.055180002 -0.07772667 0.62300003
-0.054080002 -0.077851437 0.62400001
-0.052891433 -0.077851437 0.62400001
-0.051785719 -0.077976197 0.625
-0.050595243 -0.077976197 0.625
-0.049483813 -0.078100957 0.62600005
-0.048368573 -0.078225717 0.62700003
-0.047249526 -0.078350484 0.62800002
-0.046053335 -0.078350484 0.62800002
-0.044857144 -0.078350484 0.62800002
-0.043660954 -0.078350484 0.62800002
-0.042532384 -0.078475244 0.62900001
-0.041465718 -0.078724764 0.63100004
-0.04039143 -0.078974292 0.63300002
-0.039247621 -0.079099052 0.634
-0.038040001 -0.079099052 0.634
-0.036832385 -0.079099052 0.634
-0.035624765 -0.079099052 0.634
-0.03447143 -0.079223812 0.63500005
-0.033209525 -0.079099052 0.634
-0.032001905 -0.079099052 0.634
-0.075353339 -0.076540008 0.62300003
-0.07416667 -0.076540008 0.62300003
-0.072980002 -0.076540008 0.62300003
-0.07179334 -0.076540008 0.62300003
-0.07049334 -0.076417148 0.62200004
-0.069308579 -0.076417148 0.62200004
-0.068123817 -0.076417148 0.62200004
-0.066939048 -0.076417148 0.62200004
-0.065754287 -0.076417148 0.62200004
-0.064569525 -0.076417148 0.62200004
-0.063180953 -0.076171435 0.62
-0.062000003 -0.076171435 0.62
-0.060819052 -0.076171435 0.62
-0.059541907 -0.076048575 0.61900002
-0.05836286 -0.076048575 0.61900002
-0.057276193 -0.076171435 0.62
-0.056366671 -0.076540008 0.62300003
-0.055180002 -0.076540008 0.62300003
-0.054080002 -0.076662861 0.62400001
-0.052891433 -0.076662861 0.62400001
-0.051785719 -0.076785721 0.625
-0.050595243 -0.076785721 0.625
-0.049483813 -0.076908574 0.62600005
-0.04852286 -0.077277146 0.62900001
-0.047324765 -0.077277146 0.62900001
-0.046126671 -0.077277146 0.62900001
-0.044928573 -0.077277146 0.62900001
-0.043730479 -0.077277146 0.62900001
-0.042667624 -0.077522859 0.63100004
-0.041531432 -0.077645719 0.63200003
-0.04039143 -0.077768579 0.63300002
-0.039185718 -0.077768579 0.63300002
-0.038040001 -0.077891432 0.634
-0.036832385 -0.077891432 0.634
-0.035624765 -0.077891432 0.634
-0.03447143 -0.078014292 0.63500005
-0.033209525 -0.077891432 0.634
-0.032001905 -0.077891432 0.634
-0.075353339 -0.075353339 0.62300003
-0.074047625 -0.075232387 0.62200004
-0.072862864 -0.075232387 0.62200004
-0.07179334 -0.075353339 0.62300003
-0.070266671 -0.074990481 0.62
-0.069085717 -0.074990481 0.62
-0.067904763 -0.074990481 0.62
-0.066723816 -0.074990481 0.62
-0.065754287 -0.075232387 0.62200004
-0.064569525 -0.075232387 0.62200004
-0.063180953 -0.074990481 0.62
-0.062000003 -0.074990481 0.62
-0.060819052 -0.074990481 0.62
-0.059638098 -0.074990481 0.62
-0.05836286 -0.074869528 0.61900002
-0.057276193 -0.074990481 0.62
-0.056366671 -0.075353339 0.62300003
-0.055180002 -0.075353339 0.62300003
-0.054080002 -0.075474292 0.62400001
-0.052891433 -0.075474292 0.62400001
-0.051785719 -0.075595245 0.625
-0.050676193 -0.075716197 0.62600005
-0.049720954 -0.076079056 0.62900001
-0.04875429 -0.076441906 0.63200003
-0.047475241 -0.076320961 0.63100004
-0.046273336 -0.076320961 0.63100004
-0.045071431 -0.076320961 0.63100004
-0.04393905 -0.076441906 0.63200003
-0.042735241 -0.076441906 0.63200003
-0.041531432 -0.076441906 0.63200003
-0.04039143 -0.076562859 0.63300002
-0.039185718 -0.076562859 0.63300002
-0.038040001 -0.076683812 0.634
-0.036774289 -0.076562859 0.63300002
-0.035624765 -0.076683812 0.634
-0.034417145 -0.076683812 0.634
-0.033157144 -0.076562859 0.63300002
-0.032001905 -0.076683812 0.634
-0.030794287 -0.076683812 0.634
-0.029586669 -0.076683812 0.634
-0.028379049 -0.076683812 0.634
-0.076540008 -0.07416667 0.62300003
-0.075232387 -0.074047625 0.62200004
-0.073809527 -0.073809527 0.62
-0.072628573 -0.073809527 0.62
-0.071678102 -0.074047625 0.62200004
-0.070266671 -0.073809527 0.62
-0.069085717 -0.073809527 0.62
-0.067904763 -0.073809527 0.62
-0.066723816 -0.073809527 0.62
-0.065754287 -0.074047625 0.62200004
-0.064569525 -0.074047625 0.62200004
-0.063180953 -0.073809527 0.62
-0.062000003 -0.073809527 0.62
-0.061015241 -0.074047625 0.62200004
-0.059830479 -0.074047625 0.62200004
-0.058740005 -0.07416667 0.62300003
-0.057276193 -0.073809527 0.62
-0.056366671 -0.07416667 0.62300003
-0.055180002 -0.07416667 0.62300003
-0.054080002 -0.074285716 0.62400001
-0.052976195 -0.074404769 0.625
-0.051868577 -0.074523814 0.62600005
-0.050757147 -0.074642859 0.62700003
-0.049720954 -0.074880958 0.62900001
-0.048677146 -0.075119056 0.63100004
-0.047475241 -0.075119056 0.63100004
-0.046273336 -0.075119056 0.63100004
-0.045071431 -0.075119056 0.63100004
-0.04393905 -0.075238101 0.63200003
-0.042735241 -0.075238101 0.63200003
-0.041597147 -0.075357147 0.63300002
-0.040327623 -0.075238101 0.63200003
-0.039185718 -0.075357147 0.63300002
-0.037980001 -0.075357147 0.63300002
-0.036774289 -0.075357147 0.63300002
-0.035568573 -0.075357147 0.63300002
-0.034417145 -0.075476192 0.634
-0.033157144 -0.075357147 0.63300002
-0.032001905 -0.075476192 0.634
-0.030842859 -0.075595245 0.63500005
-0.029633336 -0.075595245 0.63500005
-0.076540008 -0.072980002 0.62300003
-0.074990481 -0.072628573 0.62
-0.073809527 -0.072628573 0.62
-0.072628573 -0.072628573 0.62
-0.071447626 -0.072628573 0.62
-0.070266671 -0.072628573 0.62
-0.069085717 -0.072628573 0.62
-0.067904763 -0.072628573 0.62
-0.066723816 -0.072628573 0.62
-0.065754287 -0.072862864 0.62200004
-0.064361908 -0.072628573 0.62
-0.063180953 -0.072628573 0.62
-0.062000003 -0.072628573 0.62
-0.060819052 -0.072628573 0.62
-0.059638098 -0.072628573 0.62
-0.058457147 -0.072628573 0.62
-0.057276193 -0.072628573 0.62
-0.056366671 -0.072980002 0.62300003
-0.055180002 -0.072980002 0.62300003
-0.054080002 -0.073097147 0.62400001
-0.052891433 -0.073097147 0.62400001
-0.051868577 -0.073331431 0.62600005
-0.050838098 -0.073565722 0.62800002
-0.049720954 -0.07368286 0.62900001
-0.048677146 -0.07391715 0.63100004
-0.047475241 -0.07391715 0.63100004
-0.046273336 -0.07391715 0.63100004
-0.045071431 -0.07391715 0.63100004
-0.04393905 -0.074034289 0.63200003
-0.042735241 -0.074034289 0.63200003
-0.041597147 -0.074151434 0.63300002
-0.040327623 -0.074034289 0.63200003
-0.039185718 -0.074151434 0.63300002
-0.037980001 -0.074151434 0.63300002
-0.036774289 -0.074151434 0.63300002
-0.035568573 -0.074151434 0.63300002
-0.034417145 -0.074268579 0.634
-0.033157144 -0.074151434 0.63300002
-0.032052383 -0.074385718 0.63500005
-0.030891431 -0.074502863 0.63600004
-0.029680002 -0.074502863 0.63600004
-0.076417148 -0.071678102 0.62200004
-0.075232387 -0.071678102 0.62200004
-0.073809527 -0.071447626 0.62
-0.072628573 -0.071447626 0.62
-0.071447626 -0.071447626 0.62
-0.070266671 -0.071447626 0.62
-0.069085717 -0.071447626 0.62
-0.067904763 -0.071447626 0.62
-0.066939048 -0.071678102 0.62200004
-0.065754287 -0.071678102 0.62200004
-0.064569525 -0.071678102 0.62200004
-0.063384764 -0.071678102 0.62200004
-0.062000003 -0.071447626 0.62
-0.061015241 -0.071678102 0.62200004
-0.059830479 -0.071678102 0.62200004
-0.058457147 -0.071447626 0.62
-0.057460956 -0.071678102 0.62200004
-0.056276195 -0.071678102 0.62200004
-0.055091433 -0.071678102 0.62200004
-0.053906672 -0.071678102 0.62200004
-0.052806672 -0.07179334 0.62300003
-0.051702861 -0.071908578 0.62400001
-0.050595243 -0.072023816 0.625
-0.049720954 -0.072484769 0.62900001
-0.048677146 -0.072715245 0.63100004
-0.047324765 -0.072484769 0.62900001
-0.046126671 -0.072484769 0.62900001
-0.044928573 -0.072484769 0.62900001
-0.043869525 -0.072715245 0.63100004
-0.042735241 -0.072830483 0.63200003
-0.041597147 -0.072945721 0.63300002
-0.040327623 -0.072830483 0.63200003
-0.039247621 -0.07306096 0.634
-0.038040001 -0.07306096 0.634
-0.036774289 -0.072945721 0.63300002
-0.035624765 -0.07306096 0.634
-0.034417145 -0.07306096 0.634
-0.033209525 -0.07306096 0.634
-0.032102861 -0.073291436 0.63600004
-0.030988574 -0.073521912 0.63800001
-0.076417148 -0.07049334 0.62200004
-0.075232387 -0.07049334 0.62200004
-0.073809527 -0.070266671 0.62
-0.072628573 -0.070266671 0.62
-0.071678102 -0.07049334 0.62200004
-0.07049334 -0.07049334 0.62200004
-0.069085717 -0.070266671 0.62
-0.068123817 -0.07049334 0.62200004
-0.066939048 -0.07049334 0.62200004
-0.065860003 -0.070606671 0.62300003
-0.064569525 -0.07049334 0.62200004
-0.063384764 -0.07049334 0.62200004
-0.062200002 -0.07049334 0.62200004
-0.061015241 -0.07049334 0.62200004
-0.059830479 -0.07049334 0.62200004
-0.058645718 -0.07049334 0.62200004
-0.057460956 -0.07049334 0.62200004
-0.056276195 -0.07049334 0.62200004
-0.055091433 -0.07049334 0.62200004
-0.053906672 -0.07049334 0.62200004
-0.052721906 -0.07049334 0.62200004
-0.051702861 -0.070720002 0.62400001
-0.050514288 -0.070720002 0.62400001
-0.049325716 -0.070720002 0.62400001
-0.04875429 -0.071626671 0.63200003
-0.047324765 -0.071286671 0.62900001
-0.046126671 -0.071286671 0.62900001
-0.044928573 -0.071286671 0.62900001
-0.04393905 -0.071626671 0.63200003
-0.042735241 -0.071626671 0.63200003
-0.041597147 -0.071740001 0.63300002
-0.04039143 -0.071740001 0.63300002
-0.039247621 -0.07185334 0.634
-0.038040001 -0.07185334 0.634
-0.036774289 -0.071740001 0.63300002
-0.035568573 -0.071740001 0.63300002
-0.034417145 -0.07185334 0.634
-0.033209525 -0.07185334 0.634
-0.032102861 -0.072080001 0.63600004
-0.030891431 -0.072080001 0.63600004
-0.076417148 -0.069308579 0.62200004
-0.075232387 -0.069308579 0.62200004
-0.074047625 -0.069308579 0.62200004
-0.072862864 -0.069308579 0.62200004
-0.071678102 -0.069308579 0.62200004
-0.07049334 -0.069308579 0.62200004
-0.069308579 -0.069308579 0.62200004
-0.068123817 -0.069308579 0.62200004
-0.067046672 -0.069420002 0.62300003
-0.065860003 -0.069420002 0.62300003
-0.064569525 -0.069308579 0.62200004
-0.063384764 -0.069308579 0.62200004
-0.062200002 -0.069308579 0.62200004
-0.061015241 -0.069308579 0.62200004
-0.059830479 -0.069308579 0.62200004
-0.058645718 -0.069308579 0.62200004
-0.057276193 -0.069085717 0.62
-0.056276195 -0.069308579 0.62200004
-0.055091433 -0.069308579 0.62200004
-0.053906672 -0.069308579 0.62200004
-0.052721906 -0.069308579 0.62200004
-0.051620003 -0.069420002 0.62300003
-0.050514288 -0.069531433 0.62400001
-0.049325716 -0.069531433 0.62400001
-0.048677146 -0.070311435 0.63100004
-0.047324765 -0.070088573 0.62900001
-0.046126671 -0.070088573 0.62900001
-0.044928573 -0.070088573 0.62900001
-0.04393905 -0.070422865 0.63200003
-0.042735241 -0.070422865 0.63200003
-0.041597147 -0.070534289 0.63300002
-0.04039143 -0.070534289 0.63300002
-0.039185718 -0.070534289 0.63300002
-0.038040001 -0.07064572 0.634
-0.036774289 -0.070534289 0.63300002
-0.035568573 -0.070534289 0.63300002
-0.03436286 -0.070534289 0.63300002
-0.033157144 -0.070534289 0.63300002
-0.032052383 -0.070757151 0.63500005
-0.030891431 -0.070868574 0.63600004
-0.076540008 -0.068233341 0.62300003
-0.075353339 -0.068233341 0.62300003
-0.074047625 -0.068123817 0.62200004
-0.072980002 -0.068233341 0.62300003
-0.07179334 -0.068233341 0.62300003
-0.070606671 -0.068233341 0.62300003
-0.069308579 -0.068123817 0.62200004
-0.068123817 -0.068123817 0.62200004
-0.066939048 -0.068123817 0.62200004
-0.065860003 -0.068233341 0.62300003
-0.064569525 -0.068123817 0.62200004
-0.063384764 -0.068123817 0.62200004
-0.062200002 -0.068123817 0.62200004
-0.061015241 -0.068123817 0.62200004
-0.059830479 -0.068123817 0.62200004
-0.058645718 -0.068123817 0.62200004
-0.057460956 -0.068123817 0.62200004
-0.056276195 -0.068123817 0.62200004
-0.055091433 -0.068123817 0.62200004
-0.053906672 -0.068123817 0.62200004
-0.052721906 -0.068123817 0.62200004
-0.051702861 -0.068342865 0.62400001
-0.050595243 -0.068452388 0.625
-0.049483813 -0.068561912 0.62600005
-0.04852286 -0.068890482 0.62900001
-0.047249526 -0.068780959 0.62800002
-0.046053335 -0.068780959 0.62800002
-0.044857144 -0.068780959 0.62800002
-0.043730479 -0.068890482 0.62900001
-0.042667624 -0.069109529 0.63100004
-0.041531432 -0.069219053 0.63200003
-0.040327623 -0.069219053 0.63200003
-0.039185718 -0.069328576 0.63300002
-0.037980001 -0.069328576 0.63300002
-0.036774289 -0.069328576 0.63300002
-0.035568573 -0.069328576 0.63300002
-0.03436286 -0.069328576 0.63300002
-0.033104762 -0.069219053 0.63200003
-0.032001905 -0.0694381 0.634
-0.030842859 -0.069547623 0.63500005
-0.076540008 -0.067046672 0.62300003
-0.075353339 -0.067046672 0.62300003
-0.074047625 -0.066939048 0.62200004
-0.072980002 -0.067046672 0.62300003
-0.07179334 -0.067046672 0.62300003
-0.070606671 -0.067046672 0.62300003
-0.069308579 -0.066939048 0.62200004
-0.068123817 -0.066939048 0.62200004
-0.066939048 -0.066939048 0.62200004
-0.065754287 -0.066939048 0.62200004
-0.064569525 -0.066939048 0.62200004
-0.063180953 -0.066723816 0.62
-0.062000003 -0.066723816 0.62
-0.061015241 -0.066939048 0.62200004
-0.059830479 -0.066939048 0.62200004
-0.058645718 -0.066939048 0.62200004
-0.057276193 -0.066723816 0.62
-0.056095243 -0.066723816 0.62
