# .PCD v0.7 - Point Cloud Data file format
VERSION 0.7
FIELDS x y z
SIZE 4 4 4
TYPE F F F
COUNT 1 1 1
WIDTH 1346
HEIGHT 1
VIEWPOINT 0 0 0 1 0 0 0
POINTS 1346
DATA ascii
-0.039504763 0.055047624 0.68000001
-0.038153335 0.05496667 0.67900002
-0.036697146 0.054723814 0.67600006
-0.035409525 0.054723814 0.67600006
-0.034071431 0.05464286 0.67500001
-0.032785717 0.05464286 0.67500001
-0.031500001 0.05464286 0.67500001
-0.030169526 0.054561909 0.67400002
-0.028885717 0.054561909 0.67400002
-0.027438097 0.0542381 0.67000002
-0.026161907 0.0542381 0.67000002
-0.024848573 0.054157145 0.66900003
-0.023574287 0.054157145 0.66900003
-0.022300001 0.054157145 0.66900003
-0.021025715 0.054157145 0.66900003
-0.019692382 0.05399524 0.66700006
-0.018421905 0.05399524 0.66700006
-0.01715143 0.05399524 0.66700006
-0.015880954 0.05399524 0.66700006
-0.014610477 0.05399524 0.66700006
-0.013340001 0.05399524 0.66700006
-0.012069524 0.05399524 0.66700006
-0.010799048 0.05399524 0.66700006
-0.0095285717 0.05399524 0.66700006
-0.0082580959 0.05399524 0.66700006
-0.0069876197 0.05399524 0.66700006
-0.0057171434 0.05399524 0.66700006
-0.0044466672 0.05399524 0.66700006
-0.0031761907 0.05399524 0.66700006
-0.0019057144 0.05399524 0.66700006
-0.00063523813 0.05399524 0.66700006
0.00063523813 0.05399524 0.66700006
0.0019057144 0.05399524 0.66700006
0.0031761907 0.05399524 0.66700006
0.0044466672 0.05399524 0.66700006
0.0057171434 0.05399524 0.66700006
0.0069876197 0.05399524 0.66700006
0.0082457149 0.05391429 0.66600001
0.0095142862 0.05391429 0.66600001
0.01083143 0.054157145 0.66900003
0.012105715 0.054157145 0.66900003
0.013380001 0.054157145 0.66900003
0.014610477 0.05399524 0.66700006
0.015952382 0.0542381 0.67000002
0.017254287 0.05431905 0.671
0.018560002 0.054400004 0.67200005
0.019928573 0.05464286 0.67500001
0.021245716 0.054723814 0.67600006
0.022533335 0.054723814 0.67600006
0.023820953 0.054723814 0.67600006
0.025108574 0.054723814 0.67600006
0.026396193 0.054723814 0.67600006
-0.042280953 0.056591433 0.68300003
-0.040800001 0.056342863 0.68000001
-0.039504763 0.056342863 0.68000001
-0.038153335 0.056260005 0.67900002
-0.036697146 0.056011431 0.67600006
-0.035409525 0.056011431 0.67600006
-0.034071431 0.055928577 0.67500001
-0.032785717 0.055928577 0.67500001
-0.031453334 0.055845719 0.67400002
-0.030080002 0.055680003 0.67200005
-0.028757146 0.055597145 0.671
-0.027438097 0.055514291 0.67000002
-0.026122859 0.055431433 0.66900003
-0.024848573 0.055431433 0.66900003
-0.02350381 0.055265717 0.66700006
-0.022233335 0.055265717 0.66700006
-0.020962859 0.055265717 0.66700006
-0.019662859 0.055182859 0.66600001
-0.018394288 0.055182859 0.66600001
-0.017125715 0.055182859 0.66600001
-0.015857143 0.055182859 0.66600001
-0.014566667 0.055100005 0.66500002
-0.013320001 0.055182859 0.66600001
-0.01205143 0.055182859 0.66600001
-0.010799048 0.055265717 0.66700006
-0.0095285717 0.055265717 0.66700006
-0.0082580959 0.055265717 0.66700006
-0.0069876197 0.055265717 0.66700006
-0.0057171434 0.055265717 0.66700006
-0.0044466672 0.055265717 0.66700006
-0.0031761907 0.055265717 0.66700006
-0.0019057144 0.055265717 0.66700006
-0.00063523813 0.055265717 0.66700006
0.00063523813 0.055265717 0.66700006
0.0019028572 0.055182859 0.66600001
0.0031714288 0.055182859 0.66600001
0.0044400003 0.055182859 0.66600001
0.005708572 0.055182859 0.66600001
0.0069771432 0.055182859 0.66600001
0.0082457149 0.055182859 0.66600001
0.0095142862 0.055182859 0.66600001
0.010782857 0.055182859 0.66600001
0.012069524 0.055265717 0.66700006
0.013340001 0.055265717 0.66700006
0.014610477 0.055265717 0.66700006
0.015928572 0.055431433 0.66900003
0.017228572 0.055514291 0.67000002
0.018560002 0.055680003 0.67200005
0.01989905 0.055845719 0.67400002
0.021214288 0.055928577 0.67500001
0.022500001 0.055928577 0.67500001
0.023820953 0.056011431 0.67600006
0.025071431 0.055928577 0.67500001
0.026357144 0.055928577 0.67500001
-0.040800001 0.057638098 0.68000001
-0.039446671 0.057553336 0.67900002
-0.038097147 0.057468574 0.67800003
-0.036697146 0.057299051 0.67600006
-0.035357144 0.05721429 0.67500001
-0.034071431 0.05721429 0.67500001
-0.032737143 0.057129528 0.67400002
-0.031453334 0.057129528 0.67400002
-0.030080002 0.056960005 0.67200005
-0.028757146 0.05687524 0.671
-0.027438097 0.056790479 0.67000002
-0.026122859 0.056705717 0.66900003
-0.024774287 0.056536194 0.66700006
-0.02350381 0.056536194 0.66700006
-0.022233335 0.056536194 0.66700006
-0.02093143 0.056451432 0.66600001
-0.019633334 0.056366671 0.66500002
-0.018394288 0.056451432 0.66600001
-0.017125715 0.056451432 0.66600001
-0.015857143 0.056451432 0.66600001
-0.014522858 0.056197148 0.66300005
-0.013300001 0.056366671 0.66500002
-0.012033334 0.056366671 0.66500002
-0.010782857 0.056451432 0.66600001
-0.0095142862 0.056451432 0.66600001
-0.0082457149 0.056451432 0.66600001
-0.0069771432 0.056451432 0.66600001
-0.0057171434 0.056536194 0.66700006
-0.0044466672 0.056536194 0.66700006
-0.0031761907 0.056536194 0.66700006
-0.0019028572 0.056451432 0.66600001
-0.00063428574 0.056451432 0.66600001
0.00063428574 0.056451432 0.66600001
0.0019028572 0.056451432 0.66600001
0.003166667 0.056366671 0.66500002
0.0044333334 0.056366671 0.66500002
0.0057000006 0.056366671 0.66500002
0.0069666672 0.056366671 0.66500002
0.0082333339 0.056366671 0.66500002
0.0095000006 0.056366671 0.66500002
0.010766667 0.056366671 0.66500002
0.01205143 0.056451432 0.66600001
0.013320001 0.056451432 0.66600001
0.014588572 0.056451432 0.66600001
0.015880954 0.056536194 0.66700006
0.017202858 0.056705717 0.66900003
0.018504763 0.056790479 0.67000002
0.019840002 0.056960005 0.67200005
0.021214288 0.05721429 0.67500001
0.022500001 0.05721429 0.67500001
0.023820953 0.057299051 0.67600006
0.025071431 0.05721429 0.67500001
0.026357144 0.05721429 0.67500001
0.027765715 0.057468574 0.67800003
-0.040800001 0.058933336 0.68000001
-0.039446671 0.058846671 0.67900002
-0.038097147 0.058760002 0.67800003
-0.036697146 0.058586672 0.67600006
-0.035357144 0.058500003 0.67500001
-0.034020953 0.058413338 0.67400002
-0.032737143 0.058413338 0.67400002
-0.031453334 0.058413338 0.67400002
-0.029990477 0.05806667 0.67000002
-0.028757146 0.058153339 0.671
-0.027438097 0.05806667 0.67000002
-0.026122859 0.057980005 0.66900003
-0.024774287 0.057806671 0.66700006
-0.02350381 0.057806671 0.66700006
-0.022200001 0.057720006 0.66600001
-0.020900002 0.057633337 0.66500002
-0.019633334 0.057633337 0.66500002
-0.018366668 0.057633337 0.66500002
-0.017100001 0.057633337 0.66500002
-0.015761906 0.057373337 0.66200006
-0.014522858 0.057460003 0.66300005
-0.013260001 0.057460003 0.66300005
-0.011997144 0.057460003 0.66300005
-0.010766667 0.057633337 0.66500002
-0.0095000006 0.057633337 0.66500002
-0.0082333339 0.057633337 0.66500002
-0.0069666672 0.057633337 0.66500002
-0.005708572 0.057720006 0.66600001
-0.0044466672 0.057806671 0.66700006
-0.0031761907 0.057806671 0.66700006
-0.0019028572 0.057720006 0.66600001
-0.00063428574 0.057720006 0.66600001
0.00063428574 0.057720006 0.66600001
0.0019000001 0.057633337 0.66500002
0.003166667 0.057633337 0.66500002
0.0044200001 0.057460003 0.66300005
0.0056828577 0.057460003 0.66300005
0.0069457148 0.057460003 0.66300005
0.0082085719 0.057460003 0.66300005
0.0094714295 0.057460003 0.66300005
0.010734286 0.057460003 0.66300005
0.012033334 0.057633337 0.66500002
0.013300001 0.057633337 0.66500002
0.014566667 0.057633337 0.66500002
0.015857143 0.057720006 0.66600001
0.017202858 0.057980005 0.66900003
0.018532382 0.058153339 0.671
0.019840002 0.058240004 0.67200005
0.021182859 0.058413338 0.67400002
0.022466669 0.058413338 0.67400002
0.023785716 0.058500003 0.67500001
0.025034288 0.058413338 0.67400002
0.026318097 0.058413338 0.67400002
0.027601907 0.058413338 0.67400002
-0.040800001 0.060228575 0.68000001
-0.039446671 0.060140003 0.67900002
-0.038097147 0.060051434 0.67800003
-0.036697146 0.059874289 0.67600006
-0.035357144 0.05978572 0.67500001
-0.034071431 0.05978572 0.67500001
-0.032737143 0.059697147 0.67400002
-0.031453334 0.059697147 0.67400002
-0.030080002 0.059520002 0.67200005
-0.028714288 0.059342861 0.67000002
-0.027438097 0.059342861 0.67000002
-0.026044764 0.059077147 0.66700006
-0.024737144 0.058988575 0.66600001
-0.023468573 0.058988575 0.66600001
-0.022166668 0.058900002 0.66500002
-0.020900002 0.058900002 0.66500002
-0.019633334 0.058900002 0.66500002
-0.01831143 0.058722861 0.66300005
-0.017048573 0.058722861 0.66300005
-0.015761906 0.058634289 0.66200006
-0.014500953 0.058634289 0.66200006
-0.013240001 0.058634289 0.66200006
-0.011979048 0.058634289 0.66200006
-0.010734286 0.058722861 0.66300005
-0.0094714295 0.058722861 0.66300005
-0.0082333339 0.058900002 0.66500002
-0.0069666672 0.058900002 0.66500002
-0.0057000006 0.058900002 0.66500002
-0.0044400003 0.058988575 0.66600001
-0.0031714288 0.058988575 0.66600001
-0.0019000001 0.058900002 0.66500002
-0.0006333334 0.058900002 0.66500002
0.00063142861 0.058722861 0.66300005
0.0018942858 0.058722861 0.66300005
0.0031523812 0.058634289 0.66200006
0.0044133337 0.058634289 0.66200006
0.0056742863 0.058634289 0.66200006
0.0069352384 0.058634289 0.66200006
0.0082085719 0.058722861 0.66300005
0.0094714295 0.058722861 0.66300005
0.010734286 0.058722861 0.66300005
0.011997144 0.058722861 0.66300005
0.013260001 0.058722861 0.66300005
0.014566667 0.058900002 0.66500002
0.015833335 0.058900002 0.66500002
0.017202858 0.059254289 0.66900003
0.018532382 0.059431434 0.671
0.019840002 0.059520002 0.67200005
0.021120001 0.059520002 0.67200005
0.022400001 0.059520002 0.67200005
0.023750478 0.059697147 0.67400002
0.025034288 0.059697147 0.67400002
0.026318097 0.059697147 0.67400002
-0.038153335 0.061433338 0.67900002
-0.036697146 0.061161909 0.67600006
-0.035409525 0.061161909 0.67600006
-0.034071431 0.061071433 0.67500001
-0.032785717 0.061071433 0.67500001
-0.030080002 0.060800005 0.67200005
-0.028714288 0.060619052 0.67000002
-0.02731524 0.060347624 0.66700006
-0.026005715 0.060257148 0.66600001
-0.024700001 0.060166672 0.66500002
-0.023433335 0.060166672 0.66500002
-0.022166668 0.060166672 0.66500002
-0.020900002 0.060166672 0.66500002
-0.019633334 0.060166672 0.66500002
-0.018366668 0.060166672 0.66500002
-0.017048573 0.05998572 0.66300005
-0.015761906 0.059895243 0.66200006
-0.014500953 0.059895243 0.66200006
-0.013220001 0.059804767 0.66100001
-0.011960953 0.059804767 0.66100001
-0.010718096 0.059895243 0.66200006
-0.009457143 0.059895243 0.66200006
-0.0082085719 0.05998572 0.66300005
-0.0069666672 0.060166672 0.66500002
-0.0057000006 0.060166672 0.66500002
-0.0044333334 0.060166672 0.66500002
-0.0031714288 0.060257148 0.66600001
-0.0019000001 0.060166672 0.66500002
-0.00063142861 0.05998572 0.66300005
0.00063047622 0.059895243 0.66200006
0.0018914287 0.059895243 0.66200006
0.0031523812 0.059895243 0.66200006
0.0044133337 0.059895243 0.66200006
0.0056742863 0.059895243 0.66200006
0.0069352384 0.059895243 0.66200006
0.0081961909 0.059895243 0.66200006
0.009457143 0.059895243 0.66200006
0.010718096 0.059895243 0.66200006
0.011997144 0.05998572 0.66300005
0.013260001 0.05998572 0.66300005
0.014566667 0.060166672 0.66500002
0.015857143 0.060257148 0.66600001
0.017228572 0.060619052 0.67000002
0.018532382 0.060709529 0.671
0.019840002 0.060800005 0.67200005
0.021120001 0.060800005 0.67200005
0.022400001 0.060800005 0.67200005
0.023680001 0.060800005 0.67200005
0.024960002 0.060800005 0.67200005
0.026240002 0.060800005 0.67200005
-0.02867143 0.06180286 0.66900003
-0.02731524 0.061618101 0.66700006
-0.026005715 0.061525717 0.66600001
-0.024700001 0.061433338 0.66500002
-0.023433335 0.061433338 0.66500002
-0.022166668 0.061433338 0.66500002
-0.020900002 0.061433338 0.66500002
-0.019574286 0.061248574 0.66300005
-0.01831143 0.061248574 0.66300005
-0.017048573 0.061248574 0.66300005
-0.015761906 0.061156195 0.66200006
-0.014479049 0.061063815 0.66100001
-0.013220001 0.061063815 0.66100001
-0.011942858 0.060971431 0.66000003
-0.010701905 0.061063815 0.66100001
-0.0094428575 0.061063815 0.66100001
-0.0081961909 0.061156195 0.66200006
-0.0069457148 0.061248574 0.66300005
-0.0056828577 0.061248574 0.66300005
-0.0044200001 0.061248574 0.66300005
-0.003166667 0.061433338 0.66500002
-0.0018942858 0.061248574 0.66300005
-0.00063047622 0.061156195 0.66200006
0.00062952383 0.061063815 0.66100001
0.0018885715 0.061063815 0.66100001
0.0031476193 0.061063815 0.66100001
0.0044066668 0.061063815 0.66100001
0.0056657149 0.061063815 0.66100001
0.0069247624 0.061063815 0.66100001
0.0081961909 0.061156195 0.66200006
0.009457143 0.061156195 0.66200006
0.010734286 0.061248574 0.66300005
0.011997144 0.061248574 0.66300005
0.013260001 0.061248574 0.66300005
0.014566667 0.061433338 0.66500002
0.015857143 0.061525717 0.66600001
0.017202858 0.06180286 0.66900003
0.018532382 0.061987624 0.671
0.019810477 0.061987624 0.671
0.021088572 0.061987624 0.671
0.022400001 0.062080003 0.67200005
0.023680001 0.062080003 0.67200005
0.024960002 0.062080003 0.67200005
-0.02867143 0.063077144 0.66900003
-0.027274288 0.06279429 0.66600001
-0.026005715 0.06279429 0.66600001
-0.024700001 0.062700003 0.66500002
-0.023433335 0.062700003 0.66500002
-0.022166668 0.062700003 0.66500002
-0.020837145 0.062511429 0.66300005
-0.019574286 0.062511429 0.66300005
-0.01831143 0.062511429 0.66300005
-0.017048573 0.062511429 0.66300005
-0.015738096 0.062322862 0.66100001
-0.014479049 0.062322862 0.66100001
-0.013220001 0.062322862 0.66100001
-0.011942858 0.062228575 0.66000003
-0.010685715 0.062228575 0.66000003
-0.0094285719 0.062228575 0.66000003
-0.0081838099 0.062322862 0.66100001
-0.0069247624 0.062322862 0.66100001
-0.0056657149 0.062322862 0.66100001
-0.0044066668 0.062322862 0.66100001
-0.0031476193 0.062322862 0.66100001
-0.0018885715 0.062322862 0.66100001
-0.00062952383 0.062322862 0.66100001
0.00062857149 0.062228575 0.66000003
0.0018857144 0.062228575 0.66000003
0.0031428575 0.062228575 0.66000003
0.0044000004 0.062228575 0.66000003
0.0056657149 0.062322862 0.66100001
0.0069247624 0.062322862 0.66100001
0.0081838099 0.062322862 0.66100001
0.009457143 0.062417146 0.66200006
0.010718096 0.062417146 0.66200006
0.011997144 0.062511429 0.66300005
0.013260001 0.062511429 0.66300005
0.014566667 0.062700003 0.66500002
0.015857143 0.06279429 0.66600001
0.017202858 0.063077144 0.66900003
0.018532382 0.063265719 0.671
0.019810477 0.063265719 0.671
0.021088572 0.063265719 0.671
0.022400001 0.063360006 0.67200005
0.023680001 0.063360006 0.67200005
0.024960002 0.063360006 0.67200005
-0.027233334 0.063966669 0.66500002
-0.025966669 0.063966669 0.66500002
-0.024700001 0.063966669 0.66500002
-0.023433335 0.063966669 0.66500002
-0.022100002 0.063774288 0.66300005
-0.020837145 0.063774288 0.66300005
-0.019574286 0.063774288 0.66300005
-0.01831143 0.063774288 0.66300005
-0.016997144 0.063581906 0.66100001
-0.015738096 0.063581906 0.66100001
-0.014479049 0.063581906 0.66100001
-0.013220001 0.063581906 0.66100001
-0.011942858 0.063485719 0.66000003
-0.010685715 0.063485719 0.66000003
-0.0094000008 0.063293338 0.65800005
-0.0081714289 0.063485719 0.66000003
-0.0069142859 0.063485719 0.66000003
-0.0056571434 0.063485719 0.66000003
-0.0043866672 0.063293338 0.65800005
-0.0031428575 0.063485719 0.66000003
-0.0018857144 0.063485719 0.66000003
-0.00062857149 0.063485719 0.66000003
0.0006266667 0.063293338 0.65800005
0.0018800001 0.063293338 0.65800005
0.0031333335 0.063293338 0.65800005
0.0044000004 0.063485719 0.66000003
0.0056657149 0.063581906 0.66100001
0.0069247624 0.063581906 0.66100001
0.0081838099 0.063581906 0.66100001
0.009457143 0.063678101 0.66200006
0.010718096 0.063678101 0.66200006
0.011997144 0.063774288 0.66300005
0.013260001 0.063774288 0.66300005
0.014566667 0.063966669 0.66500002
0.015857143 0.064062864 0.66600001
0.017202858 0.064351432 0.66900003
0.018532382 0.064543813 0.671
0.019810477 0.064543813 0.671
0.021057144 0.064447626 0.67000002
0.022366669 0.064543813 0.671
0.023680001 0.064640008 0.67200005
0.024960002 0.064640008 0.67200005
-0.027233334 0.065233335 0.66500002
-0.025966669 0.065233335 0.66500002
-0.024700001 0.065233335 0.66500002
-0.023433335 0.065233335 0.66500002
-0.022100002 0.065037146 0.66300005
-0.020837145 0.065037146 0.66300005
-0.019574286 0.065037146 0.66300005
-0.01828381 0.064939052 0.66200006
-0.016997144 0.064840958 0.66100001
-0.015738096 0.064840958 0.66100001
-0.014457144 0.064742863 0.66000003
-0.013200001 0.064742863 0.66000003
-0.011906668 0.064546674 0.65800005
-0.010653334 0.064546674 0.65800005
-0.0094000008 0.064546674 0.65800005
-0.0081466669 0.064546674 0.65800005
-0.006893334 0.064546674 0.65800005
-0.0056571434 0.064742863 0.66000003
-0.0043866672 0.064546674 0.65800005
-0.0031476193 0.064840958 0.66100001
-0.0018885715 0.064840958 0.66100001
-0.00062952383 0.064840958 0.66100001
0.0006266667 0.064546674 0.65800005
0.0018771429 0.064448573 0.65700001
0.0031333335 0.064546674 0.65800005
0.0043866672 0.064546674 0.65800005
0.0056571434 0.064742863 0.66000003
0.0069142859 0.064742863 0.66000003
0.0081838099 0.064840958 0.66100001
0.009457143 0.064939052 0.66200006
0.010718096 0.064939052 0.66200006
0.011997144 0.065037146 0.66300005
0.013260001 0.065037146 0.66300005
0.014566667 0.065233335 0.66500002
0.015857143 0.065331429 0.66600001
0.017125715 0.065331429 0.66600001
0.018532382 0.065821908 0.671
0.019780954 0.065723814 0.67000002
0.021057144 0.065723814 0.67000002
0.022333335 0.065723814 0.67000002
0.023644764 0.065821908 0.671
-0.028500002 0.066500001 0.66500002
-0.027233334 0.066500001 0.66500002
-0.025966669 0.066500001 0.66500002
-0.024625717 0.066300005 0.66300005
-0.023362858 0.066300005 0.66300005
-0.022100002 0.066300005 0.66300005
-0.020837145 0.066300005 0.66300005
-0.019544763 0.066200003 0.66200006
-0.01828381 0.066200003 0.66200006
-0.016997144 0.066100001 0.66100001
-0.015714286 0.066000007 0.66000003
-0.014457144 0.066000007 0.66000003
-0.013200001 0.066000007 0.66000003
-0.011906668 0.065800004 0.65800005
-0.010653334 0.065800004 0.65800005
-0.0094000008 0.065800004 0.65800005
-0.0081466669 0.065800004 0.65800005
-0.006893334 0.065800004 0.65800005
-0.0056400006 0.065800004 0.65800005
-0.0043733334 0.065600008 0.65600002
-0.0031285717 0.065700002 0.65700001
-0.0018657144 0.065300003 0.65300006
-0.00062380958 0.065500006 0.65500003
0.00062476192 0.065600008 0.65600002
0.0018742859 0.065600008 0.65600002
0.0031285717 0.065700002 0.65700001
0.0043800003 0.065700002 0.65700001
0.0056314291 0.065700002 0.65700001
0.006893334 0.065800004 0.65800005
0.0081714289 0.066000007 0.66000003
0.0094428575 0.066100001 0.66100001
0.010718096 0.066200003 0.66200006
0.011997144 0.066300005 0.66300005
0.013260001 0.066300005 0.66300005
0.014566667 0.066500001 0.66500002
0.015833335 0.066500001 0.66500002
0.01975143 0.066900007 0.66900003
0.021025715 0.066900007 0.66900003
0.022300001 0.066900007 0.66900003
-0.035357144 0.06878572 0.67500001
-0.028500002 0.067766674 0.66500002
-0.027233334 0.067766674 0.66500002
-0.025888573 0.067562863 0.66300005
-0.024625717 0.067562863 0.66300005
-0.023362858 0.067562863 0.66300005
-0.022100002 0.067562863 0.66300005
-0.020837145 0.067562863 0.66300005
-0.019544763 0.067460954 0.66200006
-0.01828381 0.067460954 0.66200006
-0.01697143 0.067257144 0.66000003
-0.015714286 0.067257144 0.66000003
-0.014413334 0.06705334 0.65800005
-0.013160001 0.06705334 0.65800005
-0.011906668 0.06705334 0.65800005
-0.010637144 0.066951431 0.65700001
-0.0093857152 0.066951431 0.65700001
-0.0081342859 0.066951431 0.65700001
-0.0068723815 0.06684953 0.65600002
-0.0056142863 0.066747621 0.65500003
-0.0043466669 0.066441908 0.65200001
-0.003109524 0.066543818 0.65300006
-0.0018600001 0.066340007 0.65100002
-0.0006209524 0.066441908 0.65200001
0.00062190479 0.066543818 0.65300006
0.0018714287 0.066747621 0.65500003
0.0031190477 0.066747621 0.65500003
0.004366667 0.066747621 0.65500003
0.0056142863 0.066747621 0.65500003
0.0068828575 0.066951431 0.65700001
0.0081466669 0.06705334 0.65800005
0.0094285719 0.067257144 0.66000003
0.010685715 0.067257144 0.66000003
0.011979048 0.067460954 0.66200006
0.019692382 0.067970477 0.66700006
0.020962859 0.067970477 0.66700006
0.022300001 0.068174288 0.66900003
0.023574287 0.068174288 0.66900003
-0.036697146 0.070175245 0.67600006
-0.035357144 0.070071436 0.67500001
-0.031266667 0.069552384 0.67000002
-0.029856192 0.069240957 0.66700006
-0.028500002 0.06903334 0.66500002
-0.027233334 0.06903334 0.66500002
-0.025888573 0.068825722 0.66300005
-0.024625717 0.068825722 0.66300005
-0.023362858 0.068825722 0.66300005
-0.022100002 0.068825722 0.66300005
-0.020805717 0.068721913 0.66200006
-0.019544763 0.068721913 0.66200006
-0.01828381 0.068721913 0.66200006
-0.01697143 0.068514287 0.66000003
-0.015666667 0.06830667 0.65800005
-0.014413334 0.06830667 0.65800005
-0.013160001 0.06830667 0.65800005
-0.011906668 0.06830667 0.65800005
-0.010637144 0.068202861 0.65700001
-0.0093857152 0.068202861 0.65700001
-0.0081342859 0.068202861 0.65700001
-0.0068723815 0.068099052 0.65600002
-0.0055971434 0.067787625 0.65300006
-0.0043466669 0.067683816 0.65200001
-0.0031047622 0.067683816 0.65200001
-0.0018600001 0.067580007 0.65100002
-0.00062000006 0.067580007 0.65100002
0.0006209524 0.067683816 0.65200001
0.0018628573 0.067683816 0.65200001
0.003109524 0.067787625 0.65300006
0.0043466669 0.067683816 0.65200001
0.0055971434 0.067787625 0.65300006
0.0068723815 0.068099052 0.65600002
0.0081219049 0.068099052 0.65600002
0.0093714288 0.068099052 0.65600002
0.010620954 0.068099052 0.65600002
0.022300001 0.069448575 0.66900003
0.023574287 0.069448575 0.66900003
-0.036697146 0.071462862 0.67600006
-0.035357144 0.071357146 0.67500001
-0.034071431 0.071357146 0.67500001
-0.032591432 0.070934288 0.671
-0.031126669 0.070511431 0.66700006
-0.029856192 0.070511431 0.66700006
-0.028500002 0.070300005 0.66500002
-0.027233334 0.070300005 0.66500002
-0.025888573 0.070088573 0.66300005
-0.024625717 0.070088573 0.66300005
-0.023362858 0.070088573 0.66300005
-0.022100002 0.070088573 0.66300005
-0.020805717 0.069982864 0.66200006
-0.019544763 0.069982864 0.66200006
-0.018256191 0.069877148 0.66100001
-0.01697143 0.069771431 0.66000003
-0.015666667 0.069560006 0.65800005
-0.014413334 0.069560006 0.65800005
-0.013160001 0.069560006 0.65800005
-0.011906668 0.069560006 0.65800005
-0.010637144 0.06945429 0.65700001
-0.0093714288 0.069348574 0.65600002
-0.0081342859 0.06945429 0.65700001
-0.0068409527 0.069031432 0.65300006
-0.005588572 0.068925716 0.65200001
-0.0043400005 0.068820007 0.65100002
-0.0031000001 0.068820007 0.65100002
-0.001857143 0.068714291 0.65000004
-0.00061714288 0.068502858 0.648
0.00061904767 0.068714291 0.65000004
0.0018600001 0.068820007 0.65100002
0.0031000001 0.068820007 0.65100002
0.0043400005 0.068820007 0.65100002
0.0055714292 0.068714291 0.65000004
0.0067885718 0.068502858 0.648
0.0080228578 0.068502858 0.648
0.0092571434 0.068502858 0.648
0.010475239 0.068397149 0.64700001
0.022300001 0.070722863 0.66900003
-0.036642861 0.072642863 0.67500001
-0.035304762 0.072535239 0.67400002
-0.03381905 0.072104767 0.67000002
-0.032542858 0.072104767 0.67000002
-0.031080002 0.071674287 0.66600001
-0.029811431 0.071674287 0.66600001
-0.028500002 0.071566671 0.66500002
-0.027233334 0.071566671 0.66500002
-0.025966669 0.071566671 0.66500002
-0.024625717 0.071351431 0.66300005
-0.023362858 0.071351431 0.66300005
-0.022100002 0.071351431 0.66300005
-0.020805717 0.071243815 0.66200006
-0.019515239 0.071136191 0.66100001
-0.018256191 0.071136191 0.66100001
-0.01692 0.070813335 0.65800005
-0.015666667 0.070813335 0.65800005
-0.01439143 0.070705719 0.65700001
-0.013160001 0.070813335 0.65800005
-0.011888572 0.070705719 0.65700001
-0.010620954 0.070598103 0.65600002
-0.0093142865 0.070167623 0.65200001
-0.0080476198 0.069952384 0.65000004
-0.0067885718 0.069737144 0.648
-0.0055457149 0.069629528 0.64700001
-0.0043133334 0.069629528 0.64700001
-0.0030809527 0.069629528 0.64700001
-0.0018457144 0.069521911 0.64600003
-0.00061523815 0.069521911 0.64600003
0.00061619049 0.069629528 0.64700001
0.0018485716 0.069629528 0.64700001
0.0030809527 0.069629528 0.64700001
0.0043133334 0.069629528 0.64700001
0.0055371434 0.069521911 0.64600003
0.0067676194 0.069521911 0.64600003
0.0079980958 0.069521911 0.64600003
0.0092285722 0.069521911 0.64600003
0.010475239 0.069629528 0.64700001
0.01170762 0.069629528 0.64700001
-0.036642861 0.07392858 0.67500001
-0.035200004 0.073600002 0.67200005
-0.033920001 0.073600002 0.67200005
-0.032494288 0.073271431 0.66900003
-0.031080002 0.07294286 0.66600001
-0.029811431 0.07294286 0.66600001
-0.028500002 0.072833337 0.66500002
-0.027233334 0.072833337 0.66500002
-0.025966669 0.072833337 0.66500002
-0.024700001 0.072833337 0.66500002
-0.023362858 0.07261429 0.66300005
-0.022100002 0.07261429 0.66300005
-0.020805717 0.072504766 0.66200006
-0.019515239 0.072395243 0.66100001
-0.018228572 0.072285719 0.66000003
-0.01692 0.072066672 0.65800005
-0.015642859 0.071957149 0.65700001
-0.01439143 0.071957149 0.65700001
-0.01314 0.071957149 0.65700001
-0.011870477 0.071847625 0.65600002
-0.010620954 0.071847625 0.65600002
-0.0092571434 0.070971437 0.648
-0.0080228578 0.070971437 0.648
-0.0067780958 0.070861906 0.64700001
-0.0055371434 0.070752382 0.64600003
-0.0043000001 0.070642859 0.64500004
-0.0030761906 0.070752382 0.64600003
-0.0018428572 0.070642859 0.64500004
-0.00061428576 0.070642859 0.64500004
0.00061428576 0.070642859 0.64500004
0.0018428572 0.070642859 0.64500004
0.0030714287 0.070642859 0.64500004
0.0043000001 0.070642859 0.64500004
0.005528572 0.070642859 0.64500004
0.0067676194 0.070752382 0.64600003
0.0079980958 0.070752382 0.64600003
0.0092285722 0.070752382 0.64600003
0.010475239 0.070861906 0.64700001
0.01170762 0.070861906 0.64700001
0.012960001 0.070971437 0.648
0.016765716 0.071409531 0.65200001
-0.032494288 0.074545719 0.66900003
-0.031126669 0.074322864 0.66700006
-0.029856192 0.074322864 0.66700006
-0.028500002 0.074100003 0.66500002
-0.027233334 0.074100003 0.66500002
-0.025966669 0.074100003 0.66500002
-0.024700001 0.074100003 0.66500002
-0.023362858 0.073877148 0.66300005
-0.022100002 0.073877148 0.66300005
-0.020805717 0.073765717 0.66200006
-0.019485716 0.073542863 0.66000003
-0.018173335 0.073320001 0.65800005
-0.016894286 0.073208578 0.65700001
-0.015642859 0.073208578 0.65700001
-0.014369525 0.073097147 0.65600002
-0.013120001 0.073097147 0.65600002
-0.011798096 0.072651431 0.65200001
-0.010491429 0.072205722 0.648
-0.0092285722 0.071982861 0.64600003
-0.0079857148 0.07187143 0.64500004
-0.0067571434 0.07187143 0.64500004
-0.0055200006 0.071760006 0.64400005
-0.0043000001 0.07187143 0.64500004
-0.0030714287 0.07187143 0.64500004
-0.0018400002 0.071760006 0.64400005
-0.00061333337 0.071760006 0.64400005
0.00061428576 0.07187143 0.64500004
0.0018428572 0.07187143 0.64500004
0.0030714287 0.07187143 0.64500004
0.0043000001 0.07187143 0.64500004
0.005528572 0.07187143 0.64500004
0.0067676194 0.071982861 0.64600003
0.0079980958 0.071982861 0.64600003
0.0092285722 0.071982861 0.64600003
0.010475239 0.072094291 0.64700001
0.01170762 0.072094291 0.64700001
0.012960001 0.072205722 0.648
0.014194286 0.072205722 0.648
0.015476191 0.072428577 0.65000004
0.016740002 0.072540008 0.65100002
-0.031266667 0.075933337 0.67000002
-0.029945716 0.075820006 0.66900003
-0.028585717 0.075593337 0.66700006
-0.027274288 0.075480007 0.66600001
-0.026005715 0.075480007 0.66600001
-0.024700001 0.075366668 0.66500002
-0.023433335 0.075366668 0.66500002
-0.022100002 0.075140007 0.66300005
-0.020805717 0.075026669 0.66200006
-0.019485716 0.074800007 0.66000003
-0.018173335 0.074573338 0.65800005
-0.016894286 0.074460007 0.65700001
-0.015642859 0.074460007 0.65700001
-0.014303811 0.074006669 0.65300006
-0.012960001 0.073440008 0.648
-0.011725715 0.073440008 0.648
-0.010475239 0.07332667 0.64700001
-0.0092000002 0.07298667 0.64400005
-0.0079733338 0.07298667 0.64400005
-0.006746667 0.07298667 0.64400005
-0.0055028577 0.072760008 0.64200002
-0.0042933337 0.07298667 0.64400005
-0.003057143 0.072760008 0.64200002
-0.0018342858 0.072760008 0.64200002
-0.00061142864 0.072760008 0.64200002
0.00061142864 0.072760008 0.64200002
0.0018342858 0.072760008 0.64200002
0.003057143 0.072760008 0.64200002
0.0042933337 0.07298667 0.64400005
0.0055200006 0.07298667 0.64400005
0.006746667 0.07298667 0.64400005
0.0079733338 0.07298667 0.64400005
0.0092142867 0.073100008 0.64500004
0.010459049 0.073213339 0.64600003
0.011689524 0.073213339 0.64600003
0.012940001 0.07332667 0.64700001
0.014172382 0.07332667 0.64700001
0.015428573 0.073440008 0.648
0.016740002 0.073780008 0.65100002
-0.03136 0.077440009 0.67200005
-0.029990477 0.077209532 0.67000002
-0.02867143 0.077094294 0.66900003
-0.02731524 0.076863818 0.66700006
-0.026005715 0.07674858 0.66600001
-0.024700001 0.076633342 0.66500002
-0.023433335 0.076633342 0.66500002
-0.022100002 0.076402865 0.66300005
-0.020805717 0.076287627 0.66200006
-0.019485716 0.076057151 0.66000003
-0.018173335 0.075826675 0.65800005
-0.016894286 0.075711437 0.65700001
-0.015619049 0.075596198 0.65600002
-0.014238096 0.07490477 0.65000004
-0.012940001 0.074559055 0.64700001
-0.01170762 0.074559055 0.64700001
-0.010459049 0.074443817 0.64600003
-0.0092000002 0.074213341 0.64400005
-0.0079485718 0.073982865 0.64200002
-0.0067257145 0.073982865 0.64200002
-0.0054942863 0.073867626 0.64100003
-0.0042733336 0.073867626 0.64100003
-0.0030523811 0.073867626 0.64100003
-0.0018285715 0.073752388 0.64000005
-0.00061047624 0.073867626 0.64100003
0.00061047624 0.073867626 0.64100003
0.0018314287 0.073867626 0.64100003
0.0030523811 0.073867626 0.64100003
0.0042800005 0.073982865 0.64200002
0.0055028577 0.073982865 0.64200002
0.006746667 0.074213341 0.64400005
0.0079485718 0.073982865 0.64200002
0.0092000002 0.074213341 0.64400005
0.010426668 0.074213341 0.64400005
0.011653334 0.074213341 0.64400005
0.012920001 0.074443817 0.64600003
0.014150477 0.074443817 0.64600003
0.015380953 0.074443817 0.64600003
0.016637145 0.074559055 0.64700001
-0.047198098 0.081765719 0.69800001
-0.042000003 0.082000002 0.70000005
-0.04066667 0.082000002 0.70000005
-0.031453334 0.078954294 0.67400002
-0.030035241 0.078602865 0.671
-0.028714288 0.07848572 0.67000002
-0.027397145 0.078368574 0.66900003
-0.026005715 0.078017145 0.66600001
-0.024700001 0.077900007 0.66500002
-0.023362858 0.077665716 0.66300005
-0.022100002 0.077665716 0.66300005
-0.020805717 0.077548578 0.66200006
-0.019485716 0.077314287 0.66000003
-0.018173335 0.077080004 0.65800005
-0.01692 0.077080004 0.65800005
-0.015476191 0.076142862 0.65000004
-0.014194286 0.075908579 0.648
-0.012940001 0.075791433 0.64700001
-0.01170762 0.075791433 0.64700001
-0.010442858 0.07555715 0.64500004
-0.0091714291 0.075205721 0.64200002
-0.0079361908 0.075088575 0.64100003
-0.0067152386 0.075088575 0.64100003
-0.0054857144 0.07497143 0.64000005
-0.0042666672 0.07497143 0.64000005
-0.0030428574 0.074854292 0.63900006
-0.0018257144 0.074854292 0.63900006
-0.00060952385 0.07497143 0.64000005
0.00060952385 0.07497143 0.64000005
0.0018285715 0.07497143 0.64000005
0.0030476192 0.07497143 0.64000005
0.0042666672 0.07497143 0.64000005
0.0054857144 0.07497143 0.64000005
0.0067152386 0.075088575 0.64100003
0.0079238098 0.07497143 0.64000005
0.009142858 0.07497143 0.64000005
0.010378096 0.075088575 0.64100003
0.011599048 0.075088575 0.64100003
0.012840001 0.075205721 0.64200002
0.014062858 0.075205721 0.64200002
0.015357144 0.07555715 0.64500004
0.016585715 0.07555715 0.64500004
0.017814286 0.07555715 0.64500004
-0.048319049 0.082738101 0.69500005
-0.04713048 0.082976192 0.69700003
-0.045868576 0.083095245 0.69800001
-0.044539049 0.083095245 0.69800001
-0.043209527 0.083095245 0.69800001
-0.042000003 0.083333336 0.70000005
-0.04066667 0.083333336 0.70000005
-0.031453334 0.080238104 0.67400002
-0.030080002 0.080000006 0.67200005
-0.028757146 0.07988096 0.671
-0.027438097 0.079761907 0.67000002
-0.026044764 0.079404764 0.66700006
-0.024737144 0.079285719 0.66600001
-0.023433335 0.079166673 0.66500002
-0.022100002 0.078928575 0.66300005
-0.020805717 0.07880953 0.66200006
-0.019485716 0.078571431 0.66000003
-0.018173335 0.078333341 0.65800005
-0.01692 0.078333341 0.65800005
-0.015428573 0.077142864 0.648
-0.014172382 0.077023812 0.64700001
-0.012920001 0.076904766 0.64600003
-0.011689524 0.076904766 0.64600003
-0.010426668 0.076666668 0.64400005
-0.0091714291 0.076428577 0.64200002
-0.0079361908 0.076309532 0.64100003
-0.0067047626 0.076190479 0.64000005
-0.005477143 0.076071434 0.63900006
-0.0042600003 0.076071434 0.63900006
-0.0030428574 0.076071434 0.63900006
-0.0018257144 0.076071434 0.63900006
-0.00060857146 0.076071434 0.63900006
0.00060857146 0.076071434 0.63900006
0.0018257144 0.076071434 0.63900006
0.0030380955 0.075952388 0.63800001
0.0042600003 0.076071434 0.63900006
0.005477143 0.076071434 0.63900006
0.0066942861 0.076071434 0.63900006
0.0079114288 0.076071434 0.63900006
0.0091285724 0.076071434 0.63900006
0.010361905 0.076190479 0.64000005
0.011562858 0.076071434 0.63900006
0.012800001 0.076190479 0.64000005
0.014062858 0.076428577 0.64200002
0.015333334 0.076666668 0.64400005
0.016560001 0.076666668 0.64400005
0.017786669 0.076666668 0.64400005
0.019013334 0.076666668 0.64400005
0.02027143 0.076785721 0.64500004
0.021466669 0.076666668 0.64400005
-0.049642861 0.084061913 0.69500005
-0.048319049 0.084061913 0.69500005
-0.04713048 0.084303819 0.69700003
-0.045868576 0.084424764 0.69800001
-0.044539049 0.084424764 0.69800001
-0.043209527 0.084424764 0.69800001
-0.041880004 0.084424764 0.69800001
-0.040550478 0.084424764 0.69800001
-0.039164763 0.084303819 0.69700003
-0.037674289 0.08394096 0.69400001
-0.036195241 0.083578102 0.69100004
-0.034879051 0.083578102 0.69100004
-0.033562858 0.083578102 0.69100004
-0.031453334 0.081521913 0.67400002
-0.030080002 0.081280008 0.67200005
-0.028757146 0.081159055 0.671
-0.027438097 0.081038103 0.67000002
-0.026044764 0.080675244 0.66700006
-0.024774287 0.080675244 0.66700006
-0.023433335 0.080433339 0.66500002
-0.022100002 0.080191433 0.66300005
-0.020805717 0.080070481 0.66200006
-0.019485716 0.079828575 0.66000003
-0.018173335 0.07958667 0.65800005
-0.016662858 0.07837715 0.648
-0.015404763 0.078256197 0.64700001
-0.014150477 0.078135245 0.64600003
-0.0129 0.078014292 0.64500004
-0.011671429 0.078014292 0.64500004
-0.010426668 0.077893339 0.64400005
-0.0091571435 0.077530481 0.64100003
-0.0079238098 0.077409528 0.64000005
-0.0066942861 0.077288575 0.63900006
-0.0054685716 0.077167623 0.63800001
-0.0042533334 0.077167623 0.63800001
-0.0030380955 0.077167623 0.63800001
-0.0018228573 0.077167623 0.63800001
-0.00060761906 0.077167623 0.63800001
0.00060761906 0.077167623 0.63800001
0.0018228573 0.077167623 0.63800001
0.0030285716 0.076925717 0.63600004
0.0042400002 0.076925717 0.63600004
0.0054514287 0.076925717 0.63600004
0.0066838101 0.077167623 0.63800001
0.0078990478 0.077167623 0.63800001
0.0091285724 0.077288575 0.63900006
0.010345715 0.077288575 0.63900006
0.011562858 0.077288575 0.63900006
0.01278 0.077288575 0.63900006
0.014040953 0.077530481 0.64100003
0.015261906 0.077530481 0.64100003
0.016560001 0.077893339 0.64400005
0.01773143 0.077651434 0.64200002
0.018954286 0.077651434 0.64200002
0.020240001 0.077893339 0.64400005
0.021466669 0.077893339 0.64400005
0.022693334 0.077893339 0.64400005
0.023920001 0.077893339 0.64400005
-0.048319049 0.085385717 0.69500005
-0.04713048 0.085631438 0.69700003
-0.045868576 0.08575429 0.69800001
-0.044539049 0.08575429 0.69800001
-0.043209527 0.08575429 0.69800001
-0.041880004 0.08575429 0.69800001
-0.040492382 0.085631438 0.69700003
-0.039164763 0.085631438 0.69700003
-0.037674289 0.085262865 0.69400001
-0.036195241 0.084894292 0.69100004
-0.034879051 0.084894292 0.69100004
-0.032785717 0.082928576 0.67500001
-0.031500001 0.082928576 0.67500001
-0.030169526 0.082805723 0.67400002
-0.028800001 0.082560003 0.67200005
-0.027479049 0.08243715 0.671
-0.026122859 0.082191437 0.66900003
-0.024774287 0.081945717 0.66700006
-0.023433335 0.081700005 0.66500002
-0.022100002 0.081454292 0.66300005
-0.020837145 0.081454292 0.66300005
-0.019338097 0.080471434 0.65500003
-0.018090477 0.080471434 0.65500003
-0.016662858 0.079611436 0.648
-0.015404763 0.079488575 0.64700001
-0.014128572 0.079242863 0.64500004
-0.012880001 0.079120003 0.64400005
-0.011653334 0.079120003 0.64400005
-0.010394286 0.07887429 0.64200002
-0.009142858 0.078628577 0.64000005
-0.0078990478 0.078382865 0.63800001
-0.0066838101 0.078382865 0.63800001
-0.0054514287 0.078137144 0.63600004
-0.0042400002 0.078137144 0.63600004
-0.0030285716 0.078137144 0.63600004
-0.0018171429 0.078137144 0.63600004
-0.00060476194 0.078014292 0.63500005
0.00060476194 0.078014292 0.63500005
0.0018171429 0.078137144 0.63600004
0.0030238098 0.078014292 0.63500005
0.0042266669 0.077891432 0.634
0.0054342858 0.077891432 0.634
0.0066523813 0.078014292 0.63500005
0.0078742858 0.078137144 0.63600004
0.0091142859 0.078382865 0.63800001
0.010297144 0.078137144 0.63600004
0.011544763 0.078382865 0.63800001
0.01278 0.078505717 0.63900006
0.014019049 0.078628577 0.64000005
0.015238096 0.078628577 0.64000005
0.016508572 0.07887429 0.64200002
0.01773143 0.07887429 0.64200002
0.018954286 0.07887429 0.64200002
0.020240001 0.079120003 0.64400005
0.021466669 0.079120003 0.64400005
0.022728574 0.079242863 0.64500004
0.023957144 0.079242863 0.64500004
-0.04713048 0.086959057 0.69700003
-0.045868576 0.087083817 0.69800001
-0.043209527 0.087083817 0.69800001
-0.041880004 0.087083817 0.69800001
-0.040492382 0.086959057 0.69700003
-0.039052382 0.086709529 0.69500005
-0.037620004 0.086460009 0.69300002
-0.036195241 0.086210482 0.69100004
-0.034879051 0.086210482 0.69100004
-0.033562858 0.086210482 0.69100004
-0.031453334 0.084089532 0.67400002
-0.030169526 0.084089532 0.67400002
-0.028800001 0.083840005 0.67200005
-0.027479049 0.083715245 0.671
-0.026122859 0.083465718 0.66900003
-0.024774287 0.083216198 0.66700006
-0.023433335 0.08296667 0.66500002
-0.022100002 0.08271715 0.66300005
-0.020837145 0.08271715 0.66300005
-0.019101907 0.080720961 0.64700001
-0.017869525 0.080720961 0.64700001
-0.016637145 0.080720961 0.64700001
-0.015380953 0.080596194 0.64600003
-0.014128572 0.080471434 0.64500004
-0.012880001 0.080346674 0.64400005
-0.011599048 0.079972386 0.64100003
-0.010378096 0.079972386 0.64100003
-0.0091285724 0.079722859 0.63900006
-0.0078990478 0.079598099 0.63800001
-0.0066628577 0.079348579 0.63600004
-0.0054514287 0.079348579 0.63600004
-0.0042400002 0.079348579 0.63600004
-0.0030190479 0.079099052 0.634
-0.0018114287 0.079099052 0.634
-0.00060380955 0.079099052 0.634
0.00060380955 0.079099052 0.634
0.0018114287 0.079099052 0.634
0.0030142858 0.078974292 0.63300002
0.0042200005 0.078974292 0.63300002
0.0054257144 0.078974292 0.63300002
0.0066419053 0.079099052 0.634
0.0078619057 0.079223812 0.63500005
0.0090857148 0.079348579 0.63600004
0.010297144 0.079348579 0.63600004
0.011508572 0.079348579 0.63600004
0.012760001 0.079598099 0.63800001
0.013997144 0.079722859 0.63900006
0.015214287 0.079722859 0.63900006
0.016482858 0.079972386 0.64100003
0.017703811 0.079972386 0.64100003
0.018924763 0.079972386 0.64100003
0.020177145 0.080097146 0.64200002
0.021466669 0.080346674 0.64400005
0.022693334 0.080346674 0.64400005
0.023920001 0.080346674 0.64400005
-0.040492382 0.088286676 0.69700003
-0.036195241 0.087526672 0.69100004
-0.034828573 0.087400004 0.69000006
-0.033320002 0.086893342 0.68600005
-0.031733334 0.086133339 0.68000001
-0.030169526 0.085373342 0.67400002
-0.028885717 0.085373342 0.67400002
-0.027479049 0.08499334 0.671
-0.026122859 0.084740005 0.66900003
-0.022066668 0.083853342 0.66200006
-0.017869525 0.081953339 0.64700001
-0.016611429 0.081826672 0.64600003
-0.015357144 0.081700005 0.64500004
-0.014106668 0.081573337 0.64400005
-0.012840001 0.081320003 0.64200002
-0.011580953 0.081066675 0.64000005
-0.010361905 0.081066675 0.64000005
-0.0091142859 0.080813341 0.63800001
-0.0078742858 0.080560006 0.63600004
-0.0066628577 0.080560006 0.63600004
-0.0054428573 0.080433339 0.63500005
-0.0042333337 0.080433339 0.63500005
-0.0030142858 0.080180004 0.63300002
-0.0018085715 0.080180004 0.63300002
-0.00060285721 0.080180004 0.63300002
0.00060190482 0.080053337 0.63200003
0.0018057144 0.080053337 0.63200003
0.003009524 0.080053337 0.63200003
0.0042133336 0.080053337 0.63200003
0.005417143 0.080053337 0.63200003
0.0066314288 0.080180004 0.63300002
0.0078371437 0.080180004 0.63300002
0.0090571437 0.080306672 0.634
0.010280953 0.080433339 0.63500005
0.011508572 0.080560006 0.63600004
0.012720001 0.080560006 0.63600004
0.013975239 0.080813341 0.63800001
0.015190477 0.080813341 0.63800001
0.016457144 0.081066675 0.64000005
0.017676191 0.081066675 0.64000005
0.018924763 0.081193335 0.64100003
0.020145716 0.081193335 0.64100003
0.021400001 0.081320003 0.64200002
0.022693334 0.081573337 0.64400005
0.023920001 0.081573337 0.64400005
-0.041820005 0.089614294 0.69700003
-0.040376194 0.089357145 0.69500005
-0.038996194 0.089228578 0.69400001
-0.037511431 0.088842861 0.69100004
-0.036195241 0.088842861 0.69100004
-0.034828573 0.088714294 0.69000006
-0.033320002 0.088200003 0.68600005
-0.031733334 0.087428577 0.68000001
-0.030348573 0.087171435 0.67800003
-0.028928574 0.086785719 0.67500001
-0.027642859 0.086785719 0.67500001
-0.017841905 0.08305715 0.64600003
-0.016560001 0.082800008 0.64400005
-0.015285715 0.082542859 0.64200002
-0.014062858 0.082542859 0.64200002
-0.01278 0.08215715 0.63900006
-0.011544763 0.082028575 0.63800001
-0.010329524 0.082028575 0.63800001
-0.0090714293 0.081642866 0.63500005
-0.0078495247 0.081514291 0.634
-0.0066419053 0.081514291 0.634
-0.0054257144 0.081385717 0.63300002
-0.0042066667 0.081128575 0.63100004
-0.0030047621 0.081128575 0.63100004
-0.001797143 0.080871433 0.62900001
-0.00059904763 0.080871433 0.62900001
0.00059904763 0.080871433 0.62900001
0.0017942858 0.080742866 0.62800002
0.0029904763 0.080742866 0.62800002
0.0041933334 0.080871433 0.62900001
0.0053914287 0.080871433 0.62900001
0.0065895244 0.080871433 0.62900001
0.0077876197 0.080871433 0.62900001
0.0090142861 0.081128575 0.63100004
0.010232382 0.08125715 0.63200003
0.011436191 0.08125715 0.63200003
0.01266 0.081385717 0.63300002
0.01388762 0.081514291 0.634
0.01509524 0.081514291 0.634
0.016328573 0.081642866 0.63500005
0.017565716 0.081771433 0.63600004
0.018836191 0.082028575 0.63800001
0.020082859 0.08215715 0.63900006
0.021300001 0.08215715 0.63900006
0.02258762 0.082414292 0.64100003
0.023808572 0.082414292 0.64100003
-0.041820005 0.090941913 0.69700003
-0.040318098 0.090550482 0.69400001
-0.038996194 0.090550482 0.69400001
-0.037511431 0.090159051 0.69100004
-0.036195241 0.090159051 0.69100004
-0.034828573 0.090028577 0.69000006
-0.033320002 0.089506671 0.68600005
-0.031733334 0.088723816 0.68000001
-0.030348573 0.088462859 0.67800003
-0.028928574 0.088071436 0.67500001
-0.017814286 0.084157147 0.64500004
-0.016560001 0.084026672 0.64400005
-0.015285715 0.083765723 0.64200002
-0.014040953 0.083635241 0.64100003
-0.01278 0.083374292 0.63900006
-0.011544763 0.083243817 0.63800001
-0.010297144 0.082982861 0.63600004
-0.0090714293 0.082852386 0.63500005
-0.0078495247 0.082721911 0.634
-0.0066314288 0.082591437 0.63300002
-0.0054257144 0.082591437 0.63300002
-0.0041933334 0.082069531 0.62900001
-0.0029904763 0.081939057 0.62800002
-0.0017942858 0.081939057 0.62800002
-0.0005980953 0.081939057 0.62800002
0.0005980953 0.081939057 0.62800002
0.0017914287 0.081808574 0.62700003
0.0029857145 0.081808574 0.62700003
0.004186667 0.081939057 0.62800002
0.0053742859 0.081808574 0.62700003
0.006568572 0.081808574 0.62700003
0.0077752387 0.081939057 0.62800002
0.0089714294 0.081939057 0.62800002
0.010216191 0.08233048 0.63100004
0.011418096 0.08233048 0.63100004
0.012620001 0.08233048 0.63100004
0.01384381 0.082460955 0.63200003
0.015071429 0.082591437 0.63300002
0.016302858 0.082721911 0.634
0.017510477 0.082721911 0.634
0.018718097 0.082721911 0.634
0.019957144 0.082852386 0.63500005
0.021166667 0.082852386 0.63500005
0.022481907 0.083243817 0.63800001
0.023697145 0.083243817 0.63800001
-0.043023814 0.092004769 0.69500005
-0.041640002 0.091872387 0.69400001
-0.040318098 0.091872387 0.69400001
-0.038940001 0.091740005 0.69300002
-0.037620004 0.091740005 0.69300002
-0.036300004 0.091740005 0.69300002
-0.034525715 0.090548575 0.68400002
-0.033222858 0.090548575 0.68400002
-0.031733334 0.090019055 0.68000001
-0.030393336 0.089886673 0.67900002
-0.029057145 0.089754291 0.67800003
-0.017841905 0.085518099 0.64600003
-0.016560001 0.085253336 0.64400005
-0.015285715 0.084988579 0.64200002
-0.014019049 0.084723815 0.64000005
-0.012760001 0.084459051 0.63800001
-0.011508572 0.084194288 0.63600004
-0.010280953 0.084061913 0.63500005
-0.0090571437 0.083929531 0.634
-0.0078371437 0.083797149 0.63300002
-0.0066209529 0.083664767 0.63200003
-0.005417143 0.083664767 0.63200003
-0.0041933334 0.083267622 0.62900001
-0.0029904763 0.083135247 0.62800002
-0.0017942858 0.083135247 0.62800002
-0.00059714291 0.083002865 0.62700003
0.00059714291 0.083002865 0.62700003
0.0017885716 0.082870483 0.62600005
0.0029809526 0.082870483 0.62600005
0.0041800002 0.083002865 0.62700003
0.0053657144 0.082870483 0.62600005
0.0065580956 0.082870483 0.62600005
0.0077628577 0.083002865 0.62700003
0.0089571439 0.083002865 0.62700003
0.01016762 0.083135247 0.62800002
0.01136381 0.083135247 0.62800002
0.012580001 0.083267622 0.62900001
0.013821905 0.083532386 0.63100004
0.015023811 0.083532386 0.63100004
0.016277144 0.083797149 0.63300002
0.017482858 0.083797149 0.63300002
0.018688573 0.083797149 0.63300002
0.019925715 0.083929531 0.634
0.021166667 0.084061913 0.63500005
0.02241143 0.084194288 0.63600004
0.023622859 0.084194288 0.63600004
-0.037714288 0.096685722 0.72000003
-0.034525715 0.091851436 0.68400002
-0.033222858 0.091851436 0.68400002
-0.031826667 0.091582865 0.68200004
-0.030393336 0.091180004 0.67900002
-0.029100003 0.091180004 0.67900002
-0.027765715 0.091045722 0.67800003
-0.017841905 0.086748578 0.64600003
-0.016560001 0.086480007 0.64400005
-0.015238096 0.085942864 0.64000005
-0.013997144 0.085808575 0.63900006
-0.012720001 0.085405722 0.63600004
-0.011490477 0.085271433 0.63500005
-0.010264763 0.085137151 0.634
-0.0090428581 0.085002862 0.63300002
-0.0078371437 0.085002862 0.63300002
-0.0066104764 0.084734291 0.63100004
-0.0053828573 0.08433143 0.62800002
-0.004186667 0.08433143 0.62800002
-0.0029857145 0.084197149 0.62700003
-0.0017885716 0.084062859 0.62600005
-0.00059619051 0.084062859 0.62600005
0.00059619051 0.084062859 0.62600005
0.0017857144 0.083928578 0.625
0.0029761908 0.083928578 0.625
0.0041733338 0.084062859 0.62600005
0.005357143 0.083928578 0.625
0.0065476196 0.083928578 0.625
0.0077504767 0.084062859 0.62600005
0.0089428574 0.084062859 0.62600005
0.010151429 0.084197149 0.62700003
0.011345715 0.084197149 0.62700003
0.01254 0.084197149 0.62700003
0.013756191 0.08433143 0.62800002
0.014976191 0.08446572 0.62900001
0.016225716 0.084734291 0.63100004
0.01742762 0.084734291 0.63100004
0.01865905 0.08486858 0.63200003
0.019862859 0.08486858 0.63200003
0.021133335 0.085137151 0.634
0.022376193 0.085271433 0.63500005
0.024990479 0.085942864 0.64000005
-0.034525715 0.093154289 0.68400002
-0.033222858 0.093154289 0.68400002
-0.031733334 0.092609532 0.68000001
-0.030393336 0.092473343 0.67900002
-0.029100003 0.092473343 0.67900002
-0.027765715 0.092337146 0.67800003
-0.020365715 0.088251434 0.648
-0.019072382 0.087979056 0.64600003
-0.017841905 0.087979056 0.64600003
-0.016585715 0.087842859 0.64500004
-0.015357144 0.087842859 0.64500004
-0.013909524 0.08648096 0.63500005
-0.012700001 0.08648096 0.63500005
-0.011472382 0.086344771 0.634
-0.010248573 0.086208574 0.63300002
-0.0090428581 0.086208574 0.63300002
-0.0078247627 0.086072385 0.63200003
-0.0065895244 0.085663818 0.62900001
-0.0053742859 0.085391432 0.62700003
-0.0041800002 0.085391432 0.62700003
-0.0029809526 0.085255243 0.62600005
