# .PCD v0.7 - Point Cloud Data file format
VERSION 0.7
FIELDS x y z
SIZE 4 4 4
TYPE F F F
COUNT 1 1 1
WIDTH 1355
HEIGHT 1
VIEWPOINT 0 0 0 1 0 0 0
POINTS 1355
DATA ascii
0.082351431 0.039501909 0.70300001
0.083690479 0.039501909 0.70300001
0.10526001 0.04669429 0.83100003
-0.12624191 0.040318098 0.69400001
-0.1251 0.040376194 0.69500005
-0.12431049 0.040550478 0.69800001
-0.12245239 0.040376194 0.69500005
-0.12095429 0.040318098 0.69400001
-0.11963239 0.040318098 0.69400001
-0.11583334 0.040376194 0.69500005
-0.11450953 0.040376194 0.69500005
-0.11302286 0.040318098 0.69400001
-0.11186191 0.040376194 0.69500005
-0.12210001 0.045140002 0.77700001
-0.12030953 0.045023814 0.77500004
-0.11914001 0.045140002 0.77700001
-0.11766001 0.045140002 0.77700001
-0.11618001 0.045140002 0.77700001
-0.1147 0.045140002 0.77700001
-0.11322001 0.045140002 0.77700001
-0.11145239 0.045023814 0.77500004
-0.11026001 0.045140002 0.77700001
-0.10878 0.045140002 0.77700001
-0.1077143 0.04531429 0.78000003
-0.10622858 0.04531429 0.78000003
-0.10501143 0.045430478 0.78200006
-0.10352191 0.045430478 0.78200006
-0.10229334 0.04554667 0.78400004
-0.10080001 0.04554667 0.78400004
-0.099306673 0.04554667 0.78400004
-0.097563818 0.045430478 0.78200006
-0.096074291 0.045430478 0.78200006
-0.094584771 0.045430478 0.78200006
-0.092857152 0.04531429 0.78000003
-0.091020003 0.045140002 0.77700001
-0.089540005 0.045140002 0.77700001
-0.087833337 0.045023814 0.77500004
-0.086134292 0.044907622 0.77300006
-0.084552385 0.044849526 0.77200001
-0.082866669 0.044733338 0.77000004
-0.081400007 0.044733338 0.77000004
-0.07972572 0.044617146 0.76800001
-0.070721909 0.040318098 0.69400001
-0.069400005 0.040318098 0.69400001
-0.068078101 0.040318098 0.69400001
-0.066756196 0.040318098 0.69400001
-0.065434292 0.040318098 0.69400001
-0.064112388 0.040318098 0.69400001
-0.062700003 0.040260002 0.69300002
-0.057707623 0.04455905 0.76700002
-0.056246672 0.04455905 0.76700002
-0.054500002 0.04432667 0.76300001
-0.05304667 0.04432667 0.76300001
-0.051458098 0.044210479 0.76100004
-0.050140005 0.04432667 0.76300001
-0.048559051 0.044210479 0.76100004
-0.047109526 0.044210479 0.76100004
-0.045780003 0.04432667 0.76300001
-0.044442859 0.044442859 0.76500005
-0.04337905 0.044849526 0.77200001
-0.041908573 0.044849526 0.77200001
-0.040438097 0.044849526 0.77200001
-0.039018098 0.044907622 0.77300006
-0.037642859 0.045023814 0.77500004
-0.036353335 0.045256194 0.77900004
-0.035272382 0.045779049 0.78800005
-0.033814289 0.045837145 0.78900003
-0.032393336 0.045953337 0.79100001
-0.030886669 0.045953337 0.79100001
-0.029380001 0.045953337 0.79100001
-0.027873335 0.045953337 0.79100001
-0.026300002 0.045837145 0.78900003
-0.024860002 0.045953337 0.79100001
-0.023412382 0.046069525 0.79300004
-0.0058457148 0.039620955 0.68200004
-0.004546667 0.039620955 0.68200004
-0.0032476194 0.039620955 0.68200004
-0.0019485715 0.039620955 0.68200004
-0.00064952386 0.039620955 0.68200004
0.00065047626 0.03967905 0.68300003
0.0019542859 0.039737146 0.68400002
0.0032571431 0.039737146 0.68400002
0.0045600003 0.039737146 0.68400002
0.0058628577 0.039737146 0.68400002
0.0071657146 0.039737146 0.68400002
0.0084685721 0.039737146 0.68400002
0.016404763 0.040027622 0.68900001
0.017717144 0.040027622 0.68900001
0.019029524 0.040027622 0.68900001
0.020341907 0.040027622 0.68900001
0.021654287 0.040027622 0.68900001
0.023000002 0.040085718 0.69000006
0.024349526 0.040143814 0.69100004
0.025665715 0.040143814 0.69100004
0.026981907 0.040143814 0.69100004
0.028380001 0.040260002 0.69300002
0.029785717 0.040376194 0.69500005
0.031109527 0.040376194 0.69500005
0.032573335 0.040550478 0.69800001
0.034048572 0.040724766 0.70100003
0.035383813 0.040724766 0.70100003
0.036876194 0.040899049 0.70400006
0.038217146 0.040899049 0.70400006
0.039558098 0.040899049 0.70400006
0.040957145 0.040957145 0.70500004
0.042240001 0.040899049 0.70400006
0.043580957 0.040899049 0.70400006
0.044858098 0.040840954 0.70300001
0.04626286 0.040899049 0.70400006
0.047536194 0.040840954 0.70300001
0.048875242 0.040840954 0.70300001
0.050071433 0.040724766 0.70100003
0.05140667 0.040724766 0.70100003
0.052892383 0.040840954 0.70300001
0.054077145 0.040724766 0.70100003
0.055412386 0.040724766 0.70100003
0.056747623 0.040724766 0.70100003
0.058248576 0.040840954 0.70300001
0.059587624 0.040840954 0.70300001
0.060926672 0.040840954 0.70300001
0.06226572 0.040840954 0.70300001
0.063695244 0.040899049 0.70400006
0.065036193 0.040899049 0.70400006
0.066377148 0.040899049 0.70400006
0.067718096 0.040899049 0.70400006
0.069059052 0.040899049 0.70400006
0.070400007 0.040899049 0.70400006
0.071740955 0.040899049 0.70400006
0.073081911 0.040899049 0.70400006
0.074422859 0.040899049 0.70400006
0.075763814 0.040899049 0.70400006
0.07710477 0.040899049 0.70400006
0.078445718 0.040899049 0.70400006
0.079673335 0.040840954 0.70300001
0.081012383 0.040840954 0.70300001
0.082351431 0.040840954 0.70300001
0.083690479 0.040840954 0.70300001
0.085029528 0.040840954 0.70300001
0.086368576 0.040840954 0.70300001
-0.12756382 0.041640002 0.69400001
-0.12606001 0.041580003 0.69300002
-0.12492001 0.041640002 0.69400001
-0.12431049 0.041880004 0.69800001
-0.12245239 0.041700002 0.69500005
-0.12095429 0.041640002 0.69400001
-0.11963239 0.041640002 0.69400001
-0.11848096 0.041700002 0.69500005
-0.11715715 0.041700002 0.69500005
-0.11583334 0.041700002 0.69500005
-0.11434477 0.041640002 0.69400001
-0.11302286 0.041640002 0.69400001
-0.12178572 0.046500005 0.77500004
-0.12030953 0.046500005 0.77500004
-0.11883334 0.046500005 0.77500004
-0.11735715 0.046500005 0.77500004
-0.11588096 0.046500005 0.77500004
-0.11440477 0.046500005 0.77500004
-0.11292858 0.046500005 0.77500004
-0.11145239 0.046500005 0.77500004
-0.10997619 0.046500005 0.77500004
-0.10878 0.046620004 0.77700001
-0.10730001 0.046620004 0.77700001
-0.10622858 0.046800002 0.78000003
-0.10501143 0.046920002 0.78200006
-0.10378668 0.047040004 0.78400004
-0.10229334 0.047040004 0.78400004
-0.10080001 0.047040004 0.78400004
-0.099306673 0.047040004 0.78400004
-0.097813338 0.047040004 0.78400004
-0.096320003 0.047040004 0.78400004
-0.094584771 0.046920002 0.78200006
-0.093095243 0.046920002 0.78200006
-0.091020003 0.046620004 0.77700001
-0.089309528 0.046500005 0.77500004
-0.087606676 0.046380002 0.77300006
-0.086134292 0.046380002 0.77300006
-0.084552385 0.046320003 0.77200001
-0.082866669 0.046200003 0.77000004
-0.081188574 0.046080004 0.76800001
-0.079621911 0.046020001 0.76700002
-0.070721909 0.041640002 0.69400001
-0.069400005 0.041640002 0.69400001
-0.068078101 0.041640002 0.69400001
-0.066660002 0.041580003 0.69300002
-0.065340005 0.041580003 0.69300002
-0.064020008 0.041580003 0.69300002
-0.057707623 0.046020001 0.76700002
-0.056246672 0.046020001 0.76700002
-0.054500002 0.045780003 0.76300001
-0.05304667 0.045780003 0.76300001
-0.051458098 0.045660004 0.76100004
-0.050008576 0.045660004 0.76100004
-0.048559051 0.045660004 0.76100004
-0.047047623 0.045600004 0.76000005
-0.045660004 0.045660004 0.76100004
-0.04432667 0.045780003 0.76300001
-0.043266669 0.046200003 0.77000004
-0.041800003 0.046200003 0.77000004
-0.040333334 0.046200003 0.77000004
-0.039018098 0.046380002 0.77300006
-0.037545718 0.046380002 0.77300006
-0.036353335 0.046740003 0.77900004
-0.03518286 0.047160003 0.78600001
-0.033685718 0.047160003 0.78600001
-0.032311432 0.047340002 0.78900003
-0.030886669 0.047460005 0.79100001
-0.029380001 0.047460005 0.79100001
-0.027802859 0.047340002 0.78900003
-0.005828572 0.040800001 0.68000001
-0.0045333337 0.040800001 0.68000001
-0.0032380954 0.040800001 0.68000001
-0.0019400001 0.040740002 0.67900002
-0.00064761908 0.040800001 0.68000001
0.00064952386 0.040920004 0.68200004
0.0019514287 0.040980004 0.68300003
0.0032523812 0.040980004 0.68300003
0.0045533339 0.040980004 0.68300003
0.0058628577 0.041040003 0.68400002
0.0071866671 0.041160002 0.68600005
0.0084933341 0.041160002 0.68600005
0.016357144 0.041220002 0.68700004
0.017665716 0.041220002 0.68700004
0.018974287 0.041220002 0.68700004
0.020341907 0.041340001 0.68900001
0.021654287 0.041340001 0.68900001
0.023000002 0.041400004 0.69000006
0.024314288 0.041400004 0.69000006
0.025665715 0.041460004 0.69100004
0.026981907 0.041460004 0.69100004
0.028380001 0.041580003 0.69300002
0.029742859 0.041640002 0.69400001
0.031064764 0.041640002 0.69400001
0.032526668 0.041820005 0.69700003
0.034000002 0.042000003 0.70000005
0.035383813 0.042060003 0.70100003
0.036823813 0.042180002 0.70300001
0.038162861 0.042180002 0.70300001
0.039501909 0.042180002 0.70300001
0.040899049 0.042240001 0.70400006
0.042180002 0.042180002 0.70300001
0.04351905 0.042180002 0.70300001
0.044730481 0.042060003 0.70100003
0.046197146 0.042180002 0.70300001
0.047400955 0.042060003 0.70100003
0.048736192 0.042060003 0.70100003
0.050071433 0.042060003 0.70100003
0.05140667 0.042060003 0.70100003
0.052741908 0.042060003 0.70100003
0.054077145 0.042060003 0.70100003
0.055333339 0.042000003 0.70000005
0.056666672 0.042000003 0.70000005
0.05808286 0.042060003 0.70100003
0.059418101 0.042060003 0.70100003
0.060753338 0.042060003 0.70100003
0.062088575 0.042060003 0.70100003
0.063604765 0.042180002 0.70300001
0.064943813 0.042180002 0.70300001
0.066282861 0.042180002 0.70300001
0.067621909 0.042180002 0.70300001
0.068960957 0.042180002 0.70300001
0.070400007 0.042240001 0.70400006
0.071740955 0.042240001 0.70400006
0.072978102 0.042180002 0.70300001
0.07431715 0.042180002 0.70300001
0.075656198 0.042180002 0.70300001
0.076995246 0.042180002 0.70300001
0.078334294 0.042180002 0.70300001
0.079673335 0.042180002 0.70300001
0.081012383 0.042180002 0.70300001
0.082117148 0.042060003 0.70100003
0.083690479 0.042180002 0.70300001
0.085029528 0.042180002 0.70300001
0.086122863 0.042060003 0.70100003
-0.12907144 0.043023814 0.69500005
-0.12756382 0.042961907 0.69400001
-0.12624191 0.042961907 0.69400001
-0.12492001 0.042961907 0.69400001
-0.1237762 0.043023814 0.69500005
-0.12245239 0.043023814 0.69500005
-0.12112858 0.043023814 0.69500005
-0.11980477 0.043023814 0.69500005
-0.11882191 0.043147624 0.69700003
-0.11715715 0.043023814 0.69500005
-0.11583334 0.043023814 0.69500005
-0.11450953 0.043023814 0.69500005
-0.12294382 0.047852386 0.77300006
-0.12178572 0.047976192 0.77500004
-0.12030953 0.047976192 0.77500004
-0.11883334 0.047976192 0.77500004
-0.11735715 0.047976192 0.77500004
-0.11588096 0.047976192 0.77500004
-0.11440477 0.047976192 0.77500004
-0.11292858 0.047976192 0.77500004
-0.11145239 0.047976192 0.77500004
-0.10997619 0.047976192 0.77500004
-0.1085 0.047976192 0.77500004
-0.10730001 0.048100002 0.77700001
-0.10622858 0.048285719 0.78000003
-0.10474286 0.048285719 0.78000003
-0.10378668 0.048533335 0.78400004
-0.10229334 0.048533335 0.78400004
-0.10080001 0.048533335 0.78400004
-0.099306673 0.048533335 0.78400004
-0.097813338 0.048533335 0.78400004
-0.096320003 0.048533335 0.78400004
-0.094584771 0.048409525 0.78200006
-0.093095243 0.048409525 0.78200006
-0.091020003 0.048100002 0.77700001
-0.089309528 0.047976192 0.77500004
-0.087493338 0.047790479 0.77200001
-0.085800007 0.047666669 0.77000004
-0.084333338 0.047666669 0.77000004
-0.082651436 0.047542859 0.76800001
-0.081188574 0.047542859 0.76800001
-0.079621911 0.047480956 0.76700002
-0.070721909 0.042961907 0.69400001
-0.069400005 0.042961907 0.69400001
-0.068078101 0.042961907 0.69400001
-0.066756196 0.042961907 0.69400001
-0.065340005 0.042900003 0.69300002
-0.055953339 0.047233336 0.76300001
-0.054500002 0.047233336 0.76300001
-0.05304667 0.047233336 0.76300001
-0.051458098 0.047109526 0.76100004
-0.049942862 0.047047623 0.76000005
-0.048495241 0.047047623 0.76000005
-0.047047623 0.047047623 0.76000005
-0.045600004 0.047047623 0.76000005
-0.044210479 0.047109526 0.76100004
-0.042760957 0.047109526 0.76100004
-0.041420002 0.047233336 0.76300001
-0.040228575 0.047542859 0.76800001
-0.038967621 0.047790479 0.77200001
-0.037545718 0.047852386 0.77300006
-0.036353335 0.048223812 0.77900004
-0.034869526 0.048223812 0.77900004
-0.033600003 0.048533335 0.78400004
-0.03227048 0.048780955 0.78800005
-0.030769525 0.048780955 0.78800005
-0.029305717 0.048842859 0.78900003
-0.027802859 0.048842859 0.78900003
-0.008406667 0.042033337 0.67900002
-0.0071238098 0.04209524 0.68000001
-0.005828572 0.04209524 0.68000001
-0.0045333337 0.04209524 0.68000001
-0.0032333336 0.042033337 0.67900002
-0.0019400001 0.042033337 0.67900002
-0.00064666668 0.042033337 0.67900002
0.00064761908 0.04209524 0.68000001
0.0019485715 0.04221905 0.68200004
0.0032476194 0.04221905 0.68200004
0.004546667 0.04221905 0.68200004
0.0058542863 0.042280953 0.68300003
0.0071657146 0.04234286 0.68400002
0.0084685721 0.04234286 0.68400002
0.0097571434 0.042280953 0.68300003
0.011058096 0.042280953 0.68300003
0.016333334 0.04246667 0.68600005
0.017665716 0.042528573 0.68700004
0.018974287 0.042528573 0.68700004
0.020341907 0.042652383 0.68900001
0.021654287 0.042652383 0.68900001
0.023000002 0.04271429 0.69000006
0.024314288 0.04271429 0.69000006
0.025628572 0.04271429 0.69000006
0.026981907 0.042776193 0.69100004
0.028298097 0.042776193 0.69100004
0.029700002 0.042900003 0.69300002
0.031020002 0.042900003 0.69300002
0.032386668 0.042961907 0.69400001
0.033854287 0.043147624 0.69700003
0.035232384 0.043209527 0.69800001
0.036666669 0.043333337 0.70000005
0.038054287 0.04339524 0.70100003
0.039501909 0.04351905 0.70300001
0.040840954 0.04351905 0.70300001
0.042180002 0.04351905 0.70300001
0.04339524 0.04339524 0.70100003
0.044730481 0.04339524 0.70100003
0.046065718 0.04339524 0.70100003
0.047400955 0.04339524 0.70100003
0.048736192 0.04339524 0.70100003
0.050000004 0.043333337 0.70000005
0.051333338 0.043333337 0.70000005
0.052741908 0.04339524 0.70100003
0.054077145 0.04339524 0.70100003
0.055333339 0.043333337 0.70000005
0.056666672 0.043333337 0.70000005
0.058000002 0.043333337 0.70000005
0.059418101 0.04339524 0.70100003
0.060753338 0.04339524 0.70100003
0.062088575 0.04339524 0.70100003
0.063423812 0.04339524 0.70100003
0.064759053 0.04339524 0.70100003
0.066094287 0.04339524 0.70100003
0.067429528 0.04339524 0.70100003
0.068764769 0.04339524 0.70100003
0.070300005 0.04351905 0.70300001
0.071639054 0.04351905 0.70300001
0.072978102 0.04351905 0.70300001
0.07431715 0.04351905 0.70300001
0.075656198 0.04351905 0.70300001
0.076995246 0.04351905 0.70300001
0.078334294 0.04351905 0.70300001
0.079446673 0.04339524 0.70100003
0.080781907 0.04339524 0.70100003
0.082117148 0.04339524 0.70100003
0.083452389 0.04339524 0.70100003
0.084787622 0.04339524 0.70100003
0.086122863 0.04339524 0.70100003
0.087458104 0.04339524 0.70100003
-0.12907144 0.044347622 0.69500005
-0.12756382 0.044283811 0.69400001
-0.12624191 0.044283811 0.69400001
-0.12492001 0.044283811 0.69400001
-0.1237762 0.044347622 0.69500005
-0.1222762 0.044283811 0.69400001
-0.12095429 0.044283811 0.69400001
-0.11963239 0.044283811 0.69400001
-0.11848096 0.044347622 0.69500005
-0.11715715 0.044347622 0.69500005
-0.11583334 0.044347622 0.69500005
-0.1244162 0.049324766 0.77300006
-0.12294382 0.049324766 0.77300006
-0.12178572 0.049452383 0.77500004
-0.12030953 0.049452383 0.77500004
-0.11883334 0.049452383 0.77500004
-0.11735715 0.049452383 0.77500004
-0.11588096 0.049452383 0.77500004
-0.11440477 0.049452383 0.77500004
-0.11292858 0.049452383 0.77500004
-0.11145239 0.049452383 0.77500004
-0.10997619 0.049452383 0.77500004
-0.1085 0.049452383 0.77500004
-0.10702381 0.049452383 0.77500004
-0.10609239 0.049707621 0.77900004
-0.093194291 0.044283811 0.69400001
-0.10352191 0.049899049 0.78200006
-0.10080001 0.05002667 0.78400004
-0.099306673 0.05002667 0.78400004
-0.097563818 0.049899049 0.78200006
-0.096074291 0.049899049 0.78200006
-0.094342865 0.049771432 0.78000003
-0.092500009 0.049580004 0.77700001
-0.090785719 0.049452383 0.77500004
-0.088733338 0.049133338 0.77000004
-0.087040007 0.049005717 0.76800001
-0.085577145 0.049005717 0.76800001
-0.084114291 0.049005717 0.76800001
-0.082543813 0.048941907 0.76700002
-0.081082866 0.048941907 0.76700002
-0.072043814 0.044283811 0.69400001
-0.070721909 0.044283811 0.69400001
-0.069400005 0.044283811 0.69400001
-0.054357145 0.048559051 0.76100004
-0.052907623 0.048559051 0.76100004
-0.05139048 0.048495241 0.76000005
-0.04981143 0.048367623 0.75800002
-0.048367623 0.048367623 0.75800002
-0.046923812 0.048367623 0.75800002
-0.045600004 0.048495241 0.76000005
-0.044152383 0.048495241 0.76000005
-0.042760957 0.048559051 0.76100004
-0.041420002 0.048686668 0.76300001
-0.039966669 0.048686668 0.76300001
-0.038866669 0.049133338 0.77000004
-0.037400004 0.049133338 0.77000004
-0.036260001 0.049580004 0.77700001
-0.034869526 0.049707621 0.77900004
-0.033600003 0.05002667 0.78400004
-0.032106668 0.05002667 0.78400004
-0.03069143 0.050154287 0.78600001
-0.029194288 0.050154287 0.78600001
-0.027697144 0.050154287 0.78600001
-0.011058096 0.043581907 0.68300003
-0.0097000003 0.043326668 0.67900002
-0.008419048 0.043390479 0.68000001
-0.0071238098 0.043390479 0.68000001
-0.005828572 0.043390479 0.68000001
-0.0045333337 0.043390479 0.68000001
-0.0032333336 0.043326668 0.67900002
-0.0019400001 0.043326668 0.67900002
-0.00064666668 0.043326668 0.67900002
0.00064761908 0.043390479 0.68000001
0.0019485715 0.0435181 0.68200004
0.0032476194 0.0435181 0.68200004
0.004546667 0.0435181 0.68200004
0.0058542863 0.043581907 0.68300003
0.0071552387 0.043581907 0.68300003
0.008456191 0.043581907 0.68300003
0.0097571434 0.043581907 0.68300003
0.017640002 0.043773334 0.68600005
0.018946668 0.043773334 0.68600005
0.020341907 0.043964766 0.68900001
0.021654287 0.043964766 0.68900001
0.023000002 0.044028573 0.69000006
0.024314288 0.044028573 0.69000006
0.025665715 0.044092383 0.69100004
0.026981907 0.044092383 0.69100004
0.028298097 0.044092383 0.69100004
0.029700002 0.044220004 0.69300002
0.031020002 0.044220004 0.69300002
0.032386668 0.044283811 0.69400001
0.033854287 0.044475242 0.69700003
0.035181906 0.044475242 0.69700003
0.036561906 0.044539049 0.69800001
0.038000003 0.04466667 0.70000005
0.039389525 0.044730481 0.70100003
0.040724766 0.044730481 0.70100003
0.042060003 0.044730481 0.70100003
0.043333337 0.04466667 0.70000005
0.04466667 0.04466667 0.70000005
0.046000004 0.04466667 0.70000005
0.047333337 0.04466667 0.70000005
0.048527621 0.044539049 0.69800001
0.049857147 0.044539049 0.69800001
0.05118667 0.044539049 0.69800001
0.052440956 0.044475242 0.69700003
0.054000005 0.04466667 0.70000005
0.055175241 0.044539049 0.69800001
0.056504767 0.044539049 0.69800001
0.058000002 0.04466667 0.70000005
0.059333336 0.04466667 0.70000005
0.060753338 0.044730481 0.70100003
0.062000003 0.04466667 0.70000005
0.063423812 0.044730481 0.70100003
0.064759053 0.044730481 0.70100003
0.066094287 0.044730481 0.70100003
0.067429528 0.044730481 0.70100003
0.068764769 0.044730481 0.70100003
0.070100002 0.044730481 0.70100003
0.071435243 0.044730481 0.70100003
0.072770484 0.044730481 0.70100003
0.074105717 0.044730481 0.70100003
0.075440958 0.044730481 0.70100003
0.076776199 0.044730481 0.70100003
0.078111432 0.044730481 0.70100003
0.079446673 0.044730481 0.70100003
0.080781907 0.044730481 0.70100003
0.082117148 0.044730481 0.70100003
0.083452389 0.044730481 0.70100003
0.084787622 0.044730481 0.70100003
0.086122863 0.044730481 0.70100003
0.087333336 0.04466667 0.70000005
-0.12888572 0.045605719 0.69400001
-0.12738001 0.045540001 0.69300002
-0.12606001 0.045540001 0.69300002
-0.12474 0.045540001 0.69300002
-0.12359811 0.045605719 0.69400001
-0.1222762 0.045605719 0.69400001
-0.12095429 0.045605719 0.69400001
-0.11963239 0.045605719 0.69400001
-0.11848096 0.045671433 0.69500005
-0.11715715 0.045671433 0.69500005
-0.11566667 0.045605719 0.69400001
-0.12425525 0.050731432 0.77200001
-0.12278477 0.050731432 0.77200001
-0.12147143 0.050797146 0.77300006
-0.11999906 0.050797146 0.77300006
-0.11852667 0.050797146 0.77300006
-0.11735715 0.050928574 0.77500004
-0.11558191 0.050797146 0.77300006
-0.11440477 0.050928574 0.77500004
-0.11292858 0.050928574 0.77500004
-0.11145239 0.050928574 0.77500004
-0.10997619 0.050928574 0.77500004
-0.1085 0.050928574 0.77500004
-0.095700003 0.045540001 0.69300002
-0.094380006 0.045540001 0.69300002
-0.093060009 0.045540001 0.69300002
-0.091740005 0.045540001 0.69300002
-0.090159051 0.045408573 0.69100004
-0.088842861 0.045408573 0.69100004
-0.087526672 0.045408573 0.69100004
-0.086085722 0.045342859 0.69000006
-0.09226191 0.050928574 0.77500004
-0.090551436 0.050797146 0.77300006
-0.088157147 0.050271433 0.76500005
-0.086700007 0.050271433 0.76500005
-0.08524286 0.050271433 0.76500005
-0.084004767 0.050402861 0.76700002
-0.08232858 0.050271433 0.76500005
-0.080871433 0.050271433 0.76500005
-0.072147623 0.045671433 0.69500005
-0.070721909 0.045605719 0.69400001
-0.069400005 0.045605719 0.69400001
-0.05580667 0.050008576 0.76100004
-0.054357145 0.050008576 0.76100004
-0.052699052 0.04981143 0.75800002
-0.051255241 0.04981143 0.75800002
-0.049680002 0.049680002 0.75600004
-0.048176195 0.049614288 0.75500005
-0.046738099 0.049614288 0.75500005
-0.045360003 0.049680002 0.75600004
-0.043920003 0.049680002 0.75600004
-0.042592384 0.04981143 0.75800002
-0.041311432 0.050008576 0.76100004
-0.039809525 0.049942862 0.76000005
-0.038866669 0.050600003 0.77000004
-0.037400004 0.050600003 0.77000004
-0.036260001 0.051060002 0.77700001
-0.034780003 0.051060002 0.77700001
-0.033514287 0.051388577 0.78200006
-0.032024764 0.051388577 0.78200006
-0.030613335 0.051520005 0.78400004
-0.029120002 0.051520005 0.78400004
-0.012340954 0.044817146 0.68200004
-0.011041906 0.044817146 0.68200004
-0.0097428579 0.044817146 0.68200004
-0.008419048 0.044685718 0.68000001
-0.0071447622 0.044817146 0.68200004
-0.0058457148 0.044817146 0.68200004
-0.0045333337 0.044685718 0.68000001
-0.0032380954 0.044685718 0.68000001
-0.0019428573 0.044685718 0.68000001
-0.00064761908 0.044685718 0.68000001
0.00064761908 0.044685718 0.68000001
0.0019428573 0.044685718 0.68000001
0.0032476194 0.044817146 0.68200004
0.004546667 0.044817146 0.68200004
0.0058542863 0.04488286 0.68300003
0.0071552387 0.04488286 0.68300003
0.008456191 0.04488286 0.68300003
0.0097571434 0.04488286 0.68300003
0.011058096 0.04488286 0.68300003
0.012359048 0.04488286 0.68300003
0.013660001 0.04488286 0.68300003
0.014982858 0.044948574 0.68400002
0.016285716 0.044948574 0.68400002
0.017640002 0.045080002 0.68600005
0.018946668 0.045080002 0.68600005
0.020282859 0.045145717 0.68700004
0.021654287 0.045277145 0.68900001
0.023000002 0.045342859 0.69000006
0.024314288 0.045342859 0.69000006
0.025628572 0.045342859 0.69000006
0.026981907 0.045408573 0.69100004
0.028298097 0.045408573 0.69100004
0.029614288 0.045408573 0.69100004
0.031020002 0.045540001 0.69300002
0.032386668 0.045605719 0.69400001
0.033854287 0.045802861 0.69700003
0.035181906 0.045802861 0.69700003
0.036561906 0.045868576 0.69800001
0.038000003 0.046000004 0.70000005
0.039333336 0.046000004 0.70000005
0.040724766 0.046065718 0.70100003
0.042000003 0.046000004 0.70000005
0.043333337 0.046000004 0.70000005
0.04466667 0.046000004 0.70000005
0.045868576 0.045868576 0.69800001
0.047198098 0.045868576 0.69800001
0.048527621 0.045868576 0.69800001
0.049785718 0.045802861 0.69700003
0.051113337 0.045802861 0.69700003
0.052440956 0.045802861 0.69700003
0.053845719 0.045868576 0.69800001
0.055096194 0.045802861 0.69700003
0.056504767 0.045868576 0.69800001
0.05783429 0.045868576 0.69800001
0.059333336 0.046000004 0.70000005
0.060666669 0.046000004 0.70000005
0.062000003 0.046000004 0.70000005
0.06333334 0.046000004 0.70000005
0.064666674 0.046000004 0.70000005
0.066094287 0.046065718 0.70100003
0.067333341 0.046000004 0.70000005
0.068666674 0.046000004 0.70000005
0.070000008 0.046000004 0.70000005
0.071333341 0.046000004 0.70000005
0.072666675 0.046000004 0.70000005
0.074000008 0.046000004 0.70000005
0.075333342 0.046000004 0.70000005
0.076666668 0.046000004 0.70000005
0.078000002 0.046000004 0.70000005
0.079333335 0.046000004 0.70000005
0.080666669 0.046000004 0.70000005
0.082117148 0.046065718 0.70100003
0.083452389 0.046065718 0.70100003
0.084787622 0.046065718 0.70100003
0.086122863 0.046065718 0.70100003
-0.1287 0.046860002 0.69300002
-0.12738001 0.046860002 0.69300002
-0.12606001 0.046860002 0.69300002
-0.12474 0.046860002 0.69300002
-0.12359811 0.046927623 0.69400001
-0.12210001 0.046860002 0.69300002
-0.12078001 0.046860002 0.69300002
-0.11963239 0.046927623 0.69400001
-0.11831048 0.046927623 0.69400001
-0.11698858 0.046927623 0.69400001
-0.11566667 0.046927623 0.69400001
-0.11385048 0.046724766 0.69100004
-0.12246668 0.052066669 0.77000004
-0.12147143 0.052269526 0.77300006
-0.11999906 0.052269526 0.77300006
-0.11852667 0.052269526 0.77300006
-0.11705429 0.052269526 0.77300006
-0.11558191 0.052269526 0.77300006
-0.11410953 0.052269526 0.77300006
-0.11263715 0.052269526 0.77300006
-0.11145239 0.052404765 0.77500004
-0.10969239 0.052269526 0.77300006
-0.096740007 0.046724766 0.69100004
-0.095700003 0.046860002 0.69300002
-0.094380006 0.046860002 0.69300002
-0.093060009 0.046860002 0.69300002
-0.091740005 0.046860002 0.69300002
-0.090159051 0.046724766 0.69100004
-0.088842861 0.046724766 0.69100004
-0.087526672 0.046724766 0.69100004
-0.086085722 0.046657145 0.69000006
-0.084771432 0.046657145 0.69000006
-0.090200007 0.052066669 0.77000004
-0.088157147 0.051728576 0.76500005
-0.086700007 0.051728576 0.76500005
-0.08524286 0.051728576 0.76500005
-0.08378572 0.051728576 0.76500005
-0.08211334 0.051593337 0.76300001
-0.080660008 0.051593337 0.76300001
-0.072147623 0.046995241 0.69500005
-0.070721909 0.046927623 0.69400001
-0.069300003 0.046860002 0.69300002
-0.057088576 0.046589527 0.68900001
-0.055776194 0.046589527 0.68900001
-0.054463815 0.046589527 0.68900001
-0.053151432 0.046589527 0.68900001
-0.054285716 0.05139048 0.76000005
-0.052560002 0.051120002 0.75600004
-0.051120002 0.051120002 0.75600004
-0.049614288 0.051052384 0.75500005
-0.048176195 0.051052384 0.75500005
-0.046614289 0.050917145 0.75300002
-0.045300003 0.051052384 0.75500005
-0.043861907 0.051052384 0.75500005
-0.042480003 0.051120002 0.75600004
-0.041148573 0.051255241 0.75800002
-0.039704766 0.051255241 0.75800002
-0.038260955 0.051255241 0.75800002
-0.036962859 0.051458098 0.76100004
-0.035513334 0.051458098 0.76100004
-0.034063812 0.051458098 0.76100004
-0.032614287 0.051458098 0.76100004
-0.03124667 0.051593337 0.76300001
-0.029793335 0.051593337 0.76300001
-0.012304762 0.045980956 0.68000001
-0.011009525 0.045980956 0.68000001
-0.0097142868 0.045980956 0.68000001
-0.008419048 0.045980956 0.68000001
-0.0071238098 0.045980956 0.68000001
-0.005828572 0.045980956 0.68000001
-0.0045333337 0.045980956 0.68000001
-0.0032380954 0.045980956 0.68000001
-0.0019428573 0.045980956 0.68000001
-0.00064761908 0.045980956 0.68000001
0.00064952386 0.046116192 0.68200004
0.0019485715 0.046116192 0.68200004
0.0032476194 0.046116192 0.68200004
0.004546667 0.046116192 0.68200004
0.0058457148 0.046116192 0.68200004
0.0071447622 0.046116192 0.68200004
0.008456191 0.046183813 0.68300003
0.0097571434 0.046183813 0.68300003
0.011074287 0.046251431 0.68400002
0.012377144 0.046251431 0.68400002
0.013660001 0.046183813 0.68300003
0.014982858 0.046251431 0.68400002
0.016285716 0.046251431 0.68400002
0.017640002 0.04638667 0.68600005
0.018946668 0.04638667 0.68600005
0.020282859 0.046454288 0.68700004
0.021654287 0.046589527 0.68900001
0.023000002 0.046657145 0.69000006
0.024314288 0.046657145 0.69000006
0.025628572 0.046657145 0.69000006
0.026981907 0.046724766 0.69100004
0.028298097 0.046724766 0.69100004
0.029614288 0.046724766 0.69100004
0.031020002 0.046860002 0.69300002
0.032340001 0.046860002 0.69300002
0.033757146 0.046995241 0.69500005
0.035181906 0.04713048 0.69700003
0.036561906 0.047198098 0.69800001
0.037891433 0.047198098 0.69800001
0.039333336 0.047333337 0.70000005
0.04066667 0.047333337 0.70000005
0.042000003 0.047333337 0.70000005
0.043209527 0.047198098 0.69800001
0.044539049 0.047198098 0.69800001
0.045868576 0.047198098 0.69800001
0.047198098 0.047198098 0.69800001
0.048458099 0.04713048 0.69700003
0.049785718 0.04713048 0.69700003
0.051113337 0.04713048 0.69700003
0.052440956 0.04713048 0.69700003
0.053768575 0.04713048 0.69700003
0.055096194 0.04713048 0.69700003
0.056423813 0.04713048 0.69700003
0.05783429 0.047198098 0.69800001
0.059163813 0.047198098 0.69800001
0.060493339 0.047198098 0.69800001
0.061822861 0.047198098 0.69800001
0.063152388 0.047198098 0.69800001
0.064666674 0.047333337 0.70000005
0.066000007 0.047333337 0.70000005
0.067333341 0.047333337 0.70000005
0.068666674 0.047333337 0.70000005
0.070000008 0.047333337 0.70000005
0.071333341 0.047333337 0.70000005
0.072666675 0.047333337 0.70000005
0.074000008 0.047333337 0.70000005
0.075333342 0.047333337 0.70000005
0.076666668 0.047333337 0.70000005
0.078000002 0.047333337 0.70000005
0.079333335 0.047333337 0.70000005
0.080666669 0.047333337 0.70000005
0.082000002 0.047333337 0.70000005
0.083333336 0.047333337 0.70000005
0.084666669 0.047333337 0.70000005
0.086000003 0.047333337 0.70000005
-0.12738001 0.048180003 0.69300002
-0.12624191 0.048249528 0.69400001
-0.12492001 0.048249528 0.69400001
-0.12359811 0.048249528 0.69400001
-0.12210001 0.048180003 0.69300002
-0.12095429 0.048249528 0.69400001
-0.11963239 0.048249528 0.69400001
-0.11831048 0.048249528 0.69400001
-0.11698858 0.048249528 0.69400001
-0.11550001 0.048180003 0.69300002
-0.11385048 0.048040956 0.69100004
-0.11237144 0.047971431 0.69000006
-0.1112181 0.048040956 0.69100004
-0.12068572 0.053394288 0.76800001
-0.11922286 0.053394288 0.76800001
-0.11806668 0.053533338 0.77000004
-0.11660001 0.053533338 0.77000004
-0.11513334 0.053533338 0.77000004
-0.11396191 0.053672384 0.77200001
-0.11249144 0.053672384 0.77200001
-0.11116477 0.05374191 0.77300006
-0.10955048 0.053672384 0.77200001
-0.096740007 0.048040956 0.69100004
-0.095700003 0.048180003 0.69300002
-0.094380006 0.048180003 0.69300002
-0.093060009 0.048180003 0.69300002
-0.091740005 0.048180003 0.69300002
-0.090420008 0.048180003 0.69300002
-0.088842861 0.048040956 0.69100004
-0.087526672 0.048040956 0.69100004
-0.086085722 0.047971431 0.69000006
-0.084771432 0.047971431 0.69000006
-0.08345715 0.047971431 0.69000006
-0.089614294 0.053185716 0.76500005
-0.087696195 0.052907623 0.76100004
-0.086246669 0.052907623 0.76100004
-0.084797151 0.052907623 0.76100004
-0.083238102 0.052838098 0.76000005
-0.081790484 0.052838098 0.76000005
-0.080448575 0.052907623 0.76100004
-0.072043814 0.048249528 0.69400001
-0.070721909 0.048249528 0.69400001
-0.069400005 0.048249528 0.69400001
-0.067783818 0.048040956 0.69100004
-0.06646762 0.048040956 0.69100004
-0.06102572 0.047901906 0.68900001
-0.059713338 0.047901906 0.68900001
-0.058485717 0.047971431 0.69000006
-0.057088576 0.047901906 0.68900001
-0.055776194 0.047901906 0.68900001
-0.054463815 0.047901906 0.68900001
-0.053151432 0.047901906 0.68900001
-0.05183905 0.047901906 0.68900001
-0.050526671 0.047901906 0.68900001
-0.049214289 0.047901906 0.68900001
-0.052560002 0.052560002 0.75600004
-0.050849527 0.052281909 0.75200003
-0.049614288 0.05249048 0.75500005
-0.048048574 0.052351434 0.75300002
-0.046552382 0.052281909 0.75200003
-0.045120005 0.052281909 0.75200003
-0.043687623 0.052281909 0.75200003
-0.042255241 0.052281909 0.75200003
-0.040877145 0.052351434 0.75300002
-0.039547622 0.05249048 0.75500005
-0.038109526 0.05249048 0.75500005
-0.036817145 0.052699052 0.75800002
-0.035280004 0.052560002 0.75600004
-0.033929527 0.052699052 0.75800002
-0.032614287 0.052907623 0.76100004
-0.031123811 0.052838098 0.76000005
-0.029676192 0.052838098 0.76000005
-0.028228574 0.052838098 0.76000005
-0.026780954 0.052838098 0.76000005
-0.025333336 0.052838098 0.76000005
-0.023885716 0.052838098 0.76000005
-0.020076191 0.047276195 0.68000001
-0.018780954 0.047276195 0.68000001
-0.017485715 0.047276195 0.68000001
-0.016190477 0.047276195 0.68000001
-0.014895239 0.047276195 0.68000001
-0.013600001 0.047276195 0.68000001
-0.012304762 0.047276195 0.68000001
-0.010993334 0.04720667 0.67900002
-0.0097000003 0.04720667 0.67900002
-0.008406667 0.04720667 0.67900002
-0.0071133338 0.04720667 0.67900002
-0.0058200005 0.04720667 0.67900002
-0.0045266668 0.04720667 0.67900002
-0.0032333336 0.04720667 0.67900002
-0.0019400001 0.04720667 0.67900002
-0.00064666668 0.04720667 0.67900002
0.00064952386 0.047415242 0.68200004
0.0019485715 0.047415242 0.68200004
0.0032380954 0.047276195 0.68000001
0.004546667 0.047415242 0.68200004
0.0058457148 0.047415242 0.68200004
0.0071447622 0.047415242 0.68200004
0.008456191 0.047484767 0.68300003
0.0097428579 0.047415242 0.68200004
0.011058096 0.047484767 0.68300003
0.012377144 0.047554288 0.68400002
0.013680001 0.047554288 0.68400002
0.014982858 0.047554288 0.68400002
0.016333334 0.047693338 0.68600005
0.017640002 0.047693338 0.68600005
0.018946668 0.047693338 0.68600005
0.020282859 0.04776286 0.68700004
0.021591431 0.04776286 0.68700004
0.022966668 0.047901906 0.68900001
0.024279049 0.047901906 0.68900001
0.025628572 0.047971431 0.69000006
0.026981907 0.048040956 0.69100004
0.028298097 0.048040956 0.69100004
0.029614288 0.048040956 0.69100004
0.030930478 0.048040956 0.69100004
0.032340001 0.048180003 0.69300002
0.033708572 0.048249528 0.69400001
0.035080954 0.048319049 0.69500005
0.036509525 0.048458099 0.69700003
0.037837144 0.048458099 0.69700003
0.039220955 0.048527621 0.69800001
0.040550478 0.048527621 0.69800001
0.041880004 0.048527621 0.69800001
0.043209527 0.048527621 0.69800001
0.044539049 0.048527621 0.69800001
0.045802861 0.048458099 0.69700003
0.04713048 0.048458099 0.69700003
0.048458099 0.048458099 0.69700003
0.049785718 0.048458099 0.69700003
0.051113337 0.048458099 0.69700003
0.052440956 0.048458099 0.69700003
0.053768575 0.048458099 0.69700003
0.0549381 0.048319049 0.69500005
0.056423813 0.048458099 0.69700003
0.057751432 0.048458099 0.69700003
0.059079051 0.048458099 0.69700003
0.06040667 0.048458099 0.69700003
0.061734289 0.048458099 0.69700003
0.063061908 0.048458099 0.69700003
0.064389527 0.048458099 0.69700003
0.066000007 0.048666671 0.70000005
0.067140959 0.048527621 0.69800001
0.068372384 0.048458099 0.69700003
0.069700003 0.048458099 0.69700003
0.071129531 0.048527621 0.69800001
0.07245905 0.048527621 0.69800001
0.07368286 0.048458099 0.69700003
0.075010478 0.048458099 0.69700003
0.076338097 0.048458099 0.69700003
0.077665716 0.048458099 0.69700003
0.079106674 0.048527621 0.69800001
0.080320954 0.048458099 0.69700003
0.081765719 0.048527621 0.69800001
0.083095245 0.048527621 0.69800001
0.084424764 0.048527621 0.69800001
-0.12888572 0.049571432 0.69400001
-0.12756382 0.049571432 0.69400001
-0.12624191 0.049571432 0.69400001
-0.12492001 0.049571432 0.69400001
-0.12359811 0.049571432 0.69400001
-0.12210001 0.049500003 0.69300002
-0.12078001 0.049500003 0.69300002
-0.11946001 0.049500003 0.69300002
-0.11814 0.049500003 0.69300002
-0.11682001 0.049500003 0.69300002
-0.11550001 0.049500003 0.69300002
-0.11385048 0.049357146 0.69100004
-0.12312858 0.05464286 0.76500005
-0.12167144 0.05464286 0.76500005
-0.12052858 0.054785717 0.76700002
-0.11922286 0.054857146 0.76800001
-0.11776001 0.054857146 0.76800001
-0.11629715 0.054857146 0.76800001
-0.11483429 0.054857146 0.76800001
-0.11366668 0.055000003 0.77000004
-0.11220001 0.055000003 0.77000004
-0.11102096 0.055142861 0.77200001
-0.10926668 0.055000003 0.77000004
-0.10808001 0.055142861 0.77200001
-0.095700003 0.049500003 0.69300002
-0.094380006 0.049500003 0.69300002
-0.093060009 0.049500003 0.69300002
-0.091740005 0.049500003 0.69300002
-0.090420008 0.049500003 0.69300002
-0.089100003 0.049500003 0.69300002
-0.087526672 0.049357146 0.69100004
-0.086085722 0.049285717 0.69000006
-0.084771432 0.049285717 0.69000006
-0.08345715 0.049285717 0.69000006
-0.08214286 0.049285717 0.69000006
-0.080945723 0.049357146 0.69100004
-0.079629526 0.049357146 0.69100004
-0.078200005 0.049285717 0.69000006
-0.077220008 0.049500003 0.69300002
-0.076009527 0.049571432 0.69400001
-0.074364766 0.049357146 0.69100004
-0.073365718 0.049571432 0.69400001
-0.072043814 0.049571432 0.69400001
-0.070721909 0.049571432 0.69400001
-0.069300003 0.049500003 0.69300002
-0.067783818 0.049357146 0.69100004
-0.063742861 0.049285717 0.69000006
-0.062428575 0.049285717 0.69000006
-0.06102572 0.049214289 0.68900001
-0.059713338 0.049214289 0.68900001
-0.058400955 0.049214289 0.68900001
-0.057088576 0.049214289 0.68900001
-0.055776194 0.049214289 0.68900001
-0.054463815 0.049214289 0.68900001
-0.053151432 0.049214289 0.68900001
-0.05183905 0.049214289 0.68900001
-0.050526671 0.049214289 0.68900001
-0.049214289 0.049214289 0.68900001
-0.050849527 0.05371429 0.75200003
-0.049417146 0.05371429 0.75200003
-0.048048574 0.053785719 0.75300002
-0.046552382 0.05371429 0.75200003
-0.045120005 0.05371429 0.75200003
-0.043687623 0.05371429 0.75200003
-0.042255241 0.05371429 0.75200003
-0.04082286 0.05371429 0.75200003
-0.03944286 0.053785719 0.75300002
-0.038109526 0.053928576 0.75500005
-0.036720004 0.054000005 0.75600004
-0.035280004 0.054000005 0.75600004
-0.033840001 0.054000005 0.75600004
-0.032485716 0.054142863 0.75800002
-0.031041907 0.054142863 0.75800002
-0.029598096 0.054142863 0.75800002
-0.028154287 0.054142863 0.75800002
-0.026710479 0.054142863 0.75800002
-0.025266668 0.054142863 0.75800002
-0.023885716 0.054285716 0.76000005
-0.020046668 0.048500001 0.67900002
-0.018753335 0.048500001 0.67900002
-0.017460002 0.048500001 0.67900002
-0.016166668 0.048500001 0.67900002
-0.014873334 0.048500001 0.67900002
-0.013580001 0.048500001 0.67900002
-0.012286668 0.048500001 0.67900002
-0.010993334 0.048500001 0.67900002
-0.0096857147 0.048428576 0.67800003
-0.008406667 0.048500001 0.67900002
-0.0071133338 0.048500001 0.67900002
-0.0058200005 0.048500001 0.67900002
-0.0045266668 0.048500001 0.67900002
-0.0032333336 0.048500001 0.67900002
-0.0019400001 0.048500001 0.67900002
-0.00064666668 0.048500001 0.67900002
0.00064761908 0.04857143 0.68000001
0.0019428573 0.04857143 0.68000001
0.0032380954 0.04857143 0.68000001
0.0045333337 0.04857143 0.68000001
0.005828572 0.04857143 0.68000001
0.0071447622 0.048714288 0.68200004
0.00844381 0.048714288 0.68200004
0.0097428579 0.048714288 0.68200004
0.011058096 0.048785716 0.68300003
0.012377144 0.048857145 0.68400002
0.013680001 0.048857145 0.68400002
0.015026668 0.049000002 0.68600005
0.016333334 0.049000002 0.68600005
0.017640002 0.049000002 0.68600005
0.018946668 0.049000002 0.68600005
0.020282859 0.049071431 0.68700004
0.021591431 0.049071431 0.68700004
0.022900002 0.049071431 0.68700004
0.024279049 0.049214289 0.68900001
0.025628572 0.049285717 0.69000006
0.026981907 0.049357146 0.69100004
0.028298097 0.049357146 0.69100004
0.029614288 0.049357146 0.69100004
0.031020002 0.049500003 0.69300002
0.032340001 0.049500003 0.69300002
0.033708572 0.049571432 0.69400001
0.035080954 0.049642861 0.69500005
0.036509525 0.049785718 0.69700003
0.037837144 0.049785718 0.69700003
0.039220955 0.049857147 0.69800001
0.040550478 0.049857147 0.69800001
0.041880004 0.049857147 0.69800001
0.043147624 0.049785718 0.69700003
0.044539049 0.049857147 0.69800001
0.045802861 0.049785718 0.69700003
0.04713048 0.049785718 0.69700003
0.048458099 0.049785718 0.69700003
0.049785718 0.049785718 0.69700003
0.051113337 0.049785718 0.69700003
0.052440956 0.049785718 0.69700003
0.053614289 0.049642861 0.69500005
0.0549381 0.049642861 0.69500005
0.056261908 0.049642861 0.69500005
0.057751432 0.049785718 0.69700003
0.059079051 0.049785718 0.69700003
0.06040667 0.049785718 0.69700003
0.061734289 0.049785718 0.69700003
0.063061908 0.049785718 0.69700003
0.064481907 0.049857147 0.69800001
0.066000007 0.050000004 0.70000005
0.067044765 0.049785718 0.69700003
0.068372384 0.049785718 0.69700003
0.069700003 0.049785718 0.69700003
0.071027622 0.049785718 0.69700003
0.072355241 0.049785718 0.69700003
0.07368286 0.049785718 0.69700003
0.075010478 0.049785718 0.69700003
0.076338097 0.049785718 0.69700003
0.077665716 0.049785718 0.69700003
0.078993335 0.049785718 0.69700003
0.080320954 0.049785718 0.69700003
0.081648573 0.049785718 0.69700003
0.082976192 0.049785718 0.69700003
0.084303819 0.049785718 0.69700003
-0.13002001 0.050820004 0.69300002
-0.12888572 0.050893337 0.69400001
-0.12756382 0.050893337 0.69400001
-0.12624191 0.050893337 0.69400001
-0.12492001 0.050893337 0.69400001
-0.12359811 0.050893337 0.69400001
-0.12210001 0.050820004 0.69300002
-0.12078001 0.050820004 0.69300002
-0.11946001 0.050820004 0.69300002
-0.11814 0.050820004 0.69300002
-0.11682001 0.050820004 0.69300002
-0.11516667 0.050673336 0.69100004
-0.11385048 0.050673336 0.69100004
-0.12312858 0.056100003 0.76500005
-0.12135334 0.055953339 0.76300001
-0.12021429 0.056100003 0.76500005
-0.11875715 0.056100003 0.76500005
-0.11776001 0.056320004 0.76800001
-0.11629715 0.056320004 0.76800001
-0.11483429 0.056320004 0.76800001
-0.11366668 0.056466669 0.77000004
-0.091740005 0.050820004 0.69300002
-0.090159051 0.050673336 0.69100004
-0.088842861 0.050673336 0.69100004
-0.087526672 0.050673336 0.69100004
-0.086085722 0.050600003 0.69000006
-0.084894292 0.050673336 0.69100004
-0.083820008 0.050820004 0.69300002
-0.082261913 0.050673336 0.69100004
-0.080945723 0.050673336 0.69100004
-0.079629526 0.050673336 0.69100004
-0.078540005 0.050820004 0.69300002
-0.077331431 0.050893337 0.69400001
-0.076009527 0.050893337 0.69400001
-0.074364766 0.050673336 0.69100004
-0.073365718 0.050893337 0.69400001
-0.072043814 0.050893337 0.69400001
-0.070721909 0.050893337 0.69400001
-0.069300003 0.050820004 0.69300002
-0.067685716 0.050600003 0.69000006
-0.066371433 0.050600003 0.69000006
-0.064962864 0.050526671 0.68900001
-0.063742861 0.050600003 0.69000006
-0.062338099 0.050526671 0.68900001
-0.06102572 0.050526671 0.68900001
-0.059713338 0.050526671 0.68900001
-0.058400955 0.050526671 0.68900001
-0.057088576 0.050526671 0.68900001
-0.055776194 0.050526671 0.68900001
-0.054463815 0.050526671 0.68900001
-0.053151432 0.050526671 0.68900001
-0.05183905 0.050526671 0.68900001
-0.050526671 0.050526671 0.68900001
-0.049214289 0.050526671 0.68900001
-0.050849527 0.055146672 0.75200003
-0.049417146 0.055146672 0.75200003
-0.047857147 0.055000003 0.75000006
-0.046552382 0.055146672 0.75200003
-0.045000002 0.055000003 0.75000006
-0.043571431 0.055000003 0.75000006
-0.042142861 0.055000003 0.75000006
-0.04071429 0.055000003 0.75000006
-0.039390478 0.055146672 0.75200003
-0.038008574 0.055220004 0.75300002
-0.03667143 0.055366669 0.75500005
-0.035233337 0.055366669 0.75500005
-0.033795241 0.055366669 0.75500005
-0.032400001 0.055440005 0.75600004
-0.030960003 0.055440005 0.75600004
-0.029520001 0.055440005 0.75600004
-0.028080001 0.055440005 0.75600004
-0.026640002 0.055440005 0.75600004
-0.025200002 0.055440005 0.75600004
-0.023822859 0.05558667 0.75800002
-0.020046668 0.049793337 0.67900002
-0.018753335 0.049793337 0.67900002
-0.017460002 0.049793337 0.67900002
-0.016166668 0.049793337 0.67900002
-0.014873334 0.049793337 0.67900002
-0.013580001 0.049793337 0.67900002
-0.012286668 0.049793337 0.67900002
-0.010993334 0.049793337 0.67900002
-0.0096857147 0.049720004 0.67800003
-0.008406667 0.049793337 0.67900002
-0.0071028578 0.049720004 0.67800003
-0.0058200005 0.049793337 0.67900002
-0.0045266668 0.049793337 0.67900002
-0.0032285717 0.049720004 0.67800003
-0.0019400001 0.049793337 0.67900002
-0.00064666668 0.049793337 0.67900002
0.00064761908 0.049866669 0.68000001
0.0019428573 0.049866669 0.68000001
0.0032380954 0.049866669 0.68000001
0.0045333337 0.049866669 0.68000001
0.0058457148 0.050013337 0.68200004
0.0071447622 0.050013337 0.68200004
0.00844381 0.050013337 0.68200004
0.0097571434 0.05008667 0.68300003
0.011074287 0.050160002 0.68400002
0.012377144 0.050160002 0.68400002
0.013680001 0.050160002 0.68400002
0.015026668 0.05030667 0.68600005
0.016333334 0.05030667 0.68600005
0.017640002 0.05030667 0.68600005
0.018946668 0.05030667 0.68600005
0.020253334 0.05030667 0.68600005
0.021591431 0.050380003 0.68700004
0.022900002 0.050380003 0.68700004
0.024208574 0.050380003 0.68700004
0.025628572 0.050600003 0.69000006
0.026942858 0.050600003 0.69000006
0.028298097 0.050673336 0.69100004
0.029614288 0.050673336 0.69100004
0.031020002 0.050820004 0.69300002
0.032340001 0.050820004 0.69300002
0.033708572 0.050893337 0.69400001
0.035080954 0.050966669 0.69500005
0.036404766 0.050966669 0.69500005
0.037837144 0.051113337 0.69700003
0.039164763 0.051113337 0.69700003
0.040550478 0.05118667 0.69800001
0.041880004 0.05118667 0.69800001
0.043147624 0.051113337 0.69700003
0.044475242 0.051113337 0.69700003
0.045802861 0.051113337 0.69700003
0.04713048 0.051113337 0.69700003
0.048319049 0.050966669 0.69500005
0.049642861 0.050966669 0.69500005
0.051113337 0.051113337 0.69700003
0.052290481 0.050966669 0.69500005
0.053614289 0.050966669 0.69500005
0.0549381 0.050966669 0.69500005
0.056261908 0.050966669 0.69500005
0.057751432 0.051113337 0.69700003
0.059079051 0.051113337 0.69700003
0.06040667 0.051113337 0.69700003
0.061734289 0.051113337 0.69700003
0.063061908 0.051113337 0.69700003
0.064389527 0.051113337 0.69700003
0.065811433 0.05118667 0.69800001
0.067140959 0.05118667 0.69800001
0.068372384 0.051113337 0.69700003
0.069700003 0.051113337 0.69700003
0.071027622 0.051113337 0.69700003
0.07245905 0.05118667 0.69800001
0.07368286 0.051113337 0.69700003
0.075010478 0.051113337 0.69700003
0.076338097 0.051113337 0.69700003
0.077665716 0.051113337 0.69700003
0.078993335 0.051113337 0.69700003
0.080320954 0.051113337 0.69700003
0.081648573 0.051113337 0.69700003
0.082976192 0.051113337 0.69700003
0.084303819 0.051113337 0.69700003
-0.13152954 0.052215241 0.69400001
-0.13020763 0.052215241 0.69400001
-0.12888572 0.052215241 0.69400001
-0.12756382 0.052215241 0.69400001
-0.12624191 0.052215241 0.69400001
-0.12492001 0.052215241 0.69400001
-0.12359811 0.052215241 0.69400001
-0.12210001 0.052140005 0.69300002
-0.12078001 0.052140005 0.69300002
-0.11911525 0.051989526 0.69100004
-0.11779906 0.051989526 0.69100004
-0.11648286 0.051989526 0.69100004
-0.11516667 0.051989526 0.69100004
-0.11368572 0.05191429 0.69000006
-0.11253429 0.051989526 0.69100004
-0.12021429 0.057557147 0.76500005
-0.11844668 0.057406671 0.76300001
-0.091740005 0.052140005 0.69300002
-0.090159051 0.051989526 0.69100004
-0.089100003 0.052140005 0.69300002
-0.087526672 0.051989526 0.69100004
-0.086085722 0.05191429 0.69000006
-0.084894292 0.051989526 0.69100004
-0.083820008 0.052140005 0.69300002
-0.082500003 0.052140005 0.69300002
-0.081180006 0.052140005 0.69300002
-0.079860002 0.052140005 0.69300002
-0.078540005 0.052140005 0.69300002
-0.077331431 0.052215241 0.69400001
-0.076009527 0.052215241 0.69400001
-0.074580006 0.052140005 0.69300002
-0.073365718 0.052215241 0.69400001
-0.071940005 0.052140005 0.69300002
-0.070721909 0.052215241 0.69400001
-0.069300003 0.052140005 0.69300002
-0.067685716 0.05191429 0.69000006
-0.066275239 0.05183905 0.68900001
-0.064962864 0.05183905 0.68900001
-0.063742861 0.05191429 0.69000006
-0.062338099 0.05183905 0.68900001
-0.06102572 0.05183905 0.68900001
-0.059713338 0.05183905 0.68900001
-0.058400955 0.05183905 0.68900001
-0.057088576 0.05183905 0.68900001
-0.055776194 0.05183905 0.68900001
-0.054463815 0.05183905 0.68900001
-0.053228576 0.05191429 0.69000006
-0.05183905 0.05183905 0.68900001
-0.050600003 0.05191429 0.69000006
-0.049214289 0.05183905 0.68900001
-0.047901906 0.05183905 0.68900001
-0.049417146 0.05657905 0.75200003
-0.047857147 0.056428574 0.75000006
-0.046428576 0.056428574 0.75000006
-0.045000002 0.056428574 0.75000006
-0.043571431 0.056428574 0.75000006
-0.042142861 0.056428574 0.75000006
-0.04071429 0.056428574 0.75000006
-0.039285716 0.056428574 0.75000006
-0.037958097 0.05657905 0.75200003
-0.036574289 0.056654289 0.75300002
-0.035140004 0.056654289 0.75300002
-0.033795241 0.056804765 0.75500005
-0.032357145 0.056804765 0.75500005
-0.030919049 0.056804765 0.75500005
-0.029520001 0.056880005 0.75600004
-0.028042858 0.056804765 0.75500005
