# .PCD v0.7 - Point Cloud Data file format
VERSION 0.7
FIELDS x y z
SIZE 4 4 4
TYPE F F F
COUNT 1 1 1
WIDTH 1389
HEIGHT 1
VIEWPOINT 0 0 0 1 0 0 0
POINTS 1389
DATA ascii
0.013712382 0.082870483 0.62600005
0.014880953 0.082738101 0.625
0.016045716 0.08260572 0.62400001
0.01717905 0.082340956 0.62200004
0.018363811 0.082340956 0.62200004
0.019548573 0.082340956 0.62200004
0.020766668 0.082473338 0.62300003
0.021953335 0.082473338 0.62300003
0.023140002 0.082473338 0.62300003
0.024404764 0.082738101 0.625
0.025636192 0.082870483 0.62600005
0.026828574 0.082870483 0.62600005
0.028065717 0.083002865 0.62700003
0.029306669 0.083135247 0.62800002
0.03055143 0.083267622 0.62900001
0.03185048 0.083532386 0.63100004
0.033052385 0.083532386 0.63100004
-0.019454287 0.083122864 0.61900002
-0.018275239 0.083122864 0.61900002
-0.017096192 0.083122864 0.61900002
-0.015917145 0.083122864 0.61900002
-0.014738096 0.083122864 0.61900002
-0.013559048 0.083122864 0.61900002
-0.012380001 0.083122864 0.61900002
-0.011200953 0.083122864 0.61900002
-0.010005715 0.082988575 0.61800003
-0.008828572 0.082988575 0.61800003
-0.0076390482 0.082854293 0.61700004
-0.0064638099 0.082854293 0.61700004
-0.0052885716 0.082854293 0.61700004
-0.0041133338 0.082854293 0.61700004
-0.0029380955 0.082854293 0.61700004
-0.0017657144 0.082988575 0.61800003
-0.00058857148 0.082988575 0.61800003
0.00058952387 0.083122864 0.61900002
0.0017714287 0.083257146 0.62
0.0029666668 0.083660007 0.62300003
0.0041533336 0.083660007 0.62300003
0.0053485716 0.083794288 0.62400001
0.0065371431 0.083794288 0.62400001
0.0077380957 0.083928578 0.625
0.0089142863 0.083794288 0.62400001
0.010119048 0.083928578 0.625
0.011309525 0.083928578 0.625
0.012480001 0.083794288 0.62400001
0.013668573 0.083794288 0.62400001
0.014833334 0.083660007 0.62300003
0.016020002 0.083660007 0.62300003
0.017123811 0.083257146 0.62
0.018363811 0.083525717 0.62200004
0.019548573 0.083525717 0.62200004
0.020766668 0.083660007 0.62300003
0.021953335 0.083660007 0.62300003
0.023140002 0.083660007 0.62300003
0.024365716 0.083794288 0.62400001
0.02559524 0.083928578 0.625
0.026828574 0.084062859 0.62600005
0.028065717 0.084197149 0.62700003
0.029306669 0.08433143 0.62800002
0.03050286 0.08433143 0.62800002
0.03185048 0.084734291 0.63100004
0.033052385 0.084734291 0.63100004
-0.019548573 0.084710479 0.62200004
-0.018304763 0.0844381 0.62
-0.017096192 0.084301911 0.61900002
-0.015942859 0.0844381 0.62
-0.014738096 0.084301911 0.61900002
-0.013559048 0.084301911 0.61900002
-0.012380001 0.084301911 0.61900002
-0.011200953 0.084301911 0.61900002
-0.010005715 0.084165722 0.61800003
-0.008828572 0.084165722 0.61800003
-0.0076390482 0.084029533 0.61700004
-0.0064638099 0.084029533 0.61700004
-0.0052800002 0.083893336 0.61600006
-0.0041066669 0.083893336 0.61600006
-0.0029333336 0.083893336 0.61600006
-0.0017628573 0.084029533 0.61700004
-0.00058761908 0.084029533 0.61700004
0.00058857148 0.084165722 0.61800003
0.0017628573 0.084029533 0.61700004
0.0041466667 0.084710479 0.62200004
0.0053400001 0.084846675 0.62300003
0.0065266672 0.084846675 0.62300003
0.0077257147 0.084982865 0.62400001
0.0089142863 0.084982865 0.62400001
0.010102858 0.084982865 0.62400001
0.011273334 0.084846675 0.62300003
0.012460001 0.084846675 0.62300003
0.013624763 0.084710479 0.62200004
0.014809525 0.084710479 0.62200004
0.015942859 0.0844381 0.62
0.017096192 0.084301911 0.61900002
0.018304763 0.0844381 0.62
0.019485716 0.0844381 0.62
0.020666668 0.0844381 0.62
0.021918098 0.084710479 0.62200004
0.023102859 0.084710479 0.62200004
0.024326669 0.084846675 0.62300003
0.025554288 0.084982865 0.62400001
0.026828574 0.085255243 0.62600005
0.028065717 0.085391432 0.62700003
0.029260002 0.085391432 0.62700003
0.03050286 0.085527621 0.62800002
0.031749524 0.085663818 0.62900001
0.032947622 0.085663818 0.62900001
-0.020633334 0.085480958 0.61900002
-0.019485716 0.085619055 0.62
-0.018275239 0.085480958 0.61900002
-0.017096192 0.085480958 0.61900002
-0.015917145 0.085480958 0.61900002
-0.014738096 0.085480958 0.61900002
-0.013559048 0.085480958 0.61900002
-0.012380001 0.085480958 0.61900002
-0.011200953 0.085480958 0.61900002
-0.010005715 0.085342862 0.61800003
-0.008828572 0.085342862 0.61800003
-0.0076390482 0.085204765 0.61700004
-0.0064638099 0.085204765 0.61700004
-0.0052800002 0.085066669 0.61600006
-0.0041066669 0.085066669 0.61600006
-0.0029333336 0.085066669 0.61600006
-0.0017628573 0.085204765 0.61700004
-0.00058761908 0.085204765 0.61700004
0.00058761908 0.085204765 0.61700004
0.0017628573 0.085204765 0.61700004
0.0029380955 0.085204765 0.61700004
0.0041466667 0.08589524 0.62200004
0.0053314287 0.08589524 0.62200004
0.0065161907 0.08589524 0.62200004
0.0077009527 0.08589524 0.62200004
0.0088571431 0.085619055 0.62
0.010038096 0.085619055 0.62
0.011255239 0.08589524 0.62200004
0.012440001 0.08589524 0.62200004
0.013624763 0.08589524 0.62200004
0.014761906 0.085619055 0.62
0.015942859 0.085619055 0.62
0.017096192 0.085480958 0.61900002
0.018275239 0.085480958 0.61900002
0.019485716 0.085619055 0.62
0.020666668 0.085619055 0.62
0.021847621 0.085619055 0.62
0.023028573 0.085619055 0.62
0.024287621 0.08589524 0.62200004
0.025554288 0.086171433 0.62400001
0.026785716 0.08630953 0.625
0.028020954 0.086447626 0.62600005
0.029260002 0.086585723 0.62700003
0.03050286 0.086723812 0.62800002
0.031749524 0.086861908 0.62900001
0.032947622 0.086861908 0.62900001
-0.027349526 0.085540004 0.611
-0.026100002 0.085260004 0.60900003
-0.023028573 0.086800009 0.62
-0.021812383 0.086660005 0.61900002
-0.020666668 0.086800009 0.62
-0.019485716 0.086800009 0.62
-0.018304763 0.086800009 0.62
-0.017096192 0.086660005 0.61900002
-0.015917145 0.086660005 0.61900002
-0.014738096 0.086660005 0.61900002
-0.013559048 0.086660005 0.61900002
-0.012380001 0.086660005 0.61900002
-0.011200953 0.086660005 0.61900002
-0.010005715 0.086520009 0.61800003
-0.0088142864 0.086380005 0.61700004
-0.0076390482 0.086380005 0.61700004
-0.0064638099 0.086380005 0.61700004
-0.0052800002 0.086240008 0.61600006
-0.0041066669 0.086240008 0.61600006
-0.0029333336 0.086240008 0.61600006
-0.0017628573 0.086380005 0.61700004
-0.00058761908 0.086380005 0.61700004
0.00058666669 0.086240008 0.61600006
0.0017628573 0.086380005 0.61700004
0.0029380955 0.086380005 0.61700004
0.0041133338 0.086380005 0.61700004
0.0052885716 0.086380005 0.61700004
0.0064638099 0.086380005 0.61700004
0.0076390482 0.086380005 0.61700004
0.0088571431 0.086800009 0.62
0.010038096 0.086800009 0.62
0.011200953 0.086660005 0.61900002
0.012380001 0.086660005 0.61900002
0.013559048 0.086660005 0.61900002
0.014738096 0.086660005 0.61900002
0.015917145 0.086660005 0.61900002
0.017096192 0.086660005 0.61900002
0.018275239 0.086660005 0.61900002
0.019454287 0.086660005 0.61900002
0.020666668 0.086800009 0.62
0.021847621 0.086800009 0.62
0.023028573 0.086800009 0.62
0.024287621 0.087080009 0.62200004
0.025554288 0.087360002 0.62400001
0.026785716 0.087500006 0.625
0.028020954 0.087640002 0.62600005
0.029213335 0.087640002 0.62600005
0.030454287 0.087780006 0.62700003
0.03169905 0.087920003 0.62800002
0.032895241 0.087920003 0.62800002
0.034091432 0.087920003 0.62800002
-0.029580003 0.086420007 0.60900003
-0.028746668 0.087413341 0.61600006
-0.027528573 0.087271437 0.61500001
-0.026400002 0.087413341 0.61600006
-0.024170477 0.087839052 0.61900002
-0.02299143 0.087839052 0.61900002
-0.021812383 0.087839052 0.61900002
-0.020633334 0.087839052 0.61900002
-0.019454287 0.087839052 0.61900002
-0.018275239 0.087839052 0.61900002
-0.017096192 0.087839052 0.61900002
-0.015917145 0.087839052 0.61900002
-0.014738096 0.087839052 0.61900002
-0.013559048 0.087839052 0.61900002
-0.012360001 0.087697148 0.61800003
-0.011182858 0.087697148 0.61800003
-0.010005715 0.087697148 0.61800003
-0.0088142864 0.087555245 0.61700004
-0.0076266672 0.087413341 0.61600006
-0.0064638099 0.087555245 0.61700004
-0.0052800002 0.087413341 0.61600006
-0.0041066669 0.087413341 0.61600006
-0.0029333336 0.087413341 0.61600006
-0.0017600001 0.087413341 0.61600006
-0.00058666669 0.087413341 0.61600006
0.00058666669 0.087413341 0.61600006
0.0017600001 0.087413341 0.61600006
0.0029380955 0.087555245 0.61700004
0.0041133338 0.087555245 0.61700004
0.0052885716 0.087555245 0.61700004
0.0064638099 0.087555245 0.61700004
0.0076390482 0.087555245 0.61700004
0.0088142864 0.087555245 0.61700004
0.0099895243 0.087555245 0.61700004
0.011164763 0.087555245 0.61700004
0.012340001 0.087555245 0.61700004
0.013515239 0.087555245 0.61700004
0.014714287 0.087697148 0.61800003
0.015917145 0.087839052 0.61900002
0.017068572 0.087697148 0.61800003
0.018245716 0.087697148 0.61800003
0.019422859 0.087697148 0.61800003
0.020600002 0.087697148 0.61800003
0.021812383 0.087839052 0.61900002
0.02299143 0.087839052 0.61900002
0.024287621 0.088264771 0.62200004
0.025554288 0.088548578 0.62400001
0.026785716 0.088690482 0.625
0.028020954 0.088832386 0.62600005
0.029213335 0.088832386 0.62600005
0.030405717 0.088832386 0.62600005
0.031648573 0.08897429 0.62700003
0.03284286 0.08897429 0.62700003
0.034037147 0.08897429 0.62700003
-0.029677145 0.087867625 0.611
-0.028513335 0.087867625 0.611
-0.027573336 0.088586673 0.61600006
-0.026400002 0.088586673 0.61600006
-0.025267622 0.088730484 0.61700004
-0.024092382 0.088730484 0.61700004
-0.023028573 0.08916191 0.62
-0.021812383 0.089018099 0.61900002
-0.020633334 0.089018099 0.61900002
-0.019454287 0.089018099 0.61900002
-0.018275239 0.089018099 0.61900002
-0.017096192 0.089018099 0.61900002
-0.015917145 0.089018099 0.61900002
-0.014714287 0.088874288 0.61800003
-0.013559048 0.089018099 0.61900002
-0.012360001 0.088874288 0.61800003
-0.011182858 0.088874288 0.61800003
-0.010005715 0.088874288 0.61800003
-0.0088142864 0.088730484 0.61700004
-0.0076390482 0.088730484 0.61700004
-0.0064638099 0.088730484 0.61700004
-0.0052800002 0.088586673 0.61600006
-0.0041066669 0.088586673 0.61600006
-0.0029285715 0.088442862 0.61500001
-0.0017600001 0.088586673 0.61600006
-0.00058666669 0.088586673 0.61600006
0.00058666669 0.088586673 0.61600006
0.0017600001 0.088586673 0.61600006
0.0029333336 0.088586673 0.61600006
0.0041066669 0.088586673 0.61600006
0.0052800002 0.088586673 0.61600006
0.0064533339 0.088586673 0.61600006
0.0076266672 0.088586673 0.61600006
0.0088000009 0.088586673 0.61600006
0.0099733341 0.088586673 0.61600006
0.011164763 0.088730484 0.61700004
0.012340001 0.088730484 0.61700004
0.013515239 0.088730484 0.61700004
0.014714287 0.088874288 0.61800003
0.015891429 0.088874288 0.61800003
0.017068572 0.088874288 0.61800003
0.018216191 0.088730484 0.61700004
0.019391431 0.088730484 0.61700004
0.020600002 0.088874288 0.61800003
0.021777144 0.088874288 0.61800003
0.022954287 0.088874288 0.61800003
0.024287621 0.089449532 0.62200004
0.025554288 0.089737147 0.62400001
0.026785716 0.089880958 0.625
0.028020954 0.090024769 0.62600005
0.029213335 0.090024769 0.62600005
0.030405717 0.090024769 0.62600005
0.031598099 0.090024769 0.62600005
0.032790478 0.090024769 0.62600005
0.034037147 0.09016858 0.62700003
0.03523143 0.09016858 0.62700003
-0.029677145 0.089031436 0.611
-0.028560001 0.089177147 0.61200005
-0.027573336 0.089760005 0.61600006
-0.023028573 0.090342864 0.62
-0.021812383 0.090197146 0.61900002
-0.020633334 0.090197146 0.61900002
-0.019485716 0.090342864 0.62
-0.018275239 0.090197146 0.61900002
-0.017096192 0.090197146 0.61900002
-0.015917145 0.090197146 0.61900002
-0.014714287 0.090051435 0.61800003
-0.013559048 0.090197146 0.61900002
-0.012380001 0.090197146 0.61900002
-0.011182858 0.090051435 0.61800003
-0.010005715 0.090051435 0.61800003
-0.008828572 0.090051435 0.61800003
-0.0076390482 0.089905716 0.61700004
-0.0064638099 0.089905716 0.61700004
-0.0052800002 0.089760005 0.61600006
-0.0041066669 0.089760005 0.61600006
-0.0029285715 0.089614294 0.61500001
-0.0017600001 0.089760005 0.61600006
-0.00058666669 0.089760005 0.61600006
0.00058666669 0.089760005 0.61600006
0.0017600001 0.089760005 0.61600006
0.0029333336 0.089760005 0.61600006
0.0041066669 0.089760005 0.61600006
0.0052800002 0.089760005 0.61600006
0.0064428574 0.089614294 0.61500001
0.0076019051 0.089468576 0.61400002
0.0087714288 0.089468576 0.61400002
0.009940953 0.089468576 0.61400002
0.011146667 0.089760005 0.61600006
0.012300001 0.089614294 0.61500001
0.013471429 0.089614294 0.61500001
0.014690477 0.089905716 0.61700004
0.015891429 0.090051435 0.61800003
0.017040953 0.089905716 0.61700004
0.018216191 0.089905716 0.61700004
0.019360002 0.089760005 0.61600006
0.020566668 0.089905716 0.61700004
0.021706669 0.089760005 0.61600006
0.022880001 0.089760005 0.61600006
0.024053335 0.089760005 0.61600006
0.025267622 0.089905716 0.61700004
0.026785716 0.091071434 0.625
0.028020954 0.091217145 0.62600005
0.029260002 0.091362864 0.62700003
0.030405717 0.091217145 0.62600005
0.031598099 0.091217145 0.62600005
0.032790478 0.091217145 0.62600005
0.034091432 0.091508575 0.62800002
0.03523143 0.091362864 0.62700003
-0.028513335 0.090195246 0.611
-0.023102859 0.091819055 0.62200004
-0.021847621 0.091523819 0.62
-0.020633334 0.091376193 0.61900002
-0.019485716 0.091523819 0.62
-0.018275239 0.091376193 0.61900002
-0.017096192 0.091376193 0.61900002
-0.015891429 0.091228575 0.61800003
-0.014714287 0.091228575 0.61800003
-0.013537143 0.091228575 0.61800003
-0.012360001 0.091228575 0.61800003
-0.011182858 0.091228575 0.61800003
-0.010005715 0.091228575 0.61800003
-0.008828572 0.091228575 0.61800003
-0.0076390482 0.091080956 0.61700004
-0.0064638099 0.091080956 0.61700004
-0.0052800002 0.090933338 0.61600006
-0.0041066669 0.090933338 0.61600006
-0.0029285715 0.090785719 0.61500001
-0.0017600001 0.090933338 0.61600006
-0.00058666669 0.090933338 0.61600006
0.00058666669 0.090933338 0.61600006
0.0017571429 0.090785719 0.61500001
0.0029285715 0.090785719 0.61500001
0.0041000005 0.090785719 0.61500001
0.0052628573 0.090638101 0.61400002
0.0064323815 0.090638101 0.61400002
0.0075895241 0.090490483 0.61300004
0.0087571433 0.090490483 0.61300004
0.0099247629 0.090490483 0.61300004
0.011092382 0.090490483 0.61300004
0.012240001 0.090342864 0.61200005
0.013340001 0.089900009 0.60900003
0.014642858 0.090785719 0.61500001
0.015762858 0.090490483 0.61300004
0.01682 0.089900009 0.60900003
0.018068573 0.090342864 0.61200005
0.019234287 0.090342864 0.61200005
0.020400001 0.090342864 0.61200005
0.021600954 0.090490483 0.61300004
0.022768574 0.090490483 0.61300004
0.023897145 0.090342864 0.61200005
0.025062859 0.090342864 0.61200005
0.026228573 0.090342864 0.61200005
0.027394287 0.090342864 0.61200005
0.028560001 0.090342864 0.61200005
0.029677145 0.090195246 0.611
0.030840954 0.090195246 0.611
0.032790478 0.092409529 0.62600005
-0.020633334 0.092555247 0.61900002
-0.019454287 0.092555247 0.61900002
-0.018275239 0.092555247 0.61900002
-0.017068572 0.092405722 0.61800003
-0.015891429 0.092405722 0.61800003
-0.014690477 0.092256196 0.61700004
-0.013537143 0.092405722 0.61800003
-0.012360001 0.092405722 0.61800003
-0.011182858 0.092405722 0.61800003
-0.0099895243 0.092256196 0.61700004
-0.008828572 0.092405722 0.61800003
-0.0076390482 0.092256196 0.61700004
-0.0064638099 0.092256196 0.61700004
-0.0052800002 0.09210667 0.61600006
-0.0041066669 0.09210667 0.61600006
-0.0029333336 0.09210667 0.61600006
-0.0017600001 0.09210667 0.61600006
-0.00058666669 0.09210667 0.61600006
0.00058666669 0.09210667 0.61600006
0.0017571429 0.091957152 0.61500001
0.0029285715 0.091957152 0.61500001
0.0040866667 0.0916581 0.61300004
0.0052542859 0.0916581 0.61300004
0.006421905 0.0916581 0.61300004
0.0075771431 0.091508575 0.61200005
0.0087428577 0.091508575 0.61200005
0.0098600006 0.091060005 0.60900003
0.011020001 0.091060005 0.60900003
0.01216 0.090910479 0.60800004
0.013318096 0.090910479 0.60800004
0.014476191 0.090910479 0.60800004
0.015634287 0.090910479 0.60800004
0.016792381 0.090910479 0.60800004
0.017950477 0.090910479 0.60800004
0.019140001 0.091060005 0.60900003
0.020266669 0.090910479 0.60800004
0.021565715 0.091508575 0.61200005
0.022731431 0.091508575 0.61200005
0.023858096 0.091359057 0.611
0.025062859 0.091508575 0.61200005
0.026185716 0.091359057 0.611
0.027260002 0.091060005 0.60900003
0.028513335 0.091359057 0.611
0.029677145 0.091359057 0.611
0.030740002 0.091060005 0.60900003
-0.020666668 0.09388572 0.62
-0.019485716 0.09388572 0.62
-0.018275239 0.093734294 0.61900002
-0.017096192 0.093734294 0.61900002
-0.015891429 0.093582861 0.61800003
-0.014690477 0.093431436 0.61700004
-0.013493334 0.093280002 0.61600006
-0.012340001 0.093431436 0.61700004
-0.011164763 0.093431436 0.61700004
-0.0099895243 0.093431436 0.61700004
-0.0088142864 0.093431436 0.61700004
-0.0076390482 0.093431436 0.61700004
-0.0064638099 0.093431436 0.61700004
-0.0052800002 0.093280002 0.61600006
-0.0041066669 0.093280002 0.61600006
-0.0029333336 0.093280002 0.61600006
-0.0017600001 0.093280002 0.61600006
-0.00058666669 0.093280002 0.61600006
0.0005857143 0.093128577 0.61500001
0.0017571429 0.093128577 0.61500001
0.0029285715 0.093128577 0.61500001
0.0040933336 0.092977151 0.61400002
0.0052628573 0.092977151 0.61400002
0.006421905 0.092825718 0.61300004
0.0075771431 0.092674293 0.61200005
0.0087428577 0.092674293 0.61200005
0.0098438105 0.092068575 0.60800004
0.01098381 0.09191715 0.60700005
0.012140001 0.09191715 0.60700005
0.013296192 0.09191715 0.60700005
0.014428573 0.091765717 0.60600001
0.015608572 0.09191715 0.60700005
0.016764764 0.09191715 0.60700005
0.017920954 0.09191715 0.60700005
0.019140001 0.092220008 0.60900003
0.020233335 0.09191715 0.60700005
0.021389525 0.09191715 0.60700005
0.022620002 0.092220008 0.60900003
0.023740955 0.092068575 0.60800004
0.025021907 0.09252286 0.611
0.026057145 0.092068575 0.60800004
0.027215241 0.092068575 0.60800004
0.028420001 0.092220008 0.60900003
0.029580003 0.092220008 0.60900003
0.030740002 0.092220008 0.60900003
0.031900004 0.092220008 0.60900003
-0.020666668 0.095066674 0.62
-0.019485716 0.095066674 0.62
-0.018304763 0.095066674 0.62
-0.017096192 0.094913341 0.61900002
-0.015891429 0.094760008 0.61800003
-0.014714287 0.094760008 0.61800003
-0.013515239 0.094606675 0.61700004
-0.012340001 0.094606675 0.61700004
-0.011164763 0.094606675 0.61700004
-0.0099733341 0.094453342 0.61600006
-0.0088142864 0.094606675 0.61700004
-0.0076390482 0.094606675 0.61700004
-0.0064638099 0.094606675 0.61700004
-0.0052800002 0.094453342 0.61600006
-0.0041066669 0.094453342 0.61600006
-0.0029285715 0.094300009 0.61500001
-0.0017600001 0.094453342 0.61600006
-0.0005857143 0.094300009 0.61500001
0.0005857143 0.094300009 0.61500001
0.0017542859 0.094146676 0.61400002
0.0029238097 0.094146676 0.61400002
0.0040933336 0.094146676 0.61400002
0.0052542859 0.093993336 0.61300004
0.006411429 0.093840003 0.61200005
0.0075771431 0.093840003 0.61200005
0.0087285722 0.09368667 0.611
0.0098276194 0.093073338 0.60700005
0.01098381 0.093073338 0.60700005
0.012140001 0.093073338 0.60700005
0.013274287 0.092920005 0.60600001
0.014428573 0.092920005 0.60600001
0.015582859 0.092920005 0.60600001
0.016737144 0.092920005 0.60600001
0.017832382 0.092613339 0.60400003
0.019077145 0.093073338 0.60700005
0.020233335 0.093073338 0.60700005
0.021389525 0.093073338 0.60700005
0.022545716 0.093073338 0.60700005
0.023701906 0.093073338 0.60700005
0.024899049 0.093226671 0.60800004
0.026057145 0.093226671 0.60800004
0.027215241 0.093226671 0.60800004
0.028373335 0.093226671 0.60800004
0.02953143 0.093226671 0.60800004
0.030740002 0.093380004 0.60900003
0.031900004 0.093380004 0.60900003
0.033060003 0.093380004 0.60900003
-0.021988573 0.096868575 0.62400001
-0.019548573 0.096558101 0.62200004
-0.018304763 0.096247628 0.62
-0.017096192 0.096092388 0.61900002
-0.015891429 0.095937148 0.61800003
-0.014690477 0.095781907 0.61700004
-0.013493334 0.095626675 0.61600006
-0.012340001 0.095781907 0.61700004
-0.011146667 0.095626675 0.61600006
-0.0099733341 0.095626675 0.61600006
-0.0088000009 0.095626675 0.61600006
-0.0076390482 0.095781907 0.61700004
-0.0064638099 0.095781907 0.61700004
-0.0052800002 0.095626675 0.61600006
-0.0041066669 0.095626675 0.61600006
-0.0029285715 0.095471434 0.61500001
-0.0017600001 0.095626675 0.61600006
-0.0005857143 0.095471434 0.61500001
0.0005857143 0.095471434 0.61500001
0.0017542859 0.095316194 0.61400002
0.0029190478 0.095160961 0.61300004
0.0040866667 0.095160961 0.61300004
0.0052542859 0.095160961 0.61300004
0.006411429 0.095005721 0.61200005
0.0075647626 0.094850481 0.611
0.0086857146 0.094384767 0.60800004
0.0098114293 0.094074294 0.60600001
0.010965715 0.094074294 0.60600001
0.012120001 0.094074294 0.60600001
0.013252382 0.093919054 0.60500002
0.014404763 0.093919054 0.60500002
0.015557144 0.093919054 0.60500002
0.016681906 0.093763813 0.60400003
0.017832382 0.093763813 0.60400003
0.018982857 0.093763813 0.60400003
0.020133335 0.093763813 0.60400003
0.021283811 0.093763813 0.60400003
0.02247143 0.093919054 0.60500002
0.02366286 0.094074294 0.60600001
0.024817144 0.094074294 0.60600001
0.026014287 0.094229527 0.60700005
0.027170477 0.094229527 0.60700005
0.028326668 0.094229527 0.60700005
0.029482858 0.094229527 0.60700005
0.030689526 0.094384767 0.60800004
0.031847622 0.094384767 0.60800004
0.033222858 0.095005721 0.61200005
0.034388572 0.095005721 0.61200005
-0.019580001 0.097900003 0.62300003
-0.018304763 0.097428575 0.62
-0.017096192 0.097271435 0.61900002
-0.015891429 0.097114295 0.61800003
-0.014690477 0.096957147 0.61700004
-0.013471429 0.096642867 0.61500001
-0.012300001 0.096642867 0.61500001
-0.011146667 0.096800007 0.61600006
-0.0099733341 0.096800007 0.61600006
-0.0088000009 0.096800007 0.61600006
-0.0076390482 0.096957147 0.61700004
-0.0064533339 0.096800007 0.61600006
-0.0052800002 0.096800007 0.61600006
-0.0041000005 0.096642867 0.61500001
-0.0029285715 0.096642867 0.61500001
-0.0017600001 0.096800007 0.61600006
-0.00058476196 0.096485719 0.61400002
0.00058380957 0.096328579 0.61300004
0.0017542859 0.096485719 0.61400002
0.0029190478 0.096328579 0.61300004
0.0040866667 0.096328579 0.61300004
0.005237143 0.096014291 0.611
0.0063800006 0.095700003 0.60900003
0.0075276196 0.095542863 0.60800004
0.008671429 0.095385723 0.60700005
0.0098114293 0.095228575 0.60600001
0.01094762 0.095071435 0.60500002
0.012100001 0.095071435 0.60500002
0.013252382 0.095071435 0.60500002
0.014380953 0.094914295 0.60400003
0.015557144 0.095071435 0.60500002
0.016681906 0.094914295 0.60400003
0.017802859 0.094757147 0.60300004
0.018920001 0.094600007 0.60200006
0.020100001 0.094757147 0.60300004
0.021248573 0.094757147 0.60300004
0.022434287 0.094914295 0.60400003
0.023623811 0.095071435 0.60500002
0.024776192 0.095071435 0.60500002
0.025928574 0.095071435 0.60500002
0.027080955 0.095071435 0.60500002
0.028233334 0.095071435 0.60500002
0.029434288 0.095228575 0.60600001
0.030588573 0.095228575 0.60600001
0.031795241 0.095385723 0.60700005
0.033168573 0.096014291 0.611
0.034332383 0.096014291 0.611
-0.019611429 0.09924572 0.62400001
-0.018363811 0.098927625 0.62200004
-0.017123811 0.098609529 0.62
-0.013449525 0.097655244 0.61400002
-0.01228 0.097655244 0.61400002
-0.011146667 0.097973339 0.61600006
-0.0099733341 0.097973339 0.61600006
-0.0088000009 0.097973339 0.61600006
-0.0076390482 0.098132387 0.61700004
-0.0064533339 0.097973339 0.61600006
-0.0052800002 0.097973339 0.61600006
-0.0041066669 0.097973339 0.61600006
-0.0029285715 0.097814292 0.61500001
-0.0017571429 0.097814292 0.61500001
-0.00058476196 0.097655244 0.61400002
0.00058380957 0.097496197 0.61300004
0.0017542859 0.097655244 0.61400002
0.0029095239 0.097178102 0.611
0.0040800003 0.097337149 0.61200005
0.0052200002 0.096860006 0.60900003
0.0063695242 0.096700959 0.60800004
0.0075152386 0.096541911 0.60700005
0.0086428579 0.096223816 0.60500002
0.0097952392 0.096223816 0.60500002
0.010929525 0.096064769 0.60400003
0.012080001 0.096064769 0.60400003
0.013230477 0.096064769 0.60400003
0.014357144 0.095905721 0.60300004
0.015505715 0.095905721 0.60300004
0.016654287 0.095905721 0.60300004
0.017773334 0.095746674 0.60200006
0.018888572 0.095587626 0.60100001
0.020033335 0.095587626 0.60100001
0.021213334 0.095746674 0.60200006
0.022397144 0.095905721 0.60300004
0.023545716 0.095905721 0.60300004
0.02473524 0.096064769 0.60400003
0.025885716 0.096064769 0.60400003
0.027036192 0.096064769 0.60400003
0.028233334 0.096223816 0.60500002
0.029337145 0.096064769 0.60400003
0.030538097 0.096223816 0.60500002
0.03174286 0.096382864 0.60600001
0.033005718 0.096700959 0.60800004
0.03416381 0.096700959 0.60800004
-0.018452382 0.10059524 0.625
-0.011146667 0.099146672 0.61600006
-0.0099733341 0.099146672 0.61600006
-0.0088000009 0.099146672 0.61600006
-0.0076390482 0.099307626 0.61700004
-0.0064533339 0.099146672 0.61600006
-0.0052800002 0.099146672 0.61600006
-0.0041066669 0.099146672 0.61600006
-0.0029285715 0.098985724 0.61500001
-0.0017600001 0.099146672 0.61600006
-0.00058476196 0.098824769 0.61400002
0.00058380957 0.098663814 0.61300004
0.0017485715 0.098502867 0.61200005
0.0029095239 0.098341912 0.611
0.0040600002 0.09802001 0.60900003
0.0052114287 0.097859055 0.60800004
0.0063590482 0.0976981 0.60700005
0.0075028576 0.097537152 0.60600001
0.0086285723 0.097215243 0.60400003
0.0097790482 0.097215243 0.60400003
0.010929525 0.097215243 0.60400003
0.012060001 0.097054295 0.60300004
0.013208573 0.097054295 0.60300004
0.014357144 0.097054295 0.60300004
0.015480001 0.09689334 0.60200006
0.016599048 0.096732385 0.60100001
0.017743811 0.096732385 0.60100001
0.018857144 0.096571438 0.60000002
0.020000001 0.096571438 0.60000002
0.021178097 0.096732385 0.60100001
0.022360001 0.09689334 0.60200006
0.023506667 0.09689334 0.60200006
0.024694288 0.097054295 0.60300004
0.025842858 0.097054295 0.60300004
0.027036192 0.097215243 0.60400003
0.028186668 0.097215243 0.60400003
0.029337145 0.097215243 0.60400003
0.030487621 0.097215243 0.60400003
0.031690478 0.097376198 0.60500002
0.032897145 0.097537152 0.60600001
0.03416381 0.097859055 0.60800004
-0.011146667 0.10032 0.61600006
-0.0099733341 0.10032 0.61600006
-0.0087857153 0.10015715 0.61500001
-0.0076266672 0.10032 0.61600006
-0.0064533339 0.10032 0.61600006
-0.0052800002 0.10032 0.61600006
-0.0041000005 0.10015715 0.61500001
-0.0029285715 0.10015715 0.61500001
-0.0017571429 0.10015715 0.61500001
-0.00058476196 0.099994294 0.61400002
0.00058285717 0.099668577 0.61200005
0.0017457145 0.099505723 0.611
0.0028952383 0.099017151 0.60800004
0.0040533338 0.099017151 0.60800004
0.0052028573 0.098854296 0.60700005
0.0063485717 0.098691434 0.60600001
0.0074780956 0.098365724 0.60400003
0.0086285723 0.098365724 0.60400003
0.009762858 0.098202862 0.60300004
0.010911429 0.098202862 0.60300004
0.01204 0.098040007 0.60200006
0.013186667 0.098040007 0.60200006
0.014333334 0.098040007 0.60200006
0.015454287 0.097877152 0.60100001
0.01657143 0.09771429 0.60000002
0.017684763 0.097551435 0.59900004
0.018857144 0.09771429 0.60000002
0.020000001 0.09771429 0.60000002
0.021142859 0.09771429 0.60000002
0.022285717 0.09771429 0.60000002
0.023428572 0.09771429 0.60000002
0.02457143 0.09771429 0.60000002
0.025800001 0.098040007 0.60200006
0.026991431 0.098202862 0.60300004
0.028140001 0.098202862 0.60300004
0.029288573 0.098202862 0.60300004
0.030437145 0.098202862 0.60300004
0.031690478 0.098528579 0.60500002
0.033005718 0.099017151 0.60800004
0.03416381 0.099017151 0.60800004
-0.0099733341 0.10149334 0.61600006
-0.0087857153 0.10132858 0.61500001
-0.0076266672 0.10149334 0.61600006
-0.0064428574 0.10132858 0.61500001
-0.0052800002 0.10149334 0.61600006
-0.0041000005 0.10132858 0.61500001
-0.0029285715 0.10132858 0.61500001
-0.0017542859 0.10116382 0.61400002
-0.00058476196 0.10116382 0.61400002
0.00058190478 0.10066953 0.611
0.0017371429 0.10017525 0.60800004
0.0028904765 0.10001048 0.60700005
0.0040400005 0.099845722 0.60600001
0.0051857145 0.09968096 0.60500002
0.0063276193 0.099516198 0.60400003
0.0074657146 0.099351436 0.60300004
0.0086000003 0.099186674 0.60200006
0.009746667 0.099186674 0.60200006
0.010875239 0.099021912 0.60100001
0.012000001 0.098857149 0.60000002
0.013142858 0.098857149 0.60000002
0.014285715 0.098857149 0.60000002
0.015402858 0.098692387 0.59900004
0.016543811 0.098692387 0.59900004
0.017684763 0.098692387 0.59900004
0.018825715 0.098692387 0.59900004
0.019966668 0.098692387 0.59900004
0.02110762 0.098692387 0.59900004
0.022285717 0.098857149 0.60000002
0.023428572 0.098857149 0.60000002
0.024530478 0.098692387 0.59900004
0.025714288 0.098857149 0.60000002
0.026901906 0.099021912 0.60100001
0.028093334 0.099186674 0.60200006
0.029191431 0.099021912 0.60100001
0.02983143 0.09737429 0.59100002
0.030957146 0.09737429 0.59100002
0.031920001 0.096880004 0.588
0.033040002 0.096880004 0.588
0.034160003 0.096880004 0.588
-0.0099733341 0.10266668 0.61600006
-0.0087857153 0.10250001 0.61500001
-0.0076142862 0.10250001 0.61500001
-0.0064428574 0.10250001 0.61500001
-0.0052714287 0.10250001 0.61500001
-0.0040933336 0.10233334 0.61400002
-0.0029238097 0.10233334 0.61400002
-0.0017542859 0.10233334 0.61400002
-0.00057619053 0.10083334 0.60500002
0.00057619053 0.10083334 0.60500002
0.0017285715 0.10083334 0.60500002
0.0028761907 0.10066667 0.60400003
0.0040200003 0.10050001 0.60300004
0.0051685716 0.10050001 0.60300004
0.0062961909 0.10016667 0.60100001
0.007440953 0.10016667 0.60100001
0.0085714292 0.10000001 0.60000002
0.0097142868 0.10000001 0.60000002
0.010839049 0.099833339 0.59900004
0.011960001 0.09966667 0.59800005
0.013099048 0.09966667 0.59800005
0.014238096 0.09966667 0.59800005
0.01535143 0.099500008 0.597
0.016488573 0.099500008 0.597
0.017625716 0.099500008 0.597
0.018794287 0.09966667 0.59800005
0.019900002 0.099500008 0.597
0.021037145 0.099500008 0.597
0.022211431 0.09966667 0.59800005
0.023272382 0.099333338 0.59600002
0.024407621 0.099333338 0.59600002
0.02537143 0.098666675 0.59200001
0.026543811 0.098833337 0.59300005
0.027626669 0.098666675 0.59200001
0.028754288 0.098666675 0.59200001
0.02983143 0.098500006 0.59100002
0.030904764 0.098333336 0.59000003
0.031920001 0.098000005 0.588
0.033040002 0.098000005 0.588
0.034160003 0.098000005 0.588
0.035460003 0.098500006 0.59100002
0.036585718 0.098500006 0.59100002
-0.0064428574 0.10367144 0.61500001
-0.0052714287 0.10367144 0.61500001
-0.0040933336 0.10350286 0.61400002
-0.0029238097 0.10350286 0.61400002
-0.0017285715 0.10198572 0.60500002
-0.00057619053 0.10198572 0.60500002
0.00057619053 0.10198572 0.60500002
0.0017257144 0.10181715 0.60400003
0.0028761907 0.10181715 0.60400003
0.0040200003 0.10164858 0.60300004
0.0051685716 0.10164858 0.60300004
0.0062961909 0.10131144 0.60100001
0.007428572 0.10114286 0.60000002
0.0085571436 0.10097429 0.59900004
0.0096980957 0.10097429 0.59900004
0.010820953 0.10080572 0.59800005
0.011940001 0.10063715 0.597
0.013077144 0.10063715 0.597
0.014214287 0.10063715 0.597
0.015325715 0.10046858 0.59600002
0.016460953 0.10046858 0.59600002
0.017596191 0.10046858 0.59600002
0.01873143 0.10046858 0.59600002
0.019866668 0.10046858 0.59600002
0.021001907 0.10046858 0.59600002
0.022137145 0.10046858 0.59600002
0.023233335 0.10030001 0.59500003
0.024366667 0.10030001 0.59500003
0.02537143 0.099794291 0.59200001
0.02649905 0.099794291 0.59200001
0.027580002 0.099625722 0.59100002
0.028705716 0.099625722 0.59100002
0.029780954 0.099457152 0.59000003
0.030852383 0.099288575 0.58900005
0.031920001 0.099120006 0.588
0.033040002 0.099120006 0.588
0.034218099 0.099288575 0.58900005
0.035460003 0.099625722 0.59100002
0.036585718 0.099625722 0.59100002
0.037775241 0.099794291 0.59200001
0.03890286 0.099794291 0.59200001
0.040165719 0.10013144 0.59400004
-0.0124 0.10569525 0.62
-0.0064428574 0.10484286 0.61500001
-0.0052628573 0.10467239 0.61400002
-0.0040933336 0.10467239 0.61400002
-0.0029238097 0.10467239 0.61400002
-0.0017285715 0.1031381 0.60500002
-0.00057619053 0.1031381 0.60500002
0.00057523814 0.10296763 0.60400003
0.0017257144 0.10296763 0.60400003
0.0028714288 0.10279715 0.60300004
0.0040133335 0.10262667 0.60200006
0.0051600002 0.10262667 0.60200006
0.0062857149 0.10228572 0.60000002
0.007416191 0.10211524 0.59900004
0.0085571436 0.10211524 0.59900004
0.0096819056 0.10194477 0.59800005
0.010802858 0.10177429 0.597
0.01192 0.10160381 0.59600002
0.013055239 0.10160381 0.59600002
0.014190477 0.10160381 0.59600002
0.015300001 0.10143334 0.59500003
0.016433334 0.10143334 0.59500003
0.017566668 0.10143334 0.59500003
0.018668573 0.10126287 0.59400004
0.019833334 0.10143334 0.59500003
0.020966668 0.10143334 0.59500003
0.022062859 0.10126287 0.59400004
0.02315524 0.10109239 0.59300005
0.024284763 0.10109239 0.59300005
0.025328573 0.10075144 0.59100002
0.026454287 0.10075144 0.59100002
0.027580002 0.10075144 0.59100002
0.028657144 0.10058096 0.59000003
0.029780954 0.10058096 0.59000003
0.030852383 0.10041048 0.58900005
0.03197429 0.10041048 0.58900005
0.033096194 0.10041048 0.58900005
0.034218099 0.10041048 0.58900005
0.035460003 0.10075144 0.59100002
0.036585718 0.10075144 0.59100002
0.037839051 0.10109239 0.59300005
0.039100002 0.10143334 0.59500003
0.040233336 0.10143334 0.59500003
0.04136667 0.10143334 0.59500003
0.042571433 0.10160381 0.59600002
-0.0052457144 0.10549715 0.61200005
-0.0028904765 0.10463525 0.60700005
-0.0017285715 0.10429049 0.60500002
-0.00057619053 0.10429049 0.60500002
0.00057523814 0.1041181 0.60400003
0.0017228572 0.10394572 0.60300004
0.0028666668 0.10377334 0.60200006
0.0040133335 0.10377334 0.60200006
0.0051514287 0.10360096 0.60100001
0.0062752385 0.1032562 0.59900004
0.007416191 0.1032562 0.59900004
0.0085428581 0.10308382 0.59800005
0.0096657146 0.10291144 0.597
0.010802858 0.10291144 0.597
0.01192 0.10273905 0.59600002
0.013055239 0.10273905 0.59600002
0.014166668 0.10256667 0.59500003
0.015300001 0.10256667 0.59500003
0.016405715 0.10239429 0.59400004
0.017537143 0.10239429 0.59400004
0.018637145 0.10222191 0.59300005
0.019733334 0.10204953 0.59200001
0.020860953 0.10204953 0.59200001
0.021988573 0.10204953 0.59200001
0.023116192 0.10204953 0.59200001
0.024243811 0.10204953 0.59200001
0.025285715 0.10170477 0.59000003
0.026409525 0.10170477 0.59000003
0.027533336 0.10170477 0.59000003
0.028608574 0.10153238 0.58900005
0.029730478 0.10153238 0.58900005
0.030852383 0.10153238 0.58900005
0.031920001 0.10136001 0.588
0.033040002 0.10136001 0.588
0.034218099 0.10153238 0.58900005
0.035400003 0.10170477 0.59000003
0.036585718 0.10187715 0.59100002
0.037839051 0.10222191 0.59300005
0.039100002 0.10256667 0.59500003
0.040233336 0.10256667 0.59500003
0.041436192 0.10273905 0.59600002
0.042571433 0.10273905 0.59600002
0.04370667 0.10273905 0.59600002
-0.0052457144 0.10666286 0.61200005
-0.0028904765 0.10579143 0.60700005
-0.0017285715 0.10544287 0.60500002
-0.00057523814 0.10526858 0.60400003
0.00057523814 0.10526858 0.60400003
0.0017228572 0.10509429 0.60300004
0.0028666668 0.10492001 0.60200006
0.0040133335 0.10492001 0.60200006
0.0051514287 0.10474572 0.60100001
0.0062752385 0.10439715 0.59900004
0.00740381 0.10422286 0.59800005
0.0085285716 0.10404858 0.597
0.0096657146 0.10404858 0.597
0.010784763 0.1038743 0.59600002
0.011900001 0.1037 0.59500003
0.013033334 0.1037 0.59500003
0.014142858 0.10352572 0.59400004
0.015248572 0.10335144 0.59300005
0.016350478 0.10317715 0.59200001
0.01750762 0.10335144 0.59300005
0.018605715 0.10317715 0.59200001
0.019700002 0.10300286 0.59100002
0.020790478 0.10282858 0.59000003
0.021914287 0.10282858 0.59000003
0.023038097 0.10282858 0.59000003
0.024161907 0.10282858 0.59000003
0.025242859 0.10265429 0.58900005
0.026364764 0.10265429 0.58900005
0.027440002 0.10248001 0.588
0.028560001 0.10248001 0.588
0.029730478 0.10265429 0.58900005
0.030800002 0.10248001 0.588
0.031920001 0.10248001 0.588
0.033040002 0.10248001 0.588
0.034160003 0.10248001 0.588
0.035400003 0.10282858 0.59000003
0.036585718 0.10300286 0.59100002
0.037839051 0.10335144 0.59300005
0.039034288 0.10352572 0.59400004
0.040233336 0.1037 0.59500003
0.041436192 0.1038743 0.59600002
0.042571433 0.1038743 0.59600002
0.043780003 0.10404858 0.597
0.044992384 0.10422286 0.59800005
-0.0028904765 0.10694762 0.60700005
-0.0017285715 0.10659525 0.60500002
-0.00057523814 0.10641906 0.60400003
0.00057523814 0.10641906 0.60400003
0.0017228572 0.10624287 0.60300004
0.0028666668 0.10606667 0.60200006
0.0040066671 0.10589048 0.60100001
0.0051342859 0.1055381 0.59900004
0.0062752385 0.1055381 0.59900004
0.00740381 0.10536191 0.59800005
0.0085285716 0.10518572 0.597
0.0096495245 0.10500953 0.59600002
0.010784763 0.10500953 0.59600002
0.011900001 0.10483334 0.59500003
0.013011429 0.10465715 0.59400004
0.014095239 0.10430477 0.59200001
0.015222858 0.10430477 0.59200001
0.016350478 0.10430477 0.59200001
0.017478097 0.10430477 0.59200001
0.018574286 0.10412858 0.59100002
0.019633334 0.10377619 0.58900005
0.020755239 0.10377619 0.58900005
0.021877144 0.10377619 0.58900005
0.022999048 0.10377619 0.58900005
0.024120955 0.10377619 0.58900005
0.025200002 0.10360001 0.588
0.026320001 0.10360001 0.588
0.027440002 0.10360001 0.588
0.028560001 0.10360001 0.588
0.029680002 0.10360001 0.588
0.030800002 0.10360001 0.588
0.031865716 0.10342382 0.58700001
0.032983813 0.10342382 0.58700001
0.034160003 0.10360001 0.588
0.035340004 0.10377619 0.58900005
0.036523812 0.10395239 0.59000003
0.037775241 0.10430477 0.59200001
0.039034288 0.10465715 0.59400004
0.040233336 0.10483334 0.59500003
0.041436192 0.10500953 0.59600002
0.042571433 0.10500953 0.59600002
0.043780003 0.10518572 0.597
0.044917148 0.10518572 0.597
0.046208575 0.1055381 0.59900004
0.047349527 0.1055381 0.59900004
-0.0028857144 0.10792572 0.60600001
-0.0017285715 0.10774763 0.60500002
-0.00057523814 0.10756953 0.60400003
0.00057523814 0.10756953 0.60400003
0.0017228572 0.10739143 0.60300004
0.0028666668 0.10721334 0.60200006
0.0040066671 0.10703524 0.60100001
0.0051342859 0.10667905 0.59900004
0.0062752385 0.10667905 0.59900004
0.00740381 0.10650096 0.59800005
0.008514286 0.10614477 0.59600002
0.0096495245 0.10614477 0.59600002
0.010766667 0.10596667 0.59500003
0.011880001 0.10578858 0.59400004
0.012989525 0.10561048 0.59300005
0.014095239 0.10543239 0.59200001
0.015197144 0.10525429 0.59100002
0.016295239 0.10507619 0.59000003
0.01741905 0.10507619 0.59000003
0.018511429 0.1048981 0.58900005
0.019633334 0.1048981 0.58900005
0.020720001 0.10472 0.588
0.021840001 0.10472 0.588
0.022960002 0.10472 0.588
0.024080001 0.10472 0.588
0.025200002 0.10472 0.588
0.02627524 0.10454191 0.58700001
0.027393335 0.10454191 0.58700001
0.028511431 0.10454191 0.58700001
0.029629527 0.10454191 0.58700001
0.03074762 0.10454191 0.58700001
0.031865716 0.10454191 0.58700001
0.032983813 0.10454191 0.58700001
0.034101907 0.10454191 0.58700001
0.035280004 0.10472 0.588
0.036523812 0.10507619 0.59000003
0.03771143 0.10525429 0.59100002
0.039034288 0.10578858 0.59400004
0.040165719 0.10578858 0.59400004
0.04136667 0.10596667 0.59500003
0.042500004 0.10596667 0.59500003
0.043780003 0.10632286 0.597
0.044992384 0.10650096 0.59800005
0.046208575 0.10667905 0.59900004
0.047349527 0.10667905 0.59900004
-0.0040466669 0.10926001 0.60700005
-0.0028857144 0.10908001 0.60600001
-0.0017285715 0.10890001 0.60500002
-0.00057619053 0.10890001 0.60500002
0.00057523814 0.10872 0.60400003
0.0017228572 0.10854001 0.60300004
0.0028666668 0.10836001 0.60200006
0.0040066671 0.10818001 0.60100001
0.0051342859 0.10782 0.59900004
0.0062647625 0.10764001 0.59800005
0.007391429 0.10746001 0.597
0.008514286 0.10728001 0.59600002
0.0096333344 0.10710001 0.59500003
0.010748572 0.10692 0.59400004
0.011840001 0.10656001 0.59200001
0.012945715 0.10638001 0.59100002
0.014071429 0.10638001 0.59100002
0.015171429 0.10620001 0.59000003
0.01626762 0.10602 0.58900005
0.017360002 0.10584 0.588
0.018480001 0.10584 0.588
0.019600002 0.10584 0.588
0.020720001 0.10584 0.588
0.021840001 0.10584 0.588
0.022920953 0.10566001 0.58700001
0.024039049 0.10566001 0.58700001
0.025157144 0.10566001 0.58700001
0.026230479 0.10548001 0.58600003
0.027346669 0.10548001 0.58600003
0.028462859 0.10548001 0.58600003
0.029579049 0.10548001 0.58600003
0.030695241 0.10548001 0.58600003
0.031811431 0.10548001 0.58600003
0.032927621 0.10548001 0.58600003
0.034043811 0.10548001 0.58600003
0.035220001 0.10566001 0.58700001
0.036400001 0.10584 0.588
0.037583813 0.10602 0.58900005
0.038705718 0.10602 0.58900005
0.040098097 0.10674001 0.59300005
0.04136667 0.10710001 0.59500003
0.042500004 0.10710001 0.59500003
0.043780003 0.10746001 0.597
0.044992384 0.10764001 0.59800005
0.046208575 0.10782 0.59900004
0.047349527 0.10782 0.59900004
-0.0040466669 0.1104162 0.60700005
-0.0028857144 0.11023429 0.60600001
-0.0017285715 0.11005239 0.60500002
-0.00057523814 0.10987049 0.60400003
0.00057523814 0.10987049 0.60400003
0.0017228572 0.10968858 0.60300004
0.0028666668 0.10950667 0.60200006
0.0040066671 0.10932477 0.60100001
0.0051342859 0.10896096 0.59900004
0.0062647625 0.10877906 0.59800005
0.007379048 0.10841525 0.59600002
0.0085000005 0.10823334 0.59500003
0.0096171433 0.10805143 0.59400004
0.010730477 0.10786953 0.59300005
0.011840001 0.10768763 0.59200001
0.012945715 0.10750572 0.59100002
0.01404762 0.10732382 0.59000003
0.015145715 0.10714191 0.58900005
0.016240001 0.10696001 0.588
0.017330477 0.1067781 0.58700001
0.018448573 0.1067781 0.58700001
0.019566668 0.1067781 0.58700001
0.020684764 0.1067781 0.58700001
0.021765716 0.10659619 0.58600003
0.022842858 0.1064143 0.58500004
0.023998097 0.10659619 0.58600003
0.025114287 0.10659619 0.58600003
0.026185716 0.1064143 0.58500004
0.027300002 0.1064143 0.58500004
0.028414287 0.1064143 0.58500004
0.029528573 0.1064143 0.58500004
0.03064286 0.1064143 0.58500004
0.031757146 0.1064143 0.58500004
0.032871429 0.1064143 0.58500004
0.033985715 0.1064143 0.58500004
0.035100002 0.1064143 0.58500004
0.036276191 0.10659619 0.58600003
0.037456192 0.1067781 0.58700001
0.03857429 0.1067781 0.58700001
0.039489526 0.10623239 0.58400005
0.040671431 0.1064143 0.58500004
0.04271429 0.10877906 0.59800005
0.043853335 0.10877906 0.59800005
0.044992384 0.10877906 0.59800005
0.046208575 0.10896096 0.59900004
0.047349527 0.10896096 0.59900004
-0.0040466669 0.11157238 0.60700005
-0.0028857144 0.11138858 0.60600001
-0.0017285715 0.11120477 0.60500002
-0.00057523814 0.11102096 0.60400003
0.00057523814 0.11102096 0.60400003
0.0017228572 0.11083715 0.60300004
0.0028666668 0.11065334 0.60200006
0.0040066671 0.11046953 0.60100001
0.0051257145 0.1099181 0.59800005
0.006254286 0.10973429 0.597
0.007366667 0.10936667 0.59500003
0.0084714293 0.10899905 0.59300005
0.0095847622 0.10881525 0.59200001
0.010712381 0.10881525 0.59200001
0.011820001 0.10863143 0.59100002
0.012901906 0.10826381 0.58900005
0.014023811 0.10826381 0.58900005
0.015120001 0.10808001 0.588
0.016212381 0.10789619 0.58700001
0.017330477 0.10789619 0.58700001
0.018417144 0.10771239 0.58600003
0.019533334 0.10771239 0.58600003
0.020649524 0.10771239 0.58600003
0.021728573 0.10752858 0.58500004
0.022842858 0.10752858 0.58500004
0.023957144 0.10752858 0.58500004
0.025071431 0.10752858 0.58500004
0.026140954 0.10734477 0.58400005
0.027253335 0.10734477 0.58400005
0.028365716 0.10734477 0.58400005
0.029478097 0.10734477 0.58400005
0.030590478 0.10734477 0.58400005
0.031702857 0.10734477 0.58400005
0.03281524 0.10734477 0.58400005
0.033927619 0.10734477 0.58400005
0.035040002 0.10734477 0.58400005
0.036152385 0.10734477 0.58400005
0.037328575 0.10752858 0.58500004
0.038377147 0.10734477 0.58400005
0.039489526 0.10734477 0.58400005
0.040671431 0.10752858 0.58500004
0.041785717 0.10752858 0.58500004
0.043926671 0.11010191 0.59900004
0.045067623 0.11010191 0.59900004
0.046208575 0.11010191 0.59900004
0.047349527 0.11010191 0.59900004
-0.0040333336 0.11235715 0.60500002
-0.0028857144 0.11254287 0.60600001
-0.0017285715 0.11235715 0.60500002
-0.00057523814 0.11217143 0.60400003
0.00057523814 0.11217143 0.60400003
0.0017228572 0.11198572 0.60300004
0.0028666668 0.11180001 0.60200006
0.0040066671 0.11161429 0.60100001
0.0051257145 0.11105715 0.59800005
0.0062438101 0.11068572 0.59600002
0.007354286 0.11031429 0.59400004
0.0084571438 0.10994286 0.59200001
0.0095847622 0.10994286 0.59200001
0.010694287 0.10975715 0.59100002
0.011780001 0.10938572 0.58900005
0.012880001 0.10920001 0.588
0.014000001 0.10920001 0.588
0.015094287 0.1090143 0.58700001
0.016212381 0.1090143 0.58700001
0.017300954 0.10882858 0.58600003
0.018385716 0.10864286 0.58500004
0.0195 0.10864286 0.58500004
0.020614287 0.10864286 0.58500004
0.02169143 0.10845715 0.58400005
0.022803811 0.10845715 0.58400005
0.023916192 0.10845715 0.58400005
0.025028573 0.10845715 0.58400005
0.026140954 0.10845715 0.58400005
0.027253335 0.10845715 0.58400005
0.028365716 0.10845715 0.58400005
0.029427622 0.10827143 0.583
0.030590478 0.10845715 0.58400005
0.031702857 0.10845715 0.58400005
0.032759048 0.10827143 0.583
0.033927619 0.10845715 0.58400005
0.035040002 0.10845715 0.58400005
0.036152385 0.10845715 0.58400005
0.037264764 0.10845715 0.58400005
0.038377147 0.10845715 0.58400005
0.039489526 0.10845715 0.58400005
0.040671431 0.10864286 0.58500004
0.041785717 0.10864286 0.58500004
0.043046668 0.1090143 0.58700001
0.045142859 0.11142858 0.60000002
0.046285719 0.11142858 0.60000002
-0.0040266667 0.11332192 0.60400003
-0.0028809526 0.11350953 0.60500002
-0.0017257144 0.11332192 0.60400003
-0.00057428575 0.11313429 0.60300004
0.00057428575 0.11313429 0.60300004
0.0017200001 0.11294667 0.60200006
0.0028619049 0.11275905 0.60100001
0.0040000002 0.11257143 0.60000002
0.0051085716 0.11182096 0.59600002
0.0062123812 0.1112581 0.59300005
0.0073295245 0.11107048 0.59200001
0.0084428573 0.11088286 0.59100002
0.0095523819 0.11069524 0.59000003
0.010676191 0.11069524 0.59000003
0.011760001 0.11032001 0.588
0.012858097 0.11013239 0.58700001
0.013976191 0.11013239 0.58700001
0.015068572 0.10994477 0.58600003
0.016157145 0.10975715 0.58500004
0.017241906 0.10956953 0.58400005
0.018354287 0.10956953 0.58400005
0.019466668 0.10956953 0.58400005
0.02054381 0.10938191 0.583
0.021654287 0.10938191 0.583
0.022764763 0.10938191 0.583
0.02387524 0.10938191 0.583
0.024985716 0.10938191 0.583
0.02605143 0.10919429 0.58200002
0.027160002 0.10919429 0.58200002
0.028268574 0.10919429 0.58200002
0.029377146 0.10919429 0.58200002
0.030485716 0.10919429 0.58200002
0.031648573 0.10938191 0.583
0.032702859 0.10919429 0.58200002
0.033869527 0.10938191 0.583
0.034980003 0.10938191 0.583
0.036090478 0.10938191 0.583
0.037264764 0.10956953 0.58400005
0.038311429 0.10938191 0.583
0.039489526 0.10956953 0.58400005
0.040601909 0.10956953 0.58400005
0.041857146 0.10994477 0.58600003
0.042973336 0.10994477 0.58600003
0.044164766 0.11013239 0.58700001
0.045282859 0.11013239 0.58700001
-0.0028761907 0.11447239 0.60400003
-0.0017228572 0.11428286 0.60300004
-0.00057333335 0.11409334 0.60200006
0.00057333335 0.11409334 0.60200006
0.001717143 0.11390382 0.60100001
0.0028571431 0.11371429 0.60000002
0.0039733336 0.1129562 0.59600002
0.0050914288 0.11257715 0.59400004
0.0062123812 0.11238763 0.59300005
0.0073295245 0.1121981 0.59200001
0.0084428573 0.11200858 0.59100002
0.0095523819 0.11181906 0.59000003
0.010676191 0.11181906 0.59000003
0.011760001 0.11144001 0.588
0.012858097 0.11125048 0.58700001
0.013952382 0.11106096 0.58600003
0.015068572 0.11106096 0.58600003
0.016157145 0.11087143 0.58500004
0.017241906 0.11068191 0.58400005
0.018354287 0.11068191 0.58400005
0.019433334 0.11049239 0.583
0.02054381 0.11049239 0.583
0.021617144 0.11030287 0.58200002
0.022725716 0.11030287 0.58200002
0.023834288 0.11030287 0.58200002
0.024942858 0.11030287 0.58200002
0.02605143 0.11030287 0.58200002
0.027113335 0.11011334 0.58100003
0.028220002 0.11011334 0.58100003
0.029326668 0.11011334 0.58100003
0.030485716 0.11030287 0.58200002
0.031594288 0.11030287 0.58200002
0.032702859 0.11030287 0.58200002
0.033811431 0.11030287 0.58200002
0.034980003 0.11049239 0.583
0.036090478 0.11049239 0.583
0.037264764 0.11068191 0.58400005
0.038311429 0.11049239 0.583
0.039489526 0.11068191 0.58400005
0.040601909 0.11068191 0.58400005
0.041785717 0.11087143 0.58500004
