# .PCD v0.7 - Point Cloud Data file format
VERSION 0.7
FIELDS x y z
SIZE 4 4 4
TYPE F F F
COUNT 1 1 1
WIDTH 1395
HEIGHT 1
VIEWPOINT 0 0 0 1 0 0 0
POINTS 1395
DATA ascii
0.010053334 -0.020880001 0.81200004
0.01157143 -0.020828573 0.81000006
0.013081905 -0.020777144 0.80800003
0.014584763 -0.020725716 0.80600005
0.016080001 -0.020674286 0.80400002
0.01756762 -0.020622859 0.80200005
0.01909524 -0.020622859 0.80200005
0.020571429 -0.020571429 0.80000001
0.022095239 -0.020571429 0.80000001
0.023619048 -0.020571429 0.80000001
0.025205716 -0.020622859 0.80200005
0.026733335 -0.020622859 0.80200005
0.028331431 -0.020674286 0.80400002
0.029937144 -0.020725716 0.80600005
0.031550478 -0.020777144 0.80800003
0.033089526 -0.020777144 0.80800003
0.034628574 -0.020777144 0.80800003
0.036257144 -0.020828573 0.81000006
0.037800003 -0.020828573 0.81000006
0.039342858 -0.020828573 0.81000006
0.040986668 -0.020880001 0.81200004
0.0023257143 -0.019380953 0.81400001
0.0038761906 -0.019380953 0.81400001
0.0054266672 -0.019380953 0.81400001
0.0069771432 -0.019380953 0.81400001
0.0085066669 -0.019333335 0.81200004
0.010053334 -0.019333335 0.81200004
0.01157143 -0.019285716 0.81000006
0.013081905 -0.019238096 0.80800003
0.014548573 -0.019142859 0.80400002
0.016040001 -0.01909524 0.80200005
0.01752381 -0.01904762 0.80000001
0.01904762 -0.01904762 0.80000001
0.020520002 -0.019000001 0.79800004
0.022040002 -0.019000001 0.79800004
0.023560002 -0.019000001 0.79800004
0.025080001 -0.019000001 0.79800004
0.026666669 -0.01904762 0.80000001
0.028190479 -0.01904762 0.80000001
0.029788574 -0.01909524 0.80200005
0.031394288 -0.019142859 0.80400002
0.033007622 -0.019190477 0.80600005
0.034542859 -0.019190477 0.80600005
0.036167622 -0.019238096 0.80800003
0.037706669 -0.019238096 0.80800003
0.039245717 -0.019238096 0.80800003
0.040784765 -0.019238096 0.80800003
0.0054266672 -0.017830478 0.81400001
0.0069600004 -0.017786669 0.81200004
0.0085066669 -0.017786669 0.81200004
0.010053334 -0.017786669 0.81200004
0.011514287 -0.017655239 0.80600005
0.013017144 -0.017611429 0.80400002
0.014512382 -0.01756762 0.80200005
0.016000001 -0.01752381 0.80000001
0.017480001 -0.017480001 0.79800004
0.019000001 -0.017480001 0.79800004
0.020520002 -0.017480001 0.79800004
0.022012383 -0.017458096 0.79700005
0.023530478 -0.017458096 0.79700005
0.025048573 -0.017458096 0.79700005
0.026600001 -0.017480001 0.79800004
0.028120002 -0.017480001 0.79800004
0.029714288 -0.01752381 0.80000001
0.031316191 -0.01756762 0.80200005
0.032925718 -0.017611429 0.80400002
0.034457143 -0.017611429 0.80400002
0.036078099 -0.017655239 0.80600005
0.037613336 -0.017655239 0.80600005
0.039148573 -0.017655239 0.80600005
0.040784765 -0.017699048 0.80800003
0.042323813 -0.017699048 0.80800003
0.00844381 -0.016120002 0.80600005
0.0099295247 -0.016040001 0.80200005
0.011457143 -0.016040001 0.80200005
0.012952382 -0.016000001 0.80000001
0.014476191 -0.016000001 0.80000001
0.01596 -0.01596 0.79800004
0.017480001 -0.01596 0.79800004
0.018976191 -0.015940001 0.79700005
0.020494288 -0.015940001 0.79700005
0.022012383 -0.015940001 0.79700005
0.023530478 -0.015940001 0.79700005
0.025048573 -0.015940001 0.79700005
0.026566667 -0.015940001 0.79700005
0.028120002 -0.01596 0.79800004
0.029714288 -0.016000001 0.80000001
0.031238098 -0.016000001 0.80000001
0.032843813 -0.016040001 0.80200005
0.034371432 -0.016040001 0.80200005
0.035988573 -0.016080001 0.80400002
0.037613336 -0.016120002 0.80600005
0.039148573 -0.016120002 0.80600005
0.040683813 -0.016120002 0.80600005
0.042323813 -0.016160002 0.80800003
-0.00088285719 -0.016774287 0.92700005
0.0099047627 -0.014476191 0.80000001
0.011400001 -0.014440001 0.79800004
0.012920001 -0.014440001 0.79800004
0.014440001 -0.014440001 0.79800004
0.01596 -0.014440001 0.79800004
0.017458096 -0.014421905 0.79700005
0.018976191 -0.014421905 0.79700005
0.020494288 -0.014421905 0.79700005
0.022012383 -0.014421905 0.79700005
0.02347143 -0.014385715 0.79500002
0.024985716 -0.014385715 0.79500002
0.026566667 -0.014421905 0.79700005
0.028084764 -0.014421905 0.79700005
0.029640002 -0.014440001 0.79800004
0.031160003 -0.014440001 0.79800004
0.032761905 -0.014476191 0.80000001
0.034285717 -0.014476191 0.80000001
0.035988573 -0.014548573 0.80400002
0.037520003 -0.014548573 0.80400002
0.039148573 -0.014584763 0.80600005
0.040683813 -0.014584763 0.80600005
0.042323813 -0.014620953 0.80800003
0.043862861 -0.014620953 0.80800003
0.045401908 -0.014620953 0.80800003
0.0098800007 -0.012920001 0.79800004
0.011400001 -0.012920001 0.79800004
0.012920001 -0.012920001 0.79800004
0.014440001 -0.012920001 0.79800004
0.015940001 -0.01290381 0.79700005
0.017414287 -0.012871429 0.79500002
0.018928573 -0.012871429 0.79500002
0.020442858 -0.012871429 0.79500002
0.021957144 -0.012871429 0.79500002
0.02347143 -0.012871429 0.79500002
0.024985716 -0.012871429 0.79500002
0.026500002 -0.012871429 0.79500002
0.028084764 -0.01290381 0.79700005
0.029640002 -0.012920001 0.79800004
0.031160003 -0.012920001 0.79800004
0.032761905 -0.012952382 0.80000001
0.034285717 -0.012952382 0.80000001
0.035899051 -0.012984763 0.80200005
0.037426669 -0.012984763 0.80200005
0.038954288 -0.012984763 0.80200005
0.040582858 -0.013017144 0.80400002
0.04221905 -0.013049524 0.80600005
0.043862861 -0.013081905 0.80800003
0.01290381 -0.011385715 0.79700005
0.014421905 -0.011385715 0.79700005
0.015900001 -0.011357144 0.79500002
0.017414287 -0.011357144 0.79500002
0.021901906 -0.011328572 0.79300004
0.023412382 -0.011328572 0.79300004
0.024922859 -0.011328572 0.79300004
0.026500002 -0.011357144 0.79500002
0.028014287 -0.011357144 0.79500002
0.029602859 -0.011385715 0.79700005
0.031120954 -0.011385715 0.79700005
0.032680001 -0.011400001 0.79800004
0.034200002 -0.011400001 0.79800004
0.035720002 -0.011400001 0.79800004
0.037333336 -0.011428572 0.80000001
0.038857147 -0.011428572 0.80000001
0.040582858 -0.011485715 0.80400002
0.042114288 -0.011485715 0.80400002
0.014421905 -0.0098676197 0.79700005
0.017370477 -0.0098180957 0.79300004
0.023412382 -0.0098180957 0.79300004
0.024922859 -0.0098180957 0.79300004
0.026433336 -0.0098180957 0.79300004
0.029602859 -0.0098676197 0.79700005
0.031042859 -0.0098428577 0.79500002
0.032639049 -0.0098676197 0.79700005
0.034071431 -0.0098428577 0.79500002
0.035675239 -0.0098676197 0.79700005
0.037193336 -0.0098676197 0.79700005
0.038760003 -0.0098800007 0.79800004
0.040380955 -0.0099047627 0.80000001
0.041904766 -0.0099047627 0.80000001
0.031042859 -0.0083285719 0.79500002
0.032557145 -0.0083285719 0.79500002
0.034071431 -0.0083285719 0.79500002
0.035585716 -0.0083285719 0.79500002
0.037100002 -0.0083285719 0.79500002
0.038760003 -0.0083600003 0.79800004
0.040380955 -0.0083809532 0.80000001
0.041904766 -0.0083809532 0.80000001
-0.016774287 -0.00088285719 0.92700005
-0.029494287 0.034277145 0.83700001
0.1714143 0.037823811 0.84500003
0.17100859 0.039340004 0.84300005
0.17261429 0.039340004 0.84300005
0.14461429 0.065871432 0.79500002
0.14612858 0.065871432 0.79500002
0.14122954 0.067216195 0.79300004
0.14274001 0.067216195 0.79300004
0.14425048 0.067216195 0.79300004
0.14576097 0.067216195 0.79300004
0.14727144 0.067216195 0.79300004
0.13786002 0.068553336 0.79100001
0.13936667 0.068553336 0.79100001
0.14087334 0.068553336 0.79100001
0.14238001 0.068553336 0.79100001
0.14388667 0.068553336 0.79100001
0.14539334 0.068553336 0.79100001
0.14690001 0.068553336 0.79100001
-0.00057809526 0.082667626 0.60700005
-0.0017342858 0.083823815 0.60700005
-0.00057809526 0.083823815 0.60700005
-0.012240001 0.085680008 0.61200005
-0.011056191 0.085540004 0.611
-0.0040466669 0.084980004 0.60700005
-0.0028857144 0.084840007 0.60600001
-0.0017342858 0.084980004 0.60700005
-0.00057904766 0.085120007 0.60800004
0.00057809526 0.084980004 0.60700005
-0.012220001 0.086703815 0.611
-0.011020001 0.086420007 0.60900003
-0.0098438105 0.086278103 0.60800004
-0.0086857146 0.086278103 0.60800004
-0.0075276196 0.086278103 0.60800004
-0.0063590482 0.0861362 0.60700005
-0.0052114287 0.086278103 0.60800004
-0.0040466669 0.0861362 0.60700005
-0.0028857144 0.085994288 0.60600001
-0.0017342858 0.0861362 0.60700005
-0.00057809526 0.0861362 0.60700005
0.00057809526 0.0861362 0.60700005
-0.012220001 0.087867625 0.611
-0.011020001 0.087580003 0.60900003
-0.0098438105 0.087436199 0.60800004
-0.0086857146 0.087436199 0.60800004
-0.0075152386 0.087292388 0.60700005
-0.0063590482 0.087292388 0.60700005
-0.0052028573 0.087292388 0.60700005
-0.0040466669 0.087292388 0.60700005
-0.0028857144 0.087148577 0.60600001
-0.0017342858 0.087292388 0.60700005
-0.00057809526 0.087292388 0.60700005
0.00057714287 0.087148577 0.60600001
-0.014571429 0.089177147 0.61200005
-0.013405715 0.089177147 0.61200005
-0.012220001 0.089031436 0.611
-0.011020001 0.088740006 0.60900003
-0.0098438105 0.088594295 0.60800004
-0.0086857146 0.088594295 0.60800004
-0.0075152386 0.088448577 0.60700005
-0.0063695242 0.088594295 0.60800004
-0.0052028573 0.088448577 0.60700005
-0.0040466669 0.088448577 0.60700005
-0.0028857144 0.088302866 0.60600001
-0.0017342858 0.088448577 0.60700005
-0.00057809526 0.088448577 0.60700005
0.00057809526 0.088448577 0.60700005
0.0017314287 0.088302866 0.60600001
-0.018275239 0.091376193 0.61900002
-0.016958097 0.090638101 0.61400002
-0.015762858 0.090490483 0.61300004
-0.014571429 0.090342864 0.61200005
-0.013405715 0.090342864 0.61200005
-0.012180001 0.089900009 0.60900003
-0.011020001 0.089900009 0.60900003
-0.0098438105 0.089752384 0.60800004
-0.008671429 0.089604765 0.60700005
-0.0075152386 0.089604765 0.60700005
-0.0063590482 0.089604765 0.60700005
-0.0052028573 0.089604765 0.60700005
-0.0040466669 0.089604765 0.60700005
-0.0028857144 0.089457147 0.60600001
-0.0017342858 0.089604765 0.60700005
-0.00057809526 0.089604765 0.60700005
0.00057809526 0.089604765 0.60700005
0.0017314287 0.089457147 0.60600001
-0.016958097 0.091807626 0.61400002
-0.015762858 0.0916581 0.61300004
-0.014571429 0.091508575 0.61200005
-0.013405715 0.091508575 0.61200005
-0.012180001 0.091060005 0.60900003
-0.011020001 0.091060005 0.60900003
-0.0098438105 0.090910479 0.60800004
-0.008671429 0.090760961 0.60700005
-0.0075152386 0.090760961 0.60700005
-0.0063590482 0.090760961 0.60700005
-0.0052028573 0.090760961 0.60700005
-0.0040466669 0.090760961 0.60700005
-0.0028904765 0.090760961 0.60700005
-0.0017371429 0.090910479 0.60800004
-0.00057904766 0.090910479 0.60800004
0.00057904766 0.090910479 0.60800004
0.0017342858 0.090760961 0.60700005
-0.019391431 0.093431436 0.61700004
-0.018186668 0.093280002 0.61600006
-0.016958097 0.092977151 0.61400002
-0.015762858 0.092825718 0.61300004
-0.014571429 0.092674293 0.61200005
-0.013405715 0.092674293 0.61200005
-0.012180001 0.092220008 0.60900003
-0.011020001 0.092220008 0.60900003
-0.0098438105 0.092068575 0.60800004
-0.0086857146 0.092068575 0.60800004
-0.0075152386 0.09191715 0.60700005
-0.0063590482 0.09191715 0.60700005
-0.0052028573 0.09191715 0.60700005
-0.0040466669 0.09191715 0.60700005
-0.0028904765 0.09191715 0.60700005
-0.0017371429 0.092068575 0.60800004
-0.00057904766 0.092068575 0.60800004
0.00058000005 0.092220008 0.60900003
0.0017371429 0.092068575 0.60800004
0.0063800006 0.092220008 0.60900003
0.0075276196 0.092068575 0.60800004
0.008671429 0.09191715 0.60700005
-0.019360002 0.094453342 0.61600006
-0.018157143 0.094300009 0.61500001
-0.016930478 0.093993336 0.61300004
-0.015762858 0.093993336 0.61300004
-0.014571429 0.093840003 0.61200005
-0.013405715 0.093840003 0.61200005
-0.012180001 0.093380004 0.60900003
-0.011020001 0.093380004 0.60900003
-0.0098438105 0.093226671 0.60800004
-0.0086857146 0.093226671 0.60800004
-0.0075152386 0.093073338 0.60700005
-0.0063590482 0.093073338 0.60700005
-0.0052028573 0.093073338 0.60700005
-0.0040466669 0.093073338 0.60700005
-0.0028904765 0.093073338 0.60700005
-0.0017371429 0.093226671 0.60800004
-0.00057904766 0.093226671 0.60800004
0.00058000005 0.093380004 0.60900003
0.0017400001 0.093380004 0.60900003
0.002914286 0.093840003 0.61200005
0.0040800003 0.093840003 0.61200005
0.0052457144 0.093840003 0.61200005
0.0063800006 0.093380004 0.60900003
0.0075276196 0.093226671 0.60800004
0.0086857146 0.093226671 0.60800004
0.0098438105 0.093226671 0.60800004
-0.020533334 0.095626675 0.61600006
-0.019328572 0.095471434 0.61500001
-0.018157143 0.095471434 0.61500001
-0.016958097 0.095316194 0.61400002
-0.015762858 0.095160961 0.61300004
-0.014571429 0.095005721 0.61200005
-0.013405715 0.095005721 0.61200005
-0.012180001 0.094540007 0.60900003
-0.011020001 0.094540007 0.60900003
-0.0098438105 0.094384767 0.60800004
-0.0086857146 0.094384767 0.60800004
-0.0075152386 0.094229527 0.60700005
-0.0063590482 0.094229527 0.60700005
-0.0052028573 0.094229527 0.60700005
-0.0040466669 0.094229527 0.60700005
-0.0028904765 0.094229527 0.60700005
-0.0017400001 0.094540007 0.60900003
-0.00058000005 0.094540007 0.60900003
0.00058190478 0.094850481 0.611
0.0017457145 0.094850481 0.611
0.002914286 0.095005721 0.61200005
0.0040800003 0.095005721 0.61200005
0.0052457144 0.095005721 0.61200005
0.0064009526 0.094850481 0.611
0.0075276196 0.094384767 0.60800004
0.0086857146 0.094384767 0.60800004
-0.020533334 0.096800007 0.61600006
-0.019328572 0.096642867 0.61500001
-0.01812762 0.096485719 0.61400002
-0.016930478 0.096328579 0.61300004
-0.015762858 0.096328579 0.61300004
-0.014571429 0.096171431 0.61200005
-0.01338381 0.096014291 0.611
-0.01216 0.095542863 0.60800004
-0.011001905 0.095542863 0.60800004
-0.0098438105 0.095542863 0.60800004
-0.0086857146 0.095542863 0.60800004
-0.0075276196 0.095542863 0.60800004
-0.0063695242 0.095542863 0.60800004
-0.0052114287 0.095542863 0.60800004
-0.0040533338 0.095542863 0.60800004
-0.0028952383 0.095542863 0.60800004
-0.0017400001 0.095700003 0.60900003
-0.00058190478 0.096014291 0.611
0.00058190478 0.096014291 0.611
0.0017457145 0.096014291 0.611
0.002914286 0.096171431 0.61200005
0.0040800003 0.096171431 0.61200005
0.0052457144 0.096171431 0.61200005
0.006411429 0.096171431 0.61200005
-0.022880001 0.097973339 0.61600006
-0.021706669 0.097973339 0.61600006
-0.020533334 0.097973339 0.61600006
-0.019360002 0.097973339 0.61600006
-0.01812762 0.097655244 0.61400002
-0.016930478 0.097496197 0.61300004
-0.015762858 0.097496197 0.61300004
-0.014571429 0.097337149 0.61200005
-0.013405715 0.097337149 0.61200005
-0.01216 0.096700959 0.60800004
-0.011001905 0.096700959 0.60800004
-0.0098438105 0.096700959 0.60800004
-0.0086857146 0.096700959 0.60800004
-0.0075152386 0.096541911 0.60700005
-0.0063590482 0.096541911 0.60700005
-0.0052114287 0.096700959 0.60800004
-0.0040533338 0.096700959 0.60800004
-0.0028904765 0.096541911 0.60700005
-0.0017371429 0.096700959 0.60800004
0.0040866667 0.097496197 0.61300004
-0.022880001 0.099146672 0.61600006
-0.021706669 0.099146672 0.61600006
-0.020533334 0.099146672 0.61600006
-0.019360002 0.099146672 0.61600006
-0.018157143 0.098985724 0.61500001
-0.016958097 0.098824769 0.61400002
-0.015762858 0.098663814 0.61300004
-0.014571429 0.098502867 0.61200005
-0.013405715 0.098502867 0.61200005
-0.012180001 0.09802001 0.60900003
-0.011020001 0.09802001 0.60900003
-0.0098600006 0.09802001 0.60900003
-0.0086857146 0.097859055 0.60800004
-0.0075400006 0.09802001 0.60900003
-0.0063695242 0.097859055 0.60800004
-0.005237143 0.098341912 0.611
-0.0040733335 0.098341912 0.611
0.014833334 0.10027334 0.62300003
0.015942859 0.099790484 0.62
-0.022842858 0.10015715 0.61500001
-0.021671429 0.10015715 0.61500001
-0.020500001 0.10015715 0.61500001
-0.019328572 0.10015715 0.61500001
-0.018157143 0.10015715 0.61500001
-0.016958097 0.099994294 0.61400002
-0.015788572 0.099994294 0.61400002
-0.014571429 0.099668577 0.61200005
-0.013340001 0.099180005 0.60900003
-0.01216 0.099017151 0.60800004
-0.011056191 0.099505723 0.611
-0.0098600006 0.099180005 0.60900003
-0.0087000001 0.099180005 0.60900003
-0.0075400006 0.099180005 0.60900003
-0.0063800006 0.099180005 0.60900003
-0.005237143 0.099505723 0.611
0.0088571431 0.10097144 0.62
0.012460001 0.10146001 0.62300003
0.013646668 0.10146001 0.62300003
0.014833334 0.10146001 0.62300003
0.015994286 0.10129715 0.62200004
0.01717905 0.10129715 0.62200004
0.018363811 0.10129715 0.62200004
0.019485716 0.10097144 0.62
-0.022842858 0.10132858 0.61500001
-0.021671429 0.10132858 0.61500001
-0.020500001 0.10132858 0.61500001
-0.019328572 0.10132858 0.61500001
-0.018157143 0.10132858 0.61500001
-0.016958097 0.10116382 0.61400002
-0.015762858 0.10099906 0.61300004
-0.014571429 0.1008343 0.61200005
-0.013340001 0.10034001 0.60900003
-0.012220001 0.10066953 0.611
-0.011056191 0.10066953 0.611
-0.0098923817 0.10066953 0.611
-0.0087000001 0.10034001 0.60900003
-0.0075400006 0.10034001 0.60900003
0.0065161907 0.10248191 0.62200004
0.0077009527 0.10248191 0.62200004
0.0088571431 0.10215238 0.62
0.010070477 0.10248191 0.62200004
0.011273334 0.10264667 0.62300003
0.012460001 0.10264667 0.62300003
0.013646668 0.10264667 0.62300003
0.014809525 0.10248191 0.62200004
0.015994286 0.10248191 0.62200004
0.01717905 0.10248191 0.62200004
0.018363811 0.10248191 0.62200004
0.019548573 0.10248191 0.62200004
0.053193338 0.11648668 0.70700002
-0.022842858 0.10250001 0.61500001
-0.021671429 0.10250001 0.61500001
-0.020533334 0.10266668 0.61600006
-0.019328572 0.10250001 0.61500001
-0.018186668 0.10266668 0.61600006
-0.016985716 0.10250001 0.61500001
-0.015814288 0.10250001 0.61500001
-0.014571429 0.10200001 0.61200005
-0.013318096 0.10133334 0.60800004
-0.01216 0.10133334 0.60800004
-0.011074287 0.10200001 0.61200005
-0.0098923817 0.10183334 0.611
-0.0087000001 0.1015 0.60900003
-0.00059523812 0.10416667 0.625
0.00059523812 0.10416667 0.625
0.0017828572 0.10400001 0.62400001
0.002961905 0.10366667 0.62200004
0.0041533336 0.10383334 0.62300003
0.0053485716 0.10400001 0.62400001
0.0065266672 0.10383334 0.62300003
0.0077133337 0.10383334 0.62300003
0.0088857152 0.10366667 0.62200004
0.010070477 0.10366667 0.62200004
0.011291429 0.10400001 0.62400001
0.012460001 0.10383334 0.62300003
0.013646668 0.10383334 0.62300003
0.014809525 0.10366667 0.62200004
0.016020002 0.10383334 0.62300003
0.017206667 0.10383334 0.62300003
0.018393334 0.10383334 0.62300003
0.019548573 0.10366667 0.62200004
0.020733334 0.10366667 0.62200004
0.021953335 0.10383334 0.62300003
0.023177145 0.10400001 0.62400001
0.02559524 0.10416667 0.625
0.050928574 0.11883334 0.71300006
0.052360002 0.11900001 0.71400005
0.053644765 0.11883334 0.71300006
0.054540005 0.11783334 0.70700002
0.055728573 0.11750001 0.70500004
-0.022880001 0.10384001 0.61600006
-0.021706669 0.10384001 0.61600006
-0.020566668 0.10400858 0.61700004
-0.019391431 0.10400858 0.61700004
-0.018245716 0.10417715 0.61800003
-0.017040953 0.10400858 0.61700004
-0.015840001 0.10384001 0.61600006
-0.014666667 0.10384001 0.61600006
-0.013471429 0.10367144 0.61500001
-0.012300001 0.10367144 0.61500001
-0.011128572 0.10367144 0.61500001
-0.0099733341 0.10384001 0.61600006
-0.0017885716 0.10552572 0.62600005
-0.00059523812 0.10535715 0.625
0.00059428578 0.10518858 0.62400001
0.0017828572 0.10518858 0.62400001
0.0029761908 0.10535715 0.625
0.0041666669 0.10535715 0.625
0.005357143 0.10535715 0.625
0.0065371431 0.10518858 0.62400001
0.0077257147 0.10518858 0.62400001
0.0089142863 0.10518858 0.62400001
0.010086668 0.10502001 0.62300003
0.011291429 0.10518858 0.62400001
0.012480001 0.10518858 0.62400001
0.013646668 0.10502001 0.62300003
0.014833334 0.10502001 0.62300003
0.016045716 0.10518858 0.62400001
0.017206667 0.10502001 0.62300003
0.018422859 0.10518858 0.62400001
0.019580001 0.10502001 0.62300003
0.020800002 0.10518858 0.62400001
0.021988573 0.10518858 0.62400001
0.023177145 0.10518858 0.62400001
0.024365716 0.10518858 0.62400001
0.02559524 0.10535715 0.625
0.026828574 0.10552572 0.62600005
0.053945716 0.12086572 0.71700001
0.054771431 0.11968572 0.71000004
0.055886671 0.11918001 0.70700002
0.056909528 0.11850572 0.70300001
-0.021777144 0.10535429 0.61800003
-0.020600002 0.10535429 0.61800003
-0.019422859 0.10535429 0.61800003
-0.018245716 0.10535429 0.61800003
-0.017068572 0.10535429 0.61800003
-0.015865715 0.10518382 0.61700004
-0.014690477 0.10518382 0.61700004
-0.013493334 0.10501334 0.61600006
-0.012300001 0.10484286 0.61500001
-0.011128572 0.10484286 0.61500001
-0.0099733341 0.10501334 0.61600006
-0.00059523812 0.10654762 0.625
0.00059523812 0.10654762 0.625
0.0017857144 0.10654762 0.625
0.0029761908 0.10654762 0.625
0.0041666669 0.10654762 0.625
0.005357143 0.10654762 0.625
0.0065476196 0.10654762 0.625
0.0077380957 0.10654762 0.625
0.0089142863 0.10637715 0.62400001
0.010086668 0.10620667 0.62300003
0.011309525 0.10654762 0.625
0.012460001 0.10620667 0.62300003
0.013646668 0.10620667 0.62300003
0.014833334 0.10620667 0.62300003
0.016071429 0.10654762 0.625
0.017261906 0.10654762 0.625
0.018452382 0.10654762 0.625
0.019611429 0.10637715 0.62400001
0.020833334 0.10654762 0.625
0.02202381 0.10654762 0.625
0.023214288 0.10654762 0.625
0.024404764 0.10654762 0.625
0.025636192 0.1067181 0.62600005
0.026828574 0.1067181 0.62600005
0.053945716 0.12223144 0.71700001
0.055311434 0.12223144 0.71700001
-0.021777144 0.10653143 0.61800003
-0.020633334 0.10670382 0.61900002
-0.019454287 0.10670382 0.61900002
-0.018275239 0.10670382 0.61900002
-0.017068572 0.10653143 0.61800003
-0.015891429 0.10653143 0.61800003
-0.014714287 0.10653143 0.61800003
-0.013515239 0.10635906 0.61700004
-0.012320001 0.10618667 0.61600006
-0.011146667 0.10618667 0.61600006
-0.0099895243 0.10635906 0.61700004
-0.0029904763 0.10825524 0.62800002
-0.0017942858 0.10825524 0.62800002
-0.00059619051 0.10791048 0.62600005
0.00059523812 0.1077381 0.625
0.0017857144 0.1077381 0.625
0.0029761908 0.1077381 0.625
0.0041733338 0.10791048 0.62600005
0.005357143 0.1077381 0.625
0.0065476196 0.1077381 0.625
0.0077380957 0.1077381 0.625
0.0089285718 0.1077381 0.625
0.010102858 0.10756572 0.62400001
0.011309525 0.1077381 0.625
0.012480001 0.10756572 0.62400001
0.013690477 0.1077381 0.625
0.014880953 0.1077381 0.625
0.016097143 0.10791048 0.62600005
0.017289525 0.10791048 0.62600005
0.018481907 0.10791048 0.62600005
0.019642858 0.1077381 0.625
0.020833334 0.1077381 0.625
0.02202381 0.1077381 0.625
0.023251429 0.10791048 0.62600005
0.024404764 0.1077381 0.625
0.025636192 0.10791048 0.62600005
0.026828574 0.10791048 0.62600005
0.053720005 0.12308001 0.71400005
0.055080004 0.12308001 0.71400005
0.056440003 0.12308001 0.71400005
-0.022954287 0.10770858 0.61800003
-0.021812383 0.10788286 0.61900002
-0.020633334 0.10788286 0.61900002
-0.019454287 0.10788286 0.61900002
-0.018275239 0.10788286 0.61900002
-0.017096192 0.10788286 0.61900002
-0.015917145 0.10788286 0.61900002
-0.014738096 0.10788286 0.61900002
-0.013537143 0.10770858 0.61800003
-0.012360001 0.10770858 0.61800003
-0.011182858 0.10770858 0.61800003
-0.010021905 0.10788286 0.61900002
-0.0088428576 0.10788286 0.61900002
-0.0053828573 0.10945144 0.62800002
-0.0041933334 0.10962572 0.62900001
-0.0029904763 0.10945144 0.62800002
-0.0017942858 0.10945144 0.62800002
-0.00059619051 0.10910287 0.62600005
0.00059619051 0.10910287 0.62600005
0.0017857144 0.10892858 0.625
0.0029761908 0.10892858 0.625
0.0041733338 0.10910287 0.62600005
0.005357143 0.10892858 0.625
0.0065476196 0.10892858 0.625
0.0077380957 0.10892858 0.625
0.0089285718 0.10892858 0.625
0.010119048 0.10892858 0.625
0.011309525 0.10892858 0.625
0.012500001 0.10892858 0.625
0.013690477 0.10892858 0.625
0.014880953 0.10892858 0.625
0.016097143 0.10910287 0.62600005
0.017289525 0.10910287 0.62600005
0.018481907 0.10910287 0.62600005
0.019642858 0.10892858 0.625
0.020833334 0.10892858 0.625
0.02202381 0.10892858 0.625
0.023214288 0.10892858 0.625
0.024404764 0.10892858 0.625
0.02559524 0.10892858 0.625
0.053644765 0.12426572 0.71300006
0.055002861 0.12426572 0.71300006
0.056360956 0.12426572 0.71300006
-0.022954287 0.10888572 0.61800003
-0.021812383 0.10906191 0.61900002
-0.020633334 0.10906191 0.61900002
-0.019454287 0.10906191 0.61900002
-0.018275239 0.10906191 0.61900002
-0.017096192 0.10906191 0.61900002
-0.015917145 0.10906191 0.61900002
-0.014738096 0.10906191 0.61900002
-0.013559048 0.10906191 0.61900002
-0.012380001 0.10906191 0.61900002
-0.011200953 0.10906191 0.61900002
-0.010021905 0.10906191 0.61900002
-0.0088571431 0.1092381 0.62
-0.0053828573 0.11064763 0.62800002
-0.0041933334 0.11082382 0.62900001
-0.0029904763 0.11064763 0.62800002
-0.001797143 0.11082382 0.62900001
-0.00059714291 0.11047143 0.62700003
0.00059619051 0.11029524 0.62600005
0.0017885716 0.11029524 0.62600005
0.0029761908 0.11011905 0.625
0.0041733338 0.11029524 0.62600005
0.005357143 0.11011905 0.625
0.0065476196 0.11011905 0.625
0.0077380957 0.11011905 0.625
0.0089285718 0.11011905 0.625
0.010119048 0.11011905 0.625
0.011309525 0.11011905 0.625
0.012500001 0.11011905 0.625
0.013712382 0.11029524 0.62600005
0.014904763 0.11029524 0.62600005
0.016097143 0.11029524 0.62600005
0.017289525 0.11029524 0.62600005
0.018481907 0.11029524 0.62600005
0.019642858 0.11011905 0.625
0.020833334 0.11011905 0.625
0.02202381 0.11011905 0.625
0.023214288 0.11011905 0.625
0.024404764 0.11011905 0.625
0.053644765 0.12562382 0.71300006
0.054848574 0.12527144 0.71100003
-0.022954287 0.11006287 0.61800003
-0.021812383 0.11024096 0.61900002
-0.020633334 0.11024096 0.61900002
-0.019485716 0.11041906 0.62
-0.018275239 0.11024096 0.61900002
-0.017096192 0.11024096 0.61900002
-0.015917145 0.11024096 0.61900002
-0.014761906 0.11041906 0.62
-0.013580954 0.11041906 0.62
-0.0124 0.11041906 0.62
-0.011219048 0.11041906 0.62
-0.010070477 0.11077525 0.62200004
-0.0089000007 0.11095334 0.62300003
-0.0077380957 0.11130953 0.625
-0.006568572 0.11166572 0.62700003
-0.0053828573 0.11184382 0.62800002
-0.0041933334 0.11202192 0.62900001
-0.0029904763 0.11184382 0.62800002
-0.001797143 0.11202192 0.62900001
-0.0005980953 0.11184382 0.62800002
0.00059714291 0.11166572 0.62700003
0.0017885716 0.11148763 0.62600005
0.0029809526 0.11148763 0.62600005
0.0041733338 0.11148763 0.62600005
0.0053657144 0.11148763 0.62600005
0.0065476196 0.11130953 0.625
0.0077504767 0.11148763 0.62600005
0.0089428574 0.11148763 0.62600005
0.010119048 0.11130953 0.625
0.01132762 0.11148763 0.62600005
0.012520001 0.11148763 0.62600005
0.013712382 0.11148763 0.62600005
0.014904763 0.11148763 0.62600005
0.016097143 0.11148763 0.62600005
0.017317144 0.11166572 0.62700003
0.018511429 0.11166572 0.62700003
0.019674286 0.11148763 0.62600005
0.020833334 0.11130953 0.625
0.02202381 0.11130953 0.625
0.023251429 0.11148763 0.62600005
-0.021812383 0.11142001 0.61900002
-0.020633334 0.11142001 0.61900002
-0.019485716 0.1116 0.62
-0.018304763 0.1116 0.62
-0.017123811 0.1116 0.62
-0.015942859 0.1116 0.62
-0.014761906 0.1116 0.62
-0.013580954 0.1116 0.62
-0.0124 0.1116 0.62
-0.011255239 0.11196001 0.62200004
-0.010070477 0.11196001 0.62200004
-0.0089142863 0.11232001 0.62400001
-0.0077628577 0.11286001 0.62700003
-0.006579048 0.11304001 0.62800002
-0.0053828573 0.11304001 0.62800002
-0.0041933334 0.11322001 0.62900001
-0.0029952384 0.11322001 0.62900001
-0.0018028573 0.11358001 0.63100004
-0.00060095242 0.11358001 0.63100004
0.0005980953 0.11304001 0.62800002
0.0017914287 0.11286001 0.62700003
0.0029857145 0.11286001 0.62700003
0.0041800002 0.11286001 0.62700003
0.0053657144 0.11268001 0.62600005
0.0065580956 0.11268001 0.62600005
0.0077504767 0.11268001 0.62600005
0.0089428574 0.11268001 0.62600005
0.010135239 0.11268001 0.62600005
0.01132762 0.11268001 0.62600005
0.012520001 0.11268001 0.62600005
0.013712382 0.11268001 0.62600005
0.014904763 0.11268001 0.62600005
0.016097143 0.11268001 0.62600005
0.017317144 0.11286001 0.62700003
0.018511429 0.11286001 0.62700003
0.019705715 0.11286001 0.62700003
0.020866668 0.11268001 0.62600005
-0.021812383 0.11259905 0.61900002
-0.020666668 0.11278096 0.62
-0.019485716 0.11278096 0.62
-0.018304763 0.11278096 0.62
-0.017123811 0.11278096 0.62
-0.015942859 0.11278096 0.62
-0.014761906 0.11278096 0.62
-0.013624763 0.11314477 0.62200004
-0.012440001 0.11314477 0.62200004
-0.011273334 0.11332668 0.62300003
-0.010086668 0.11332668 0.62300003
-0.0089285718 0.11369048 0.625
-0.0077628577 0.11405429 0.62700003
-0.006579048 0.1142362 0.62800002
-0.0053828573 0.1142362 0.62800002
-0.0041933334 0.1144181 0.62900001
-0.0029952384 0.1144181 0.62900001
-0.0018057144 0.11496381 0.63200003
-0.00060095242 0.11478191 0.63100004
0.00059904763 0.1144181 0.62900001
0.001797143 0.1144181 0.62900001
0.0029904763 0.1142362 0.62800002
0.004186667 0.1142362 0.62800002
0.0053742859 0.11405429 0.62700003
0.006568572 0.11405429 0.62700003
0.0077628577 0.11405429 0.62700003
0.0089571439 0.11405429 0.62700003
0.010135239 0.11387239 0.62600005
0.011345715 0.11405429 0.62700003
0.012560001 0.1142362 0.62800002
0.013756191 0.1142362 0.62800002
0.014952382 0.1142362 0.62800002
0.016148573 0.1142362 0.62800002
0.017344764 0.1142362 0.62800002
0.018570477 0.1144181 0.62900001
0.019737145 0.1142362 0.62800002
-0.020666668 0.11396191 0.62
-0.019485716 0.11396191 0.62
-0.018304763 0.11396191 0.62
-0.017123811 0.11396191 0.62
-0.015942859 0.11396191 0.62
-0.014809525 0.11432953 0.62200004
-0.013624763 0.11432953 0.62200004
-0.012440001 0.11432953 0.62200004
-0.011273334 0.11451334 0.62300003
-0.010086668 0.11451334 0.62300003
-0.0089285718 0.11488096 0.625
-0.0077628577 0.11524858 0.62700003
-0.006579048 0.11543239 0.62800002
-0.0053828573 0.11543239 0.62800002
-0.0041933334 0.11561619 0.62900001
-0.0030047621 0.11598381 0.63100004
-0.0018057144 0.11616763 0.63200003
-0.00060190482 0.11616763 0.63200003
0.00060095242 0.11598381 0.63100004
0.0018028573 0.11598381 0.63100004
0.0030047621 0.11598381 0.63100004
0.0041933334 0.11561619 0.62900001
0.0053828573 0.11543239 0.62800002
0.006579048 0.11543239 0.62800002
0.0077752387 0.11543239 0.62800002
0.0089571439 0.11524858 0.62700003
0.010151429 0.11524858 0.62700003
0.01132762 0.11506477 0.62600005
0.012560001 0.11543239 0.62800002
0.013756191 0.11543239 0.62800002
0.014928573 0.11524858 0.62700003
0.016122859 0.11524858 0.62700003
0.018570477 0.11561619 0.62900001
-0.019548573 0.11551429 0.62200004
-0.018363811 0.11551429 0.62200004
-0.017206667 0.11570001 0.62300003
-0.015994286 0.11551429 0.62200004
-0.014833334 0.11570001 0.62300003
-0.013646668 0.11570001 0.62300003
-0.012460001 0.11570001 0.62300003
-0.011291429 0.11588572 0.62400001
-0.010102858 0.11588572 0.62400001
-0.0089428574 0.11625715 0.62600005
-0.0077628577 0.11644287 0.62700003
-0.006568572 0.11644287 0.62700003
-0.0053828573 0.11662858 0.62800002
-0.0041933334 0.11681429 0.62900001
-0.0030047621 0.11718572 0.63100004
-0.0018057144 0.11737144 0.63200003
-0.00060095242 0.11718572 0.63100004
0.00060095242 0.11718572 0.63100004
0.0018028573 0.11718572 0.63100004
0.0030047621 0.11718572 0.63100004
0.0041933334 0.11681429 0.62900001
0.0053914287 0.11681429 0.62900001
0.006579048 0.11662858 0.62800002
0.0077752387 0.11662858 0.62800002
0.0089714294 0.11662858 0.62800002
0.010151429 0.11644287 0.62700003
0.01132762 0.11625715 0.62600005
0.01254 0.11644287 0.62700003
-0.018393334 0.11688668 0.62300003
-0.017234286 0.1170743 0.62400001
-0.016020002 0.11688668 0.62300003
-0.014833334 0.11688668 0.62300003
-0.013646668 0.11688668 0.62300003
-0.012480001 0.1170743 0.62400001
-0.011291429 0.1170743 0.62400001
-0.010102858 0.1170743 0.62400001
-0.0089428574 0.11744953 0.62600005
-0.0077504767 0.11744953 0.62600005
-0.006579048 0.11782477 0.62800002
-0.0053828573 0.11782477 0.62800002
-0.0041933334 0.11801239 0.62900001
-0.0030047621 0.11838762 0.63100004
-0.0018057144 0.11857525 0.63200003
-0.00060190482 0.11857525 0.63200003
0.00060190482 0.11857525 0.63200003
0.0018057144 0.11857525 0.63200003
0.0030047621 0.11838762 0.63100004
0.0041933334 0.11801239 0.62900001
0.0053914287 0.11801239 0.62900001
0.0065895244 0.11801239 0.62900001
0.0077752387 0.11782477 0.62800002
0.008985715 0.11801239 0.62900001
0.01016762 0.11782477 0.62800002
0.01136381 0.11782477 0.62800002
0.012560001 0.11782477 0.62800002
0.013756191 0.11782477 0.62800002
0.032738097 0.11726191 0.625
0.033928573 0.11726191 0.625
0.035119049 0.11726191 0.625
-0.017261906 0.11845239 0.625
-0.016071429 0.11845239 0.625
-0.014880953 0.11845239 0.625
-0.013690477 0.11845239 0.625
-0.012520001 0.11864191 0.62600005
-0.01132762 0.11864191 0.62600005
-0.010119048 0.11845239 0.625
-0.0089571439 0.11883143 0.62700003
-0.0077628577 0.11883143 0.62700003
-0.006568572 0.11883143 0.62700003
-0.0053828573 0.11902096 0.62800002
-0.0041933334 0.11921048 0.62900001
-0.003009524 0.11977906 0.63200003
-0.0018085715 0.11996858 0.63300002
-0.00060285721 0.11996858 0.63300002
0.00060476194 0.12034763 0.63500005
0.0018142859 0.12034763 0.63500005
0.0030238098 0.12034763 0.63500005
0.0042333337 0.12034763 0.63500005
0.0054342858 0.12015811 0.634
0.0066419053 0.12015811 0.634
0.0078123813 0.11958953 0.63100004
0.0090142861 0.11958953 0.63100004
0.010232382 0.11977906 0.63200003
0.011418096 0.11958953 0.63100004
0.012580001 0.11921048 0.62900001
0.013778096 0.11921048 0.62900001
0.032790478 0.11864191 0.62600005
0.033982858 0.11864191 0.62600005
0.035119049 0.11845239 0.625
-0.016097143 0.1198343 0.62600005
-0.014880953 0.11964287 0.625
-0.013690477 0.11964287 0.625
-0.012520001 0.1198343 0.62600005
-0.01132762 0.1198343 0.62600005
-0.010135239 0.1198343 0.62600005
-0.0089714294 0.12021715 0.62800002
-0.0077752387 0.12021715 0.62800002
-0.006579048 0.12021715 0.62800002
-0.0053914287 0.12040858 0.62900001
-0.0042066667 0.12079144 0.63100004
-0.003009524 0.12098286 0.63200003
-0.0018114287 0.12136572 0.634
-0.00060380955 0.12136572 0.634
0.00060476194 0.12155715 0.63500005
0.0018171429 0.12174858 0.63600004
0.0030285716 0.12174858 0.63600004
0.0042400002 0.12174858 0.63600004
0.0054428573 0.12155715 0.63500005
0.0066523813 0.12155715 0.63500005
0.0078495247 0.12136572 0.634
0.0090285717 0.12098286 0.63200003
0.010232382 0.12098286 0.63200003
0.011454286 0.12117429 0.63300002
0.012640001 0.12098286 0.63200003
0.03284286 0.12002572 0.62700003
0.033982858 0.1198343 0.62600005
0.035175242 0.1198343 0.62600005
0.036367621 0.1198343 0.62600005
0.040072385 0.12021715 0.62800002
-0.014904763 0.12102667 0.62600005
-0.013712382 0.12102667 0.62600005
-0.01254 0.12122001 0.62700003
-0.01132762 0.12102667 0.62600005
-0.010135239 0.12102667 0.62600005
-0.0089571439 0.12122001 0.62700003
-0.0077628577 0.12122001 0.62700003
-0.006568572 0.12122001 0.62700003
-0.0053828573 0.12141334 0.62800002
-0.0041933334 0.12160668 0.62900001
-0.003009524 0.12218668 0.63200003
-0.0018085715 0.12238001 0.63300002
-0.00060380955 0.12257334 0.634
0.00060380955 0.12257334 0.634
0.0018114287 0.12257334 0.634
0.0030285716 0.12296001 0.63600004
0.0042400002 0.12296001 0.63600004
0.0054428573 0.12276667 0.63500005
0.0066523813 0.12276667 0.63500005
0.0078495247 0.12257334 0.634
0.0090428581 0.12238001 0.63300002
0.010248573 0.12238001 0.63300002
0.011472382 0.12257334 0.634
0.012680001 0.12257334 0.634
0.01388762 0.12257334 0.634
0.01509524 0.12257334 0.634
0.016302858 0.12257334 0.634
0.017538097 0.12276667 0.63500005
0.018718097 0.12257334 0.634
0.031648573 0.12122001 0.62700003
0.03284286 0.12122001 0.62700003
0.034037147 0.12122001 0.62700003
0.035175242 0.12102667 0.62600005
0.036367621 0.12102667 0.62600005
0.037620004 0.12122001 0.62700003
0.038876195 0.12141334 0.62800002
0.040072385 0.12141334 0.62800002
-0.014904763 0.12221906 0.62600005
-0.013712382 0.12221906 0.62600005
-0.01254 0.12241429 0.62700003
-0.01132762 0.12221906 0.62600005
-0.010151429 0.12241429 0.62700003
-0.0089714294 0.12260953 0.62800002
-0.0077628577 0.12241429 0.62700003
-0.006568572 0.12241429 0.62700003
-0.0053828573 0.12260953 0.62800002
-0.0041933334 0.12280477 0.62900001
-0.003009524 0.12339048 0.63200003
-0.0018085715 0.12358572 0.63300002
-0.00060380955 0.12378096 0.634
0.00060476194 0.1239762 0.63500005
0.0018142859 0.1239762 0.63500005
0.0030238098 0.1239762 0.63500005
0.0042400002 0.12417144 0.63600004
0.0054428573 0.1239762 0.63500005
0.0066523813 0.1239762 0.63500005
0.0078619057 0.1239762 0.63500005
0.0090571437 0.12378096 0.634
0.010264763 0.12378096 0.634
0.011490477 0.1239762 0.63500005
0.012680001 0.12378096 0.634
0.01388762 0.12378096 0.634
0.01509524 0.12378096 0.634
0.016302858 0.12378096 0.634
0.017538097 0.1239762 0.63500005
0.018718097 0.12378096 0.634
0.019925715 0.12378096 0.634
0.021100001 0.12358572 0.63300002
0.028110478 0.12260953 0.62800002
0.031648573 0.12241429 0.62700003
0.032895241 0.12260953 0.62800002
0.034037147 0.12241429 0.62700003
0.03523143 0.12241429 0.62700003
0.036425717 0.12241429 0.62700003
0.037680004 0.12260953 0.62800002
0.038876195 0.12260953 0.62800002
0.041268576 0.12260953 0.62800002
-0.014928573 0.12360858 0.62700003
-0.013734287 0.12360858 0.62700003
-0.012560001 0.12380572 0.62800002
-0.011345715 0.12360858 0.62700003
-0.01016762 0.12380572 0.62800002
-0.0089714294 0.12380572 0.62800002
-0.0077752387 0.12380572 0.62800002
-0.006579048 0.12380572 0.62800002
-0.0053914287 0.12400287 0.62900001
-0.0042066667 0.12439715 0.63100004
-0.003009524 0.12459429 0.63200003
-0.0018085715 0.12479144 0.63300002
-0.00060380955 0.12498858 0.634
0.00060476194 0.12518573 0.63500005
0.0018142859 0.12518573 0.63500005
0.0030285716 0.12538287 0.63600004
0.0042400002 0.12538287 0.63600004
0.0054514287 0.12538287 0.63600004
0.0066628577 0.12538287 0.63600004
0.0078619057 0.12518573 0.63500005
0.0090714293 0.12518573 0.63500005
0.010280953 0.12518573 0.63500005
0.011490477 0.12518573 0.63500005
0.012700001 0.12518573 0.63500005
0.013909524 0.12518573 0.63500005
0.015119049 0.12518573 0.63500005
0.016328573 0.12518573 0.63500005
0.017538097 0.12518573 0.63500005
0.018718097 0.12498858 0.634
0.019925715 0.12498858 0.634
0.021133335 0.12498858 0.634
0.026957145 0.12400287 0.62900001
0.028110478 0.12380572 0.62800002
0.029306669 0.12380572 0.62800002
0.031648573 0.12360858 0.62700003
0.03284286 0.12360858 0.62700003
0.034037147 0.12360858 0.62700003
0.03523143 0.12360858 0.62700003
0.036425717 0.12360858 0.62700003
0.037680004 0.12380572 0.62800002
0.038876195 0.12380572 0.62800002
0.040072385 0.12380572 0.62800002
0.04133429 0.12400287 0.62900001
-0.014928573 0.12480287 0.62700003
-0.013734287 0.12480287 0.62700003
-0.012560001 0.12500191 0.62800002
-0.011345715 0.12480287 0.62700003
-0.01016762 0.12500191 0.62800002
-0.0089714294 0.12500191 0.62800002
-0.0077876197 0.12520096 0.62900001
-0.0065895244 0.12520096 0.62900001
-0.0053914287 0.12520096 0.62900001
-0.0041933334 0.12520096 0.62900001
-0.003009524 0.12579811 0.63200003
-0.0018085715 0.12599716 0.63300002
-0.00060380955 0.12619621 0.634
0.00060476194 0.12639524 0.63500005
0.0018142859 0.12639524 0.63500005
0.0030285716 0.12659429 0.63600004
0.0042400002 0.12659429 0.63600004
0.0054514287 0.12659429 0.63600004
0.0066628577 0.12659429 0.63600004
0.0078619057 0.12639524 0.63500005
0.0090714293 0.12639524 0.63500005
0.010280953 0.12639524 0.63500005
0.011490477 0.12639524 0.63500005
0.012700001 0.12639524 0.63500005
0.013909524 0.12639524 0.63500005
0.015119049 0.12639524 0.63500005
0.016328573 0.12639524 0.63500005
0.017510477 0.12619621 0.634
0.018718097 0.12619621 0.634
0.019925715 0.12619621 0.634
0.021100001 0.12599716 0.63300002
0.022305716 0.12599716 0.63300002
0.023474287 0.12579811 0.63200003
0.024678096 0.12579811 0.63200003
0.025840955 0.12559906 0.63100004
0.026957145 0.12520096 0.62900001
0.028110478 0.12500191 0.62800002
0.029306669 0.12500191 0.62800002
0.03050286 0.12500191 0.62800002
0.031648573 0.12480287 0.62700003
0.03284286 0.12480287 0.62700003
0.034037147 0.12480287 0.62700003
0.03523143 0.12480287 0.62700003
0.036425717 0.12480287 0.62700003
0.037620004 0.12480287 0.62700003
0.038876195 0.12500191 0.62800002
0.040072385 0.12500191 0.62800002
0.041268576 0.12500191 0.62800002
-0.013734287 0.12599716 0.62700003
-0.012560001 0.1261981 0.62800002
-0.01136381 0.1261981 0.62800002
-0.01016762 0.1261981 0.62800002
-0.008985715 0.12639906 0.62900001
-0.0077876197 0.12639906 0.62900001
-0.0065895244 0.12639906 0.62900001
-0.0053914287 0.12639906 0.62900001
-0.0042066667 0.12680095 0.63100004
-0.003009524 0.12700191 0.63200003
-0.0018085715 0.12720287 0.63300002
-0.00060380955 0.12740381 0.634
0.00060476194 0.12760477 0.63500005
0.0018142859 0.12760477 0.63500005
0.0030285716 0.12780572 0.63600004
0.0042400002 0.12780572 0.63600004
0.0054514287 0.12780572 0.63600004
0.0066628577 0.12780572 0.63600004
0.0078742858 0.12780572 0.63600004
0.0090714293 0.12760477 0.63500005
0.010280953 0.12760477 0.63500005
0.011490477 0.12760477 0.63500005
0.012700001 0.12760477 0.63500005
0.013909524 0.12760477 0.63500005
0.01509524 0.12740381 0.634
0.016302858 0.12740381 0.634
0.017510477 0.12740381 0.634
0.018718097 0.12740381 0.634
0.019925715 0.12740381 0.634
0.021066668 0.12700191 0.63200003
0.022270478 0.12700191 0.63200003
0.023474287 0.12700191 0.63200003
0.024678096 0.12700191 0.63200003
0.025840955 0.12680095 0.63100004
0.026957145 0.12639906 0.62900001
0.028155239 0.12639906 0.62900001
0.029306669 0.1261981 0.62800002
0.03050286 0.1261981 0.62800002
0.031598099 0.1257962 0.62600005
0.03284286 0.12599716 0.62700003
0.034037147 0.12599716 0.62700003
0.03523143 0.12599716 0.62700003
0.036425717 0.12599716 0.62700003
0.040008575 0.12599716 0.62700003
-0.013756191 0.12739429 0.62800002
-0.012580001 0.12759715 0.62900001
-0.011381906 0.12759715 0.62900001
-0.010216191 0.12800287 0.63100004
-0.0090142861 0.12800287 0.63100004
-0.0078123813 0.12800287 0.63100004
-0.0066104764 0.12800287 0.63100004
-0.0054085716 0.12800287 0.63100004
-0.0042066667 0.12800287 0.63100004
-0.003009524 0.12820572 0.63200003
-0.0018085715 0.12840858 0.63300002
-0.00060380955 0.12861143 0.634
0.00060476194 0.12881429 0.63500005
0.0018142859 0.12881429 0.63500005
0.0030285716 0.12901714 0.63600004
0.0042400002 0.12901714 0.63600004
0.0054514287 0.12901714 0.63600004
0.0066628577 0.12901714 0.63600004
0.0078619057 0.12881429 0.63500005
0.0090714293 0.12881429 0.63500005
0.010280953 0.12881429 0.63500005
0.011490477 0.12881429 0.63500005
0.012700001 0.12881429 0.63500005
0.013909524 0.12881429 0.63500005
0.015119049 0.12881429 0.63500005
0.016302858 0.12861143 0.634
0.017510477 0.12861143 0.634
0.018718097 0.12861143 0.634
0.019925715 0.12861143 0.634
0.021066668 0.12820572 0.63200003
0.022270478 0.12820572 0.63200003
0.023474287 0.12820572 0.63200003
0.02463905 0.12800287 0.63100004
0.025840955 0.12800287 0.63100004
0.026957145 0.12759715 0.62900001
0.028155239 0.12759715 0.62900001
0.029306669 0.12739429 0.62800002
0.03055143 0.12759715 0.62900001
0.031648573 0.12719144 0.62700003
0.03284286 0.12719144 0.62700003
0.034091432 0.12739429 0.62800002
0.03523143 0.12719144 0.62700003
0.036425717 0.12719144 0.62700003
-0.012580001 0.12879525 0.62900001
-0.011418096 0.12920476 0.63100004
-0.010216191 0.12920476 0.63100004
-0.0090142861 0.12920476 0.63100004
-0.0078123813 0.12920476 0.63100004
-0.0066104764 0.12920476 0.63100004
-0.005417143 0.12940954 0.63200003
-0.0042066667 0.12920476 0.63100004
-0.003009524 0.12940954 0.63200003
-0.0018085715 0.12961429 0.63300002
-0.00060380955 0.12981905 0.634
0.00060476194 0.13002382 0.63500005
0.0018142859 0.13002382 0.63500005
0.0030238098 0.13002382 0.63500005
0.0042400002 0.13022858 0.63600004
0.0054514287 0.13022858 0.63600004
0.0066628577 0.13022858 0.63600004
0.0078742858 0.13022858 0.63600004
0.0090714293 0.13002382 0.63500005
0.010280953 0.13002382 0.63500005
0.011490477 0.13002382 0.63500005
0.012700001 0.13002382 0.63500005
0.013909524 0.13002382 0.63500005
0.015119049 0.13002382 0.63500005
0.016302858 0.12981905 0.634
0.017510477 0.12981905 0.634
0.018718097 0.12981905 0.634
0.019925715 0.12981905 0.634
0.021066668 0.12940954 0.63200003
0.022305716 0.12961429 0.63300002
0.023474287 0.12940954 0.63200003
0.02463905 0.12920476 0.63100004
0.025840955 0.12920476 0.63100004
0.027042858 0.12920476 0.63100004
0.028155239 0.12879525 0.62900001
0.029353335 0.12879525 0.62900001
0.03055143 0.12879525 0.62900001
0.031648573 0.12838572 0.62700003
0.032790478 0.12818097 0.62600005
0.034037147 0.12838572 0.62700003
0.03523143 0.12838572 0.62700003
-0.012640001 0.13061334 0.63200003
-0.011418096 0.13040668 0.63100004
-0.010216191 0.13040668 0.63100004
-0.0090285717 0.13061334 0.63200003
-0.0078247627 0.13061334 0.63200003
-0.0066209529 0.13061334 0.63200003
-0.005417143 0.13061334 0.63200003
-0.0042066667 0.13040668 0.63100004
-0.003009524 0.13061334 0.63200003
-0.0018085715 0.13082001 0.63300002
-0.00060380955 0.13102667 0.634
0.00060476194 0.13123333 0.63500005
0.0018142859 0.13123333 0.63500005
0.0030238098 0.13123333 0.63500005
0.0042333337 0.13123333 0.63500005
0.0054428573 0.13123333 0.63500005
0.0066628577 0.13144001 0.63600004
0.0078742858 0.13144001 0.63600004
0.0090714293 0.13123333 0.63500005
0.010280953 0.13123333 0.63500005
0.011490477 0.13123333 0.63500005
0.012680001 0.13102667 0.634
0.01388762 0.13102667 0.634
0.01509524 0.13102667 0.634
0.016302858 0.13102667 0.634
0.017510477 0.13102667 0.634
0.018718097 0.13102667 0.634
0.019925715 0.13102667 0.634
0.021133335 0.13102667 0.634
0.022305716 0.13082001 0.63300002
0.023474287 0.13061334 0.63200003
0.024678096 0.13061334 0.63200003
0.025840955 0.13040668 0.63100004
0.027042858 0.13040668 0.63100004
0.028155239 0.12999335 0.62900001
0.029353335 0.12999335 0.62900001
0.03055143 0.12999335 0.62900001
0.031598099 0.12937334 0.62600005
0.032790478 0.12937334 0.62600005
0.034037147 0.12958001 0.62700003
0.035175242 0.12937334 0.62600005
0.036367621 0.12937334 0.62600005
-0.012580001 0.13119143 0.62900001
-0.011381906 0.13119143 0.62900001
-0.01018381 0.13119143 0.62900001
-0.0090142861 0.13160858 0.63100004
-0.0078123813 0.13160858 0.63100004
-0.0066104764 0.13160858 0.63100004
-0.0054085716 0.13160858 0.63100004
-0.0042066667 0.13160858 0.63100004
-0.003009524 0.13181715 0.63200003
-0.0018114287 0.13223429 0.634
-0.00060380955 0.13223429 0.634
0.00060476194 0.13244286 0.63500005
0.0018142859 0.13244286 0.63500005
0.0030238098 0.13244286 0.63500005
0.0042333337 0.13244286 0.63500005
0.0054428573 0.13244286 0.63500005
0.0066523813 0.13244286 0.63500005
0.0078742858 0.13265143 0.63600004
0.0090714293 0.13244286 0.63500005
0.010264763 0.13223429 0.634
0.011472382 0.13223429 0.634
0.012680001 0.13223429 0.634
0.01388762 0.13223429 0.634
0.01509524 0.13223429 0.634
0.016302858 0.13223429 0.634
0.017510477 0.13223429 0.634
0.018718097 0.13223429 0.634
0.019925715 0.13223429 0.634
0.021133335 0.13223429 0.634
0.022270478 0.13181715 0.63200003
0.023474287 0.13181715 0.63200003
0.02463905 0.13160858 0.63100004
0.025840955 0.13160858 0.63100004
0.027042858 0.13160858 0.63100004
0.028155239 0.13119143 0.62900001
0.029353335 0.13119143 0.62900001
0.03050286 0.13098286 0.62800002
0.031648573 0.13077429 0.62700003
0.03284286 0.13077429 0.62700003
0.034037147 0.13077429 0.62700003
-0.011381906 0.13238953 0.62900001
-0.01018381 0.13238953 0.62900001
-0.0090142861 0.13281049 0.63100004
-0.0078123813 0.13281049 0.63100004
-0.0066209529 0.13302097 0.63200003
-0.005417143 0.13302097 0.63200003
-0.0042133336 0.13302097 0.63200003
-0.003009524 0.13302097 0.63200003
-0.0018114287 0.13344191 0.634
-0.00060380955 0.13344191 0.634
0.00060380955 0.13344191 0.634
0.0018114287 0.13344191 0.634
0.0030190479 0.13344191 0.634
0.0042333337 0.13365239 0.63500005
0.0054428573 0.13365239 0.63500005
0.0066523813 0.13365239 0.63500005
0.0090428581 0.13323143 0.63300002
0.010248573 0.13323143 0.63300002
0.011454286 0.13323143 0.63300002
0.01266 0.13323143 0.63300002
0.01388762 0.13344191 0.634
0.01509524 0.13344191 0.634
0.016302858 0.13344191 0.634
0.017482858 0.13323143 0.63300002
0.018688573 0.13323143 0.63300002
0.019925715 0.13344191 0.634
0.021133335 0.13344191 0.634
0.022305716 0.13323143 0.63300002
0.023474287 0.13302097 0.63200003
0.024678096 0.13302097 0.63200003
0.025840955 0.13281049 0.63100004
0.027042858 0.13281049 0.63100004
0.028155239 0.13238953 0.62900001
0.029353335 0.13238953 0.62900001
0.03050286 0.13217905 0.62800002
0.03169905 0.13217905 0.62800002
