# .PCD v0.7 - Point Cloud Data file format
VERSION 0.7
FIELDS x y z
SIZE 4 4 4
TYPE F F F
COUNT 1 1 1
WIDTH 1368
HEIGHT 1
VIEWPOINT 0 0 0 1 0 0 0
POINTS 1368
DATA ascii
-0.18426001 0.020631431 0.74700004
-0.18234763 0.020576192 0.74500006
-0.18092859 0.020576192 0.74500006
-0.17950954 0.020576192 0.74500006
-0.17809048 0.020576192 0.74500006
-0.15832667 0.024553334 0.88900006
-0.15663335 0.024553334 0.88900006
-0.15204 0.024360001 0.88200003
-0.21270859 0.022201907 0.75200003
-0.2112762 0.022201907 0.75200003
-0.21012287 0.02223143 0.75300002
-0.20841144 0.022201907 0.75200003
-0.20642859 0.022142859 0.75000006
-0.20500001 0.022142859 0.75000006
-0.20302859 0.022083811 0.74800003
-0.2013343 0.022054287 0.74700004
-0.19991145 0.022054287 0.74700004
-0.19848858 0.022054287 0.74700004
-0.19706573 0.022054287 0.74700004
-0.19564287 0.022054287 0.74700004
-0.19422001 0.022054287 0.74700004
-0.19279715 0.022054287 0.74700004
-0.1913743 0.022054287 0.74700004
-0.18995143 0.022054287 0.74700004
-0.18802382 0.021995239 0.74500006
-0.18660477 0.021995239 0.74500006
-0.18518573 0.021995239 0.74500006
-0.18376668 0.021995239 0.74500006
-0.18185811 0.021936191 0.74300003
-0.18044287 0.021936191 0.74300003
-0.17950954 0.021995239 0.74500006
-0.17761239 0.021936191 0.74300003
-0.17667145 0.021995239 0.74500006
-0.17525239 0.021995239 0.74500006
-0.17383334 0.021995239 0.74500006
-0.15169525 0.025980955 0.88000005
-0.15001906 0.025980955 0.88000005
-0.14834286 0.025980955 0.88000005
-0.14633334 0.025921907 0.87800002
-0.14466096 0.025921907 0.87800002
-0.14298858 0.025921907 0.87800002
-0.21214287 0.02357143 0.75000006
-0.2112762 0.023634287 0.75200003
-0.20984383 0.023634287 0.75200003
-0.20785716 0.02357143 0.75000006
-0.20642859 0.02357143 0.75000006
-0.20445335 0.023508573 0.74800003
-0.20275715 0.023477145 0.74700004
-0.20079525 0.023414288 0.74500006
-0.19991145 0.023477145 0.74700004
-0.19848858 0.023477145 0.74700004
-0.19653811 0.023414288 0.74500006
-0.19511905 0.023414288 0.74500006
-0.19370002 0.023414288 0.74500006
-0.19176477 0.023351431 0.74300003
-0.19086191 0.023414288 0.74500006
-0.1889343 0.023351431 0.74300003
-0.18751906 0.023351431 0.74300003
-0.18610382 0.023351431 0.74300003
-0.18468858 0.023351431 0.74300003
-0.18327335 0.023351431 0.74300003
-0.18185811 0.023351431 0.74300003
-0.18020001 0.023320001 0.74200004
-0.17902763 0.023351431 0.74300003
-0.17761239 0.023351431 0.74300003
-0.17619716 0.023351431 0.74300003
-0.17478192 0.023351431 0.74300003
-0.17383334 0.023414288 0.74500006
-0.21357144 0.025000002 0.75000006
-0.21214287 0.025000002 0.75000006
-0.2107143 0.025000002 0.75000006
-0.20872763 0.024933334 0.74800003
-0.20730287 0.024933334 0.74800003
-0.20587811 0.024933334 0.74800003
-0.20418002 0.024900002 0.74700004
-0.2022143 0.024833335 0.74500006
-0.20079525 0.024833335 0.74500006
-0.19937621 0.024833335 0.74500006
-0.19795716 0.024833335 0.74500006
-0.19601049 0.024766669 0.74300003
-0.19459525 0.024766669 0.74300003
-0.19318001 0.024766669 0.74300003
-0.19176477 0.024766669 0.74300003
-0.19034953 0.024766669 0.74300003
-0.18868001 0.024733335 0.74200004
-0.18726668 0.024733335 0.74200004
-0.18585335 0.024733335 0.74200004
-0.18444002 0.024733335 0.74200004
-0.18302667 0.024733335 0.74200004
-0.18161334 0.024733335 0.74200004
-0.18020001 0.024733335 0.74200004
-0.17878668 0.024733335 0.74200004
-0.17737335 0.024733335 0.74200004
-0.17596 0.024733335 0.74200004
-0.17478192 0.024766669 0.74300003
-0.17336668 0.024766669 0.74300003
-0.21157716 0.026358098 0.74800003
-0.21015239 0.026358098 0.74800003
-0.20844859 0.026322858 0.74700004
-0.20702572 0.026322858 0.74700004
-0.20560287 0.026322858 0.74700004
-0.20418002 0.026322858 0.74700004
-0.2022143 0.026252383 0.74500006
-0.20079525 0.026252383 0.74500006
-0.19937621 0.026252383 0.74500006
-0.19795716 0.026252383 0.74500006
-0.19601049 0.026181906 0.74300003
-0.19459525 0.026181906 0.74300003
-0.19318001 0.026181906 0.74300003
-0.19150668 0.026146669 0.74200004
-0.19009334 0.026146669 0.74200004
-0.18868001 0.026146669 0.74200004
-0.18726668 0.026146669 0.74200004
-0.1853524 0.026076192 0.74000001
-0.18394287 0.026076192 0.74000001
-0.18253334 0.026076192 0.74000001
-0.18112382 0.026076192 0.74000001
-0.17971429 0.026076192 0.74000001
-0.17878668 0.026146669 0.74200004
-0.17737335 0.026146669 0.74200004
-0.17596 0.026146669 0.74200004
-0.17454667 0.026146669 0.74200004
-0.21357144 0.027857145 0.75000006
-0.21157716 0.027782859 0.74800003
-0.21015239 0.027782859 0.74800003
-0.20844859 0.027745716 0.74700004
-0.20702572 0.027745716 0.74700004
-0.20560287 0.027745716 0.74700004
-0.20418002 0.027745716 0.74700004
-0.2022143 0.02767143 0.74500006
-0.20079525 0.02767143 0.74500006
-0.19937621 0.02767143 0.74500006
-0.19742572 0.027597144 0.74300003
-0.19601049 0.027597144 0.74300003
-0.19433334 0.027560001 0.74200004
-0.19292001 0.027560001 0.74200004
-0.19150668 0.027560001 0.74200004
-0.18958096 0.027485715 0.74000001
-0.18817145 0.027485715 0.74000001
-0.18650953 0.027448574 0.73900002
-0.18510191 0.027448574 0.73900002
-0.18319716 0.027374288 0.73700005
-0.18228668 0.027448574 0.73900002
-0.18087906 0.027448574 0.73900002
-0.17947143 0.027448574 0.73900002
-0.17806382 0.027448574 0.73900002
-0.1766562 0.027448574 0.73900002
-0.21357144 0.029285716 0.75000006
-0.21214287 0.029285716 0.75000006
-0.21015239 0.029207621 0.74800003
-0.20844859 0.029168574 0.74700004
-0.20647144 0.029090479 0.74500006
-0.20505239 0.029090479 0.74500006
-0.20363335 0.029090479 0.74500006
-0.20167144 0.029012382 0.74300003
-0.2002562 0.029012382 0.74300003
-0.19884096 0.029012382 0.74300003
-0.19742572 0.029012382 0.74300003
-0.19574668 0.028973335 0.74200004
-0.19433334 0.028973335 0.74200004
-0.19240001 0.02889524 0.74000001
-0.19099049 0.02889524 0.74000001
-0.18932478 0.028856192 0.73900002
-0.18740858 0.028778097 0.73700005
-0.18600477 0.028778097 0.73700005
-0.18435049 0.02873905 0.73600006
-0.18294859 0.02873905 0.73600006
-0.18154667 0.02873905 0.73600006
-0.18038954 0.028778097 0.73700005
-0.17898573 0.028778097 0.73700005
-0.17758192 0.028778097 0.73700005
-0.17617811 0.028778097 0.73700005
-0.21300192 0.030632382 0.74800003
-0.21157716 0.030632382 0.74800003
-0.21015239 0.030632382 0.74800003
-0.20844859 0.03059143 0.74700004
-0.20647144 0.030509526 0.74500006
-0.20450191 0.030427622 0.74300003
-0.20308667 0.030427622 0.74300003
-0.20167144 0.030427622 0.74300003
-0.2002562 0.030427622 0.74300003
-0.19884096 0.030427622 0.74300003
-0.19716001 0.03038667 0.74200004
-0.19574668 0.03038667 0.74200004
-0.19380954 0.030304763 0.74000001
-0.19214001 0.030263811 0.73900002
-0.19073239 0.030263811 0.73900002
-0.18881239 0.030181907 0.73700005
-0.18740858 0.030181907 0.73700005
-0.18575239 0.030140955 0.73600006
-0.18435049 0.030140955 0.73600006
-0.18294859 0.030140955 0.73600006
-0.18154667 0.030140955 0.73600006
-0.18014477 0.030140955 0.73600006
-0.17874287 0.030140955 0.73600006
-0.17734097 0.030140955 0.73600006
-0.21500002 0.032142859 0.75000006
-0.21300192 0.032057144 0.74800003
-0.21157716 0.032057144 0.74800003
-0.20930953 0.031928573 0.74500006
-0.2078905 0.031928573 0.74500006
-0.20591715 0.031842858 0.74300003
-0.20450191 0.031842858 0.74300003
-0.20308667 0.031842858 0.74300003
-0.20167144 0.031842858 0.74300003
-0.19998668 0.031800002 0.74200004
-0.19857335 0.031800002 0.74200004
-0.19716001 0.031800002 0.74200004
-0.19521905 0.031714287 0.74000001
-0.19380954 0.031714287 0.74000001
-0.19214001 0.031671431 0.73900002
-0.19073239 0.031671431 0.73900002
-0.18881239 0.031585716 0.73700005
-0.18715429 0.03154286 0.73600006
-0.18575239 0.03154286 0.73600006
-0.18435049 0.03154286 0.73600006
-0.18245144 0.031457145 0.73400003
-0.18105334 0.031457145 0.73400003
-0.17965525 0.031457145 0.73400003
-0.17825715 0.031457145 0.73400003
-0.17685907 0.031457145 0.73400003
-0.21442668 0.033481907 0.74800003
-0.21271716 0.033437144 0.74700004
-0.21129429 0.033437144 0.74700004
-0.20874763 0.033258099 0.74300003
-0.20733239 0.033258099 0.74300003
-0.20564002 0.033213336 0.74200004
-0.20422667 0.033213336 0.74200004
-0.20281334 0.033213336 0.74200004
-0.20140001 0.033213336 0.74200004
-0.19998668 0.033213336 0.74200004
-0.19857335 0.033213336 0.74200004
-0.19662859 0.03312381 0.74000001
-0.19495524 0.03307905 0.73900002
-0.19354764 0.03307905 0.73900002
-0.19162001 0.032989524 0.73700005
-0.1902162 0.032989524 0.73700005
-0.18855621 0.032944765 0.73600006
-0.18715429 0.032944765 0.73600006
-0.18575239 0.032944765 0.73600006
-0.18384954 0.032855239 0.73400003
-0.18245144 0.032855239 0.73400003
-0.18105334 0.032855239 0.73400003
-0.17965525 0.032855239 0.73400003
-0.17825715 0.032855239 0.73400003
-0.17734097 0.032944765 0.73600006
-0.21642859 0.035000004 0.75000006
-0.21442668 0.03490667 0.74800003
-0.21271716 0.034860004 0.74700004
-0.21072859 0.03476667 0.74500006
-0.20874763 0.034673337 0.74300003
-0.20733239 0.034673337 0.74300003
-0.20564002 0.03462667 0.74200004
-0.20422667 0.03462667 0.74200004
-0.20281334 0.03462667 0.74200004
-0.20140001 0.03462667 0.74200004
-0.19944763 0.034533337 0.74000001
-0.1980381 0.034533337 0.74000001
-0.19636287 0.03448667 0.73900002
-0.19442764 0.034393337 0.73700005
-0.19302382 0.034393337 0.73700005
-0.19162001 0.034393337 0.73700005
-0.1902162 0.034393337 0.73700005
-0.18804382 0.034253336 0.73400003
-0.18715429 0.03434667 0.73600006
-0.18524763 0.034253336 0.73400003
-0.18384954 0.034253336 0.73400003
-0.18195429 0.034160003 0.73200005
-0.18056001 0.034160003 0.73200005
-0.17965525 0.034253336 0.73400003
-0.21785715 0.036428574 0.75000006
-0.21585144 0.03633143 0.74800003
-0.21442668 0.03633143 0.74800003
-0.21271716 0.03628286 0.74700004
-0.21072859 0.036185715 0.74500006
-0.20874763 0.036088575 0.74300003
-0.20733239 0.036088575 0.74300003
-0.20564002 0.036040001 0.74200004
-0.20422667 0.036040001 0.74200004
-0.20281334 0.036040001 0.74200004
-0.20085716 0.03594286 0.74000001
-0.19917811 0.03589429 0.73900002
-0.19777049 0.03589429 0.73900002
-0.19583145 0.035797145 0.73700005
-0.19442764 0.035797145 0.73700005
-0.19276191 0.035748575 0.73600006
-0.19136001 0.035748575 0.73600006
-0.18995811 0.035748575 0.73600006
-0.18804382 0.03565143 0.73400003
-0.18664573 0.03565143 0.73400003
-0.18524763 0.03565143 0.73400003
-0.18384954 0.03565143 0.73400003
-0.18195429 0.03555429 0.73200005
-0.18056001 0.03555429 0.73200005
-0.17916572 0.03555429 0.73200005
-0.17752859 0.035505716 0.73100001
-0.21585144 0.037756193 0.74800003
-0.21442668 0.037756193 0.74800003
-0.21271716 0.037705716 0.74700004
-0.21072859 0.037604764 0.74500006
-0.20930953 0.037604764 0.74500006
-0.20733239 0.037503812 0.74300003
-0.20591715 0.037503812 0.74300003
-0.20422667 0.037453335 0.74200004
-0.20281334 0.037453335 0.74200004
-0.20085716 0.037352383 0.74000001
-0.19917811 0.037301905 0.73900002
-0.19777049 0.037301905 0.73900002
-0.19583145 0.037200954 0.73700005
-0.19416383 0.03715048 0.73600006
-0.19276191 0.03715048 0.73600006
-0.19136001 0.03715048 0.73600006
-0.18944192 0.037049524 0.73400003
-0.18753144 0.036948573 0.73200005
-0.18664573 0.037049524 0.73400003
-0.18524763 0.037049524 0.73400003
-0.18334858 0.036948573 0.73200005
-0.18195429 0.036948573 0.73200005
-0.18031335 0.036898099 0.73100001
-0.17892097 0.036898099 0.73100001
-0.21785715 0.039285716 0.75000006
-0.21642859 0.039285716 0.75000006
-0.21442668 0.039180957 0.74800003
-0.21271716 0.039128575 0.74700004
-0.21129429 0.039128575 0.74700004
-0.20930953 0.039023813 0.74500006
-0.20733239 0.03891905 0.74300003
-0.20591715 0.03891905 0.74300003
-0.20422667 0.038866669 0.74200004
-0.20281334 0.038866669 0.74200004
-0.20085716 0.038761906 0.74000001
-0.19917811 0.038709525 0.73900002
-0.19723526 0.038604766 0.73700005
-0.19583145 0.038604766 0.73700005
-0.19416383 0.038552385 0.73600006
-0.19276191 0.038552385 0.73600006
-0.19136001 0.038552385 0.73600006
-0.18944192 0.038447622 0.73400003
-0.18753144 0.03834286 0.73200005
-0.18613715 0.03834286 0.73200005
-0.18449049 0.038290478 0.73100001
-0.18309811 0.038290478 0.73100001
-0.18170573 0.038290478 0.73100001
-0.18031335 0.038290478 0.73100001
-0.17892097 0.038290478 0.73100001
-0.2184381 0.04082286 0.75200003
-0.21642859 0.04071429 0.75000006
-0.21500002 0.04071429 0.75000006
-0.21300192 0.040605716 0.74800003
-0.21129429 0.040551431 0.74700004
-0.20930953 0.040442862 0.74500006
-0.20733239 0.040334288 0.74300003
-0.20591715 0.040334288 0.74300003
-0.20450191 0.040334288 0.74300003
-0.20226668 0.04017143 0.74000001
-0.20058572 0.040117145 0.73900002
-0.19917811 0.040117145 0.73900002
-0.19723526 0.040008575 0.73700005
-0.19583145 0.040008575 0.73700005
-0.19416383 0.03995429 0.73600006
-0.19276191 0.03995429 0.73600006
-0.19136001 0.03995429 0.73600006
-0.18892573 0.039737146 0.73200005
-0.18727525 0.039682861 0.73100001
-0.18588287 0.039682861 0.73100001
-0.18449049 0.039682861 0.73100001
-0.18259716 0.039574288 0.72900003
-0.18120858 0.039574288 0.72900003
-0.17982002 0.039574288 0.72900003
-0.17892097 0.039682861 0.73100001
-0.21642859 0.042142861 0.75000006
-0.21500002 0.042142861 0.75000006
-0.21300192 0.04203048 0.74800003
-0.21157716 0.04203048 0.74800003
-0.20987144 0.041974287 0.74700004
-0.20733239 0.041749526 0.74300003
-0.20591715 0.041749526 0.74300003
-0.20450191 0.041749526 0.74300003
-0.20226668 0.041580956 0.74000001
-0.20058572 0.041524764 0.73900002
-0.19863907 0.041412383 0.73700005
-0.19723526 0.041412383 0.73700005
-0.19583145 0.041412383 0.73700005
-0.19416383 0.041356195 0.73600006
-0.19276191 0.041356195 0.73600006
-0.19084001 0.041243814 0.73400003
-0.18892573 0.041131433 0.73200005
-0.18727525 0.041075241 0.73100001
-0.1853743 0.04096286 0.72900003
-0.18398573 0.04096286 0.72900003
-0.18259716 0.04096286 0.72900003
-0.18120858 0.04096286 0.72900003
-0.17982002 0.04096286 0.72900003
-0.17843144 0.04096286 0.72900003
-0.21642859 0.043571431 0.75000006
-0.21500002 0.043571431 0.75000006
-0.21357144 0.043571431 0.75000006
-0.21157716 0.043455239 0.74800003
-0.21015239 0.043455239 0.74800003
-0.20844859 0.043397147 0.74700004
-0.20647144 0.043280955 0.74500006
-0.20450191 0.043164764 0.74300003
-0.20226668 0.04299048 0.74000001
-0.20058572 0.042932384 0.73900002
-0.19863907 0.042816192 0.73700005
-0.19723526 0.042816192 0.73700005
-0.19583145 0.042816192 0.73700005
-0.19416383 0.0427581 0.73600006
-0.19276191 0.0427581 0.73600006
-0.19084001 0.042641908 0.73400003
-0.18944192 0.042641908 0.73400003
-0.18727525 0.04246762 0.73100001
-0.1853743 0.042351432 0.72900003
-0.18398573 0.042351432 0.72900003
-0.18259716 0.042351432 0.72900003
-0.18096001 0.042293336 0.72800004
-0.17982002 0.042351432 0.72900003
-0.17843144 0.042351432 0.72900003
-0.09326572 0.048625719 0.83700001
-0.21700573 0.045120005 0.75200003
-0.21557334 0.045120005 0.75200003
-0.21357144 0.045000002 0.75000006
-0.21214287 0.045000002 0.75000006
-0.21015239 0.044880003 0.74800003
-0.20872763 0.044880003 0.74800003
-0.20702572 0.044820003 0.74700004
-0.20450191 0.044580001 0.74300003
-0.20281334 0.044520002 0.74200004
-0.20085716 0.044400003 0.74000001
-0.19917811 0.044340003 0.73900002
-0.19723526 0.044220004 0.73700005
-0.19583145 0.044220004 0.73700005
-0.19416383 0.044160005 0.73600006
-0.19276191 0.044160005 0.73600006
-0.19084001 0.044040002 0.73400003
-0.18944192 0.044040002 0.73400003
-0.18753144 0.043920003 0.73200005
-0.1853743 0.043740004 0.72900003
-0.18398573 0.043740004 0.72900003
-0.18259716 0.043740004 0.72900003
-0.18120858 0.043740004 0.72900003
-0.17982002 0.043740004 0.72900003
-0.17843144 0.043740004 0.72900003
-0.21557334 0.046552382 0.75200003
-0.21414097 0.046552382 0.75200003
-0.21214287 0.046428576 0.75000006
-0.2107143 0.046428576 0.75000006
-0.20872763 0.046304766 0.74800003
-0.20702572 0.046242859 0.74700004
-0.20505239 0.046119049 0.74500006
-0.20281334 0.045933336 0.74200004
-0.20085716 0.045809526 0.74000001
-0.19917811 0.045747623 0.73900002
-0.19777049 0.045747623 0.73900002
-0.19583145 0.045623813 0.73700005
-0.19416383 0.045561906 0.73600006
-0.19276191 0.045561906 0.73600006
-0.19084001 0.0454381 0.73400003
-0.18892573 0.04531429 0.73200005
-0.18727525 0.045252383 0.73100001
-0.1853743 0.045128573 0.72900003
-0.18398573 0.045128573 0.72900003
-0.18234667 0.04506667 0.72800004
-0.18046287 0.04494286 0.72600001
-0.17908001 0.04494286 0.72600001
-0.17818668 0.04506667 0.72800004
-0.21729431 0.048048574 0.75300002
-0.21557334 0.047984764 0.75200003
-0.21414097 0.047984764 0.75200003
-0.21270859 0.047984764 0.75200003
-0.2107143 0.047857147 0.75000006
-0.20928572 0.047857147 0.75000006
-0.20730287 0.047729526 0.74800003
-0.20505239 0.047538098 0.74500006
-0.20281334 0.04734667 0.74200004
-0.20085716 0.047219049 0.74000001
-0.19917811 0.047155242 0.73900002
-0.19777049 0.047155242 0.73900002
-0.19583145 0.047027621 0.73700005
-0.19416383 0.046963811 0.73600006
-0.19276191 0.046963811 0.73600006
-0.19084001 0.046836194 0.73400003
-0.18892573 0.046708573 0.73200005
-0.18727525 0.046644766 0.73100001
-0.1853743 0.046517145 0.72900003
-0.18373334 0.046453338 0.72800004
-0.18184572 0.046325717 0.72600001
-0.18046287 0.046325717 0.72600001
-0.17908001 0.046325717 0.72600001
-0.17818668 0.046453338 0.72800004
-0.21729431 0.04948286 0.75300002
-0.21557334 0.049417146 0.75200003
-0.21414097 0.049417146 0.75200003
-0.21270859 0.049417146 0.75200003
-0.2107143 0.049285717 0.75000006
-0.20928572 0.049285717 0.75000006
-0.20730287 0.049154289 0.74800003
-0.20505239 0.048957147 0.74500006
-0.20308667 0.048825718 0.74300003
-0.20085716 0.048628576 0.74000001
-0.19944763 0.048628576 0.74000001
-0.19777049 0.048562862 0.73900002
-0.19583145 0.04843143 0.73700005
-0.19416383 0.048365716 0.73600006
-0.19276191 0.048365716 0.73600006
-0.19136001 0.048365716 0.73600006
-0.18944192 0.048234288 0.73400003
-0.18727525 0.048037145 0.73100001
-0.1853743 0.047905717 0.72900003
-0.18398573 0.047905717 0.72900003
-0.18184572 0.047708575 0.72600001
-0.18046287 0.047708575 0.72600001
-0.21642859 0.050714288 0.75000006
-0.21500002 0.050714288 0.75000006
-0.21357144 0.050714288 0.75000006
-0.21214287 0.050714288 0.75000006
-0.2107143 0.050714288 0.75000006
-0.20872763 0.050579052 0.74800003
-0.20702572 0.050511431 0.74700004
-0.20505239 0.050376195 0.74500006
-0.20308667 0.050240956 0.74300003
-0.20140001 0.050173335 0.74200004
-0.19944763 0.050038099 0.74000001
-0.19777049 0.049970478 0.73900002
-0.19583145 0.049835242 0.73700005
-0.19442764 0.049835242 0.73700005
-0.19276191 0.049767621 0.73600006
-0.19136001 0.049767621 0.73600006
-0.18995811 0.049767621 0.73600006
-0.18804382 0.049632385 0.73400003
-0.18613715 0.049497146 0.73200005
-0.18449049 0.049429528 0.73100001
-0.18259716 0.049294289 0.72900003
-0.18096001 0.049226671 0.72800004
-0.16940001 0.052066669 0.77000004
-0.21642859 0.052142862 0.75000006
-0.21500002 0.052142862 0.75000006
-0.21357144 0.052142862 0.75000006
-0.21214287 0.052142862 0.75000006
-0.21015239 0.052003812 0.74800003
-0.20872763 0.052003812 0.74800003
-0.20702572 0.051934291 0.74700004
-0.20505239 0.05179524 0.74500006
-0.20308667 0.051656194 0.74300003
-0.20140001 0.051586669 0.74200004
-0.19998668 0.051586669 0.74200004
-0.1980381 0.051447622 0.74000001
-0.19636287 0.051378097 0.73900002
-0.19442764 0.051239051 0.73700005
-0.19276191 0.051169526 0.73600006
-0.19136001 0.051169526 0.73600006
-0.18944192 0.051030479 0.73400003
-0.18804382 0.051030479 0.73400003
-0.18613715 0.050891433 0.73200005
-0.18449049 0.050821908 0.73100001
-0.18309811 0.050821908 0.73100001
-0.18120858 0.050682861 0.72900003
-0.16940001 0.053533338 0.77000004
-0.16749716 0.053394288 0.76800001
-0.21300192 0.053428575 0.74800003
-0.21157716 0.053428575 0.74800003
-0.21015239 0.053428575 0.74800003
-0.20872763 0.053428575 0.74800003
-0.20702572 0.053357147 0.74700004
-0.20505239 0.053214289 0.74500006
-0.20308667 0.053071432 0.74300003
-0.20167144 0.053071432 0.74300003
-0.19998668 0.053000003 0.74200004
-0.1980381 0.052857146 0.74000001
-0.19636287 0.052785717 0.73900002
-0.19495524 0.052785717 0.73900002
-0.19302382 0.05264286 0.73700005
-0.19136001 0.052571431 0.73600006
-0.18944192 0.052428573 0.73400003
-0.18804382 0.052428573 0.73400003
-0.18613715 0.052285716 0.73200005
-0.18449049 0.052214291 0.73100001
-0.18309811 0.052214291 0.73100001
-0.18120858 0.052071434 0.72900003
-0.16940001 0.055000003 0.77000004
-0.16749716 0.054857146 0.76800001
-0.1332 0.054000005 0.75600004
-0.13158572 0.053928576 0.75500005
-0.13014762 0.053928576 0.75500005
-0.12870952 0.053928576 0.75500005
-0.12103525 0.054357145 0.76100004
-0.11958572 0.054357145 0.76100004
-0.22391906 0.058446672 0.79700005
-0.22240096 0.058446672 0.79700005
-0.22032858 0.058300003 0.79500002
-0.2188143 0.058300003 0.79500002
-0.21784668 0.058446672 0.79700005
-0.20167144 0.05448667 0.74300003
-0.19998668 0.054413337 0.74200004
-0.1980381 0.054266669 0.74000001
-0.19636287 0.054193337 0.73900002
-0.19442764 0.054046672 0.73700005
-0.19276191 0.053973336 0.73600006
-0.19136001 0.053973336 0.73600006
-0.18944192 0.053826671 0.73400003
-0.18753144 0.053680003 0.73200005
-0.18613715 0.053680003 0.73200005
-0.18449049 0.05360667 0.73100001
-0.18309811 0.05360667 0.73100001
-0.18120858 0.053460002 0.72900003
-0.16940001 0.056466669 0.77000004
-0.16749716 0.056320004 0.76800001
-0.16162191 0.05580667 0.76100004
-0.16017239 0.05580667 0.76100004
-0.13302381 0.055366669 0.75500005
-0.13123715 0.055220004 0.75300002
-0.12963049 0.055146672 0.75200003
-0.1281981 0.055146672 0.75200003
-0.1208762 0.055733338 0.76000005
-0.11958572 0.05580667 0.76100004
-0.22240096 0.059964765 0.79700005
-0.22088288 0.059964765 0.79700005
-0.2188143 0.059814289 0.79500002
-0.21784668 0.059964765 0.79700005
-0.20167144 0.055901907 0.74300003
-0.2002562 0.055901907 0.74300003
-0.19857335 0.055826671 0.74200004
-0.19662859 0.055676196 0.74000001
-0.19495524 0.055600956 0.73900002
-0.19302382 0.05545048 0.73700005
-0.19136001 0.055375241 0.73600006
-0.18944192 0.055224765 0.73400003
-0.18804382 0.055224765 0.73400003
-0.18664573 0.055224765 0.73400003
-0.18474287 0.055074289 0.73200005
-0.18309811 0.05499905 0.73100001
-0.18170573 0.05499905 0.73100001
-0.16727906 0.057707623 0.76700002
-0.16452096 0.057256196 0.76100004
-0.16307144 0.057256196 0.76100004
-0.16162191 0.057256196 0.76100004
-0.16017239 0.057256196 0.76100004
-0.15914001 0.057406671 0.76300001
-0.15727334 0.057256196 0.76100004
-0.15559144 0.057707623 0.76700002
-0.15081429 0.057557147 0.76500005
-0.13822477 0.05657905 0.75200003
-0.13679239 0.05657905 0.75200003
-0.13536 0.05657905 0.75200003
-0.13392763 0.05657905 0.75200003
-0.13249524 0.05657905 0.75200003
-0.13106287 0.05657905 0.75200003
-0.12963049 0.05657905 0.75200003
-0.1281981 0.05657905 0.75200003
-0.12693429 0.056654289 0.75300002
-0.12550001 0.056654289 0.75300002
-0.12439524 0.056804765 0.75500005
-0.12295715 0.056804765 0.75500005
-0.12151906 0.056804765 0.75500005
-0.12024001 0.056880005 0.75600004
-0.11880001 0.056880005 0.75600004
-0.11736001 0.056880005 0.75600004
-0.11622667 0.05703048 0.75800002
-0.2002562 0.057317145 0.74300003
-0.19857335 0.057240006 0.74200004
-0.19716001 0.057240006 0.74200004
-0.19521905 0.057085719 0.74000001
-0.19302382 0.056854289 0.73700005
-0.19162001 0.056854289 0.73700005
-0.18995811 0.056777146 0.73600006
-0.18855621 0.056777146 0.73600006
-0.18664573 0.056622859 0.73400003
-0.18474287 0.056468576 0.73200005
-0.18334858 0.056468576 0.73200005
-0.18170573 0.056391433 0.73100001
-0.16307144 0.058705717 0.76100004
-0.16162191 0.058705717 0.76100004
-0.16017239 0.058705717 0.76100004
-0.15914001 0.058860004 0.76300001
-0.15727334 0.058705717 0.76100004
-0.15623334 0.058860004 0.76300001
-0.15559144 0.059168573 0.76700002
-0.15372857 0.059014291 0.76500005
-0.15266953 0.059168573 0.76700002
-0.15081429 0.059014291 0.76500005
-0.14935715 0.059014291 0.76500005
-0.14751334 0.058860004 0.76300001
-0.14606 0.058860004 0.76300001
-0.13965715 0.058011431 0.75200003
-0.13785715 0.057857148 0.75000006
-0.13642858 0.057857148 0.75000006
-0.13500001 0.057857148 0.75000006
-0.13321525 0.057702862 0.74800003
-0.13214287 0.057857148 0.75000006
-0.1307143 0.057857148 0.75000006
-0.12928572 0.057857148 0.75000006
-0.12785715 0.057857148 0.75000006
-0.12642857 0.057857148 0.75000006
-0.12533334 0.058011431 0.75200003
-0.12406572 0.058088575 0.75300002
-0.12263144 0.058088575 0.75300002
-0.12151906 0.058242861 0.75500005
-0.12008096 0.058242861 0.75500005
-0.11880001 0.058320004 0.75600004
-0.11736001 0.058320004 0.75600004
-0.11622667 0.058474291 0.75800002
-0.11478286 0.058474291 0.75800002
-0.19884096 0.058732383 0.74300003
-0.19742572 0.058732383 0.74300003
-0.19574668 0.058653336 0.74200004
-0.19354764 0.058416195 0.73900002
-0.19162001 0.058258098 0.73700005
-0.1902162 0.058258098 0.73700005
-0.18855621 0.058179051 0.73600006
-0.18715429 0.058179051 0.73600006
-0.18524763 0.058020957 0.73400003
-0.18334858 0.057862859 0.73200005
-0.18170573 0.057783812 0.73100001
-0.16495335 0.060313337 0.76300001
-0.16307144 0.060155243 0.76100004
-0.16162191 0.060155243 0.76100004
-0.16059335 0.060313337 0.76300001
-0.15914001 0.060313337 0.76300001
-0.15768668 0.060313337 0.76300001
-0.15623334 0.060313337 0.76300001
-0.15559144 0.060629528 0.76700002
-0.15413049 0.060629528 0.76700002
-0.15266953 0.060629528 0.76700002
-0.15081429 0.060471434 0.76500005
-0.14974762 0.060629528 0.76700002
-0.14790002 0.060471434 0.76500005
-0.14567715 0.060155243 0.76100004
-0.1389143 0.059127621 0.74800003
-0.13748953 0.059127621 0.74800003
-0.13606477 0.059127621 0.74800003
-0.13464001 0.059127621 0.74800003
-0.13303715 0.059048574 0.74700004
-0.13179049 0.059127621 0.74800003
-0.13036573 0.059127621 0.74800003
-0.12876858 0.059048574 0.74700004
-0.12734573 0.059048574 0.74700004
-0.12609144 0.059127621 0.74800003
-0.12500001 0.059285719 0.75000006
-0.12390096 0.059443813 0.75200003
-0.12246858 0.059443813 0.75200003
-0.12119715 0.05952286 0.75300002
-0.12008096 0.059680957 0.75500005
-0.11880001 0.059760004 0.75600004
-0.11736001 0.059760004 0.75600004
-0.11653334 0.060076196 0.76000005
-0.022260955 0.063712388 0.80600005
-0.19991145 0.060471434 0.74700004
-0.19848858 0.060471434 0.74700004
-0.19574668 0.06006667 0.74200004
-0.19459525 0.060147624 0.74300003
-0.19162001 0.05966191 0.73700005
-0.1902162 0.05966191 0.73700005
-0.18855621 0.059580956 0.73600006
-0.18715429 0.059580956 0.73600006
-0.18524763 0.059419051 0.73400003
-0.18334858 0.059257146 0.73200005
-0.18170573 0.059176195 0.73100001
-0.16307144 0.061604764 0.76100004
-0.16162191 0.061604764 0.76100004
-0.16017239 0.061604764 0.76100004
-0.15872286 0.061604764 0.76100004
-0.15727334 0.061604764 0.76100004
-0.15582383 0.061604764 0.76100004
-0.15559144 0.062090479 0.76700002
-0.15372857 0.061928574 0.76500005
-0.15266953 0.062090479 0.76700002
-0.15081429 0.061928574 0.76500005
-0.14935715 0.061928574 0.76500005
-0.14751334 0.061766669 0.76300001
-0.14606 0.061766669 0.76300001
-0.14214286 0.06071429 0.75000006
-0.14071429 0.06071429 0.75000006
-0.1389143 0.060552385 0.74800003
-0.13730572 0.060471434 0.74700004
-0.13588287 0.060471434 0.74700004
-0.13446 0.060471434 0.74700004
-0.13268097 0.060309529 0.74500006
-0.1316143 0.060471434 0.74700004
-0.13019143 0.060471434 0.74700004
-0.12876858 0.060471434 0.74700004
-0.12734573 0.060471434 0.74700004
-0.12592286 0.060471434 0.74700004
-0.12466668 0.060552385 0.74800003
-0.12357143 0.06071429 0.75000006
-0.12214287 0.06071429 0.75000006
-0.12071429 0.06071429 0.75000006
-0.11699334 0.061766669 0.76300001
-0.20160383 0.061977148 0.74800003
-0.20017906 0.061977148 0.74800003
-0.1987543 0.061977148 0.74800003
-0.19732954 0.061977148 0.74800003
-0.19590478 0.061977148 0.74800003
-0.19162001 0.061065719 0.73700005
-0.1902162 0.061065719 0.73700005
-0.18881239 0.061065719 0.73700005
-0.18740858 0.061065719 0.73700005
-0.18600477 0.061065719 0.73700005
-0.18435049 0.060982861 0.73600006
-0.18245144 0.060817149 0.73400003
-0.18056001 0.060651433 0.73200005
-0.16017239 0.063054293 0.76100004
-0.15851429 0.062971435 0.76000005
-0.15706667 0.062971435 0.76000005
-0.15480001 0.062640004 0.75600004
-0.15478002 0.063220002 0.76300001
-0.15332668 0.063220002 0.76300001
-0.15187335 0.063220002 0.76300001
-0.15042001 0.063220002 0.76300001
-0.14896667 0.063220002 0.76300001
-0.14693335 0.062971435 0.76000005
-0.14452858 0.062557146 0.75500005
-0.14214286 0.06214286 0.75000006
-0.14033906 0.061977148 0.74800003
-0.1389143 0.061977148 0.74800003
-0.13730572 0.06189429 0.74700004
-0.13606477 0.061977148 0.74800003
-0.13446 0.06189429 0.74700004
-0.13232477 0.061562862 0.74300003
-0.13126191 0.061728574 0.74500006
-0.12984286 0.061728574 0.74500006
-0.12842382 0.061728574 0.74500006
-0.12700477 0.061728574 0.74500006
-0.12592286 0.06189429 0.74700004
-0.12450001 0.06189429 0.74700004
-0.12357143 0.06214286 0.75000006
-0.12214287 0.06214286 0.75000006
-0.12071429 0.06214286 0.75000006
-0.11699334 0.063220002 0.76300001
-0.20160383 0.063401908 0.74800003
-0.20017906 0.063401908 0.74800003
-0.19928573 0.063571431 0.75000006
-0.19732954 0.063401908 0.74800003
-0.19590478 0.063401908 0.74800003
-0.19448002 0.063401908 0.74800003
-0.1902162 0.062469527 0.73700005
-0.18881239 0.062469527 0.73700005
-0.18740858 0.062469527 0.73700005
-0.18575239 0.062384766 0.73600006
-0.18435049 0.062384766 0.73600006
-0.18245144 0.062215243 0.73400003
-0.18056001 0.062045719 0.73200005
-0.15851429 0.064419053 0.76000005
-0.15665334 0.06424953 0.75800002
-0.15623334 0.064673334 0.76300001
-0.15478002 0.064673334 0.76300001
-0.15292478 0.064503811 0.76100004
-0.15147525 0.064503811 0.76100004
-0.14982858 0.064419053 0.76000005
-0.14838096 0.064419053 0.76000005
-0.14596668 0.063995242 0.75500005
-0.14414573 0.063825719 0.75300002
-0.14214286 0.063571431 0.75000006
-0.14033906 0.063401908 0.74800003
-0.13872857 0.06331715 0.74700004
-0.13693811 0.063147627 0.74500006
-0.13606477 0.063401908 0.74800003
-0.13410001 0.063147627 0.74500006
-0.13232477 0.062978096 0.74300003
-0.13090953 0.062978096 0.74300003
-0.12949429 0.062978096 0.74300003
-0.12842382 0.063147627 0.74500006
-0.12700477 0.063147627 0.74500006
-0.12558572 0.063147627 0.74500006
-0.12450001 0.06331715 0.74700004
-0.12324192 0.063401908 0.74800003
-0.12214287 0.063571431 0.75000006
0.14576097 0.067216195 0.79300004
0.14727144 0.067216195 0.79300004
-0.19928573 0.065000005 0.75000006
-0.19732954 0.064826667 0.74800003
-0.19590478 0.064826667 0.74800003
-0.19448002 0.064826667 0.74800003
-0.18791716 0.064046673 0.73900002
-0.18575239 0.063786671 0.73600006
-0.18435049 0.063786671 0.73600006
-0.18170573 0.063353337 0.73100001
-0.18031335 0.063353337 0.73100001
-0.15665334 0.065693341 0.75800002
-0.15520954 0.065693341 0.75800002
-0.1543743 0.065953337 0.76100004
-0.15272382 0.065866672 0.76000005
-0.15147525 0.065953337 0.76100004
-0.14982858 0.065866672 0.76000005
-0.14838096 0.065866672 0.76000005
-0.14500001 0.065000005 0.75000006
-0.14318858 0.064826667 0.74800003
-0.14157429 0.064740002 0.74700004
-0.1397762 0.064566672 0.74500006
-0.13835715 0.064566672 0.74500006
-0.13657048 0.064393334 0.74300003
-0.13551906 0.064566672 0.74500006
-0.13374001 0.064393334 0.74300003
-0.13214667 0.064306669 0.74200004
-0.13073334 0.064306669 0.74200004
-0.12932001 0.064306669 0.74200004
-0.12807906 0.064393334 0.74300003
-0.12666382 0.064393334 0.74300003
-0.12558572 0.064566672 0.74500006
-0.12416667 0.064566672 0.74500006
-0.12324192 0.064826667 0.74800003
-0.12181715 0.064826667 0.74800003
-0.12039239 0.064826667 0.74800003
0.13786002 0.068553336 0.79100001
0.13936667 0.068553336 0.79100001
0.14087334 0.068553336 0.79100001
0.14238001 0.068553336 0.79100001
0.14388667 0.068553336 0.79100001
0.14539334 0.068553336 0.79100001
-0.19590478 0.066251434 0.74800003
-0.19422001 0.066162862 0.74700004
-0.18600477 0.065277144 0.73700005
-0.18460096 0.065277144 0.73700005
-0.18170573 0.064745717 0.73100001
-0.17957334 0.064480007 0.72800004
-0.17818668 0.064480007 0.72800004
-0.15809715 0.067137145 0.75800002
-0.15624002 0.066960007 0.75600004
-0.15480001 0.066960007 0.75600004
-0.15376572 0.067137145 0.75800002
-0.15192001 0.066960007 0.75600004
-0.15048002 0.066960007 0.75600004
-0.14825144 0.066605717 0.75200003
-0.14642859 0.066428579 0.75000006
-0.14461334 0.066251434 0.74800003
-0.14261429 0.065985717 0.74500006
-0.1408162 0.065808579 0.74300003
-0.13921334 0.065720007 0.74200004
-0.13780001 0.065720007 0.74200004
-0.13601905 0.065542862 0.74000001
-0.13460954 0.065542862 0.74000001
-0.13248001 0.065188579 0.73600006
-0.13107811 0.065188579 0.73600006
-0.12967619 0.065188579 0.73600006
-0.12897144 0.065542862 0.74000001
-0.12704477 0.065277144 0.73700005
-0.12564096 0.065277144 0.73700005
-0.12474287 0.065542862 0.74000001
-0.12333334 0.065542862 0.74000001
-0.12142953 0.065277144 0.73700005
-0.12002572 0.065277144 0.73700005
-0.11862192 0.065277144 0.73700005
-0.17957334 0.065866672 0.72800004
-0.17818668 0.065866672 0.72800004
-0.15809715 0.068580955 0.75800002
-0.15624002 0.068400003 0.75600004
-0.15480001 0.068400003 0.75600004
-0.15336001 0.068400003 0.75600004
-0.15171906 0.068309531 0.75500005
-0.15028097 0.068309531 0.75500005
-0.14785716 0.067857146 0.75000006
-0.1460381 0.067676194 0.74800003
-0.14403334 0.067404769 0.74500006
-0.14223143 0.067223817 0.74300003
-0.1408162 0.067223817 0.74300003
-0.13921334 0.067133337 0.74200004
-0.13780001 0.067133337 0.74200004
-0.13601905 0.066952385 0.74000001
-0.13460954 0.066952385 0.74000001
-0.13212001 0.066409528 0.73400003
-0.13107811 0.066590481 0.73600006
-0.12932383 0.066409528 0.73400003
-0.12844858 0.06668096 0.73700005
-0.12687239 0.066590481 0.73600006
-0.12547049 0.066590481 0.73600006
-0.12423715 0.06668096 0.73700005
-0.12283334 0.06668096 0.73700005
-0.12142953 0.06668096 0.73700005
-0.11986286 0.066590481 0.73600006
-0.11781715 0.066228576 0.73200005
-0.15747143 0.069747627 0.75500005
-0.15603334 0.069747627 0.75500005
-0.15459524 0.069747627 0.75500005
-0.15315716 0.069747627 0.75500005
-0.15131715 0.06956286 0.75300002
-0.14968382 0.06947048 0.75200003
-0.14785716 0.069285721 0.75000006
-0.1460381 0.069100954 0.74800003
-0.14364667 0.068639055 0.74300003
-0.1408162 0.068639055 0.74300003
-0.13107811 0.067992382 0.73600006
-0.12967619 0.067992382 0.73600006
-0.12844858 0.068084769 0.73700005
-0.12687239 0.067992382 0.73600006
-0.12547049 0.067992382 0.73600006
-0.12373143 0.067807622 0.73400003
-0.12233334 0.067807622 0.73400003
-0.12060572 0.067622863 0.73200005
-0.11921144 0.067622863 0.73200005
-0.11781715 0.067622863 0.73200005
-0.15747143 0.071185715 0.75500005
-0.15603334 0.071185715 0.75500005
-0.15459524 0.071185715 0.75500005
-0.15315716 0.071185715 0.75500005
-0.15131715 0.070997149 0.75300002
-0.12879716 0.069677144 0.73900002
-0.12687239 0.06939429 0.73600006
-0.12547049 0.06939429 0.73600006
-0.11921144 0.06901715 0.73200005
-0.1176562 0.068922862 0.73100001
-0.12844858 0.070892386 0.73700005
-0.12687239 0.070796192 0.73600006
-0.12547049 0.070796192 0.73600006
-0.12844858 0.072296195 0.73700005
0.019748572 0.085577145 0.76800001
0.021183811 0.085465722 0.76700002
0.022644764 0.085465722 0.76700002
-0.049641907 0.07117334 0.62800002
-0.048445717 0.07117334 0.62800002
-0.047324765 0.071286671 0.62900001
-0.042532384 0.071286671 0.62900001
-0.041268576 0.07117334 0.62800002
-0.050838098 0.072369531 0.62800002
-0.049641907 0.072369531 0.62800002
-0.048445717 0.072369531 0.62800002
-0.047324765 0.072484769 0.62900001
-0.044928573 0.072484769 0.62900001
-0.043869525 0.072715245 0.63100004
-0.042532384 0.072484769 0.62900001
-0.041268576 0.072369531 0.62800002
-0.040008575 0.072254293 0.62700003
-0.050838098 0.073565722 0.62800002
-0.049641907 0.073565722 0.62800002
-0.048445717 0.073565722 0.62800002
-0.047249526 0.073565722 0.62800002
-0.046126671 0.07368286 0.62900001
-0.044928573 0.07368286 0.62900001
-0.043730479 0.07368286 0.62900001
-0.042464763 0.073565722 0.62800002
-0.041268576 0.073565722 0.62800002
-0.050838098 0.074761912 0.62800002
-0.049641907 0.074761912 0.62800002
-0.048445717 0.074761912 0.62800002
-0.047249526 0.074761912 0.62800002
-0.046053335 0.074761912 0.62800002
-0.044857144 0.074761912 0.62800002
-0.043730479 0.074880958 0.62900001
-0.042464763 0.074761912 0.62800002
-0.052117147 0.076079056 0.62900001
-0.050919052 0.076079056 0.62900001
-0.049720954 0.076079056 0.62900001
-0.048445717 0.075958103 0.62800002
-0.047249526 0.075958103 0.62800002
-0.046053335 0.075958103 0.62800002
-0.044857144 0.075958103 0.62800002
-0.043660954 0.075958103 0.62800002
-0.042532384 0.076079056 0.62900001
-0.030405717 0.075716197 0.62600005
-0.057723813 0.078382865 0.63800001
-0.054946668 0.077891432 0.634
-0.053569525 0.077645719 0.63200003
-0.052117147 0.077277146 0.62900001
-0.050919052 0.077277146 0.62900001
-0.049720954 0.077277146 0.62900001
-0.048445717 0.077154294 0.62800002
-0.047249526 0.077154294 0.62800002
-0.046053335 0.077154294 0.62800002
-0.044857144 0.077154294 0.62800002
-0.043660954 0.077154294 0.62800002
-0.03021143 0.076417148 0.62200004
-0.029026669 0.076417148 0.62200004
-0.027841907 0.076417148 0.62200004
-0.0064428574 0.07555715 0.61500001
-0.0052714287 0.07555715 0.61500001
-0.0041000005 0.07555715 0.61500001
-0.0029285715 0.07555715 0.61500001
-0.0017600001 0.075680003 0.61600006
-0.057542861 0.079348579 0.63600004
-0.056242861 0.079223812 0.63500005
-0.054946668 0.079099052 0.634
-0.053569525 0.078849532 0.63200003
-0.052282862 0.078724764 0.63100004
-0.050919052 0.078475244 0.62900001
-0.049641907 0.078350484 0.62800002
-0.048445717 0.078350484 0.62800002
-0.047249526 0.078350484 0.62800002
-0.046053335 0.078350484 0.62800002
-0.044785716 0.078225717 0.62700003
-0.043591432 0.078225717 0.62700003
-0.042397145 0.078225717 0.62700003
-0.03021143 0.07760191 0.62200004
-0.029026669 0.07760191 0.62200004
-0.0064428574 0.076728575 0.61500001
-0.0052714287 0.076728575 0.61500001
-0.0041000005 0.076728575 0.61500001
-0.0029238097 0.076603815 0.61400002
-0.0017600001 0.076853335 0.61600006
-0.057542861 0.080560006 0.63600004
-0.056242861 0.080433339 0.63500005
-0.054946668 0.080306672 0.634
-0.053739052 0.080306672 0.634
-0.052282862 0.07992667 0.63100004
-0.050919052 0.079673335 0.62900001
-0.049641907 0.079546675 0.62800002
-0.048445717 0.079546675 0.62800002
-0.04717429 0.079420008 0.62700003
-0.045980003 0.079420008 0.62700003
-0.044714287 0.07929334 0.62600005
-0.043521907 0.07929334 0.62600005
-0.042329527 0.07929334 0.62600005
-0.030114288 0.078533337 0.62
-0.028933335 0.078533337 0.62
-0.012300001 0.077900007 0.61500001
-0.0052714287 0.077900007 0.61500001
-0.0041000005 0.077900007 0.61500001
-0.0029238097 0.07777334 0.61400002
-0.0017600001 0.078026675 0.61600006
-0.054946668 0.081514291 0.634
-0.053739052 0.081514291 0.634
-0.052365717 0.08125715 0.63200003
-0.051080957 0.081128575 0.63100004
-0.049720954 0.080871433 0.62900001
-0.048445717 0.080742866 0.62800002
-0.04717429 0.080614291 0.62700003
-0.045980003 0.080614291 0.62700003
-0.044714287 0.080485716 0.62600005
-0.043452382 0.080357149 0.625
-0.042261906 0.080357149 0.625
-0.041005716 0.080228575 0.62400001
-0.039753336 0.080100007 0.62300003
-0.038566668 0.080100007 0.62300003
-0.037320003 0.079971433 0.62200004
-0.036193337 0.080100007 0.62300003
-0.03495048 0.079971433 0.62200004
-0.033820003 0.080100007 0.62300003
-0.032423813 0.079585716 0.61900002
-0.031244764 0.079585716 0.61900002
-0.030065717 0.079585716 0.61900002
-0.018186668 0.079200007 0.61600006
-0.017013334 0.079200007 0.61600006
-0.015814288 0.079071432 0.61500001
-0.014642858 0.079071432 0.61500001
-0.013471429 0.079071432 0.61500001
-0.012300001 0.079071432 0.61500001
-0.011128572 0.079071432 0.61500001
-0.0099571431 0.079071432 0.61500001
-0.0087714288 0.078942865 0.61400002
-0.0076019051 0.078942865 0.61400002
-0.0064428574 0.079071432 0.61500001
-0.0052714287 0.079071432 0.61500001
-0.0041000005 0.079071432 0.61500001
-0.0029238097 0.078942865 0.61400002
-0.0017600001 0.079200007 0.61600006
-0.00058666669 0.079200007 0.61600006
-0.053823814 0.082852386 0.63500005
-0.052448574 0.082591437 0.63300002
-0.051242862 0.082591437 0.63300002
-0.049958099 0.082460955 0.63200003
-0.04852286 0.082069531 0.62900001
-0.04717429 0.081808574 0.62700003
-0.04590667 0.0816781 0.62600005
-0.044642862 0.081547625 0.625
-0.043382861 0.081417151 0.62400001
-0.042194288 0.081417151 0.62400001
-0.040940002 0.081286669 0.62300003
-0.039753336 0.081286669 0.62300003
-0.038504764 0.081156194 0.62200004
-0.037320003 0.081156194 0.62200004
-0.036135241 0.081156194 0.62200004
-0.03495048 0.081156194 0.62200004
-0.033657145 0.080895245 0.62
-0.032476194 0.080895245 0.62
-0.031244764 0.080764771 0.61900002
-0.030065717 0.080764771 0.61900002
-0.028840002 0.080634288 0.61800003
-0.017013334 0.080373339 0.61600006
-0.015814288 0.080242865 0.61500001
-0.014642858 0.080242865 0.61500001
-0.013471429 0.080242865 0.61500001
-0.012300001 0.080242865 0.61500001
-0.011128572 0.080242865 0.61500001
-0.0099571431 0.080242865 0.61500001
-0.0087857153 0.080242865 0.61500001
-0.0076142862 0.080242865 0.61500001
-0.0064428574 0.080242865 0.61500001
-0.0052628573 0.080112383 0.61400002
-0.0040933336 0.080112383 0.61400002
-0.0029238097 0.080112383 0.61400002
-0.0017571429 0.080242865 0.61500001
-0.0005857143 0.080242865 0.61500001
0.0005857143 0.080242865 0.61500001
-0.14707144 0.095976196 0.72500002
-0.14569049 0.095976196 0.72500002
-0.14391144 0.095711432 0.72300005
-0.052448574 0.083797149 0.63300002
-0.051323812 0.083929531 0.634
-0.050037146 0.083797149 0.63300002
-0.048677146 0.083532386 0.63100004
-0.04717429 0.083002865 0.62700003
-0.04590667 0.082870483 0.62600005
-0.044642862 0.082738101 0.625
-0.043382861 0.08260572 0.62400001
-0.042261906 0.082738101 0.625
-0.041005716 0.08260572 0.62400001
-0.039817147 0.08260572 0.62400001
-0.038566668 0.082473338 0.62300003
-0.037320003 0.082340956 0.62200004
-0.036135241 0.082340956 0.62200004
-0.03495048 0.082340956 0.62200004
-0.033657145 0.082076199 0.62
-0.032476194 0.082076199 0.62
-0.031244764 0.081943817 0.61900002
-0.030065717 0.081943817 0.61900002
-0.028840002 0.081811436 0.61800003
-0.018186668 0.081546672 0.61600006
-0.016985716 0.08141429 0.61500001
-0.015814288 0.08141429 0.61500001
-0.014619049 0.081281908 0.61400002
-0.013471429 0.08141429 0.61500001
-0.012300001 0.08141429 0.61500001
-0.011110477 0.081281908 0.61400002
-0.009940953 0.081281908 0.61400002
-0.0087714288 0.081281908 0.61400002
-0.0076019051 0.081281908 0.61400002
-0.0064428574 0.08141429 0.61500001
-0.0052628573 0.081281908 0.61400002
-0.0040933336 0.081281908 0.61400002
-0.0029238097 0.081281908 0.61400002
-0.0017600001 0.081546672 0.61600006
-0.0005857143 0.08141429 0.61500001
0.0005857143 0.08141429 0.61500001
0.0017600001 0.081546672 0.61600006
-0.14569049 0.097357146 0.72500002
-0.14391144 0.097088575 0.72300005
-0.13782857 0.096685722 0.72000003
-0.13645715 0.096685722 0.72000003
-0.04590667 0.084062859 0.62600005
-0.044642862 0.083928578 0.625
-0.043382861 0.083794288 0.62400001
-0.042261906 0.083928578 0.625
-0.041005716 0.083794288 0.62400001
-0.039817147 0.083794288 0.62400001
-0.038628574 0.083794288 0.62400001
-0.037380002 0.083660007 0.62300003
-0.036193337 0.083660007 0.62300003
-0.03495048 0.083525717 0.62200004
-0.033820003 0.083660007 0.62300003
-0.032580953 0.083525717 0.62200004
-0.031244764 0.083122864 0.61900002
-0.030065717 0.083122864 0.61900002
-0.018186668 0.082720004 0.61600006
-0.017013334 0.082720004 0.61600006
-0.015814288 0.082585722 0.61500001
-0.014619049 0.082451433 0.61400002
-0.013471429 0.082585722 0.61500001
-0.012300001 0.082585722 0.61500001
-0.011110477 0.082451433 0.61400002
-0.009940953 0.082451433 0.61400002
-0.0087714288 0.082451433 0.61400002
-0.0076019051 0.082451433 0.61400002
-0.0064428574 0.082585722 0.61500001
-0.0052628573 0.082451433 0.61400002
-0.0041000005 0.082585722 0.61500001
-0.0029285715 0.082585722 0.61500001
-0.0017600001 0.082720004 0.61600006
-0.00058666669 0.082720004 0.61600006
0.0005857143 0.082585722 0.61500001
0.0017600001 0.082720004 0.61600006
-0.14391144 0.098465718 0.72300005
-0.14233716 0.098329529 0.72200006
-0.14096192 0.098329529 0.72200006
-0.1392 0.098057151 0.72000003
-0.13763715 0.097920962 0.71900004
-0.13645715 0.098057151 0.72000003
-0.13508572 0.098057151 0.72000003
-0.048453335 0.08770667 0.64400005
-0.045833338 0.085119054 0.625
-0.044642862 0.085119054 0.625
-0.043452382 0.085119054 0.625
-0.042261906 0.085119054 0.625
-0.04107143 0.085119054 0.625
-0.039880954 0.085119054 0.625
-0.038628574 0.084982865 0.62400001
-0.037380002 0.084846675 0.62300003
-0.036193337 0.084846675 0.62300003
-0.035006668 0.084846675 0.62300003
-0.033820003 0.084846675 0.62300003
-0.032580953 0.084710479 0.62200004
-0.019391431 0.084029533 0.61700004
-0.018186668 0.083893336 0.61600006
-0.017013334 0.083893336 0.61600006
-0.015814288 0.083757147 0.61500001
-0.014642858 0.083757147 0.61500001
-0.013471429 0.083757147 0.61500001
-0.012300001 0.083757147 0.61500001
-0.011110477 0.083620958 0.61400002
-0.009940953 0.083620958 0.61400002
-0.0087714288 0.083620958 0.61400002
-0.0076019051 0.083620958 0.61400002
-0.0064428574 0.083757147 0.61500001
-0.0052628573 0.083620958 0.61400002
-0.0041000005 0.083757147 0.61500001
-0.0029285715 0.083757147 0.61500001
-0.0017600001 0.083893336 0.61600006
-0.00058666669 0.083893336 0.61600006
-0.14233716 0.099704765 0.72200006
-0.14096192 0.099704765 0.72200006
-0.1392 0.099428579 0.72000003
-0.13821144 0.099704765 0.72200006
-0.1368362 0.099704765 0.72200006
-0.047226671 0.088933341 0.64400005
-0.045071431 0.087138101 0.63100004
-0.043591432 0.086585723 0.62700003
-0.042329527 0.086447626 0.62600005
-0.04107143 0.08630953 0.625
-0.039880954 0.08630953 0.625
-0.038690478 0.08630953 0.625
-0.037440002 0.086171433 0.62400001
-0.036193337 0.086033337 0.62300003
-0.035006668 0.086033337 0.62300003
-0.033820003 0.086033337 0.62300003
-0.032580953 0.08589524 0.62200004
-0.019391431 0.085204765 0.61700004
-0.018186668 0.085066669 0.61600006
-0.016985716 0.08492858 0.61500001
-0.015814288 0.08492858 0.61500001
-0.014642858 0.08492858 0.61500001
-0.013471429 0.08492858 0.61500001
-0.012300001 0.08492858 0.61500001
-0.011092382 0.084652387 0.61300004
-0.009940953 0.084790483 0.61400002
-0.0087714288 0.084790483 0.61400002
-0.0076142862 0.08492858 0.61500001
-0.0064428574 0.08492858 0.61500001
-0.0052714287 0.08492858 0.61500001
-0.0041066669 0.085066669 0.61600006
-0.0029333336 0.085066669 0.61600006
-0.0017628573 0.085204765 0.61700004
-0.00058761908 0.085204765 0.61700004
-0.1392 0.10080001 0.72000003
-0.13042572 0.10038 0.71700001
-0.048453335 0.090160005 0.64400005
-0.047226671 0.090160005 0.64400005
-0.045071431 0.088340007 0.63100004
-0.043730479 0.088060006 0.62900001
-0.042329527 0.087640002 0.62600005
-0.041137144 0.087640002 0.62600005
-0.039944764 0.087640002 0.62600005
-0.038690478 0.087500006 0.625
-0.037440002 0.087360002 0.62400001
-0.036193337 0.087220006 0.62300003
-0.03495048 0.087080009 0.62200004
-0.033765718 0.087080009 0.62200004
-0.032476194 0.086800009 0.62
-0.031244764 0.086660005 0.61900002
-0.020566668 0.086380005 0.61700004
-0.019391431 0.086380005 0.61700004
-0.018186668 0.086240008 0.61600006
-0.016985716 0.086100005 0.61500001
-0.015814288 0.086100005 0.61500001
-0.014642858 0.086100005 0.61500001
-0.013471429 0.086100005 0.61500001
-0.012300001 0.086100005 0.61500001
-0.011110477 0.085960008 0.61400002
-0.009940953 0.085960008 0.61400002
-0.0087857153 0.086100005 0.61500001
-0.0076142862 0.086100005 0.61500001
-0.0064428574 0.086100005 0.61500001
-0.0052714287 0.086100005 0.61500001
-0.0041066669 0.086240008 0.61600006
-0.0029333336 0.086240008 0.61600006
-0.0017628573 0.086380005 0.61700004
-0.00058761908 0.086380005 0.61700004
-0.11813429 0.10174572 0.71700001
-0.048908576 0.089967623 0.634
-0.048453335 0.091386676 0.64400005
-0.047226671 0.091386676 0.64400005
-0.046000004 0.091386676 0.64400005
-0.043730479 0.089258105 0.62900001
