# .PCD v0.7 - Point Cloud Data file format
VERSION 0.7
FIELDS x y z
SIZE 4 4 4
TYPE F F F
COUNT 1 1 1
WIDTH 1342
HEIGHT 1
VIEWPOINT 0 0 0 1 0 0 0
POINTS 1342
DATA ascii
0.10236572 -0.07532572 0.67600006
0.10350001 -0.075214289 0.67500001
0.10556191 -0.075771436 0.68000001
0.10732858 -0.076105721 0.68300003
0.10847048 -0.07599429 0.68200004
0.10976953 -0.07599429 0.68200004
0.11139429 -0.076217145 0.68400002
0.11302667 -0.076440006 0.68600005
0.11433334 -0.076440006 0.68600005
0.11564001 -0.076440006 0.68600005
0.11694667 -0.076440006 0.68600005
0.046657145 -0.075571433 0.69000006
0.047971431 -0.075571433 0.69000006
0.049214289 -0.075461909 0.68900001
0.050526671 -0.075461909 0.68900001
0.05183905 -0.075461909 0.68900001
0.052920002 -0.075133339 0.68600005
0.054068577 -0.074914292 0.68400002
0.055371433 -0.074914292 0.68400002
0.056260005 -0.074366674 0.67900002
0.057299051 -0.074038103 0.67600006
0.058760002 -0.07425715 0.67800003
0.059874289 -0.074038103 0.67600006
0.061071433 -0.07392858 0.67500001
0.062357146 -0.07392858 0.67500001
0.063548572 -0.073819056 0.67400002
0.064832382 -0.073819056 0.67400002
0.065920003 -0.073600002 0.67200005
0.067200005 -0.073600002 0.67200005
0.068480007 -0.073600002 0.67200005
0.06996762 -0.073819056 0.67400002
0.071357146 -0.07392858 0.67500001
0.072750479 -0.074038103 0.67600006
0.074038103 -0.074038103 0.67600006
0.07532572 -0.074038103 0.67600006
0.076613337 -0.074038103 0.67600006
0.077900961 -0.074038103 0.67600006
0.079071432 -0.07392858 0.67500001
0.080357149 -0.07392858 0.67500001
0.081521913 -0.073819056 0.67400002
0.082928576 -0.07392858 0.67500001
0.084089532 -0.073819056 0.67400002
0.085373342 -0.073819056 0.67400002
0.086657152 -0.073819056 0.67400002
0.087940961 -0.073819056 0.67400002
0.088960007 -0.073600002 0.67200005
0.090240009 -0.073600002 0.67200005
0.091520004 -0.073600002 0.67200005
0.093076199 -0.073819056 0.67400002
0.094360009 -0.073819056 0.67400002
0.095785722 -0.07392858 0.67500001
0.097071432 -0.07392858 0.67500001
0.098357148 -0.07392858 0.67500001
0.099790484 -0.074038103 0.67600006
0.1010781 -0.074038103 0.67600006
0.10266858 -0.07425715 0.67800003
0.10365334 -0.074038103 0.67600006
0.10556191 -0.074476197 0.68000001
0.10717144 -0.074695244 0.68200004
0.10862953 -0.074804768 0.68300003
0.10993049 -0.074804768 0.68300003
0.11139429 -0.074914292 0.68400002
0.11302667 -0.075133339 0.68600005
0.11433334 -0.075133339 0.68600005
0.11564001 -0.075133339 0.68600005
0.046724766 -0.074364766 0.69100004
0.047971431 -0.07425715 0.69000006
0.049214289 -0.074149527 0.68900001
0.050526671 -0.074149527 0.68900001
0.05183905 -0.074149527 0.68900001
0.05276572 -0.073611431 0.68400002
0.053989526 -0.073503815 0.68300003
0.055290479 -0.073503815 0.68300003
0.056591433 -0.073503815 0.68300003
0.057468574 -0.072965719 0.67800003
0.058760002 -0.072965719 0.67800003
0.05978572 -0.072642863 0.67500001
0.061071433 -0.072642863 0.67500001
0.062264767 -0.072535239 0.67400002
0.063548572 -0.072535239 0.67400002
0.064640008 -0.072320007 0.67200005
0.065920003 -0.072320007 0.67200005
0.067200005 -0.072320007 0.67200005
0.068683811 -0.072535239 0.67400002
0.06996762 -0.072535239 0.67400002
0.071357146 -0.072642863 0.67500001
0.072642863 -0.072642863 0.67500001
0.074038103 -0.072750479 0.67600006
0.07532572 -0.072750479 0.67600006
0.076613337 -0.072750479 0.67600006
0.077900961 -0.072750479 0.67600006
0.079188578 -0.072750479 0.67600006
0.080357149 -0.072642863 0.67500001
0.081642866 -0.072642863 0.67500001
0.082928576 -0.072642863 0.67500001
0.084214292 -0.072642863 0.67500001
0.085500002 -0.072642863 0.67500001
0.086657152 -0.072535239 0.67400002
0.087940961 -0.072535239 0.67400002
0.089224771 -0.072535239 0.67400002
0.09050858 -0.072535239 0.67400002
0.09179239 -0.072535239 0.67400002
0.093076199 -0.072535239 0.67400002
0.094360009 -0.072535239 0.67400002
0.095785722 -0.072642863 0.67500001
0.097071432 -0.072642863 0.67500001
0.098357148 -0.072642863 0.67500001
0.099642865 -0.072642863 0.67500001
0.10137715 -0.072965719 0.67800003
0.10282001 -0.073073335 0.67900002
0.10426667 -0.073180959 0.68000001
0.10587239 -0.073396198 0.68200004
0.10717144 -0.073396198 0.68200004
0.10862953 -0.073503815 0.68300003
0.10993049 -0.073503815 0.68300003
0.11139429 -0.073611431 0.68400002
0.11269715 -0.073611431 0.68400002
0.11400001 -0.073611431 0.68400002
0.11564001 -0.073826671 0.68600005
0.048040956 -0.073048577 0.69100004
0.049285717 -0.07294286 0.69000006
0.050600003 -0.07294286 0.69000006
0.05183905 -0.072837144 0.68900001
0.052920002 -0.072520003 0.68600005
0.054068577 -0.072308578 0.68400002
0.055371433 -0.072308578 0.68400002
0.05667429 -0.072308578 0.68400002
0.057977147 -0.072308578 0.68400002
0.05910667 -0.072097145 0.68200004
0.05978572 -0.071357146 0.67500001
0.061071433 -0.071357146 0.67500001
0.062357146 -0.071357146 0.67500001
0.063642859 -0.071357146 0.67500001
0.064832382 -0.07125143 0.67400002
0.066116191 -0.07125143 0.67400002
0.067400001 -0.07125143 0.67400002
0.068683811 -0.07125143 0.67400002
0.070071436 -0.071357146 0.67500001
0.071357146 -0.071357146 0.67500001
0.072642863 -0.071357146 0.67500001
0.074038103 -0.071462862 0.67600006
0.07532572 -0.071462862 0.67600006
0.076613337 -0.071462862 0.67600006
0.077900961 -0.071462862 0.67600006
0.079188578 -0.071462862 0.67600006
0.080476195 -0.071462862 0.67600006
0.081642866 -0.071357146 0.67500001
0.083051436 -0.071462862 0.67600006
0.084339052 -0.071462862 0.67600006
0.085626669 -0.071462862 0.67600006
0.086914293 -0.071462862 0.67600006
0.08820191 -0.071462862 0.67600006
0.089754291 -0.071674287 0.67800003
0.091045722 -0.071674287 0.67800003
0.092337146 -0.071674287 0.67800003
0.093352385 -0.071462862 0.67600006
0.094640009 -0.071462862 0.67600006
0.095785722 -0.071357146 0.67500001
0.097071432 -0.071357146 0.67500001
0.098357148 -0.071357146 0.67500001
0.10008572 -0.071674287 0.67800003
0.10152667 -0.071780004 0.67900002
0.10282001 -0.071780004 0.67900002
0.10426667 -0.07188572 0.68000001
0.10556191 -0.07188572 0.68000001
0.10717144 -0.072097145 0.68200004
0.10862953 -0.072202861 0.68300003
0.10993049 -0.072202861 0.68300003
0.11123144 -0.072202861 0.68300003
0.11269715 -0.072308578 0.68400002
0.11400001 -0.072308578 0.68400002
0.11530287 -0.072308578 0.68400002
0.049285717 -0.071628578 0.69000006
0.05183905 -0.071524769 0.68900001
0.052997146 -0.071317151 0.68700004
0.05422667 -0.071213335 0.68600005
0.055533338 -0.071213335 0.68600005
0.056840003 -0.071213335 0.68600005
0.057807624 -0.070798099 0.68200004
0.05910667 -0.070798099 0.68200004
0.060980957 -0.06996762 0.67400002
0.062264767 -0.06996762 0.67400002
0.063642859 -0.070071436 0.67500001
0.064832382 -0.06996762 0.67400002
0.066116191 -0.06996762 0.67400002
0.067400001 -0.06996762 0.67400002
0.068683811 -0.06996762 0.67400002
0.070071436 -0.070071436 0.67500001
0.071357146 -0.070071436 0.67500001
0.072642863 -0.070071436 0.67500001
0.07392858 -0.070071436 0.67500001
0.07532572 -0.070175245 0.67600006
0.076613337 -0.070175245 0.67600006
0.077900961 -0.070175245 0.67600006
0.079188578 -0.070175245 0.67600006
0.080476195 -0.070175245 0.67600006
0.081642866 -0.070071436 0.67500001
0.083051436 -0.070175245 0.67600006
0.084339052 -0.070175245 0.67600006
0.085880004 -0.070382863 0.67800003
0.086914293 -0.070175245 0.67600006
0.08820191 -0.070175245 0.67600006
0.089754291 -0.070382863 0.67800003
0.091045722 -0.070382863 0.67800003
0.093628578 -0.070382863 0.67800003
0.094640009 -0.070175245 0.67600006
0.095927626 -0.070175245 0.67600006
0.097502865 -0.070382863 0.67800003
0.10008572 -0.070382863 0.67800003
0.10152667 -0.070486672 0.67900002
0.10282001 -0.070486672 0.67900002
0.10426667 -0.070590481 0.68000001
0.10556191 -0.070590481 0.68000001
0.10717144 -0.070798099 0.68200004
0.10862953 -0.070901908 0.68300003
0.10993049 -0.070901908 0.68300003
0.11123144 -0.070901908 0.68300003
0.11269715 -0.071005717 0.68400002
0.11400001 -0.071005717 0.68400002
0.052997146 -0.070008576 0.68700004
0.05422667 -0.069906674 0.68600005
0.055371433 -0.069702864 0.68400002
0.05667429 -0.069702864 0.68400002
0.057807624 -0.069499053 0.68200004
0.05910667 -0.069499053 0.68200004
0.06040572 -0.069499053 0.68200004
0.061433338 -0.069193341 0.67900002
0.062357146 -0.06878572 0.67500001
0.063642859 -0.06878572 0.67500001
0.064928576 -0.06878572 0.67500001
0.066116191 -0.068683811 0.67400002
0.067400001 -0.068683811 0.67400002
0.068683811 -0.068683811 0.67400002
0.070071436 -0.06878572 0.67500001
0.071357146 -0.06878572 0.67500001
0.072642863 -0.06878572 0.67500001
0.07392858 -0.06878572 0.67500001
0.07532572 -0.068887621 0.67600006
0.076613337 -0.068887621 0.67600006
0.077900961 -0.068887621 0.67600006
0.079188578 -0.068887621 0.67600006
0.080476195 -0.068887621 0.67600006
0.081763811 -0.068887621 0.67600006
0.083297148 -0.069091432 0.67800003
0.08458858 -0.069091432 0.67800003
0.085880004 -0.069091432 0.67800003
0.087171435 -0.069091432 0.67800003
0.088462859 -0.069091432 0.67800003
0.089754291 -0.069091432 0.67800003
0.091045722 -0.069091432 0.67800003
0.093352385 -0.068887621 0.67600006
0.094640009 -0.068887621 0.67600006
0.098794289 -0.069091432 0.67800003
0.1016762 -0.069295242 0.68000001
0.10297143 -0.069295242 0.68000001
0.10426667 -0.069295242 0.68000001
0.10556191 -0.069295242 0.68000001
0.10717144 -0.069499053 0.68200004
0.10862953 -0.069600955 0.68300003
0.10993049 -0.069600955 0.68300003
0.11139429 -0.069702864 0.68400002
0.11269715 -0.069702864 0.68400002
0.11400001 -0.069702864 0.68400002
0.052997146 -0.068700008 0.68700004
0.05422667 -0.068600006 0.68600005
0.055371433 -0.068400003 0.68400002
0.05667429 -0.068400003 0.68400002
0.057892386 -0.068300001 0.68300003
0.05910667 -0.068200007 0.68200004
0.06040572 -0.068200007 0.68200004
0.061433338 -0.067900002 0.67900002
0.062726669 -0.067900002 0.67900002
0.063737147 -0.067600004 0.67600006
0.064928576 -0.067500003 0.67500001
0.066214293 -0.067500003 0.67500001
0.067400001 -0.067400001 0.67400002
0.068683811 -0.067400001 0.67400002
0.070071436 -0.067500003 0.67500001
0.071357146 -0.067500003 0.67500001
0.072642863 -0.067500003 0.67500001
0.07392858 -0.067500003 0.67500001
0.07532572 -0.067600004 0.67600006
0.076840006 -0.067800008 0.67800003
0.078131437 -0.067800008 0.67800003
0.079422861 -0.067800008 0.67800003
0.080714293 -0.067800008 0.67800003
0.082005717 -0.067800008 0.67800003
0.083420008 -0.067900002 0.67900002
0.08471334 -0.067900002 0.67900002
0.086006671 -0.067900002 0.67900002
0.087171435 -0.067800008 0.67800003
0.088462859 -0.067800008 0.67800003
0.089754291 -0.067800008 0.67800003
0.091045722 -0.067800008 0.67800003
0.092337146 -0.067800008 0.67800003
0.093352385 -0.067600004 0.67600006
0.094640009 -0.067600004 0.67600006
0.097502865 -0.067800008 0.67800003
0.10023334 -0.067900002 0.67900002
0.10152667 -0.067900002 0.67900002
0.10297143 -0.068000004 0.68000001
0.10426667 -0.068000004 0.68000001
0.10556191 -0.068000004 0.68000001
0.10717144 -0.068200007 0.68200004
0.10847048 -0.068200007 0.68200004
0.10993049 -0.068300001 0.68300003
0.11123144 -0.068300001 0.68300003
0.11269715 -0.068400003 0.68400002
0.11433334 -0.068600006 0.68600005
0.054305717 -0.067391433 0.68700004
0.055533338 -0.067293338 0.68600005
0.05667429 -0.06709715 0.68400002
0.057977147 -0.06709715 0.68400002
0.059193335 -0.066999055 0.68300003
0.060494289 -0.066999055 0.68300003
0.061523814 -0.066704765 0.68000001
0.062819049 -0.066704765 0.68000001
0.063925721 -0.066508576 0.67800003
0.065024763 -0.066312388 0.67600006
0.066214293 -0.066214293 0.67500001
0.067400001 -0.066116191 0.67400002
0.068683811 -0.066116191 0.67400002
0.070175245 -0.066312388 0.67600006
0.071462862 -0.066312388 0.67600006
0.072750479 -0.066312388 0.67600006
0.074038103 -0.066312388 0.67600006
0.075548574 -0.066508576 0.67800003
0.076840006 -0.066508576 0.67800003
0.078131437 -0.066508576 0.67800003
0.079422861 -0.066508576 0.67800003
0.080714293 -0.066508576 0.67800003
0.082005717 -0.066508576 0.67800003
0.083420008 -0.066606671 0.67900002
0.08471334 -0.066606671 0.67900002
0.086006671 -0.066606671 0.67900002
0.087300003 -0.066606671 0.67900002
0.088462859 -0.066508576 0.67800003
0.089886673 -0.066606671 0.67900002
0.091045722 -0.066508576 0.67800003
0.092337146 -0.066508576 0.67800003
0.093628578 -0.066508576 0.67800003
0.094640009 -0.066312388 0.67600006
0.095927626 -0.066312388 0.67600006
0.098794289 -0.066508576 0.67800003
0.10023334 -0.066606671 0.67900002
0.10152667 -0.066606671 0.67900002
0.10297143 -0.066704765 0.68000001
0.10426667 -0.066704765 0.68000001
0.10556191 -0.066704765 0.68000001
0.10685715 -0.066704765 0.68000001
0.10847048 -0.066900954 0.68200004
0.10993049 -0.066999055 0.68300003
0.11123144 -0.066999055 0.68300003
0.11302667 -0.067293338 0.68600005
0.11433334 -0.067293338 0.68600005
0.054305717 -0.066082865 0.68700004
0.055533338 -0.065986671 0.68600005
0.05667429 -0.065794289 0.68400002
0.057977147 -0.065794289 0.68400002
0.059193335 -0.065698102 0.68300003
0.060582861 -0.065794289 0.68400002
0.061704766 -0.065601908 0.68200004
0.063003816 -0.065601908 0.68200004
0.064020008 -0.065313339 0.67900002
0.065217145 -0.065217145 0.67800003
0.066312388 -0.065024763 0.67600006
0.067500003 -0.064928576 0.67500001
0.06878572 -0.064928576 0.67500001
0.070175245 -0.065024763 0.67600006
0.071674287 -0.065217145 0.67800003
0.072965719 -0.065217145 0.67800003
0.07425715 -0.065217145 0.67800003
0.075660005 -0.065313339 0.67900002
0.076953337 -0.065313339 0.67900002
0.078246675 -0.065313339 0.67900002
0.079422861 -0.065217145 0.67800003
0.080833338 -0.065313339 0.67900002
0.08212667 -0.065313339 0.67900002
0.083420008 -0.065313339 0.67900002
0.08471334 -0.065313339 0.67900002
0.086006671 -0.065313339 0.67900002
0.087300003 -0.065313339 0.67900002
0.088593341 -0.065313339 0.67900002
0.089886673 -0.065313339 0.67900002
0.091045722 -0.065217145 0.67800003
0.092337146 -0.065217145 0.67800003
0.093628578 -0.065217145 0.67800003
0.094920009 -0.065217145 0.67800003
0.098794289 -0.065217145 0.67800003
0.10023334 -0.065313339 0.67900002
0.10152667 -0.065313339 0.67900002
0.10297143 -0.065409526 0.68000001
0.10426667 -0.065409526 0.68000001
0.10556191 -0.065409526 0.68000001
0.10685715 -0.065409526 0.68000001
0.10847048 -0.065601908 0.68200004
0.10993049 -0.065698102 0.68300003
0.11253238 -0.065698102 0.68300003
0.053151432 -0.064962864 0.68900001
0.054305717 -0.06477429 0.68700004
0.055533338 -0.064680003 0.68600005
0.056840003 -0.064680003 0.68600005
0.057977147 -0.064491436 0.68400002
0.059193335 -0.064397149 0.68300003
0.060582861 -0.064491436 0.68400002
0.061704766 -0.064302862 0.68200004
0.063003816 -0.064302862 0.68200004
0.064114287 -0.064114287 0.68000001
0.065313339 -0.064020008 0.67900002
0.066508576 -0.063925721 0.67800003
0.067600004 -0.063737147 0.67600006
0.069091432 -0.063925721 0.67800003
0.070382863 -0.063925721 0.67800003
0.071674287 -0.063925721 0.67800003
0.072965719 -0.063925721 0.67800003
0.074366674 -0.064020008 0.67900002
0.075771436 -0.064114287 0.68000001
0.077066675 -0.064114287 0.68000001
0.078361914 -0.064114287 0.68000001
0.079540007 -0.064020008 0.67900002
0.080833338 -0.064020008 0.67900002
0.08212667 -0.064020008 0.67900002
0.083420008 -0.064020008 0.67900002
0.08471334 -0.064020008 0.67900002
0.086006671 -0.064020008 0.67900002
0.087300003 -0.064020008 0.67900002
0.088593341 -0.064020008 0.67900002
0.089886673 -0.064020008 0.67900002
0.091180004 -0.064020008 0.67900002
0.092473343 -0.064020008 0.67900002
0.093766674 -0.064020008 0.67900002
0.095060006 -0.064020008 0.67900002
0.097646676 -0.064020008 0.67900002
0.098794289 -0.063925721 0.67800003
0.10023334 -0.064020008 0.67900002
0.10152667 -0.064020008 0.67900002
0.10297143 -0.064114287 0.68000001
0.10426667 -0.064114287 0.68000001
0.10556191 -0.064114287 0.68000001
0.10717144 -0.064302862 0.68200004
0.10847048 -0.064302862 0.68200004
0.10993049 -0.064397149 0.68300003
0.11123144 -0.064397149 0.68300003
0.053228576 -0.063742861 0.69000006
0.054463815 -0.063650481 0.68900001
0.055533338 -0.063373335 0.68600005
0.056840003 -0.063373335 0.68600005
0.057977147 -0.063188575 0.68400002
0.059193335 -0.063096195 0.68300003
0.060582861 -0.063188575 0.68400002
0.061795242 -0.063096195 0.68300003
0.063003816 -0.063003816 0.68200004
0.064114287 -0.062819049 0.68000001
0.065313339 -0.062726669 0.67900002
0.066606671 -0.062726669 0.67900002
0.067800008 -0.062634289 0.67800003
0.069193341 -0.062726669 0.67900002
0.070486672 -0.062726669 0.67900002
0.071780004 -0.062726669 0.67900002
0.073073335 -0.062726669 0.67900002
0.074476197 -0.062819049 0.68000001
0.075771436 -0.062819049 0.68000001
0.077066675 -0.062819049 0.68000001
0.078361914 -0.062819049 0.68000001
0.079540007 -0.062726669 0.67900002
0.080952384 -0.062819049 0.68000001
0.082247622 -0.062819049 0.68000001
0.083542861 -0.062819049 0.68000001
0.08471334 -0.062726669 0.67900002
0.086006671 -0.062726669 0.67900002
0.087300003 -0.062726669 0.67900002
0.088593341 -0.062726669 0.67900002
0.089886673 -0.062726669 0.67900002
0.092337146 -0.062634289 0.67800003
0.093628578 -0.062634289 0.67800003
0.094920009 -0.062634289 0.67800003
0.097646676 -0.062726669 0.67900002
0.098940007 -0.062726669 0.67900002
0.10023334 -0.062726669 0.67900002
0.10152667 -0.062726669 0.67900002
0.10282001 -0.062726669 0.67900002
0.10426667 -0.062819049 0.68000001
0.10587239 -0.063003816 0.68200004
0.10717144 -0.063003816 0.68200004
0.10847048 -0.063003816 0.68200004
0.10993049 -0.063096195 0.68300003
0.11123144 -0.063096195 0.68300003
0.053228576 -0.062428575 0.69000006
0.054542862 -0.062428575 0.69000006
0.055614289 -0.062157147 0.68700004
0.056840003 -0.062066671 0.68600005
0.057977147 -0.061885718 0.68400002
0.059280004 -0.061885718 0.68400002
0.060582861 -0.061885718 0.68400002
0.061795242 -0.061795242 0.68300003
0.063096195 -0.061795242 0.68300003
0.064114287 -0.061523814 0.68000001
0.065409526 -0.061523814 0.68000001
0.066606671 -0.061433338 0.67900002
0.067800008 -0.061342862 0.67800003
0.069193341 -0.061433338 0.67900002
0.070486672 -0.061433338 0.67900002
0.07188572 -0.061523814 0.68000001
0.073180959 -0.061523814 0.68000001
0.074695244 -0.061704766 0.68200004
0.076105721 -0.061795242 0.68300003
0.077293336 -0.061704766 0.68200004
0.07859239 -0.061704766 0.68200004
0.079657145 -0.061523814 0.68000001
0.081190482 -0.061704766 0.68200004
0.082247622 -0.061523814 0.68000001
0.083542861 -0.061523814 0.68000001
0.08471334 -0.061433338 0.67900002
0.086006671 -0.061433338 0.67900002
0.087300003 -0.061433338 0.67900002
0.088593341 -0.061433338 0.67900002
0.097646676 -0.061433338 0.67900002
0.098940007 -0.061433338 0.67900002
0.10023334 -0.061433338 0.67900002
0.10152667 -0.061433338 0.67900002
0.10282001 -0.061433338 0.67900002
0.10426667 -0.061523814 0.68000001
0.10587239 -0.061704766 0.68200004
0.10717144 -0.061704766 0.68200004
0.10847048 -0.061704766 0.68200004
0.10993049 -0.061795242 0.68300003
0.11123144 -0.061795242 0.68300003
0.049357146 -0.061202861 0.69100004
0.050673336 -0.061202861 0.69100004
0.05191429 -0.061114289 0.69000006
0.053305719 -0.061202861 0.69100004
0.054542862 -0.061114289 0.69000006
0.055533338 -0.060760003 0.68600005
0.056840003 -0.060760003 0.68600005
0.057892386 -0.060494289 0.68300003
0.059193335 -0.060494289 0.68300003
0.060494289 -0.060494289 0.68300003
0.061795242 -0.060494289 0.68300003
0.063003816 -0.06040572 0.68200004
0.064114287 -0.060228575 0.68000001
0.065409526 -0.060228575 0.68000001
0.066704765 -0.060228575 0.68000001
0.068000004 -0.060228575 0.68000001
0.069499053 -0.06040572 0.68200004
0.070798099 -0.06040572 0.68200004
0.072097145 -0.06040572 0.68200004
0.073396198 -0.06040572 0.68200004
0.074804768 -0.060494289 0.68300003
0.076105721 -0.060494289 0.68300003
0.077406675 -0.060494289 0.68300003
0.078707621 -0.060494289 0.68300003
0.079891436 -0.06040572 0.68200004
0.081309527 -0.060494289 0.68300003
0.082489528 -0.06040572 0.68200004
0.083542861 -0.060228575 0.68000001
0.0848381 -0.060228575 0.68000001
0.086133339 -0.060228575 0.68000001
0.087300003 -0.060140003 0.67900002
0.088593341 -0.060140003 0.67900002
0.096495241 -0.060228575 0.68000001
0.097646676 -0.060140003 0.67900002
0.099085718 -0.060228575 0.68000001
0.10038096 -0.060228575 0.68000001
0.10152667 -0.060140003 0.67900002
0.10297143 -0.060228575 0.68000001
0.10457334 -0.06040572 0.68200004
0.10587239 -0.06040572 0.68200004
0.10732858 -0.060494289 0.68300003
0.10862953 -0.060494289 0.68300003
0.10993049 -0.060494289 0.68300003
0.11123144 -0.060494289 0.68300003
0.049500003 -0.060060006 0.69300002
0.050673336 -0.059886672 0.69100004
0.051989526 -0.059886672 0.69100004
0.053305719 -0.059886672 0.69100004
0.054780003 -0.060060006 0.69300002
0.06040572 -0.05910667 0.68200004
0.061704766 -0.05910667 0.68200004
0.063003816 -0.05910667 0.68200004
0.064114287 -0.058933336 0.68000001
0.065409526 -0.058933336 0.68000001
0.066606671 -0.058846671 0.67900002
0.068000004 -0.058933336 0.68000001
0.069295242 -0.058933336 0.68000001
0.070590481 -0.058933336 0.68000001
0.07188572 -0.058933336 0.68000001
0.073396198 -0.05910667 0.68200004
0.074804768 -0.059193335 0.68300003
0.076217145 -0.059280004 0.68400002
0.077520005 -0.059280004 0.68400002
0.078822859 -0.059280004 0.68400002
0.080125719 -0.059280004 0.68400002
0.08142858 -0.059280004 0.68400002
0.08261048 -0.059193335 0.68300003
0.083911434 -0.059193335 0.68300003
0.085087627 -0.05910667 0.68200004
0.086133339 -0.058933336 0.68000001
0.095620006 -0.059193335 0.68300003
0.096779056 -0.05910667 0.68200004
0.09779048 -0.058933336 0.68000001
0.099377148 -0.05910667 0.68200004
0.10067619 -0.05910667 0.68200004
0.10197525 -0.05910667 0.68200004
0.10518667 -0.059453338 0.68600005
0.10780001 -0.059453338 0.68600005
0.10910667 -0.059453338 0.68600005
0.11009143 -0.059280004 0.68400002
0.11139429 -0.059280004 0.68400002
0.049500003 -0.058740005 0.69300002
0.050820004 -0.058740005 0.69300002
0.051989526 -0.058570482 0.69100004
0.053460002 -0.058740005 0.69300002
0.06040572 -0.057807624 0.68200004
0.061704766 -0.057807624 0.68200004
0.062819049 -0.057638098 0.68000001
0.064114287 -0.057638098 0.68000001
0.065409526 -0.057638098 0.68000001
0.066704765 -0.057638098 0.68000001
0.068000004 -0.057638098 0.68000001
0.069295242 -0.057638098 0.68000001
0.070798099 -0.057807624 0.68200004
0.072097145 -0.057807624 0.68200004
0.073503815 -0.057892386 0.68300003
0.074804768 -0.057892386 0.68300003
0.076217145 -0.057977147 0.68400002
0.077746674 -0.05814667 0.68600005
0.079053335 -0.05814667 0.68600005
0.080360003 -0.05814667 0.68600005
0.081666671 -0.05814667 0.68600005
0.082731433 -0.057977147 0.68400002
0.084034294 -0.057977147 0.68400002
0.085212387 -0.057892386 0.68300003
0.08651334 -0.057892386 0.68300003
0.095620006 -0.057892386 0.68300003
0.09692096 -0.057892386 0.68300003
0.098078102 -0.057807624 0.68200004
0.099522866 -0.057892386 0.68300003
0.10082382 -0.057892386 0.68300003
0.10212477 -0.057892386 0.68300003
0.10910667 -0.05814667 0.68600005
0.11009143 -0.057977147 0.68400002
0.11123144 -0.057892386 0.68300003
0.049500003 -0.057420004 0.69300002
0.050820004 -0.057420004 0.69300002
0.052140005 -0.057420004 0.69300002
0.053537145 -0.057502862 0.69400001
0.054621909 -0.057254288 0.69100004
0.061704766 -0.056508575 0.68200004
0.062819049 -0.056342863 0.68000001
0.064114287 -0.056342863 0.68000001
0.065409526 -0.056342863 0.68000001
0.066704765 -0.056342863 0.68000001
0.068200007 -0.056508575 0.68200004
0.069499053 -0.056508575 0.68200004
0.070798099 -0.056508575 0.68200004
0.072202861 -0.056591433 0.68300003
0.073503815 -0.056591433 0.68300003
0.074914292 -0.05667429 0.68400002
0.076440006 -0.056840003 0.68600005
0.077746674 -0.056840003 0.68600005
0.079168573 -0.05692286 0.68700004
0.080477148 -0.05692286 0.68700004
0.081666671 -0.056840003 0.68600005
0.082973339 -0.056840003 0.68600005
0.084034294 -0.05667429 0.68400002
0.085337147 -0.05667429 0.68400002
0.08651334 -0.056591433 0.68300003
0.087814294 -0.056591433 0.68300003
0.088984765 -0.056508575 0.68200004
0.095620006 -0.056591433 0.68300003
0.09692096 -0.056591433 0.68300003
0.098221913 -0.056591433 0.68300003
0.099668577 -0.05667429 0.68400002
0.10097144 -0.05667429 0.68400002
0.049500003 -0.056100003 0.69300002
0.050893337 -0.056180958 0.69400001
0.052215241 -0.056180958 0.69400001
0.053537145 -0.056180958 0.69400001
0.054780003 -0.056100003 0.69300002
0.057254288 -0.055938099 0.69100004
0.061704766 -0.055209529 0.68200004
0.063003816 -0.055209529 0.68200004
0.064114287 -0.055047624 0.68000001
0.065601908 -0.055209529 0.68200004
0.066900954 -0.055209529 0.68200004
0.068300001 -0.055290479 0.68300003
0.069499053 -0.055209529 0.68200004
0.070901908 -0.055290479 0.68300003
0.072308578 -0.055371433 0.68400002
0.073611431 -0.055371433 0.68400002
0.075133339 -0.055533338 0.68600005
0.076440006 -0.055533338 0.68600005
0.077860005 -0.055614289 0.68700004
0.079168573 -0.055614289 0.68700004
0.080477148 -0.055614289 0.68700004
0.081666671 -0.055533338 0.68600005
0.082973339 -0.055533338 0.68600005
0.084280007 -0.055533338 0.68600005
0.085337147 -0.055371433 0.68400002
0.086640008 -0.055371433 0.68400002
0.087814294 -0.055290479 0.68300003
0.089115247 -0.055290479 0.68300003
0.095760003 -0.055371433 0.68400002
0.097062863 -0.055371433 0.68400002
0.098221913 -0.055290479 0.68300003
0.099668577 -0.055371433 0.68400002
0.10126667 -0.055533338 0.68600005
0.049642861 -0.0549381 0.69500005
0.050893337 -0.05485905 0.69400001
0.052215241 -0.05485905 0.69400001
0.053537145 -0.05485905 0.69400001
0.054780003 -0.054780003 0.69300002
0.055938099 -0.054621909 0.69100004
0.057254288 -0.054621909 0.69100004
0.06040572 -0.053910479 0.68200004
0.061704766 -0.053910479 0.68200004
0.063003816 -0.053910479 0.68200004
0.064302862 -0.053910479 0.68200004
0.065698102 -0.053989526 0.68300003
0.066999055 -0.053989526 0.68300003
0.068400003 -0.054068577 0.68400002
0.069600955 -0.053989526 0.68300003
0.071005717 -0.054068577 0.68400002
0.072308578 -0.054068577 0.68400002
0.073826671 -0.05422667 0.68600005
0.075133339 -0.05422667 0.68600005
0.076440006 -0.05422667 0.68600005
0.077860005 -0.054305717 0.68700004
0.079168573 -0.054305717 0.68700004
0.080477148 -0.054305717 0.68700004
0.081785716 -0.054305717 0.68700004
0.083094291 -0.054305717 0.68700004
0.084280007 -0.05422667 0.68600005
0.085586675 -0.05422667 0.68600005
0.086640008 -0.054068577 0.68400002
0.087942861 -0.054068577 0.68400002
0.088984765 -0.053910479 0.68200004
0.090019055 -0.053752385 0.68000001
0.095760003 -0.054068577 0.68400002
0.097062863 -0.054068577 0.68400002
0.098365724 -0.054068577 0.68400002
0.099960007 -0.05422667 0.68600005
0.10126667 -0.05422667 0.68600005
0.049642861 -0.053614289 0.69500005
0.050893337 -0.053537145 0.69400001
0.052215241 -0.053537145 0.69400001
0.053537145 -0.053537145 0.69400001
0.05485905 -0.053537145 0.69400001
0.056100003 -0.053460002 0.69300002
0.057254288 -0.053305719 0.69100004
0.060494289 -0.052688576 0.68300003
0.061795242 -0.052688576 0.68300003
0.063096195 -0.052688576 0.68300003
0.064397149 -0.052688576 0.68300003
0.065698102 -0.052688576 0.68300003
0.066999055 -0.052688576 0.68300003
0.068400003 -0.05276572 0.68400002
0.069600955 -0.052688576 0.68300003
0.071005717 -0.05276572 0.68400002
0.072308578 -0.05276572 0.68400002
0.073611431 -0.05276572 0.68400002
0.074914292 -0.05276572 0.68400002
0.076440006 -0.052920002 0.68600005
0.077860005 -0.052997146 0.68700004
0.079168573 -0.052997146 0.68700004
0.080477148 -0.052997146 0.68700004
0.081785716 -0.052997146 0.68700004
0.083094291 -0.052997146 0.68700004
0.084280007 -0.052920002 0.68600005
0.085586675 -0.052920002 0.68600005
0.086640008 -0.05276572 0.68400002
0.087942861 -0.05276572 0.68400002
0.089115247 -0.052688576 0.68300003
0.090019055 -0.052457146 0.68000001
0.09445715 -0.05276572 0.68400002
0.095760003 -0.05276572 0.68400002
0.097062863 -0.05276572 0.68400002
0.098365724 -0.05276572 0.68400002
0.099960007 -0.052920002 0.68600005
0.10126667 -0.052920002 0.68600005
0.048319049 -0.052290481 0.69500005
0.049642861 -0.052290481 0.69500005
0.050966669 -0.052290481 0.69500005
0.052215241 -0.052215241 0.69400001
0.053537145 -0.052215241 0.69400001
0.05485905 -0.052215241 0.69400001
0.056180958 -0.052215241 0.69400001
0.057254288 -0.051989526 0.69100004
0.058570482 -0.051989526 0.69100004
0.060582861 -0.051462859 0.68400002
0.061885718 -0.051462859 0.68400002
0.063373335 -0.051613338 0.68600005
0.064491436 -0.051462859 0.68400002
0.065794289 -0.051462859 0.68400002
0.06709715 -0.051462859 0.68400002
0.068400003 -0.051462859 0.68400002
0.069600955 -0.051387623 0.68300003
0.071005717 -0.051462859 0.68400002
0.072520003 -0.051613338 0.68600005
0.073611431 -0.051462859 0.68400002
0.075133339 -0.051613338 0.68600005
0.07655143 -0.051688574 0.68700004
0.078086674 -0.05183905 0.68900001
0.079399049 -0.05183905 0.68900001
0.080711432 -0.05183905 0.68900001
0.082023814 -0.05183905 0.68900001
0.083336197 -0.05183905 0.68900001
0.084402859 -0.051688574 0.68700004
0.085586675 -0.051613338 0.68600005
0.086893342 -0.051613338 0.68600005
0.087942861 -0.051462859 0.68400002
0.089115247 -0.051387623 0.68300003
0.090283819 -0.051312383 0.68200004
0.09445715 -0.051462859 0.68400002
0.096040003 -0.051613338 0.68600005
0.097062863 -0.051462859 0.68400002
0.098365724 -0.051462859 0.68400002
0.099960007 -0.051613338 0.68600005
0.10126667 -0.051613338 0.68600005
0.048527621 -0.05118667 0.69800001
0.049785718 -0.051113337 0.69700003
0.051113337 -0.051113337 0.69700003
0.052290481 -0.050966669 0.69500005
0.053614289 -0.050966669 0.69500005
0.05485905 -0.050893337 0.69400001
0.056100003 -0.050820004 0.69300002
0.057254288 -0.050673336 0.69100004
0.058570482 -0.050673336 0.69100004
0.060760003 -0.05030667 0.68600005
0.062066671 -0.05030667 0.68600005
0.063373335 -0.05030667 0.68600005
0.064680003 -0.05030667 0.68600005
0.065986671 -0.05030667 0.68600005
0.067293338 -0.05030667 0.68600005
0.068600006 -0.05030667 0.68600005
0.069702864 -0.050160002 0.68400002
0.071213335 -0.05030667 0.68600005
0.072520003 -0.05030667 0.68600005
0.073826671 -0.05030667 0.68600005
0.075133339 -0.05030667 0.68600005
0.07655143 -0.050380003 0.68700004
0.078086674 -0.050526671 0.68900001
0.079399049 -0.050526671 0.68900001
0.080711432 -0.050526671 0.68900001
0.082023814 -0.050526671 0.68900001
0.083336197 -0.050526671 0.68900001
0.084648579 -0.050526671 0.68900001
0.085711434 -0.050380003 0.68700004
0.086893342 -0.05030667 0.68600005
0.088200003 -0.05030667 0.68600005
0.089115247 -0.05008667 0.68300003
0.090283819 -0.050013337 0.68200004
0.094733343 -0.05030667 0.68600005
0.096040003 -0.05030667 0.68600005
0.097062863 -0.050160002 0.68400002
0.098653339 -0.05030667 0.68600005
0.099960007 -0.05030667 0.68600005
0.10126667 -0.05030667 0.68600005
0.049785718 -0.049785718 0.69700003
0.051113337 -0.049785718 0.69700003
0.052290481 -0.049642861 0.69500005
0.053614289 -0.049642861 0.69500005
0.05485905 -0.049571432 0.69400001
0.056180958 -0.049571432 0.69400001
0.057420004 -0.049500003 0.69300002
0.060760003 -0.049000002 0.68600005
0.062066671 -0.049000002 0.68600005
0.063373335 -0.049000002 0.68600005
0.064680003 -0.049000002 0.68600005
0.065986671 -0.049000002 0.68600005
0.067293338 -0.049000002 0.68600005
0.068700008 -0.049071431 0.68700004
0.070008576 -0.049071431 0.68700004
0.071524769 -0.049214289 0.68900001
0.072625719 -0.049071431 0.68700004
0.073826671 -0.049000002 0.68600005
0.075242862 -0.049071431 0.68700004
0.076774292 -0.049214289 0.68900001
0.078200005 -0.049285717 0.69000006
0.079514287 -0.049285717 0.69000006
0.080711432 -0.049214289 0.68900001
0.082023814 -0.049214289 0.68900001
0.083336197 -0.049214289 0.68900001
0.084648579 -0.049214289 0.68900001
0.085711434 -0.049071431 0.68700004
0.087020002 -0.049071431 0.68700004
0.088200003 -0.049000002 0.68600005
0.089245722 -0.048857145 0.68400002
0.090416193 -0.048785716 0.68300003
0.096040003 -0.049000002 0.68600005
0.097346671 -0.049000002 0.68600005
0.09879715 -0.049071431 0.68700004
0.10010572 -0.049071431 0.68700004
0.049785718 -0.048458099 0.69700003
0.051113337 -0.048458099 0.69700003
0.052290481 -0.048319049 0.69500005
0.053614289 -0.048319049 0.69500005
0.05485905 -0.048249528 0.69400001
0.056180958 -0.048249528 0.69400001
0.057254288 -0.048040956 0.69100004
0.060848575 -0.04776286 0.68700004
0.062157147 -0.04776286 0.68700004
0.063465722 -0.04776286 0.68700004
0.06477429 -0.04776286 0.68700004
0.066082865 -0.04776286 0.68700004
0.067391433 -0.04776286 0.68700004
0.068900004 -0.047901906 0.68900001
0.070212387 -0.047901906 0.68900001
0.071628578 -0.047971431 0.69000006
0.072837144 -0.047901906 0.68900001
0.076885723 -0.047971431 0.69000006
0.078200005 -0.047971431 0.69000006
0.079514287 -0.047971431 0.69000006
0.080828577 -0.047971431 0.69000006
0.08214286 -0.047971431 0.69000006
0.08345715 -0.047971431 0.69000006
0.084648579 -0.047901906 0.68900001
0.085960954 -0.047901906 0.68900001
0.087273337 -0.047901906 0.68900001
0.088328578 -0.04776286 0.68700004
0.089245722 -0.047554288 0.68400002
0.060848575 -0.046454288 0.68700004
0.062157147 -0.046454288 0.68700004
0.063650481 -0.046589527 0.68900001
0.064962864 -0.046589527 0.68900001
0.066275239 -0.046589527 0.68900001
0.067587622 -0.046589527 0.68900001
0.068700008 -0.046454288 0.68700004
0.070008576 -0.046454288 0.68700004
0.082261913 -0.046724766 0.69100004
0.083578102 -0.046724766 0.69100004
0.084894292 -0.046724766 0.69100004
0.086210482 -0.046724766 0.69100004
0.087400004 -0.046657145 0.69000006
0.088714294 -0.046657145 0.69000006
0.060848575 -0.045145717 0.68700004
0.062338099 -0.045277145 0.68900001
0.063650481 -0.045277145 0.68900001
0.064962864 -0.045277145 0.68900001
0.066275239 -0.045277145 0.68900001
0.067587622 -0.045277145 0.68900001
0.068700008 -0.045145717 0.68700004
0.070212387 -0.045277145 0.68900001
0.083578102 -0.045408573 0.69100004
0.084894292 -0.045408573 0.69100004
0.086210482 -0.045408573 0.69100004
0.087526672 -0.045408573 0.69100004
0.088842861 -0.045408573 0.69100004
0.06102572 -0.043964766 0.68900001
0.062338099 -0.043964766 0.68900001
0.063650481 -0.043964766 0.68900001
0.064962864 -0.043964766 0.68900001
0.066275239 -0.043964766 0.68900001
0.067685716 -0.044028573 0.69000006
0.068900004 -0.043964766 0.68900001
0.070314288 -0.044028573 0.69000006
0.071732387 -0.044092383 0.69100004
0.086584769 -0.044283811 0.69400001
0.087780006 -0.044220004 0.69300002
0.089100003 -0.044220004 0.69300002
0.061114289 -0.04271429 0.69000006
0.062338099 -0.042652383 0.68900001
0.063742861 -0.04271429 0.69000006
0.065057144 -0.04271429 0.69000006
0.066371433 -0.04271429 0.69000006
0.067685716 -0.04271429 0.69000006
0.069000006 -0.04271429 0.69000006
0.070416197 -0.042776193 0.69100004
0.071732387 -0.042776193 0.69100004
0.073048577 -0.042776193 0.69100004
0.086584769 -0.042961907 0.69400001
0.087780006 -0.042900003 0.69300002
0.089100003 -0.042900003 0.69300002
0.090420008 -0.042900003 0.69300002
0.061114289 -0.041400004 0.69000006
0.062338099 -0.041340001 0.68900001
0.063742861 -0.041400004 0.69000006
0.065057144 -0.041400004 0.69000006
0.066371433 -0.041400004 0.69000006
0.067685716 -0.041400004 0.69000006
0.069000006 -0.041400004 0.69000006
0.070416197 -0.041460004 0.69100004
0.071732387 -0.041460004 0.69100004
0.073048577 -0.041460004 0.69100004
0.085262865 -0.041640002 0.69400001
0.086584769 -0.041640002 0.69400001
0.087906674 -0.041640002 0.69400001
0.089100003 -0.041580003 0.69300002
0.090420008 -0.041580003 0.69300002
0.091872387 -0.041640002 0.69400001
0.063835241 -0.040143814 0.69100004
0.065151431 -0.040143814 0.69100004
0.06646762 -0.040143814 0.69100004
0.067783818 -0.040143814 0.69100004
0.069000006 -0.040085718 0.69000006
0.070416197 -0.040143814 0.69100004
0.071732387 -0.040143814 0.69100004
0.07294286 -0.040085718 0.69000006
0.084061913 -0.040376194 0.69500005
0.085385717 -0.040376194 0.69500005
0.086709529 -0.040376194 0.69500005
0.087906674 -0.040318098 0.69400001
0.089100003 -0.040260002 0.69300002
0.090550482 -0.040318098 0.69400001
0.092004769 -0.040376194 0.69500005
0.063835241 -0.03882762 0.69100004
0.065151431 -0.03882762 0.69100004
0.06646762 -0.03882762 0.69100004
0.067783818 -0.03882762 0.69100004
0.069000006 -0.038771432 0.69000006
0.070620008 -0.038940001 0.69300002
0.071940005 -0.038940001 0.69300002
0.073048577 -0.03882762 0.69100004
0.074364766 -0.03882762 0.69100004
0.075680956 -0.03882762 0.69100004
0.084303819 -0.039164763 0.69700003
0.085631438 -0.039164763 0.69700003
0.086959057 -0.039164763 0.69700003
0.088033341 -0.039052382 0.69500005
0.089228578 -0.038996194 0.69400001
0.090550482 -0.038996194 0.69400001
0.092004769 -0.039052382 0.69500005
0.09332858 -0.039052382 0.69500005
0.095700003 -0.038940001 0.69300002
0.065340005 -0.037620004 0.69300002
0.06646762 -0.037511431 0.69100004
0.067783818 -0.037511431 0.69100004
0.069000006 -0.037457146 0.69000006
0.070620008 -0.037620004 0.69300002
0.071732387 -0.037511431 0.69100004
0.073048577 -0.037511431 0.69100004
0.074364766 -0.037511431 0.69100004
0.075680956 -0.037511431 0.69100004
0.084303819 -0.037837144 0.69700003
0.085631438 -0.037837144 0.69700003
0.086959057 -0.037837144 0.69700003
0.088033341 -0.037728574 0.69500005
0.089228578 -0.037674289 0.69400001
0.090550482 -0.037674289 0.69400001
0.091872387 -0.037674289 0.69400001
0.094516195 -0.037674289 0.69400001
0.0958381 -0.037674289 0.69400001
0.097300008 -0.037728574 0.69500005
0.065434292 -0.036352385 0.69400001
0.066660002 -0.036300004 0.69300002
0.067783818 -0.036195241 0.69100004
0.069100007 -0.036195241 0.69100004
0.070620008 -0.036300004 0.69300002
0.071940005 -0.036300004 0.69300002
0.073048577 -0.036195241 0.69100004
0.074364766 -0.036195241 0.69100004
0.075680956 -0.036195241 0.69100004
0.084303819 -0.036509525 0.69700003
0.085631438 -0.036509525 0.69700003
0.086959057 -0.036509525 0.69700003
0.088033341 -0.036404766 0.69500005
0.089357145 -0.036404766 0.69500005
0.090680957 -0.036404766 0.69500005
0.092004769 -0.036404766 0.69500005
0.09332858 -0.036404766 0.69500005
0.094652385 -0.036404766 0.69500005
0.095976196 -0.036404766 0.69500005
0.097300008 -0.036404766 0.69500005
0.09862382 -0.036404766 0.69500005
0.065528579 -0.035080954 0.69500005
0.067980006 -0.034980003 0.69300002
0.069100007 -0.034879051 0.69100004
0.070416197 -0.034879051 0.69100004
0.071732387 -0.034879051 0.69100004
0.073260002 -0.034980003 0.69300002
0.074580006 -0.034980003 0.69300002
0.075900003 -0.034980003 0.69300002
0.090941913 -0.035181906 0.69700003
0.092269532 -0.035181906 0.69700003
0.09332858 -0.035080954 0.69500005
0.094652385 -0.035080954 0.69500005
0.095976196 -0.035080954 0.69500005
0.097300008 -0.035080954 0.69500005
0.098907627 -0.035181906 0.69700003
0.10023525 -0.035181906 0.69700003
0.065528579 -0.033757146 0.69500005
0.070314288 -0.033514287 0.69000006
0.071732387 -0.033562858 0.69100004
0.073048577 -0.033562858 0.69100004
0.07425715 -0.033514287 0.69000006
0.091463819 -0.034048572 0.70100003
0.092799053 -0.034048572 0.70100003
0.093597151 -0.033854287 0.69700003
0.09492477 -0.033854287 0.69700003
0.096252389 -0.033854287 0.69700003
0.097720005 -0.033902861 0.69800001
0.099049531 -0.033902861 0.69800001
0.10037906 -0.033902861 0.69800001
0.10170858 -0.033902861 0.69800001
0.1030381 -0.033902861 0.69800001
0.09038572 -0.032806668 0.70300001
0.091724768 -0.032806668 0.70300001
0.092666671 -0.032666668 0.70000005
0.094134293 -0.032713335 0.70100003
0.095060959 -0.032573335 0.69800001
0.096390486 -0.032573335 0.69800001
0.097720005 -0.032573335 0.69800001
0.099049531 -0.032573335 0.69800001
0.10037906 -0.032573335 0.69800001
0.10200001 -0.032666668 0.70000005
0.10333334 -0.032666668 0.70000005
0.09038572 -0.03146762 0.70300001
0.091463819 -0.031378098 0.70100003
0.092799053 -0.031378098 0.70100003
0.094134293 -0.031378098 0.70100003
0.095060959 -0.031243812 0.69800001
0.096390486 -0.031243812 0.69800001
0.098000005 -0.031333335 0.70000005
0.099049531 -0.031243812 0.69800001
0.10066667 -0.031333335 0.70000005
0.10214572 -0.031378098 0.70100003
0.10348096 -0.031378098 0.70100003
0.10526477 -0.031512383 0.70400006
0.10675715 -0.031557146 0.70500004
0.08575429 -0.029914288 0.69800001
0.087083817 -0.029914288 0.69800001
0.089046672 -0.030128574 0.70300001
0.09038572 -0.030128574 0.70300001
0.091724768 -0.030128574 0.70300001
0.093063816 -0.030128574 0.70300001
0.094402865 -0.030128574 0.70300001
0.095469527 -0.030042859 0.70100003
0.096666671 -0.030000001 0.70000005
0.098000005 -0.030000001 0.70000005
0.099333338 -0.030000001 0.70000005
0.10081048 -0.030042859 0.70100003
0.087333336 -0.028666668 0.70000005
0.089046672 -0.028789526 0.70300001
0.09038572 -0.028789526 0.70300001
0.091724768 -0.028789526 0.70300001
0.093063816 -0.028789526 0.70300001
0.094402865 -0.028789526 0.70300001
0.095741913 -0.028789526 0.70300001
0.096804768 -0.028707622 0.70100003
0.098140009 -0.028707622 0.70100003
0.099475242 -0.028707622 0.70100003
0.10109811 -0.028789526 0.70300001
0.089300007 -0.027528573 0.70500004
0.090514295 -0.027489526 0.70400006
0.091855243 -0.027489526 0.70400006
0.093196198 -0.027489526 0.70400006
0.094537146 -0.027489526 0.70400006
0.095878102 -0.027489526 0.70400006
0.097080961 -0.027450478 0.70300001
0.098140009 -0.027372383 0.70100003
0.099475242 -0.027372383 0.70100003
0.089300007 -0.026185716 0.70500004
0.090514295 -0.026148573 0.70400006
0.091855243 -0.026148573 0.70400006
0.093196198 -0.026148573 0.70400006
0.094537146 -0.026148573 0.70400006
0.095878102 -0.026148573 0.70400006
0.097080961 -0.02611143 0.70300001
0.098420009 -0.02611143 0.70300001
0.099759057 -0.02611143 0.70300001
0.10124191 -0.026148573 0.70400006
0.055190481 -0.033476193 0.95000005
0.086491436 -0.024807621 0.70400006
0.087832384 -0.024807621 0.70400006
0.089300007 -0.024842858 0.70500004
0.090642862 -0.024842858 0.70500004
0.091855243 -0.024807621 0.70400006
0.093196198 -0.024807621 0.70400006
0.094537146 -0.024807621 0.70400006
0.095878102 -0.024807621 0.70400006
0.097219057 -0.024807621 0.70400006
0.051734287 -0.031766668 0.95300007
0.053549528 -0.031766668 0.95300007
0.055190481 -0.03166667 0.95000005
0.057000004 -0.03166667 0.95000005
0.086491436 -0.023466669 0.70400006
0.087832384 -0.023466669 0.70400006
0.089300007 -0.023500001 0.70500004
0.090514295 -0.023466669 0.70400006
0.091855243 -0.023466669 0.70400006
0.057000004 -0.029857146 0.95000005
0.086614288 -0.022157144 0.70500004
0.087832384 -0.022125715 0.70400006
0.089300007 -0.022157144 0.70500004
0.090642862 -0.022157144 0.70500004
0.091985717 -0.022157144 0.70500004
0.16150001 -0.030454287 0.96900004
0.085271433 -0.020814287 0.70500004
0.086614288 -0.020814287 0.70500004
0.087957151 -0.020814287 0.70500004
0.089553341 -0.020873334 0.70700002
0.091028579 -0.020902859 0.708
0.085513338 -0.019526668 0.70700002
0.086982861 -0.019554287 0.708
0.088331431 -0.019554287 0.708
0.089933336 -0.019609526 0.71000004
0.091414295 -0.019637143 0.71100003
0.073393337 -0.018180002 0.70700002
0.074740008 -0.018180002 0.70700002
0.083171435 -0.018257145 0.71000004
0.084285721 -0.018205715 0.708
0.085634291 -0.018205715 0.708
0.086982861 -0.018205715 0.708
0.088331431 -0.018205715 0.708
0.089933336 -0.018257145 0.71000004
0.09128572 -0.018257145 0.71000004
0.073497146 -0.016857143 0.708
0.074845716 -0.016857143 0.708
0.076194294 -0.016857143 0.708
0.077871434 -0.016928572 0.71100003
0.079114288 -0.016904764 0.71000004
0.08181905 -0.016904764 0.71000004
0.083171435 -0.016904764 0.71000004
0.084285721 -0.016857143 0.708
0.085634291 -0.016857143 0.708
0.087228574 -0.016904764 0.71000004
0.088580959 -0.016904764 0.71000004
0.090060003 -0.016928572 0.71100003
0.091414295 -0.016928572 0.71100003
0.073704764 -0.015552382 0.71000004
0.075057149 -0.015552382 0.71000004
0.07651715 -0.015574287 0.71100003
0.078090481 -0.015618096 0.71300006
0.079225719 -0.015574287 0.71100003
0.080580004 -0.015574287 0.71100003
0.082164764 -0.015618096 0.71300006
0.083522864 -0.015618096 0.71300006
0.084285721 -0.015508573 0.708
0.085634291 -0.015508573 0.708
0.087351434 -0.015574287 0.71100003
0.088705719 -0.015574287 0.71100003
0.090060003 -0.015574287 0.71100003
0.091671437 -0.015618096 0.71300006
0.07673239 -0.014260001 0.71300006
0.078090481 -0.014260001 0.71300006
0.079448573 -0.014260001 0.71300006
0.080806673 -0.014260001 0.71300006
0.082164764 -0.014260001 0.71300006
0.083522864 -0.014260001 0.71300006
0.084642865 -0.014220001 0.71100003
0.086239055 -0.014260001 0.71300006
0.087351434 -0.014220001 0.71100003
0.088705719 -0.014220001 0.71100003
0.090060003 -0.014220001 0.71100003
0.091671437 -0.014260001 0.71300006
0.093029529 -0.014260001 0.71300006
0.07673239 -0.012901906 0.71300006
0.078200005 -0.012920001 0.71400005
0.079448573 -0.012901906 0.71300006
0.080806673 -0.012901906 0.71300006
0.082164764 -0.012901906 0.71300006
0.083522864 -0.012901906 0.71300006
0.084642865 -0.012865715 0.71100003
0.086239055 -0.012901906 0.71300006
0.087351434 -0.012865715 0.71100003
0.088705719 -0.012865715 0.71100003
0.090060003 -0.012865715 0.71100003
0.091671437 -0.012901906 0.71300006
0.093029529 -0.012901906 0.71300006
0.076840006 -0.01156 0.71400005
0.078200005 -0.01156 0.71400005
0.079448573 -0.01154381 0.71300006
0.080806673 -0.01154381 0.71300006
0.082164764 -0.01154381 0.71300006
0.083522864 -0.01154381 0.71300006
0.084880956 -0.01154381 0.71300006
0.086239055 -0.01154381 0.71300006
0.087351434 -0.011511429 0.71100003
0.088705719 -0.011511429 0.71100003
0.090060003 -0.011511429 0.71100003
0.091414295 -0.011511429 0.71100003
0.093029529 -0.01154381 0.71300006
0.094387628 -0.01154381 0.71300006
0.075480007 -0.0102 0.71400005
0.076840006 -0.0102 0.71400005
0.078200005 -0.0102 0.71400005
0.079560004 -0.0102 0.71400005
0.080920003 -0.0102 0.71400005
0.082164764 -0.010185715 0.71300006
0.083522864 -0.010185715 0.71300006
0.084880956 -0.010185715 0.71300006
0.086239055 -0.010185715 0.71300006
0.087351434 -0.010157144 0.71100003
0.088705719 -0.010157144 0.71100003
0.090060003 -0.010157144 0.71100003
0.091414295 -0.010157144 0.71100003
0.093029529 -0.010185715 0.71300006
0.094387628 -0.010185715 0.71300006
0.09574572 -0.010185715 0.71300006
0.075691432 -0.0088647623 0.71600002
0.076840006 -0.0088400003 0.71400005
0.078419052 -0.0088647623 0.71600002
0.079560004 -0.0088400003 0.71400005
0.080920003 -0.0088400003 0.71400005
0.082280003 -0.0088400003 0.71400005
0.083522864 -0.0088276193 0.71300006
0.084880956 -0.0088276193 0.71300006
0.086239055 -0.0088276193 0.71300006
0.087351434 -0.0088028582 0.71100003
0.088705719 -0.0088028582 0.71100003
0.089933336 -0.0087904772 0.71000004
0.091414295 -0.0088028582 0.71100003
0.09276858 -0.0088028582 0.71100003
0.094122864 -0.0088028582 0.71100003
0.075691432 -0.007500953 0.71600002
0.077055246 -0.007500953 0.71600002
0.078200005 -0.0074800006 0.71400005
0.079560004 -0.0074800006 0.71400005
0.080920003 -0.0074800006 0.71400005
0.082164764 -0.0074695242 0.71300006
0.083640009 -0.0074800006 0.71400005
0.084880956 -0.0074695242 0.71300006
0.086239055 -0.0074695242 0.71300006
0.087228574 -0.0074380958 0.71000004
0.088580959 -0.0074380958 0.71000004
0.090060003 -0.0074485717 0.71100003
0.091414295 -0.0074485717 0.71100003
0.075691432 -0.0061371434 0.71600002
0.076840006 -0.0061200005 0.71400005
0.078419052 -0.0061371434 0.71600002
0.080117151 -0.0061628576 0.71900004
0.081146672 -0.0061371434 0.71600002
0.082280003 -0.0061200005 0.71400005
0.083640009 -0.0061200005 0.71400005
0.084880956 -0.0061114291 0.71300006
0.085997149 -0.0060942862 0.71100003
0.086982861 -0.0060685719 0.708
0.088331431 -0.0060685719 0.708
0.075691432 -0.0047733337 0.71600002
0.077055246 -0.0047733337 0.71600002
0.078747623 -0.0047933338 0.71900004
0.080117151 -0.0047933338 0.71900004
0.081146672 -0.0047733337 0.71600002
0.082625717 -0.0047800005 0.71700001
0.083874293 -0.0047733337 0.71600002
0.084880956 -0.0047533335 0.71300006
0.085997149 -0.0047400002 0.71100003
0.087351434 -0.0047400002 0.71100003
0.077162862 -0.0034142858 0.71700001
0.078747623 -0.0034238098 0.71900004
0.079894289 -0.0034142858 0.71700001
0.081260003 -0.0034142858 0.71700001
