# .PCD v0.7 - Point Cloud Data file format
VERSION 0.7
FIELDS x y z
SIZE 4 4 4
TYPE F F F
COUNT 1 1 1
WIDTH 1360
HEIGHT 1
VIEWPOINT 0 0 0 1 0 0 0
POINTS 1360
DATA ascii
-0.17364572 -0.097912386 0.56800002
-0.17256382 -0.097912386 0.56800002
-0.17178382 -0.09808477 0.56900001
-0.17070001 -0.09808477 0.56900001
-0.16991429 -0.098257147 0.57000005
-0.16912477 -0.098429531 0.57100004
-0.16833144 -0.098601915 0.57200003
-0.16724192 -0.098601915 0.57200003
-0.16586192 -0.098429531 0.57100004
-0.1647743 -0.098429531 0.57100004
-0.16368668 -0.098429531 0.57100004
-0.16288382 -0.098601915 0.57200003
-0.16207716 -0.098774292 0.57300001
-0.16070478 -0.098601915 0.57200003
-0.15933619 -0.098429531 0.57100004
-0.15824859 -0.098429531 0.57100004
-0.15743621 -0.098601915 0.57200003
-0.15689334 -0.098946676 0.574
-0.15580001 -0.098946676 0.574
-0.15470667 -0.098946676 0.574
-0.15361334 -0.098946676 0.574
-0.15305144 -0.099291436 0.57600003
-0.15195429 -0.099291436 0.57600003
-0.15111905 -0.099463813 0.57700002
-0.15028001 -0.099636197 0.57800001
-0.14943716 -0.099808581 0.57900006
-0.14859049 -0.099980958 0.58000004
-0.14748572 -0.099980958 0.58000004
-0.14612858 -0.099808581 0.57900006
-0.19355144 -0.098705724 0.57900006
-0.18695715 -0.097000957 0.56900001
-0.18554668 -0.09683048 0.56800002
-0.18446477 -0.09683048 0.56800002
-0.18338287 -0.09683048 0.56800002
-0.18198001 -0.096660003 0.56700003
-0.18090001 -0.096660003 0.56700003
-0.17982002 -0.096660003 0.56700003
-0.17842478 -0.096489534 0.56600004
-0.17734668 -0.096489534 0.56600004
-0.17626858 -0.096489534 0.56600004
-0.17550001 -0.096660003 0.56700003
-0.17442001 -0.096660003 0.56700003
-0.17334001 -0.096660003 0.56700003
-0.17226002 -0.096660003 0.56700003
-0.17118001 -0.096660003 0.56700003
-0.17010002 -0.096660003 0.56700003
-0.16902001 -0.096660003 0.56700003
-0.16794001 -0.096660003 0.56700003
-0.16774286 -0.097171433 0.57000005
-0.16694954 -0.09734191 0.57100004
-0.16557144 -0.097171433 0.57000005
-0.16448572 -0.097171433 0.57000005
-0.16340001 -0.097171433 0.57000005
-0.16259906 -0.09734191 0.57100004
-0.16151144 -0.09734191 0.57100004
-0.16042382 -0.09734191 0.57100004
-0.15933619 -0.09734191 0.57100004
-0.15824859 -0.09734191 0.57100004
-0.15743621 -0.097512387 0.57200003
-0.15662001 -0.097682863 0.57300001
-0.15552858 -0.097682863 0.57300001
-0.15470667 -0.09785334 0.574
-0.15361334 -0.09785334 0.574
-0.15278572 -0.098023817 0.57500005
-0.15195429 -0.098194294 0.57600003
-0.15085715 -0.098194294 0.57600003
-0.15028001 -0.098535247 0.57800001
-0.14943716 -0.098705724 0.57900006
-0.14859049 -0.098876201 0.58000004
-0.14748572 -0.098876201 0.58000004
-0.14612858 -0.098705724 0.57900006
-0.18771049 -0.095748581 0.56800002
-0.18662858 -0.095748581 0.56800002
-0.18554668 -0.095748581 0.56800002
-0.18414001 -0.095580004 0.56700003
-0.18306001 -0.095580004 0.56700003
-0.18198001 -0.095580004 0.56700003
-0.18090001 -0.095580004 0.56700003
-0.17982002 -0.095580004 0.56700003
-0.17842478 -0.095411435 0.56600004
-0.17734668 -0.095411435 0.56600004
-0.17626858 -0.095411435 0.56600004
-0.17550001 -0.095580004 0.56700003
-0.17442001 -0.095580004 0.56700003
-0.17334001 -0.095580004 0.56700003
-0.17226002 -0.095580004 0.56700003
-0.17118001 -0.095580004 0.56700003
-0.17010002 -0.095580004 0.56700003
-0.16902001 -0.095580004 0.56700003
-0.16764382 -0.095411435 0.56600004
-0.16656573 -0.095411435 0.56600004
-0.16578001 -0.095580004 0.56700003
-0.16499048 -0.095748581 0.56800002
-0.16390859 -0.095748581 0.56800002
-0.16311334 -0.09591715 0.56900001
-0.1623143 -0.09608572 0.57000005
-0.16122858 -0.09608572 0.57000005
-0.16014287 -0.09608572 0.57000005
-0.15905716 -0.09608572 0.57000005
-0.15797144 -0.09608572 0.57000005
-0.15716097 -0.096254289 0.57100004
-0.15634668 -0.096422866 0.57200003
-0.15552858 -0.096591435 0.57300001
-0.15443715 -0.096591435 0.57300001
-0.15361334 -0.096760005 0.574
-0.15278572 -0.096928574 0.57500005
-0.15195429 -0.097097151 0.57600003
-0.15085715 -0.097097151 0.57600003
-0.15002 -0.09726572 0.57700002
-0.14917906 -0.09743429 0.57800001
-0.14833429 -0.097602867 0.57900006
-0.14748572 -0.097771436 0.58000004
-0.14638096 -0.097771436 0.58000004
-0.18804097 -0.094833337 0.56900001
-0.18662858 -0.094666675 0.56800002
-0.18522002 -0.094500005 0.56700003
-0.18414001 -0.094500005 0.56700003
-0.18306001 -0.094500005 0.56700003
-0.18198001 -0.094500005 0.56700003
-0.18090001 -0.094500005 0.56700003
-0.17950287 -0.094333343 0.56600004
-0.17842478 -0.094333343 0.56600004
-0.17734668 -0.094333343 0.56600004
-0.17626858 -0.094333343 0.56600004
-0.17519049 -0.094333343 0.56600004
-0.17411239 -0.094333343 0.56600004
-0.1730343 -0.094333343 0.56600004
-0.1719562 -0.094333343 0.56600004
-0.17087811 -0.094333343 0.56600004
-0.16980001 -0.094333343 0.56600004
-0.16872191 -0.094333343 0.56600004
-0.16734762 -0.094166674 0.565
-0.16627143 -0.094166674 0.565
-0.16548763 -0.094333343 0.56600004
-0.16470002 -0.094500005 0.56700003
-0.16362001 -0.094500005 0.56700003
-0.16254 -0.094500005 0.56700003
-0.16174477 -0.094666675 0.56800002
-0.16094573 -0.094833337 0.56900001
-0.15986192 -0.094833337 0.56900001
-0.1587781 -0.094833337 0.56900001
-0.15797144 -0.095000006 0.57000005
-0.15688573 -0.095000006 0.57000005
-0.15607335 -0.095166676 0.57100004
-0.15525715 -0.095333338 0.57200003
-0.15416762 -0.095333338 0.57200003
-0.15334572 -0.095500007 0.57300001
-0.15252002 -0.095666669 0.574
-0.15169048 -0.095833339 0.57500005
-0.15059525 -0.095833339 0.57500005
-0.14976001 -0.096000008 0.57600003
-0.14892097 -0.09616667 0.57700002
-0.14884667 -0.096833341 0.58100003
-0.14774001 -0.096833341 0.58100003
-0.14688572 -0.097000003 0.58200002
-0.18662858 -0.093584768 0.56800002
-0.18554668 -0.093584768 0.56800002
-0.18414001 -0.093420006 0.56700003
-0.18306001 -0.093420006 0.56700003
-0.18198001 -0.093420006 0.56700003
-0.18090001 -0.093420006 0.56700003
-0.17950287 -0.093255244 0.56600004
-0.17810954 -0.093090482 0.565
-0.17703335 -0.093090482 0.565
-0.17595716 -0.093090482 0.565
-0.17488097 -0.093090482 0.565
-0.17411239 -0.093255244 0.56600004
-0.1730343 -0.093255244 0.56600004
-0.1719562 -0.093255244 0.56600004
-0.17087811 -0.093255244 0.56600004
-0.16980001 -0.093255244 0.56600004
-0.16872191 -0.093255244 0.56600004
-0.16734762 -0.093090482 0.565
-0.16627143 -0.093090482 0.565
-0.16519524 -0.093090482 0.565
-0.16440953 -0.093255244 0.56600004
-0.16362001 -0.093420006 0.56700003
-0.16254 -0.093420006 0.56700003
-0.16174477 -0.093584768 0.56800002
-0.16094573 -0.093749531 0.56900001
-0.15986192 -0.093749531 0.56900001
-0.1587781 -0.093749531 0.56900001
-0.1576943 -0.093749531 0.56900001
-0.15688573 -0.093914293 0.57000005
-0.15607335 -0.094079055 0.57100004
-0.15525715 -0.094243817 0.57200003
-0.15416762 -0.094243817 0.57200003
-0.15334572 -0.094408579 0.57300001
-0.15252002 -0.094573341 0.574
-0.15142667 -0.094573341 0.574
-0.15059525 -0.094738103 0.57500005
-0.14976001 -0.094902866 0.57600003
-0.14892097 -0.095067628 0.57700002
-0.14910287 -0.095891438 0.58200002
-0.14799429 -0.095891438 0.58200002
-0.1471381 -0.096056193 0.583
-0.1462781 -0.096220955 0.58400005
-0.18695715 -0.092665717 0.56900001
-0.18554668 -0.092502862 0.56800002
-0.18446477 -0.092502862 0.56800002
-0.18306001 -0.092340007 0.56700003
-0.18198001 -0.092340007 0.56700003
-0.18090001 -0.092340007 0.56700003
-0.17982002 -0.092340007 0.56700003
-0.17842478 -0.092177153 0.56600004
-0.17703335 -0.09201429 0.565
-0.17595716 -0.09201429 0.565
-0.17488097 -0.09201429 0.565
-0.17380477 -0.09201429 0.565
-0.17272858 -0.09201429 0.565
-0.17165239 -0.09201429 0.565
-0.17087811 -0.092177153 0.56600004
-0.16950001 -0.09201429 0.565
-0.16872191 -0.092177153 0.56600004
-0.16734762 -0.09201429 0.565
-0.16627143 -0.09201429 0.565
-0.16548763 -0.092177153 0.56600004
-0.16440953 -0.092177153 0.56600004
-0.16333143 -0.092177153 0.56600004
-0.16225335 -0.092177153 0.56600004
-0.16146001 -0.092340007 0.56700003
-0.16066287 -0.092502862 0.56800002
-0.15958096 -0.092502862 0.56800002
-0.1587781 -0.092665717 0.56900001
-0.1576943 -0.092665717 0.56900001
-0.15688573 -0.092828579 0.57000005
-0.15607335 -0.092991434 0.57100004
-0.15498573 -0.092991434 0.57100004
-0.15416762 -0.093154289 0.57200003
-0.15334572 -0.093317151 0.57300001
-0.15252002 -0.093480006 0.574
-0.15142667 -0.093480006 0.574
-0.15059525 -0.093642861 0.57500005
-0.14950001 -0.093642861 0.57500005
-0.14892097 -0.093968578 0.57700002
-0.14884667 -0.094620004 0.58100003
-0.14774001 -0.094620004 0.58100003
-0.14688572 -0.094782867 0.58200002
-0.14602762 -0.094945721 0.583
-0.18728572 -0.091742866 0.57000005
-0.18554668 -0.091420956 0.56800002
-0.18446477 -0.091420956 0.56800002
-0.18338287 -0.091420956 0.56800002
-0.18198001 -0.091260009 0.56700003
-0.18121906 -0.091420956 0.56800002
-0.17982002 -0.091260009 0.56700003
-0.17842478 -0.091099054 0.56600004
-0.17734668 -0.091099054 0.56600004
-0.17595716 -0.090938099 0.565
-0.17488097 -0.090938099 0.565
-0.17380477 -0.090938099 0.565
-0.17272858 -0.090938099 0.565
-0.1719562 -0.091099054 0.56600004
-0.17087811 -0.091099054 0.56600004
-0.16950001 -0.090938099 0.565
-0.16842382 -0.090938099 0.565
-0.16734762 -0.090938099 0.565
-0.16627143 -0.090938099 0.565
-0.16548763 -0.091099054 0.56600004
-0.16440953 -0.091099054 0.56600004
-0.16333143 -0.091099054 0.56600004
-0.16225335 -0.091099054 0.56600004
-0.16146001 -0.091260009 0.56700003
-0.16038001 -0.091260009 0.56700003
-0.15958096 -0.091420956 0.56800002
-0.15849906 -0.091420956 0.56800002
-0.1576943 -0.091581911 0.56900001
-0.15688573 -0.091742866 0.57000005
-0.15580001 -0.091742866 0.57000005
-0.15498573 -0.091903813 0.57100004
-0.15416762 -0.092064768 0.57200003
-0.15334572 -0.092225723 0.57300001
-0.15252002 -0.09238667 0.574
-0.15142667 -0.09238667 0.574
-0.15059525 -0.092547625 0.57500005
-0.14950001 -0.092547625 0.57500005
-0.14917906 -0.093030483 0.57800001
-0.14910287 -0.093674295 0.58200002
-0.14799429 -0.093674295 0.58200002
-0.1471381 -0.093835242 0.583
-0.14602762 -0.093835242 0.583
-0.18728572 -0.090657152 0.57000005
-0.18587334 -0.090498105 0.56900001
-0.18478954 -0.090498105 0.56900001
-0.18338287 -0.090339057 0.56800002
-0.18230097 -0.090339057 0.56800002
-0.18121906 -0.090339057 0.56800002
-0.17982002 -0.09018001 0.56700003
-0.17874001 -0.09018001 0.56700003
-0.17734668 -0.090020955 0.56600004
-0.17595716 -0.089861907 0.565
-0.17488097 -0.089861907 0.565
-0.17380477 -0.089861907 0.565
-0.17272858 -0.089861907 0.565
-0.1719562 -0.090020955 0.56600004
-0.17087811 -0.090020955 0.56600004
-0.16950001 -0.089861907 0.565
-0.16842382 -0.089861907 0.565
-0.16734762 -0.089861907 0.565
-0.16627143 -0.089861907 0.565
-0.16548763 -0.090020955 0.56600004
-0.16440953 -0.090020955 0.56600004
-0.16333143 -0.090020955 0.56600004
-0.16254 -0.09018001 0.56700003
-0.16146001 -0.09018001 0.56700003
-0.16066287 -0.090339057 0.56800002
-0.15958096 -0.090339057 0.56800002
-0.1587781 -0.090498105 0.56900001
-0.1576943 -0.090498105 0.56900001
-0.15688573 -0.090657152 0.57000005
-0.15580001 -0.090657152 0.57000005
-0.15498573 -0.0908162 0.57100004
-0.15416762 -0.090975247 0.57200003
-0.15334572 -0.091134295 0.57300001
-0.15252002 -0.091293342 0.574
-0.15142667 -0.091293342 0.574
-0.15059525 -0.09145239 0.57500005
-0.14950001 -0.09145239 0.57500005
-0.14917906 -0.091929533 0.57800001
-0.14910287 -0.092565723 0.58200002
-0.14799429 -0.092565723 0.58200002
-0.1471381 -0.09272477 0.583
-0.1462781 -0.092883818 0.58400005
-0.18837143 -0.089571431 0.57000005
-0.18728572 -0.089571431 0.57000005
-0.18620001 -0.089571431 0.57000005
-0.18478954 -0.089414291 0.56900001
-0.18370573 -0.089414291 0.56900001
-0.18230097 -0.089257151 0.56800002
-0.18153811 -0.089414291 0.56900001
-0.18013716 -0.089257151 0.56800002
-0.17874001 -0.089100003 0.56700003
-0.17734668 -0.088942863 0.56600004
-0.17626858 -0.088942863 0.56600004
-0.17519049 -0.088942863 0.56600004
-0.17411239 -0.088942863 0.56600004
-0.1730343 -0.088942863 0.56600004
-0.1719562 -0.088942863 0.56600004
-0.17087811 -0.088942863 0.56600004
-0.16980001 -0.088942863 0.56600004
-0.16842382 -0.088785723 0.565
-0.16764382 -0.088942863 0.56600004
-0.16627143 -0.088785723 0.565
-0.16548763 -0.088942863 0.56600004
-0.16440953 -0.088942863 0.56600004
-0.16333143 -0.088942863 0.56600004
-0.16254 -0.089100003 0.56700003
-0.16146001 -0.089100003 0.56700003
-0.16038001 -0.089100003 0.56700003
-0.15958096 -0.089257151 0.56800002
-0.15849906 -0.089257151 0.56800002
-0.1576943 -0.089414291 0.56900001
-0.15661049 -0.089414291 0.56900001
-0.15580001 -0.089571431 0.57000005
-0.15498573 -0.089728579 0.57100004
-0.15416762 -0.089885719 0.57200003
-0.15334572 -0.090042867 0.57300001
-0.15252002 -0.090200007 0.574
-0.15142667 -0.090200007 0.574
-0.15059525 -0.090357147 0.57500005
-0.14976001 -0.090514295 0.57600003
-0.14943716 -0.090985723 0.57900006
-0.14910287 -0.091457151 0.58200002
-0.14824858 -0.091614291 0.583
-0.14739048 -0.091771431 0.58400005
-0.1462781 -0.091771431 0.58400005
-0.18837143 -0.088485718 0.57000005
-0.18728572 -0.088485718 0.57000005
-0.18620001 -0.088485718 0.57000005
-0.18511429 -0.088485718 0.57000005
-0.18370573 -0.088330485 0.56900001
-0.18262191 -0.088330485 0.56900001
-0.18153811 -0.088330485 0.56900001
-0.18013716 -0.088175245 0.56800002
-0.17874001 -0.088020004 0.56700003
-0.17734668 -0.087864764 0.56600004
-0.17626858 -0.087864764 0.56600004
-0.17519049 -0.087864764 0.56600004
-0.17411239 -0.087864764 0.56600004
-0.1730343 -0.087864764 0.56600004
-0.1719562 -0.087864764 0.56600004
-0.17087811 -0.087864764 0.56600004
-0.16980001 -0.087864764 0.56600004
-0.16872191 -0.087864764 0.56600004
-0.16764382 -0.087864764 0.56600004
-0.16656573 -0.087864764 0.56600004
-0.16548763 -0.087864764 0.56600004
-0.16470002 -0.088020004 0.56700003
-0.16362001 -0.088020004 0.56700003
-0.16254 -0.088020004 0.56700003
-0.16146001 -0.088020004 0.56700003
-0.16066287 -0.088175245 0.56800002
-0.15958096 -0.088175245 0.56800002
-0.1587781 -0.088330485 0.56900001
-0.1576943 -0.088330485 0.56900001
-0.15661049 -0.088330485 0.56900001
-0.15580001 -0.088485718 0.57000005
-0.15498573 -0.088640958 0.57100004
-0.15416762 -0.088796198 0.57200003
-0.15334572 -0.088951431 0.57300001
-0.15252002 -0.089106672 0.574
-0.15169048 -0.089261912 0.57500005
-0.15085715 -0.089417152 0.57600003
-0.14976001 -0.089417152 0.57600003
-0.14943716 -0.089882866 0.57900006
-0.14910287 -0.090348579 0.58200002
-0.14824858 -0.090503812 0.583
-0.1471381 -0.090503812 0.583
-0.14602762 -0.090503812 0.583
-0.18870191 -0.087553337 0.57100004
-0.18761429 -0.087553337 0.57100004
-0.18620001 -0.087400004 0.57000005
-0.18511429 -0.087400004 0.57000005
-0.18402858 -0.087400004 0.57000005
-0.18262191 -0.087246671 0.56900001
-0.18153811 -0.087246671 0.56900001
-0.18013716 -0.087093338 0.56800002
-0.17874001 -0.086940005 0.56700003
-0.17734668 -0.086786672 0.56600004
-0.17626858 -0.086786672 0.56600004
-0.17519049 -0.086786672 0.56600004
-0.17411239 -0.086786672 0.56600004
-0.1730343 -0.086786672 0.56600004
-0.1719562 -0.086786672 0.56600004
-0.17087811 -0.086786672 0.56600004
-0.16980001 -0.086786672 0.56600004
-0.16872191 -0.086786672 0.56600004
-0.16794001 -0.086940005 0.56700003
-0.16686001 -0.086940005 0.56700003
-0.16578001 -0.086940005 0.56700003
-0.16470002 -0.086940005 0.56700003
-0.16362001 -0.086940005 0.56700003
-0.16282667 -0.087093338 0.56800002
-0.16174477 -0.087093338 0.56800002
-0.16066287 -0.087093338 0.56800002
-0.15986192 -0.087246671 0.56900001
-0.1587781 -0.087246671 0.56900001
-0.1576943 -0.087246671 0.56900001
-0.15688573 -0.087400004 0.57000005
-0.15580001 -0.087400004 0.57000005
-0.15498573 -0.087553337 0.57100004
-0.15416762 -0.08770667 0.57200003
-0.15334572 -0.087860003 0.57300001
-0.15278572 -0.088166669 0.57500005
-0.15169048 -0.088166669 0.57500005
-0.15111905 -0.088473342 0.57700002
-0.15002 -0.088473342 0.57700002
-0.14943716 -0.088780008 0.57900006
-0.14833429 -0.088780008 0.57900006
-0.14824858 -0.08939334 0.583
-0.1471381 -0.08939334 0.583
-0.14602762 -0.08939334 0.583
-0.18837143 -0.086314291 0.57000005
-0.18761429 -0.086465716 0.57100004
-0.18620001 -0.086314291 0.57000005
-0.18511429 -0.086314291 0.57000005
-0.18402858 -0.086314291 0.57000005
-0.18294287 -0.086314291 0.57000005
-0.18185715 -0.086314291 0.57000005
-0.1804543 -0.086162865 0.56900001
-0.17874001 -0.085860007 0.56700003
-0.17734668 -0.085708573 0.56600004
-0.17626858 -0.085708573 0.56600004
-0.17519049 -0.085708573 0.56600004
-0.17411239 -0.085708573 0.56600004
-0.1730343 -0.085708573 0.56600004
-0.1719562 -0.085708573 0.56600004
-0.17118001 -0.085860007 0.56700003
-0.17010002 -0.085860007 0.56700003
-0.16902001 -0.085860007 0.56700003
-0.16794001 -0.085860007 0.56700003
-0.16686001 -0.085860007 0.56700003
-0.16578001 -0.085860007 0.56700003
-0.16499048 -0.086011432 0.56800002
-0.16362001 -0.085860007 0.56700003
-0.16282667 -0.086011432 0.56800002
-0.16174477 -0.086011432 0.56800002
-0.16066287 -0.086011432 0.56800002
-0.15986192 -0.086162865 0.56900001
-0.1587781 -0.086162865 0.56900001
-0.15797144 -0.086314291 0.57000005
-0.15688573 -0.086314291 0.57000005
-0.15607335 -0.086465716 0.57100004
-0.15525715 -0.086617149 0.57200003
-0.15443715 -0.086768575 0.57300001
-0.15361334 -0.086920008 0.574
-0.15278572 -0.087071434 0.57500005
-0.15195429 -0.087222859 0.57600003
-0.15111905 -0.087374292 0.57700002
-0.15028001 -0.087525718 0.57800001
-0.14943716 -0.087677151 0.57900006
-0.14859049 -0.087828577 0.58000004
-0.14824858 -0.088282861 0.583
-0.1471381 -0.088282861 0.583
-0.14652859 -0.088585719 0.58500004
-0.14591144 -0.088888578 0.58700001
-0.18761429 -0.085378103 0.57100004
-0.18652669 -0.085378103 0.57100004
-0.18543907 -0.085378103 0.57100004
-0.18402858 -0.085228577 0.57000005
-0.18294287 -0.085228577 0.57000005
-0.18185715 -0.085228577 0.57000005
-0.18077144 -0.085228577 0.57000005
-0.17937049 -0.085079052 0.56900001
-0.17766002 -0.084780008 0.56700003
-0.17626858 -0.084630482 0.56600004
-0.17519049 -0.084630482 0.56600004
-0.17411239 -0.084630482 0.56600004
-0.17334001 -0.084780008 0.56700003
-0.17226002 -0.084780008 0.56700003
-0.17148192 -0.084929526 0.56800002
-0.17010002 -0.084780008 0.56700003
-0.16902001 -0.084780008 0.56700003
-0.1682362 -0.084929526 0.56800002
-0.1671543 -0.084929526 0.56800002
-0.1660724 -0.084929526 0.56800002
-0.16499048 -0.084929526 0.56800002
-0.16390859 -0.084929526 0.56800002
-0.16282667 -0.084929526 0.56800002
-0.16174477 -0.084929526 0.56800002
-0.16094573 -0.085079052 0.56900001
-0.16014287 -0.085228577 0.57000005
-0.15905716 -0.085228577 0.57000005
-0.15797144 -0.085228577 0.57000005
-0.15716097 -0.085378103 0.57100004
-0.15634668 -0.085527621 0.57200003
-0.15525715 -0.085527621 0.57200003
-0.15443715 -0.085677147 0.57300001
-0.15361334 -0.085826673 0.574
-0.15278572 -0.085976198 0.57500005
-0.15195429 -0.086125717 0.57600003
-0.15111905 -0.086275242 0.57700002
-0.15028001 -0.086424768 0.57800001
-0.14995335 -0.086873338 0.58100003
-0.14910287 -0.087022863 0.58200002
-0.14850287 -0.087321907 0.58400005
-0.14764287 -0.087471433 0.58500004
-0.14652859 -0.087471433 0.58500004
-0.14566287 -0.087620959 0.58600003
-0.14528668 -0.088069528 0.58900005
-0.18761429 -0.084290482 0.57100004
-0.18652669 -0.084290482 0.57100004
-0.18543907 -0.084290482 0.57100004
-0.18435144 -0.084290482 0.57100004
-0.18294287 -0.084142864 0.57000005
-0.18185715 -0.084142864 0.57000005
-0.18077144 -0.084142864 0.57000005
-0.17937049 -0.083995245 0.56900001
-0.17766002 -0.083700009 0.56700003
-0.17658001 -0.083700009 0.56700003
-0.17550001 -0.083700009 0.56700003
-0.17442001 -0.083700009 0.56700003
-0.17334001 -0.083700009 0.56700003
-0.17256382 -0.083847627 0.56800002
-0.17178382 -0.083995245 0.56900001
-0.17070001 -0.083995245 0.56900001
-0.16961621 -0.083995245 0.56900001
-0.16853239 -0.083995245 0.56900001
-0.16744858 -0.083995245 0.56900001
-0.16636477 -0.083995245 0.56900001
-0.16528097 -0.083995245 0.56900001
-0.16419715 -0.083995245 0.56900001
-0.16311334 -0.083995245 0.56900001
-0.1623143 -0.084142864 0.57000005
-0.16122858 -0.084142864 0.57000005
-0.16014287 -0.084142864 0.57000005
-0.15933619 -0.084290482 0.57100004
-0.15824859 -0.084290482 0.57100004
-0.15716097 -0.084290482 0.57100004
-0.15634668 -0.0844381 0.57200003
-0.15552858 -0.084585719 0.57300001
-0.15470667 -0.084733337 0.574
-0.15388097 -0.084880956 0.57500005
-0.15278572 -0.084880956 0.57500005
-0.1522181 -0.0851762 0.57700002
-0.15138096 -0.085323818 0.57800001
-0.15054001 -0.085471436 0.57900006
-0.14995335 -0.085766673 0.58100003
-0.14935906 -0.08606191 0.583
-0.14850287 -0.086209528 0.58400005
-0.14764287 -0.086357147 0.58500004
-0.14677906 -0.086504765 0.58600003
-0.14591144 -0.086652383 0.58700001
-0.14528668 -0.086947627 0.58900005
-0.14440954 -0.087095246 0.59000003
-0.18685335 -0.08334858 0.57200003
-0.18576382 -0.08334858 0.57200003
-0.18467429 -0.08334858 0.57200003
-0.18326382 -0.083202861 0.57100004
-0.1821762 -0.083202861 0.57100004
-0.18108858 -0.083202861 0.57100004
-0.17968573 -0.08305715 0.57000005
-0.17860001 -0.08305715 0.57000005
-0.17720287 -0.082911432 0.56900001
-0.17611906 -0.082911432 0.56900001
-0.17503525 -0.082911432 0.56900001
-0.17425716 -0.08305715 0.57000005
-0.17317145 -0.08305715 0.57000005
-0.17208573 -0.08305715 0.57000005
-0.171 -0.08305715 0.57000005
-0.16991429 -0.08305715 0.57000005
-0.16882858 -0.08305715 0.57000005
-0.16774286 -0.08305715 0.57000005
-0.16665715 -0.08305715 0.57000005
-0.16557144 -0.08305715 0.57000005
-0.16448572 -0.08305715 0.57000005
-0.16340001 -0.08305715 0.57000005
-0.1623143 -0.08305715 0.57000005
-0.16151144 -0.083202861 0.57100004
-0.16042382 -0.083202861 0.57100004
-0.15933619 -0.083202861 0.57100004
-0.15852572 -0.08334858 0.57200003
-0.15743621 -0.08334858 0.57200003
-0.15662001 -0.083494291 0.57300001
-0.15580001 -0.083640009 0.574
-0.1549762 -0.08378572 0.57500005
-0.15414858 -0.083931431 0.57600003
-0.15305144 -0.083931431 0.57600003
-0.1522181 -0.08407715 0.57700002
-0.15164287 -0.084368579 0.57900006
-0.1508 -0.08451429 0.58000004
-0.15021144 -0.08480572 0.58200002
-0.14910287 -0.08480572 0.58200002
-0.14901143 -0.085388578 0.58600003
-0.14789525 -0.085388578 0.58600003
-0.14702953 -0.085534289 0.58700001
-0.14640859 -0.085825719 0.58900005
-0.14578001 -0.086117148 0.59100002
-0.14465429 -0.086117148 0.59100002
-0.18958573 -0.0829781 0.57700002
-0.18750668 -0.082546674 0.574
-0.18641335 -0.082546674 0.574
-0.18499716 -0.082402863 0.57300001
-0.18358478 -0.082259052 0.57200003
-0.1821762 -0.08211524 0.57100004
-0.18108858 -0.08211524 0.57100004
-0.17968573 -0.081971437 0.57000005
-0.17891334 -0.08211524 0.57100004
-0.17782572 -0.08211524 0.57100004
-0.17642859 -0.081971437 0.57000005
-0.17534287 -0.081971437 0.57000005
-0.17456287 -0.08211524 0.57100004
-0.17347525 -0.08211524 0.57100004
-0.17238763 -0.08211524 0.57100004
-0.171 -0.081971437 0.57000005
-0.16991429 -0.081971437 0.57000005
-0.16882858 -0.081971437 0.57000005
-0.16774286 -0.081971437 0.57000005
-0.16665715 -0.081971437 0.57000005
-0.16557144 -0.081971437 0.57000005
-0.16448572 -0.081971437 0.57000005
-0.16340001 -0.081971437 0.57000005
-0.16259906 -0.08211524 0.57100004
-0.16151144 -0.08211524 0.57100004
-0.16070478 -0.082259052 0.57200003
-0.15961525 -0.082259052 0.57200003
-0.15852572 -0.082259052 0.57200003
-0.15771145 -0.082402863 0.57300001
-0.15689334 -0.082546674 0.574
-0.15607144 -0.082690485 0.57500005
-0.1549762 -0.082690485 0.57500005
-0.15414858 -0.082834288 0.57600003
-0.15305144 -0.082834288 0.57600003
-0.1522181 -0.0829781 0.57700002
-0.15164287 -0.083265722 0.57900006
-0.15106001 -0.083553337 0.58100003
-0.15021144 -0.083697148 0.58200002
-0.14961524 -0.08398477 0.58400005
-0.14901143 -0.084272385 0.58600003
-0.14814763 -0.084416196 0.58700001
-0.14728001 -0.084560007 0.588
-0.14665715 -0.084847622 0.59000003
-0.14578001 -0.084991433 0.59100002
-0.14489906 -0.085135244 0.59200001
-0.19024287 -0.082162865 0.57900006
-0.18881334 -0.082020961 0.57800001
-0.18706287 -0.081737146 0.57600003
-0.18564287 -0.081595242 0.57500005
-0.18422668 -0.081453338 0.574
-0.18249525 -0.081169531 0.57200003
-0.18140572 -0.081169531 0.57200003
-0.18000096 -0.081027627 0.57100004
-0.17891334 -0.081027627 0.57100004
-0.17782572 -0.081027627 0.57100004
-0.17673811 -0.081027627 0.57100004
-0.17565049 -0.081027627 0.57100004
-0.17456287 -0.081027627 0.57100004
-0.17347525 -0.081027627 0.57100004
-0.17238763 -0.081027627 0.57100004
-0.17130001 -0.081027627 0.57100004
-0.17021239 -0.081027627 0.57100004
-0.16882858 -0.080885723 0.57000005
-0.16774286 -0.080885723 0.57000005
-0.16665715 -0.080885723 0.57000005
-0.16557144 -0.080885723 0.57000005
-0.16448572 -0.080885723 0.57000005
-0.16340001 -0.080885723 0.57000005
-0.16259906 -0.081027627 0.57100004
-0.16179429 -0.081169531 0.57200003
-0.16070478 -0.081169531 0.57200003
-0.15961525 -0.081169531 0.57200003
-0.15880287 -0.081311435 0.57300001
-0.15798667 -0.081453338 0.574
-0.15689334 -0.081453338 0.574
-0.15607144 -0.081595242 0.57500005
-0.1549762 -0.081595242 0.57500005
-0.15414858 -0.081737146 0.57600003
-0.15305144 -0.081737146 0.57600003
-0.1522181 -0.08187905 0.57700002
-0.15164287 -0.082162865 0.57900006
-0.15106001 -0.082446672 0.58100003
-0.15046953 -0.08273048 0.583
-0.14935906 -0.08273048 0.583
-0.14901143 -0.083156198 0.58600003
-0.14789525 -0.083156198 0.58600003
-0.14702953 -0.083298102 0.58700001
-0.14640859 -0.08358191 0.58900005
-0.14602667 -0.084007628 0.59200001
-0.14489906 -0.084007628 0.59200001
-0.14377144 -0.084007628 0.59200001
-0.19057144 -0.081200004 0.58000004
-0.18914001 -0.081060007 0.57900006
-0.18771239 -0.080920003 0.57800001
-0.18564287 -0.080500007 0.57500005
-0.18454763 -0.080500007 0.57500005
-0.18313335 -0.080360003 0.574
-0.18172286 -0.080220006 0.57300001
-0.18031619 -0.080080003 0.57200003
-0.17922668 -0.080080003 0.57200003
-0.17813715 -0.080080003 0.57200003
-0.17673811 -0.079940006 0.57100004
-0.17565049 -0.079940006 0.57100004
-0.17456287 -0.079940006 0.57100004
-0.17347525 -0.079940006 0.57100004
-0.17238763 -0.079940006 0.57100004
-0.17130001 -0.079940006 0.57100004
-0.17021239 -0.079940006 0.57100004
-0.16912477 -0.079940006 0.57100004
-0.16803716 -0.079940006 0.57100004
-0.16694954 -0.079940006 0.57100004
-0.16586192 -0.079940006 0.57100004
-0.1647743 -0.079940006 0.57100004
-0.16368668 -0.079940006 0.57100004
-0.16259906 -0.079940006 0.57100004
-0.16207716 -0.080220006 0.57300001
-0.16098572 -0.080220006 0.57300001
-0.1598943 -0.080220006 0.57300001
-0.15880287 -0.080220006 0.57300001
-0.15798667 -0.080360003 0.574
-0.15689334 -0.080360003 0.574
-0.15607144 -0.080500007 0.57500005
-0.1549762 -0.080500007 0.57500005
-0.15414858 -0.080640003 0.57600003
-0.15305144 -0.080640003 0.57600003
-0.15248191 -0.080920003 0.57800001
-0.15190478 -0.081200004 0.58000004
-0.15132001 -0.081480004 0.58200002
-0.15046953 -0.081620008 0.583
-0.14961524 -0.081760004 0.58400005
-0.14901143 -0.082040004 0.58600003
-0.14789525 -0.082040004 0.58600003
-0.14702953 -0.082180008 0.58700001
-0.14591144 -0.082180008 0.58700001
-0.14578001 -0.082740009 0.59100002
-0.14489906 -0.082880005 0.59200001
-0.14377144 -0.082880005 0.59200001
-0.18771239 -0.079819053 0.57800001
-0.18596573 -0.07954286 0.57600003
-0.18454763 -0.079404764 0.57500005
-0.18313335 -0.079266675 0.574
-0.18204001 -0.079266675 0.574
-0.18063144 -0.079128578 0.57300001
-0.17954001 -0.079128578 0.57300001
-0.17844859 -0.079128578 0.57300001
-0.17735715 -0.079128578 0.57300001
-0.17595811 -0.078990482 0.57200003
-0.17486858 -0.078990482 0.57200003
-0.17347525 -0.078852385 0.57100004
-0.17238763 -0.078852385 0.57100004
-0.17130001 -0.078852385 0.57100004
-0.17021239 -0.078852385 0.57100004
-0.16912477 -0.078852385 0.57100004
-0.16803716 -0.078852385 0.57100004
-0.16694954 -0.078852385 0.57100004
-0.16586192 -0.078852385 0.57100004
-0.1647743 -0.078852385 0.57100004
-0.16397335 -0.078990482 0.57200003
-0.16288382 -0.078990482 0.57200003
-0.16207716 -0.079128578 0.57300001
-0.16098572 -0.079128578 0.57300001
-0.1598943 -0.079128578 0.57300001
-0.15908001 -0.079266675 0.574
-0.15798667 -0.079266675 0.574
-0.15689334 -0.079266675 0.574
-0.15607144 -0.079404764 0.57500005
-0.1549762 -0.079404764 0.57500005
-0.15414858 -0.07954286 0.57600003
-0.15305144 -0.07954286 0.57600003
-0.15248191 -0.079819053 0.57800001
-0.15164287 -0.07995715 0.57900006
-0.15132001 -0.080371432 0.58200002
-0.15046953 -0.080509529 0.583
-0.14961524 -0.080647625 0.58400005
-0.14901143 -0.080923818 0.58600003
-0.14789525 -0.080923818 0.58600003
-0.14702953 -0.081061907 0.58700001
-0.14591144 -0.081061907 0.58700001
-0.14627334 -0.081890479 0.59300005
-0.14514382 -0.081890479 0.59300005
-0.18771239 -0.078718103 0.57800001
-0.18596573 -0.078445718 0.57600003
-0.18454763 -0.078309529 0.57500005
-0.18313335 -0.078173339 0.574
-0.18204001 -0.078173339 0.574
-0.18063144 -0.07803715 0.57300001
-0.17954001 -0.07803715 0.57300001
-0.17844859 -0.07803715 0.57300001
-0.17735715 -0.07803715 0.57300001
-0.17595811 -0.077900961 0.57200003
-0.17486858 -0.077900961 0.57200003
-0.17377906 -0.077900961 0.57200003
-0.17268954 -0.077900961 0.57200003
-0.17160001 -0.077900961 0.57200003
-0.17021239 -0.077764764 0.57100004
-0.16912477 -0.077764764 0.57100004
-0.16803716 -0.077764764 0.57100004
-0.16694954 -0.077764764 0.57100004
-0.16586192 -0.077764764 0.57100004
-0.1647743 -0.077764764 0.57100004
-0.16397335 -0.077900961 0.57200003
-0.16288382 -0.077900961 0.57200003
-0.16207716 -0.07803715 0.57300001
-0.16098572 -0.07803715 0.57300001
-0.16017334 -0.078173339 0.574
-0.15908001 -0.078173339 0.574
-0.15826191 -0.078309529 0.57500005
-0.15716667 -0.078309529 0.57500005
-0.15634286 -0.078445718 0.57600003
-0.15524572 -0.078445718 0.57600003
-0.1544162 -0.078581907 0.57700002
-0.15331715 -0.078581907 0.57700002
-0.1522181 -0.078581907 0.57700002
-0.15216668 -0.079126671 0.58100003
-0.15132001 -0.07926286 0.58200002
-0.15046953 -0.079399049 0.583
-0.14961524 -0.079535246 0.58400005
-0.14875716 -0.079671435 0.58500004
-0.14789525 -0.079807624 0.58600003
-0.14702953 -0.079943813 0.58700001
-0.14591144 -0.079943813 0.58700001
-0.14627334 -0.080760956 0.59300005
-0.14514382 -0.080760956 0.59300005
-0.18803716 -0.077751435 0.57900006
-0.18628858 -0.077482864 0.57700002
-0.18486859 -0.077348575 0.57600003
-0.1834524 -0.077214293 0.57500005
-0.18235716 -0.077214293 0.57500005
-0.18094668 -0.077080004 0.574
-0.17985335 -0.077080004 0.574
-0.17876001 -0.077080004 0.574
-0.17766668 -0.077080004 0.574
-0.17626573 -0.076945722 0.57300001
-0.17486858 -0.076811433 0.57200003
-0.17377906 -0.076811433 0.57200003
-0.17268954 -0.076811433 0.57200003
-0.17160001 -0.076811433 0.57200003
-0.17051049 -0.076811433 0.57200003
-0.16942096 -0.076811433 0.57200003
-0.16833144 -0.076811433 0.57200003
-0.16724192 -0.076811433 0.57200003
-0.16615239 -0.076811433 0.57200003
-0.16506287 -0.076811433 0.57200003
-0.16426001 -0.076945722 0.57300001
-0.16316858 -0.076945722 0.57300001
-0.16236001 -0.077080004 0.574
-0.16126668 -0.077080004 0.574
-0.16017334 -0.077080004 0.574
-0.15935716 -0.077214293 0.57500005
-0.15826191 -0.077214293 0.57500005
-0.15716667 -0.077214293 0.57500005
-0.15634286 -0.077348575 0.57600003
-0.15551525 -0.077482864 0.57700002
-0.1544162 -0.077482864 0.57700002
-0.15331715 -0.077482864 0.57700002
-0.15248191 -0.077617146 0.57800001
-0.15132001 -0.078154288 0.58200002
-0.15046953 -0.078288577 0.583
-0.14961524 -0.078422859 0.58400005
-0.14901143 -0.07869143 0.58600003
-0.14789525 -0.07869143 0.58600003
-0.14702953 -0.07882572 0.58700001
-0.14591144 -0.07882572 0.58700001
-0.14602667 -0.079497151 0.59200001
-0.14514382 -0.079631433 0.59300005
-0.18836191 -0.07678096 0.58000004
-0.18628858 -0.076383814 0.57700002
-0.18518953 -0.076383814 0.57700002
-0.18377145 -0.076251432 0.57600003
-0.18235716 -0.07611905 0.57500005
-0.18126191 -0.07611905 0.57500005
-0.17985335 -0.075986668 0.574
-0.17876001 -0.075986668 0.574
-0.17766668 -0.075986668 0.574
-0.17626573 -0.075854294 0.57300001
-0.1751743 -0.075854294 0.57300001
-0.17408288 -0.075854294 0.57300001
-0.17268954 -0.075721912 0.57200003
-0.17160001 -0.075721912 0.57200003
-0.17051049 -0.075721912 0.57200003
-0.16942096 -0.075721912 0.57200003
-0.16833144 -0.075721912 0.57200003
-0.16724192 -0.075721912 0.57200003
-0.16615239 -0.075721912 0.57200003
-0.16506287 -0.075721912 0.57200003
-0.16426001 -0.075854294 0.57300001
-0.16316858 -0.075854294 0.57300001
-0.16236001 -0.075986668 0.574
-0.16126668 -0.075986668 0.574
-0.1604524 -0.07611905 0.57500005
-0.15935716 -0.07611905 0.57500005
-0.15826191 -0.07611905 0.57500005
-0.15716667 -0.07611905 0.57500005
-0.15634286 -0.076251432 0.57600003
-0.15524572 -0.076251432 0.57600003
-0.1544162 -0.076383814 0.57700002
-0.15358287 -0.076516196 0.57800001
-0.15327334 -0.076913342 0.58100003
-0.15216668 -0.076913342 0.58100003
-0.15132001 -0.077045716 0.58200002
-0.15072763 -0.07731048 0.58400005
-0.14961524 -0.07731048 0.58400005
-0.14901143 -0.077575244 0.58600003
-0.14789525 -0.077575244 0.58600003
-0.14702953 -0.077707626 0.58700001
-0.14616001 -0.077840008 0.588
-0.14602667 -0.078369528 0.59200001
-0.14514382 -0.07850191 0.59300005
-0.18868668 -0.07580667 0.58100003
-0.18693429 -0.075545721 0.57900006
-0.18551049 -0.075415246 0.57800001
-0.1840905 -0.075284764 0.57700002
-0.18299145 -0.075284764 0.57700002
-0.18126191 -0.075023815 0.57500005
-0.18016668 -0.075023815 0.57500005
-0.17876001 -0.07489334 0.574
-0.17766668 -0.07489334 0.574
-0.17657335 -0.07489334 0.574
-0.17548001 -0.07489334 0.574
-0.17408288 -0.074762858 0.57300001
-0.17299144 -0.074762858 0.57300001
-0.1719 -0.074762858 0.57300001
-0.17080858 -0.074762858 0.57300001
-0.16971715 -0.074762858 0.57300001
-0.16833144 -0.074632384 0.57200003
-0.16753429 -0.074762858 0.57300001
-0.16644287 -0.074762858 0.57300001
-0.16535144 -0.074762858 0.57300001
-0.16454668 -0.07489334 0.574
-0.16345334 -0.07489334 0.574
-0.16264287 -0.075023815 0.57500005
-0.16154763 -0.075023815 0.57500005
-0.1604524 -0.075023815 0.57500005
-0.15963429 -0.07515429 0.57600003
-0.15826191 -0.075023815 0.57500005
-0.15744001 -0.07515429 0.57600003
-0.15634286 -0.07515429 0.57600003
-0.15578477 -0.075415246 0.57800001
-0.15468381 -0.075415246 0.57800001
-0.15358287 -0.075415246 0.57800001
-0.15300953 -0.075676195 0.58000004
-0.15216668 -0.07580667 0.58100003
-0.15132001 -0.075937144 0.58200002
-0.15046953 -0.076067626 0.583
-0.14961524 -0.076198101 0.58400005
-0.14901143 -0.07645905 0.58600003
-0.14814763 -0.076589532 0.58700001
-0.14728001 -0.076720007 0.588
-0.14640859 -0.076850481 0.58900005
-0.14602667 -0.077241912 0.59200001
-0.14514382 -0.077372387 0.59300005
-0.19012001 -0.07482858 0.58200002
-0.18868668 -0.074700005 0.58100003
-0.18725716 -0.074571431 0.58000004
-0.18583144 -0.074442863 0.57900006
-0.18440953 -0.074314289 0.57800001
-0.18299145 -0.074185722 0.57700002
-0.18157716 -0.074057147 0.57600003
-0.18048002 -0.074057147 0.57600003
-0.17907144 -0.07392858 0.57500005
-0.17797621 -0.07392858 0.57500005
-0.17688097 -0.07392858 0.57500005
-0.17548001 -0.073800005 0.574
-0.17438668 -0.073800005 0.574
-0.17299144 -0.07367143 0.57300001
-0.1719 -0.07367143 0.57300001
-0.17080858 -0.07367143 0.57300001
-0.16971715 -0.07367143 0.57300001
-0.16862573 -0.07367143 0.57300001
-0.16753429 -0.07367143 0.57300001
-0.16644287 -0.07367143 0.57300001
-0.16564001 -0.073800005 0.574
-0.16454668 -0.073800005 0.574
-0.1637381 -0.07392858 0.57500005
-0.16264287 -0.07392858 0.57500005
-0.16154763 -0.07392858 0.57500005
-0.16073143 -0.074057147 0.57600003
-0.15963429 -0.074057147 0.57600003
-0.15881239 -0.074185722 0.57700002
-0.15771334 -0.074185722 0.57700002
-0.15688573 -0.074314289 0.57800001
-0.1560543 -0.074442863 0.57900006
-0.15495144 -0.074442863 0.57900006
-0.15384859 -0.074442863 0.57900006
-0.15327334 -0.074700005 0.58100003
-0.15242858 -0.07482858 0.58200002
-0.15158001 -0.074957147 0.583
-0.15072763 -0.075085722 0.58400005
-0.14987144 -0.075214289 0.58500004
-0.14926572 -0.075471431 0.58700001
-0.14814763 -0.075471431 0.58700001
-0.14728001 -0.075600006 0.588
-0.14640859 -0.075728573 0.58900005
-0.14553334 -0.075857148 0.59000003
-0.14489906 -0.076114289 0.59200001
-0.18901144 -0.073720008 0.58200002
-0.18790287 -0.073720008 0.58200002
-0.1861524 -0.073466673 0.58000004
-0.18472858 -0.073340006 0.57900006
-0.18362573 -0.073340006 0.57900006
-0.18220763 -0.073213339 0.57800001
-0.18079334 -0.073086672 0.57700002
-0.17938288 -0.072960004 0.57600003
-0.17828573 -0.072960004 0.57600003
-0.17718859 -0.072960004 0.57600003
-0.17578572 -0.072833337 0.57500005
-0.17469049 -0.072833337 0.57500005
-0.17359525 -0.072833337 0.57500005
-0.17250001 -0.072833337 0.57500005
-0.17110668 -0.07270667 0.574
-0.17001334 -0.07270667 0.574
-0.16892001 -0.07270667 0.574
-0.16782668 -0.07270667 0.574
-0.16673334 -0.07270667 0.574
-0.16592859 -0.072833337 0.57500005
-0.16483334 -0.072833337 0.57500005
-0.16402286 -0.072960004 0.57600003
-0.16320859 -0.073086672 0.57700002
-0.16210954 -0.073086672 0.57700002
-0.16101049 -0.073086672 0.57700002
-0.16018859 -0.073213339 0.57800001
-0.15908763 -0.073213339 0.57800001
-0.15798667 -0.073213339 0.57800001
-0.15715715 -0.073340006 0.57900006
-0.1560543 -0.073340006 0.57900006
-0.15548667 -0.073593341 0.58100003
-0.15464573 -0.073720008 0.58200002
-0.15353715 -0.073720008 0.58200002
-0.15269049 -0.073846668 0.583
-0.15158001 -0.073846668 0.583
-0.15072763 -0.073973335 0.58400005
-0.15012763 -0.07422667 0.58600003
-0.14926572 -0.074353337 0.58700001
-0.14840001 -0.074480005 0.588
-0.14778095 -0.074733339 0.59000003
-0.14665715 -0.074733339 0.59000003
-0.14578001 -0.074860007 0.59100002
-0.14489906 -0.074986674 0.59200001
-0.1893362 -0.072736196 0.583
-0.18790287 -0.072611436 0.58200002
-0.1867943 -0.072611436 0.58200002
-0.18504763 -0.072361909 0.58000004
-0.18362573 -0.072237149 0.57900006
-0.18220763 -0.072112389 0.57800001
-0.18110667 -0.072112389 0.57800001
-0.17969429 -0.071987621 0.57700002
-0.17859524 -0.071987621 0.57700002
-0.17749619 -0.071987621 0.57700002
-0.17609145 -0.071862862 0.57600003
-0.17499429 -0.071862862 0.57600003
-0.17389715 -0.071862862 0.57600003
-0.17250001 -0.071738102 0.57500005
-0.17140478 -0.071738102 0.57500005
-0.17030953 -0.071738102 0.57500005
-0.16921429 -0.071738102 0.57500005
-0.16811906 -0.071738102 0.57500005
-0.16702382 -0.071738102 0.57500005
-0.16592859 -0.071738102 0.57500005
-0.16483334 -0.071738102 0.57500005
-0.16430762 -0.071987621 0.57700002
-0.16320859 -0.071987621 0.57700002
-0.16239049 -0.072112389 0.57800001
-0.16128953 -0.072112389 0.57800001
-0.16018859 -0.072112389 0.57800001
-0.15936287 -0.072237149 0.57900006
-0.15826002 -0.072237149 0.57900006
-0.15715715 -0.072237149 0.57900006
-0.15632382 -0.072361909 0.58000004
-0.15548667 -0.072486669 0.58100003
-0.15464573 -0.072611436 0.58200002
-0.15380096 -0.072736196 0.583
-0.15269049 -0.072736196 0.583
-0.15158001 -0.072736196 0.583
-0.15072763 -0.072860956 0.58400005
-0.15012763 -0.073110484 0.58600003
-0.14952001 -0.073360004 0.588
-0.14865239 -0.073484764 0.58900005
-0.14778095 -0.073609531 0.59000003
-0.14665715 -0.073609531 0.59000003
-0.14553334 -0.073609531 0.59000003
-0.14440954 -0.073609531 0.59000003
-0.1893362 -0.071625717 0.583
-0.18790287 -0.071502864 0.58200002
-0.18647334 -0.071380004 0.58100003
-0.18504763 -0.071257144 0.58000004
-0.18394287 -0.071257144 0.58000004
-0.18252286 -0.071134292 0.57900006
-0.18142001 -0.071134292 0.57900006
-0.18000573 -0.071011432 0.57800001
-0.17859524 -0.070888579 0.57700002
-0.17749619 -0.070888579 0.57700002
-0.17639716 -0.070888579 0.57700002
-0.17529811 -0.070888579 0.57700002
-0.17419906 -0.070888579 0.57700002
-0.1728 -0.070765719 0.57600003
-0.17170286 -0.070765719 0.57600003
-0.17060572 -0.070765719 0.57600003
-0.16921429 -0.070642859 0.57500005
-0.16841143 -0.070765719 0.57600003
-0.16731429 -0.070765719 0.57600003
-0.16621715 -0.070765719 0.57600003
-0.16512001 -0.070765719 0.57600003
-0.16459239 -0.071011432 0.57800001
-0.16349144 -0.071011432 0.57800001
-0.16239049 -0.071011432 0.57800001
-0.16128953 -0.071011432 0.57800001
-0.16046573 -0.071134292 0.57900006
-0.15936287 -0.071134292 0.57900006
-0.15853335 -0.071257144 0.58000004
-0.15742858 -0.071257144 0.58000004
-0.15659334 -0.071380004 0.58100003
-0.1557543 -0.071502864 0.58200002
-0.15491144 -0.071625717 0.583
-0.15380096 -0.071625717 0.583
-0.15269049 -0.071625717 0.583
-0.15184002 -0.071748577 0.58400005
-0.15098572 -0.07187143 0.58500004
-0.15038382 -0.07211715 0.58700001
-0.14952001 -0.072240002 0.588
-0.14865239 -0.072362863 0.58900005
-0.14778095 -0.072485723 0.59000003
-0.14665715 -0.072485723 0.59000003
-0.14553334 -0.072485723 0.59000003
-0.14440954 -0.072485723 0.59000003
-0.14328572 -0.072485723 0.59000003
-0.1893362 -0.070515245 0.583
-0.18822573 -0.070515245 0.583
-0.18711525 -0.070515245 0.583
-0.18536668 -0.07027334 0.58100003
-0.18426001 -0.07027334 0.58100003
-0.18283811 -0.070152387 0.58000004
-0.18142001 -0.070031434 0.57900006
-0.18031715 -0.070031434 0.57900006
-0.17890477 -0.069910482 0.57800001
-0.17780381 -0.069910482 0.57800001
-0.17670287 -0.069910482 0.57800001
-0.17529811 -0.069789529 0.57700002
-0.17419906 -0.069789529 0.57700002
-0.17310001 -0.069789529 0.57700002
-0.17170286 -0.069668576 0.57600003
-0.17060572 -0.069668576 0.57600003
-0.16950858 -0.069668576 0.57600003
-0.16870382 -0.069789529 0.57700002
-0.16731429 -0.069668576 0.57600003
-0.16621715 -0.069668576 0.57600003
-0.16540667 -0.069789529 0.57700002
-0.16459239 -0.069910482 0.57800001
-0.16349144 -0.069910482 0.57800001
-0.16239049 -0.069910482 0.57800001
-0.16156858 -0.070031434 0.57900006
-0.16074286 -0.070152387 0.58000004
-0.15963811 -0.070152387 0.58000004
-0.15853335 -0.070152387 0.58000004
-0.15742858 -0.070152387 0.58000004
-0.15686287 -0.070394292 0.58200002
-0.1557543 -0.070394292 0.58200002
-0.15491144 -0.070515245 0.583
-0.15380096 -0.070515245 0.583
-0.15295239 -0.070636198 0.58400005
-0.15184002 -0.070636198 0.58400005
-0.15098572 -0.070757151 0.58500004
-0.15012763 -0.070878103 0.58600003
-0.14952001 -0.071120001 0.588
-0.14865239 -0.071240954 0.58900005
-0.14778095 -0.071361907 0.59000003
-0.14690572 -0.07148286 0.59100002
-0.14553334 -0.071361907 0.59000003
-0.14440954 -0.071361907 0.59000003
-0.18854858 -0.069523811 0.58400005
-0.18711525 -0.069404766 0.583
-0.18568572 -0.069285721 0.58200002
-0.18426001 -0.069166668 0.58100003
-0.18315335 -0.069166668 0.58100003
-0.18173334 -0.069047622 0.58000004
-0.18031715 -0.068928577 0.57900006
-0.1792143 -0.068928577 0.57900006
-0.17780381 -0.068809532 0.57800001
-0.17670287 -0.068809532 0.57800001
-0.17560191 -0.068809532 0.57800001
-0.17419906 -0.068690479 0.57700002
-0.17310001 -0.068690479 0.57700002
-0.17170286 -0.068571433 0.57600003
-0.17060572 -0.068571433 0.57600003
-0.16950858 -0.068571433 0.57600003
-0.16870382 -0.068690479 0.57700002
-0.16760477 -0.068690479 0.57700002
-0.16650572 -0.068690479 0.57700002
-0.16569334 -0.068809532 0.57800001
-0.16459239 -0.068809532 0.57800001
-0.16349144 -0.068809532 0.57800001
-0.16267143 -0.068928577 0.57900006
-0.16156858 -0.068928577 0.57900006
-0.16074286 -0.069047622 0.58000004
-0.15963811 -0.069047622 0.58000004
-0.15853335 -0.069047622 0.58000004
-0.15742858 -0.069047622 0.58000004
-0.15686287 -0.069285721 0.58200002
-0.1557543 -0.069285721 0.58200002
-0.15491144 -0.069404766 0.583
-0.15406477 -0.069523811 0.58400005
-0.15295239 -0.069523811 0.58400005
-0.15210001 -0.069642864 0.58500004
-0.15098572 -0.069642864 0.58500004
-0.15012763 -0.06976191 0.58600003
-0.14952001 -0.070000008 0.588
-0.14865239 -0.070119053 0.58900005
-0.14778095 -0.070238099 0.59000003
-0.14665715 -0.070238099 0.59000003
-0.14528668 -0.070119053 0.58900005
-0.14416477 -0.070119053 0.58900005
-0.18854858 -0.068411432 0.58400005
-0.18743621 -0.068411432 0.58400005
-0.18568572 -0.068177149 0.58200002
-0.18457715 -0.068177149 0.58200002
-0.18315335 -0.068060003 0.58100003
-0.18204668 -0.068060003 0.58100003
-0.18062858 -0.067942865 0.58000004
-0.1792143 -0.06782572 0.57900006
-0.17811143 -0.06782572 0.57900006
-0.17700858 -0.06782572 0.57900006
-0.17560191 -0.067708574 0.57800001
-0.17450096 -0.067708574 0.57800001
-0.17340001 -0.067708574 0.57800001
-0.17200096 -0.067591436 0.57700002
-0.17090191 -0.067591436 0.57700002
-0.16980287 -0.067591436 0.57700002
-0.16870382 -0.067591436 0.57700002
-0.16789524 -0.067708574 0.57800001
-0.1667943 -0.067708574 0.57800001
-0.16569334 -0.067708574 0.57800001
-0.16487715 -0.06782572 0.57900006
-0.1637743 -0.06782572 0.57900006
-0.16267143 -0.06782572 0.57900006
-0.16156858 -0.06782572 0.57900006
-0.16074286 -0.067942865 0.58000004
-0.15963811 -0.067942865 0.58000004
-0.15880668 -0.068060003 0.58100003
-0.15770002 -0.068060003 0.58100003
-0.15659334 -0.068060003 0.58100003
-0.1557543 -0.068177149 0.58200002
-0.15491144 -0.068294287 0.583
-0.15432858 -0.068528578 0.58500004
-0.15321429 -0.068528578 0.58500004
-0.15210001 -0.068528578 0.58500004
-0.15124382 -0.068645716 0.58600003
-0.15012763 -0.068645716 0.58600003
-0.14952001 -0.068880007 0.588
-0.14840001 -0.068880007 0.588
-0.14753048 -0.068997145 0.58900005
-0.14665715 -0.06911429 0.59000003
-0.18887144 -0.067414291 0.58500004
-0.18743621 -0.067299053 0.58400005
-0.18600477 -0.067183815 0.583
-0.18457715 -0.067068577 0.58200002
-0.18346858 -0.067068577 0.58200002
-0.18204668 -0.066953339 0.58100003
-0.18031715 -0.066722862 0.57900006
-0.1792143 -0.066722862 0.57900006
-0.17811143 -0.066722862 0.57900006
-0.17700858 -0.066722862 0.57900006
-0.17560191 -0.066607624 0.57800001
-0.17450096 -0.066607624 0.57800001
-0.17340001 -0.066607624 0.57800001
-0.17229906 -0.066607624 0.57800001
-0.1711981 -0.066607624 0.57800001
-0.16980287 -0.066492386 0.57700002
-0.16870382 -0.066492386 0.57700002
-0.16789524 -0.066607624 0.57800001
-0.1667943 -0.066607624 0.57800001
-0.16598001 -0.066722862 0.57900006
-0.16487715 -0.066722862 0.57900006
-0.1637743 -0.066722862 0.57900006
-0.16267143 -0.066722862 0.57900006
-0.16156858 -0.066722862 0.57900006
-0.16102001 -0.066953339 0.58100003
-0.15991335 -0.066953339 0.58100003
-0.15880668 -0.066953339 0.58100003
-0.15770002 -0.066953339 0.58100003
-0.15659334 -0.066953339 0.58100003
-0.15602191 -0.067183815 0.583
-0.15491144 -0.067183815 0.583
-0.15432858 -0.067414291 0.58500004
-0.15321429 -0.067414291 0.58500004
-0.15210001 -0.067414291 0.58500004
-0.15124382 -0.067529529 0.58600003
-0.15012763 -0.067529529 0.58600003
-0.14952001 -0.067760006 0.588
-0.14840001 -0.067760006 0.588
-0.18743621 -0.066186674 0.58400005
-0.18600477 -0.066073336 0.583
-0.18457715 -0.065960005 0.58200002
-0.18346858 -0.065960005 0.58200002
-0.18204668 -0.065846674 0.58100003
-0.18094002 -0.065846674 0.58100003
-0.1792143 -0.065620005 0.57900006
-0.17811143 -0.065620005 0.57900006
-0.17700858 -0.065620005 0.57900006
-0.17590572 -0.065620005 0.57900006
-0.17450096 -0.065506674 0.57800001
-0.17340001 -0.065506674 0.57800001
-0.17229906 -0.065506674 0.57800001
-0.1711981 -0.065506674 0.57800001
-0.17009716 -0.065506674 0.57800001
-0.1689962 -0.065506674 0.57800001
-0.16789524 -0.065506674 0.57800001
-0.1667943 -0.065506674 0.57800001
-0.16598001 -0.065620005 0.57900006
-0.16487715 -0.065620005 0.57900006
-0.1637743 -0.065620005 0.57900006
-0.16267143 -0.065620005 0.57900006
-0.16184764 -0.065733336 0.58000004
-0.16102001 -0.065846674 0.58100003
-0.15991335 -0.065846674 0.58100003
-0.15880668 -0.065846674 0.58100003
-0.15770002 -0.065846674 0.58100003
-0.15659334 -0.065846674 0.58100003
-0.1557543 -0.065960005 0.58200002
-0.15491144 -0.066073336 0.583
-0.15459239 -0.066413336 0.58600003
-0.15347619 -0.066413336 0.58600003
-0.15236001 -0.066413336 0.58600003
-0.15124382 -0.066413336 0.58600003
-0.15012763 -0.066413336 0.58600003
-0.14952001 -0.066640005 0.588
-0.14915715 -0.066980004 0.59100002
-0.14853239 -0.067206673 0.59300005
-0.18600477 -0.064962864 0.583
-0.18457715 -0.064851433 0.58200002
-0.18346858 -0.064851433 0.58200002
-0.18204668 -0.064740002 0.58100003
-0.18062858 -0.064628579 0.58000004
