# .PCD v0.7 - Point Cloud Data file format
VERSION 0.7
FIELDS x y z
SIZE 4 4 4
TYPE F F F
COUNT 1 1 1
WIDTH 1354
HEIGHT 1
VIEWPOINT 0 0 0 1 0 0 0
POINTS 1354
DATA ascii
-0.039501909 0.042180002 0.70300001
-0.038162861 0.042180002 0.70300001
-0.036823813 0.042180002 0.70300001
-0.035484765 0.042180002 0.70300001
-0.034048572 0.042060003 0.70100003
-0.032713335 0.042060003 0.70100003
-0.031378098 0.042060003 0.70100003
-0.030000001 0.042000003 0.70000005
-0.028666668 0.042000003 0.70000005
-0.027372383 0.042060003 0.70100003
-0.026037145 0.042060003 0.70100003
-0.024701906 0.042060003 0.70100003
-0.023366667 0.042060003 0.70100003
-0.02203143 0.042060003 0.70100003
-0.020696191 0.042060003 0.70100003
-0.019360954 0.042060003 0.70100003
-0.018025715 0.042060003 0.70100003
-0.016690478 0.042060003 0.70100003
-0.015355239 0.042060003 0.70100003
-0.014060001 0.042180002 0.70300001
-0.012739048 0.042240001 0.70400006
-0.011414287 0.042300005 0.70500004
-0.010100001 0.042420004 0.70700002
-0.0087533342 0.042420004 0.70700002
-0.0074066673 0.042420004 0.70700002
-0.0060685719 0.042480003 0.708
-0.0047200001 0.042480003 0.708
-0.0033809526 0.042600002 0.71000004
-0.0020485716 0.043020003 0.71700001
-0.00068285718 0.043020003 0.71700001
0.00068190478 0.042960003 0.71600002
0.0020457145 0.042960003 0.71600002
-0.040840954 0.04351905 0.70300001
-0.039501909 0.04351905 0.70300001
-0.038054287 0.04339524 0.70100003
-0.03671905 0.04339524 0.70100003
-0.035383813 0.04339524 0.70100003
-0.034000002 0.043333337 0.70000005
-0.032666668 0.043333337 0.70000005
-0.031243812 0.043209527 0.69800001
-0.029914288 0.043209527 0.69800001
-0.028584763 0.043209527 0.69800001
-0.027333336 0.043333337 0.70000005
-0.025925716 0.043209527 0.69800001
-0.024596192 0.043209527 0.69800001
-0.023266668 0.043209527 0.69800001
-0.022000002 0.043333337 0.70000005
-0.020666668 0.043333337 0.70000005
-0.019333335 0.043333337 0.70000005
-0.018000001 0.043333337 0.70000005
-0.016666668 0.043333337 0.70000005
-0.015333334 0.043333337 0.70000005
-0.014020001 0.04339524 0.70100003
-0.012720954 0.04351905 0.70300001
-0.011414287 0.04364286 0.70500004
-0.010071429 0.04364286 0.70500004
-0.0087533342 0.04376667 0.70700002
-0.0074066673 0.04376667 0.70700002
-0.0060685719 0.043828573 0.708
-0.0047200001 0.043828573 0.708
-0.0033809526 0.043952383 0.71000004
-0.0020285717 0.043952383 0.71000004
-0.00068285718 0.044385716 0.71700001
0.00068285718 0.044385716 0.71700001
0.0020485716 0.044385716 0.71700001
0.0034142858 0.044385716 0.71700001
-0.040840954 0.044858098 0.70300001
-0.039389525 0.044730481 0.70100003
-0.038000003 0.04466667 0.70000005
-0.036666669 0.04466667 0.70000005
-0.035333335 0.04466667 0.70000005
-0.033902861 0.044539049 0.69800001
-0.032573335 0.044539049 0.69800001
-0.031199049 0.044475242 0.69700003
-0.02987143 0.044475242 0.69700003
-0.028543811 0.044475242 0.69700003
-0.027255239 0.044539049 0.69800001
-0.025888573 0.044475242 0.69700003
-0.024596192 0.044539049 0.69800001
-0.023233335 0.044475242 0.69700003
-0.021937145 0.044539049 0.69800001
-0.02060762 0.044539049 0.69800001
-0.019278096 0.044539049 0.69800001
-0.017948573 0.044539049 0.69800001
-0.016666668 0.04466667 0.70000005
-0.015333334 0.04466667 0.70000005
-0.014020001 0.044730481 0.70100003
-0.012720954 0.044858098 0.70300001
-0.011398096 0.044921909 0.70400006
-0.010071429 0.044985719 0.70500004
-0.0087533342 0.045113336 0.70700002
-0.0074066673 0.045113336 0.70700002
-0.0060600005 0.045113336 0.70700002
-0.0047200001 0.045177147 0.708
-0.0033714287 0.045177147 0.708
-0.0020228573 0.045177147 0.708
-0.00068000006 0.045560002 0.71400005
0.00068000006 0.045560002 0.71400005
0.0020400002 0.045560002 0.71400005
-0.040724766 0.046065718 0.70100003
-0.039389525 0.046065718 0.70100003
-0.038000003 0.046000004 0.70000005
-0.036561906 0.045868576 0.69800001
-0.035232384 0.045868576 0.69800001
-0.033854287 0.045802861 0.69700003
-0.032526668 0.045802861 0.69700003
-0.031109527 0.045671433 0.69500005
-0.029785717 0.045671433 0.69500005
-0.028461907 0.045671433 0.69500005
-0.027138097 0.045671433 0.69500005
-0.025814287 0.045671433 0.69500005
-0.024490478 0.045671433 0.69500005
-0.023166668 0.045671433 0.69500005
-0.021905717 0.045802861 0.69700003
-0.020578096 0.045802861 0.69700003
-0.019278096 0.045868576 0.69800001
-0.017948573 0.045868576 0.69800001
-0.016619049 0.045868576 0.69800001
-0.015289525 0.045868576 0.69800001
-0.014020001 0.046065718 0.70100003
-0.012684762 0.046065718 0.70100003
-0.011381906 0.046197146 0.70300001
-0.010057144 0.04626286 0.70400006
-0.0087285722 0.046328574 0.70500004
-0.0073857149 0.046328574 0.70500004
-0.0060600005 0.046460003 0.70700002
-0.0047133337 0.046460003 0.70700002
-0.0033714287 0.046525717 0.708
-0.0020228573 0.046525717 0.708
-0.00067904766 0.046854287 0.71300006
0.00067904766 0.046854287 0.71300006
-0.039389525 0.047400955 0.70100003
-0.033854287 0.04713048 0.69700003
-0.032433335 0.046995241 0.69500005
-0.031109527 0.046995241 0.69500005
-0.029742859 0.046927623 0.69400001
-0.028461907 0.046995241 0.69500005
-0.027138097 0.046995241 0.69500005
-0.025814287 0.046995241 0.69500005
-0.024490478 0.046995241 0.69500005
-0.023166668 0.046995241 0.69500005
-0.021842858 0.046995241 0.69500005
-0.02051905 0.046995241 0.69500005
-0.019250477 0.04713048 0.69700003
-0.017922858 0.04713048 0.69700003
-0.016595239 0.04713048 0.69700003
-0.015289525 0.047198098 0.69800001
-0.014020001 0.047400955 0.70100003
-0.012684762 0.047400955 0.70100003
-0.011381906 0.047536194 0.70300001
-0.010042857 0.047536194 0.70300001
-0.0087285722 0.047671434 0.70500004
-0.0073857149 0.047671434 0.70500004
-0.0060600005 0.047806669 0.70700002
-0.0047133337 0.047806669 0.70700002
-0.0033714287 0.04787429 0.708
-0.0020228573 0.04787429 0.708
-0.00067904766 0.048212383 0.71300006
0.00067904766 0.048212383 0.71300006
0.0020371431 0.048212383 0.71300006
-0.031020002 0.048180003 0.69300002
-0.029614288 0.048040956 0.69100004
-0.028298097 0.048040956 0.69100004
-0.026981907 0.048040956 0.69100004
-0.025665715 0.048040956 0.69100004
-0.024420002 0.048180003 0.69300002
-0.023100002 0.048180003 0.69300002
-0.021780001 0.048180003 0.69300002
-0.020489525 0.048249528 0.69400001
-0.019167621 0.048249528 0.69400001
-0.017845716 0.048249528 0.69400001
-0.01654762 0.048319049 0.69500005
-0.01526762 0.048458099 0.69700003
-0.014000001 0.048666671 0.70000005
-0.012666668 0.048666671 0.70000005
-0.011349524 0.048736192 0.70100003
-0.010042857 0.048875242 0.70300001
-0.0087161912 0.048944764 0.70400006
-0.0073857149 0.049014289 0.70500004
-0.0060600005 0.049153335 0.70700002
-0.0047133337 0.049153335 0.70700002
-0.0033666668 0.049153335 0.70700002
-0.0020228573 0.04922286 0.708
-0.00067428575 0.04922286 0.708
0.00067428575 0.04922286 0.708
0.0020228573 0.04922286 0.708
-0.030930478 0.049357146 0.69100004
-0.029571431 0.049285717 0.69000006
-0.028257145 0.049285717 0.69000006
-0.026942858 0.049285717 0.69000006
-0.025665715 0.049357146 0.69100004
-0.024420002 0.049500003 0.69300002
-0.023100002 0.049500003 0.69300002
-0.021780001 0.049500003 0.69300002
-0.020460002 0.049500003 0.69300002
-0.019167621 0.049571432 0.69400001
-0.017845716 0.049571432 0.69400001
-0.01652381 0.049571432 0.69400001
-0.01522381 0.049642861 0.69500005
-0.013960001 0.049857147 0.69800001
-0.012630477 0.049857147 0.69800001
-0.011349524 0.050071433 0.70100003
-0.010042857 0.050214291 0.70300001
-0.0087161912 0.050285719 0.70400006
-0.0073857149 0.050357144 0.70500004
-0.0060600005 0.050500002 0.70700002
-0.0047133337 0.050500002 0.70700002
-0.0033666668 0.050500002 0.70700002
-0.0020200002 0.050500002 0.70700002
-0.00067428575 0.05057143 0.708
0.00067428575 0.05057143 0.708
0.0020314287 0.050785717 0.71100003
0.0033857145 0.050785717 0.71100003
-0.032200001 0.050600003 0.69000006
-0.030885717 0.050600003 0.69000006
-0.029571431 0.050600003 0.69000006
-0.028257145 0.050600003 0.69000006
-0.026942858 0.050600003 0.69000006
-0.025628572 0.050600003 0.69000006
-0.024349526 0.050673336 0.69100004
-0.023033334 0.050673336 0.69100004
-0.021717144 0.050673336 0.69100004
-0.020400954 0.050673336 0.69100004
-0.019140001 0.050820004 0.69300002
-0.017820001 0.050820004 0.69300002
-0.01652381 0.050893337 0.69400001
-0.01522381 0.050966669 0.69500005
-0.013940001 0.051113337 0.69700003
-0.012630477 0.05118667 0.69800001
-0.011333334 0.051333338 0.70000005
-0.010014286 0.05140667 0.70100003
-0.0087038102 0.051553335 0.70300001
-0.0073752385 0.051626671 0.70400006
-0.0060428577 0.051700003 0.70500004
-0.0047133337 0.051846672 0.70700002
-0.0033666668 0.051846672 0.70700002
-0.0020200002 0.051846672 0.70700002
-0.00067428575 0.051920004 0.708
0.00067428575 0.051920004 0.708
0.0020285717 0.052066669 0.71000004
0.0033809526 0.052066669 0.71000004
-0.032153334 0.05183905 0.68900001
-0.030840954 0.05183905 0.68900001
-0.029528573 0.05183905 0.68900001
-0.028216192 0.05183905 0.68900001
-0.026903812 0.05183905 0.68900001
-0.025628572 0.05191429 0.69000006
-0.024314288 0.05191429 0.69000006
-0.023033334 0.051989526 0.69100004
-0.021717144 0.051989526 0.69100004
-0.020400954 0.051989526 0.69100004
-0.019084763 0.051989526 0.69100004
-0.017768573 0.051989526 0.69100004
-0.016500002 0.052140005 0.69300002
-0.015201906 0.052215241 0.69400001
-0.013900001 0.052290481 0.69500005
-0.012612382 0.052440956 0.69700003
-0.011300953 0.052516192 0.69800001
-0.010000001 0.052666672 0.70000005
-0.0087038102 0.052892383 0.70300001
-0.0073752385 0.052967623 0.70400006
-0.0060428577 0.053042859 0.70500004
-0.0047000004 0.053042859 0.70500004
-0.0033666668 0.053193338 0.70700002
-0.0020200002 0.053193338 0.70700002
-0.00067333336 0.053193338 0.70700002
0.00067428575 0.053268574 0.708
0.0020228573 0.053268574 0.708
-0.032153334 0.053151432 0.68900001
-0.030840954 0.053151432 0.68900001
-0.02944286 0.052997146 0.68700004
-0.028216192 0.053151432 0.68900001
-0.026903812 0.053151432 0.68900001
-0.025591429 0.053151432 0.68900001
-0.024314288 0.053228576 0.69000006
-0.023000002 0.053228576 0.69000006
-0.021685716 0.053228576 0.69000006
-0.02037143 0.053228576 0.69000006
-0.019057143 0.053228576 0.69000006
-0.017768573 0.053305719 0.69100004
-0.016500002 0.053460002 0.69300002
-0.015180001 0.053460002 0.69300002
-0.013900001 0.053614289 0.69500005
-0.012612382 0.053768575 0.69700003
-0.011300953 0.053845719 0.69800001
-0.010000001 0.054000005 0.70000005
-0.0086790482 0.054077145 0.70100003
-0.0073647625 0.054231431 0.70300001
-0.0060342862 0.054308575 0.70400006
-0.0047000004 0.054385718 0.70500004
-0.0033571431 0.054385718 0.70500004
-0.0020200002 0.054540005 0.70700002
-0.00067333336 0.054540005 0.70700002
0.00067333336 0.054540005 0.70700002
0.0020200002 0.054540005 0.70700002
-0.032060001 0.054305717 0.68700004
-0.030751431 0.054305717 0.68700004
-0.02944286 0.054305717 0.68700004
-0.028134288 0.054305717 0.68700004
-0.026903812 0.054463815 0.68900001
-0.025591429 0.054463815 0.68900001
-0.024279049 0.054463815 0.68900001
-0.023000002 0.054542862 0.69000006
-0.021654287 0.054463815 0.68900001
-0.02037143 0.054542862 0.69000006
-0.019057143 0.054542862 0.69000006
-0.017768573 0.054621909 0.69100004
-0.016452381 0.054621909 0.69100004
-0.015136192 0.054621909 0.69100004
-0.01388 0.05485905 0.69400001
-0.012576192 0.0549381 0.69500005
-0.011300953 0.055175241 0.69800001
-0.010000001 0.055333339 0.70000005
-0.0086790482 0.055412386 0.70100003
-0.0073647625 0.055570479 0.70300001
-0.0060342862 0.055649526 0.70400006
-0.0047000004 0.055728573 0.70500004
-0.0033571431 0.055728573 0.70500004
-0.0020200002 0.055886671 0.70700002
-0.00067333336 0.055886671 0.70700002
0.00067333336 0.055886671 0.70700002
0.0020200002 0.055886671 0.70700002
-0.029528573 0.055776194 0.68900001
-0.028216192 0.055776194 0.68900001
-0.026903812 0.055776194 0.68900001
-0.025591429 0.055776194 0.68900001
-0.024314288 0.055857148 0.69000006
-0.023000002 0.055857148 0.69000006
-0.021654287 0.055776194 0.68900001
-0.020341907 0.055776194 0.68900001
-0.019057143 0.055857148 0.69000006
-0.017742859 0.055857148 0.69000006
-0.016428573 0.055857148 0.69000006
-0.015114287 0.055857148 0.69000006
-0.013860001 0.056100003 0.69300002
-0.012558096 0.056180958 0.69400001
-0.011284763 0.056423813 0.69700003
-0.0099714296 0.056504767 0.69800001
-0.0086790482 0.056747623 0.70100003
-0.0073647625 0.056909528 0.70300001
-0.0060257148 0.056909528 0.70300001
-0.0046933335 0.056990478 0.70400006
-0.0033571431 0.057071432 0.70500004
-0.0020200002 0.057233337 0.70700002
-0.00067333336 0.057233337 0.70700002
0.00067428575 0.057314288 0.708
0.0020200002 0.057233337 0.70700002
-0.025591429 0.057088576 0.68900001
-0.024279049 0.057088576 0.68900001
-0.022966668 0.057088576 0.68900001
-0.021654287 0.057088576 0.68900001
-0.020341907 0.057088576 0.68900001
-0.019029524 0.057088576 0.68900001
-0.017742859 0.057171434 0.69000006
-0.016428573 0.057171434 0.69000006
-0.015114287 0.057171434 0.69000006
-0.013860001 0.057420004 0.69300002
-0.012558096 0.057502862 0.69400001
-0.011252382 0.057585716 0.69500005
-0.0099714296 0.05783429 0.69800001
-0.0086790482 0.05808286 0.70100003
-0.0073647625 0.058248576 0.70300001
-0.0060257148 0.058248576 0.70300001
-0.0046933335 0.058331434 0.70400006
-0.0033571431 0.058414288 0.70500004
-0.0020142859 0.058414288 0.70500004
-0.00067333336 0.058580004 0.70700002
0.00067428575 0.058662862 0.708
0.0020200002 0.058580004 0.70700002
-0.062042862 0.054671433 0.64500004
-0.060814291 0.054671433 0.64500004
-0.058447622 0.054756194 0.64600003
-0.04042381 0.055349529 0.65300006
-0.039300002 0.055519052 0.65500003
-0.037936192 0.055349529 0.65300006
-0.024279049 0.058400955 0.68900001
-0.022966668 0.058400955 0.68900001
-0.021654287 0.058400955 0.68900001
-0.020341907 0.058400955 0.68900001
-0.019029524 0.058400955 0.68900001
-0.017742859 0.058485717 0.69000006
-0.016428573 0.058485717 0.69000006
-0.015136192 0.058570482 0.69100004
-0.013860001 0.058740005 0.69300002
-0.012558096 0.058824766 0.69400001
-0.011252382 0.058909528 0.69500005
-0.0099571431 0.059079051 0.69700003
-0.0086666672 0.059333336 0.70000005
-0.0073438101 0.059418101 0.70100003
-0.0060257148 0.059587624 0.70300001
-0.0046933335 0.059672385 0.70400006
-0.0033571431 0.059757147 0.70500004
-0.0020200002 0.05992667 0.70700002
-0.00067428575 0.060011432 0.708
0.00067428575 0.060011432 0.708
0.0020200002 0.05992667 0.70700002
-0.063173339 0.055813339 0.64400005
-0.062042862 0.055900004 0.64500004
-0.060814291 0.055900004 0.64500004
-0.058357146 0.055900004 0.64500004
-0.049680002 0.055813339 0.64400005
-0.048302859 0.055640005 0.64200002
-0.041667622 0.056593336 0.65300006
-0.04042381 0.056593336 0.65300006
-0.039180003 0.056593336 0.65300006
-0.037936192 0.056593336 0.65300006
-0.022966668 0.059713338 0.68900001
-0.021654287 0.059713338 0.68900001
-0.020341907 0.059713338 0.68900001
-0.019029524 0.059713338 0.68900001
-0.017742859 0.059800003 0.69000006
-0.016428573 0.059800003 0.69000006
-0.015136192 0.059886672 0.69100004
-0.013860001 0.060060006 0.69300002
-0.012558096 0.060146671 0.69400001
-0.011252382 0.060233336 0.69500005
-0.0099571431 0.06040667 0.69700003
-0.0086666672 0.060666669 0.70000005
-0.0073438101 0.060753338 0.70100003
-0.0060257148 0.060926672 0.70300001
-0.0046933335 0.061013337 0.70400006
-0.0033571431 0.061100002 0.70500004
-0.0020200002 0.061273336 0.70700002
-0.00067428575 0.061360005 0.708
0.00067428575 0.061360005 0.708
0.0020228573 0.061360005 0.708
-0.065728575 0.057128575 0.64500004
-0.064500004 0.057128575 0.64500004
-0.063271433 0.057128575 0.64500004
-0.062042862 0.057128575 0.64500004
-0.060814291 0.057128575 0.64500004
-0.059493337 0.057040002 0.64400005
-0.05826667 0.057040002 0.64400005
-0.056862861 0.056862861 0.64200002
-0.055813339 0.057040002 0.64400005
-0.054586671 0.057040002 0.64400005
-0.053360004 0.057040002 0.64400005
-0.051971432 0.056862861 0.64200002
-0.050748575 0.056862861 0.64200002
-0.049525719 0.056862861 0.64200002
-0.048302859 0.056862861 0.64200002
-0.047080003 0.056862861 0.64200002
-0.045857146 0.056862861 0.64200002
-0.042845719 0.057748575 0.65200001
-0.041603811 0.057748575 0.65200001
-0.040361907 0.057748575 0.65200001
-0.039120004 0.057748575 0.65200001
-0.037878096 0.057748575 0.65200001
-0.036692385 0.057837147 0.65300006
-0.021591431 0.060848575 0.68700004
-0.020341907 0.06102572 0.68900001
-0.019029524 0.06102572 0.68900001
-0.017742859 0.061114289 0.69000006
-0.016428573 0.061114289 0.69000006
-0.015136192 0.061202861 0.69100004
-0.013860001 0.061380003 0.69300002
-0.012558096 0.061468575 0.69400001
-0.011252382 0.061557148 0.69500005
-0.0099714296 0.061822861 0.69800001
-0.0086666672 0.062000003 0.70000005
-0.0073438101 0.062088575 0.70100003
-0.0060257148 0.06226572 0.70300001
-0.0046933335 0.062354289 0.70400006
-0.0033571431 0.062442861 0.70500004
-0.0020200002 0.062620007 0.70700002
-0.00067428575 0.062708579 0.708
0.00067619054 0.062885717 0.71000004
0.0020285717 0.062885717 0.71000004
0.0033809526 0.062885717 0.71000004
-0.065626673 0.05826667 0.64400005
-0.064400002 0.05826667 0.64400005
-0.063173339 0.05826667 0.64400005
-0.061946671 0.05826667 0.64400005
-0.060720004 0.05826667 0.64400005
-0.059493337 0.05826667 0.64400005
-0.058085717 0.058085717 0.64200002
-0.056862861 0.058085717 0.64200002
-0.055640005 0.058085717 0.64200002
-0.054417148 0.058085717 0.64200002
-0.053194288 0.058085717 0.64200002
-0.051971432 0.058085717 0.64200002
-0.050748575 0.058085717 0.64200002
-0.049525719 0.058085717 0.64200002
-0.048302859 0.058085717 0.64200002
-0.047080003 0.058085717 0.64200002
-0.045857146 0.058085717 0.64200002
-0.044773336 0.05826667 0.64400005
-0.043546669 0.05826667 0.64400005
-0.04271429 0.058809526 0.65000004
-0.041476194 0.058809526 0.65000004
-0.040300004 0.058900002 0.65100002
-0.039060004 0.058900002 0.65100002
-0.037878096 0.058990479 0.65200001
-0.036636192 0.058990479 0.65200001
-0.035394289 0.058990479 0.65200001
-0.019057143 0.062428575 0.69000006
-0.017742859 0.062428575 0.69000006
-0.016452381 0.062519051 0.69100004
-0.015180001 0.062700003 0.69300002
-0.01388 0.062790483 0.69400001
-0.012558096 0.062790483 0.69400001
-0.011252382 0.062880956 0.69500005
-0.0099714296 0.063152388 0.69800001
-0.0086790482 0.063423812 0.70100003
-0.0073647625 0.063604765 0.70300001
-0.0060342862 0.063695244 0.70400006
-0.0047000004 0.063785717 0.70500004
-0.0033666668 0.063966669 0.70700002
-0.0020228573 0.064057149 0.708
-0.00067619054 0.064238101 0.71000004
0.00067714287 0.064328574 0.71100003
0.0020371431 0.064509526 0.71300006
-0.065626673 0.059493337 0.64400005
-0.064400002 0.059493337 0.64400005
-0.063173339 0.059493337 0.64400005
-0.061658099 0.059216194 0.64100003
-0.060531434 0.059308574 0.64200002
-0.059308574 0.059308574 0.64200002
-0.058085717 0.059308574 0.64200002
-0.056774288 0.059216194 0.64100003
-0.055553336 0.059216194 0.64100003
-0.054332383 0.059216194 0.64100003
-0.05311143 0.059216194 0.64100003
-0.051809527 0.059123814 0.64000005
-0.050669529 0.059216194 0.64100003
-0.049371433 0.059123814 0.64000005
-0.048227623 0.059216194 0.64100003
-0.047080003 0.059308574 0.64200002
-0.045857146 0.059308574 0.64200002
-0.04463429 0.059308574 0.64200002
-0.04341143 0.059308574 0.64200002
-0.042582858 0.05986286 0.648
-0.041348573 0.05986286 0.648
-0.040114287 0.05986286 0.648
-0.039000001 0.060047623 0.65000004
-0.037820004 0.060140003 0.65100002
-0.036580004 0.060140003 0.65100002
-0.035340004 0.060140003 0.65100002
-0.019057143 0.063742861 0.69000006
-0.017768573 0.063835241 0.69100004
-0.016452381 0.063835241 0.69100004
-0.015180001 0.064020008 0.69300002
-0.01388 0.064112388 0.69400001
-0.012558096 0.064112388 0.69400001
-0.011252382 0.064204767 0.69500005
-0.0099714296 0.064481907 0.69800001
-0.0086790482 0.064759053 0.70100003
-0.0073647625 0.064943813 0.70300001
-0.0060342862 0.065036193 0.70400006
-0.0047000004 0.065128572 0.70500004
-0.0033666668 0.065313339 0.70700002
-0.0020228573 0.065405719 0.708
-0.00067619054 0.065590478 0.71000004
0.00067714287 0.065682858 0.71100003
0.0020371431 0.065867625 0.71300006
-0.065422863 0.060531434 0.64200002
-0.064100005 0.060437147 0.64100003
-0.062879048 0.060437147 0.64100003
-0.061658099 0.060437147 0.64100003
-0.060342859 0.060342859 0.64000005
-0.059123814 0.060342859 0.64000005
-0.057814289 0.060248576 0.63900006
-0.056597147 0.060248576 0.63900006
-0.055380005 0.060248576 0.63900006
-0.054247621 0.060342859 0.64000005
-0.053028576 0.060342859 0.64000005
-0.051728576 0.060248576 0.63900006
-0.050590478 0.060342859 0.64000005
-0.049371433 0.060342859 0.64000005
-0.048227623 0.060437147 0.64100003
-0.04700667 0.060437147 0.64100003
-0.045785718 0.060437147 0.64100003
-0.04463429 0.060531434 0.64200002
-0.04341143 0.060531434 0.64200002
-0.042320002 0.060720004 0.64400005
-0.041284766 0.061002862 0.64700001
-0.040052384 0.061002862 0.64700001
-0.039000001 0.061285719 0.65000004
-0.037761908 0.061285719 0.65000004
-0.036580004 0.061380003 0.65100002
-0.035340004 0.061380003 0.65100002
-0.017768573 0.065151431 0.69100004
-0.016452381 0.065151431 0.69100004
-0.015180001 0.065340005 0.69300002
-0.01388 0.065434292 0.69400001
-0.012576192 0.065528579 0.69500005
-0.011252382 0.065528579 0.69500005
-0.0099714296 0.065811433 0.69800001
-0.0086790482 0.066094287 0.70100003
-0.0073647625 0.066282861 0.70300001
-0.0060428577 0.066471435 0.70500004
-0.0047133337 0.066660002 0.70700002
-0.0033714287 0.066754289 0.708
-0.0020228573 0.066754289 0.708
-0.00067714287 0.06703715 0.71100003
0.00067904766 0.067225717 0.71300006
-0.065219052 0.061561909 0.64000005
-0.064100005 0.061658099 0.64100003
-0.062780954 0.061561909 0.64000005
-0.061465718 0.061465718 0.63900006
-0.060154289 0.061369527 0.63800001
-0.058939051 0.061369527 0.63800001
-0.057814289 0.061465718 0.63900006
-0.056508575 0.061369527 0.63800001
-0.055120002 0.061177146 0.63600004
-0.053908575 0.061177146 0.63600004
-0.05286286 0.061369527 0.63800001
-0.051728576 0.061465718 0.63900006
-0.050511431 0.061465718 0.63900006
-0.049294289 0.061465718 0.63900006
-0.048077147 0.061465718 0.63900006
-0.04700667 0.061658099 0.64100003
-0.045785718 0.061658099 0.64100003
-0.04463429 0.06175429 0.64200002
-0.04341143 0.06175429 0.64200002
-0.042320002 0.061946671 0.64400005
-0.041093335 0.061946671 0.64400005
-0.039928574 0.062042862 0.64500004
-0.038700003 0.062042862 0.64500004
-0.037761908 0.062523812 0.65000004
-0.036523812 0.062523812 0.65000004
-0.035340004 0.062620007 0.65100002
-0.031717144 0.062812388 0.65300006
-0.017820001 0.066660002 0.69300002
-0.016500002 0.066660002 0.69300002
-0.015201906 0.066756196 0.69400001
-0.013900001 0.066852383 0.69500005
-0.012612382 0.067044765 0.69700003
-0.011284763 0.067044765 0.69700003
-0.010000001 0.067333341 0.70000005
-0.0086790482 0.067429528 0.70100003
-0.0073647625 0.067621909 0.70300001
-0.0060428577 0.067814291 0.70500004
-0.0047133337 0.068006672 0.70700002
-0.0033714287 0.068102859 0.708
-0.0020285717 0.06829524 0.71000004
-0.065117151 0.06268286 0.63900006
-0.064100005 0.062879048 0.64100003
-0.06268286 0.06268286 0.63900006
-0.061465718 0.06268286 0.63900006
-0.060154289 0.062584765 0.63800001
-0.058939051 0.062584765 0.63800001
-0.057723813 0.062584765 0.63800001
-0.056331433 0.062388577 0.63600004
-0.055033337 0.062290478 0.63500005
-0.053823814 0.062290478 0.63500005
-0.052697148 0.062388577 0.63600004
-0.051647622 0.062584765 0.63800001
-0.050432384 0.062584765 0.63800001
-0.049217146 0.062584765 0.63800001
-0.048001908 0.062584765 0.63800001
-0.04700667 0.062879048 0.64100003
-0.045785718 0.062879048 0.64100003
-0.044564765 0.062879048 0.64100003
-0.04341143 0.06297715 0.64200002
-0.042320002 0.063173339 0.64400005
-0.041093335 0.063173339 0.64400005
-0.039866671 0.063173339 0.64400005
-0.038640004 0.063173339 0.64400005
-0.037761908 0.063761912 0.65000004
-0.036580004 0.063860007 0.65100002
-0.035340004 0.063860007 0.65100002
-0.034152385 0.063958101 0.65200001
-0.032910477 0.063958101 0.65200001
-0.031717144 0.064056195 0.65300006
-0.01652381 0.068078101 0.69400001
-0.015201906 0.068078101 0.69400001
-0.013940001 0.068372384 0.69700003
-0.012612382 0.068372384 0.69700003
-0.011300953 0.068470478 0.69800001
-0.010000001 0.068666674 0.70000005
-0.0086790482 0.068764769 0.70100003
-0.0073647625 0.068960957 0.70300001
-0.0060342862 0.069059052 0.70400006
-0.0046933335 0.069059052 0.70400006
-0.065117151 0.063900001 0.63900006
-0.063900001 0.063900001 0.63900006
-0.06268286 0.063900001 0.63900006
-0.061369527 0.063800007 0.63800001
-0.059965719 0.063600004 0.63600004
-0.058754291 0.063600004 0.63600004
-0.057452384 0.063500002 0.63500005
-0.056242861 0.063500002 0.63500005
-0.054946668 0.063400008 0.634
-0.053739052 0.063400008 0.634
-0.052531432 0.063400008 0.634
-0.051404767 0.063500002 0.63500005
-0.050195243 0.063500002 0.63500005
-0.048985716 0.063500002 0.63500005
-0.047776192 0.063500002 0.63500005
-0.04700667 0.064100005 0.64100003
-0.045785718 0.064100005 0.64100003
-0.044564765 0.064100005 0.64100003
-0.043343812 0.064100005 0.64100003
-0.042188574 0.064200006 0.64200002
-0.041093335 0.064400002 0.64400005
-0.039866671 0.064400002 0.64400005
-0.038700003 0.064500004 0.64500004
-0.037645716 0.064800002 0.648
-0.036523812 0.065000005 0.65000004
-0.035340004 0.065100007 0.65100002
-0.034100004 0.065100007 0.65100002
-0.032910477 0.065200001 0.65200001
-0.031717144 0.065300003 0.65300006
-0.030566668 0.065500006 0.65500003
-0.028371431 0.066200003 0.66200006
-0.01652381 0.069400005 0.69400001
-0.015201906 0.069400005 0.69400001
-0.013940001 0.069700003 0.69700003
-0.012612382 0.069700003 0.69700003
-0.011300953 0.069800004 0.69800001
-0.010000001 0.070000008 0.70000005
-0.0086790482 0.070100002 0.70100003
-0.0073647625 0.070300005 0.70300001
-0.0060342862 0.070400007 0.70400006
-0.0046933335 0.070400007 0.70400006
-0.061080955 0.064709529 0.63500005
-0.059777148 0.06460762 0.634
-0.058569528 0.06460762 0.634
-0.057361908 0.06460762 0.634
-0.056154288 0.06460762 0.634
-0.054860003 0.064505719 0.63300002
-0.053654291 0.064505719 0.63300002
-0.052531432 0.06460762 0.634
-0.051404767 0.064709529 0.63500005
-0.050195243 0.064709529 0.63500005
-0.048985716 0.064709529 0.63500005
-0.048001908 0.065015242 0.63800001
-0.046933338 0.065219052 0.64000005
-0.045714289 0.065219052 0.64000005
-0.044564765 0.065320954 0.64100003
-0.043343812 0.065320954 0.64100003
-0.042188574 0.065422863 0.64200002
-0.040965717 0.065422863 0.64200002
-0.039866671 0.065626673 0.64400005
-0.038640004 0.065626673 0.64400005
-0.037529524 0.065830484 0.64600003
-0.036411431 0.066034287 0.648
-0.035285715 0.066238098 0.65000004
-0.034100004 0.066340007 0.65100002
-0.032910477 0.066441908 0.65200001
-0.031717144 0.066543818 0.65300006
-0.030566668 0.066747621 0.65500003
-0.02931905 0.066747621 0.65500003
-0.028328573 0.067359053 0.66100001
-0.01654762 0.070823811 0.69500005
-0.01526762 0.071027622 0.69700003
-0.013960001 0.071129531 0.69800001
-0.012630477 0.071129531 0.69800001
-0.011300953 0.071129531 0.69800001
-0.010000001 0.071333341 0.70000005
-0.0086790482 0.071435243 0.70100003
-0.0073438101 0.071435243 0.70100003
-0.0060257148 0.071639054 0.70300001
-0.0046866671 0.071639054 0.70300001
-0.13742858 0.080971435 0.78000003
-0.059777148 0.06581524 0.634
-0.058477148 0.065711431 0.63300002
-0.057361908 0.06581524 0.634
-0.056154288 0.06581524 0.634
-0.054860003 0.065711431 0.63300002
-0.053654291 0.065711431 0.63300002
-0.052531432 0.06581524 0.634
-0.051404767 0.065919049 0.63500005
-0.050195243 0.065919049 0.63500005
-0.048985716 0.065919049 0.63500005
-0.047776192 0.065919049 0.63500005
-0.04678667 0.066230483 0.63800001
-0.045571432 0.066230483 0.63800001
-0.044425718 0.066334292 0.63900006
-0.043276194 0.066438101 0.64000005
-0.04212286 0.06654191 0.64100003
-0.040965717 0.066645719 0.64200002
-0.039742861 0.066645719 0.64200002
-0.038640004 0.066853337 0.64400005
-0.037471432 0.066957146 0.64500004
-0.03629905 0.067060955 0.64600003
-0.035068575 0.067060955 0.64600003
-0.034152385 0.067683816 0.65200001
-0.032910477 0.067683816 0.65200001
-0.031717144 0.067787625 0.65300006
-0.030566668 0.067995243 0.65500003
-0.02931905 0.067995243 0.65500003
-0.028200002 0.06830667 0.65800005
-0.01654762 0.072147623 0.69500005
-0.01526762 0.072355241 0.69700003
-0.014000001 0.072666675 0.70000005
-0.012666668 0.072666675 0.70000005
-0.011300953 0.07245905 0.69800001
-0.010000001 0.072666675 0.70000005
-0.0086666672 0.072666675 0.70000005
-0.0073438101 0.072770484 0.70100003
-0.0060085719 0.072770484 0.70100003
-0.059682861 0.066917144 0.63300002
-0.058477148 0.066917144 0.63300002
-0.057271432 0.066917144 0.63300002
-0.05606572 0.066917144 0.63300002
-0.054860003 0.066917144 0.63300002
-0.053654291 0.066917144 0.63300002
-0.052531432 0.06702286 0.634
-0.051404767 0.067128576 0.63500005
-0.050116193 0.06702286 0.634
-0.048985716 0.067128576 0.63500005
-0.047776192 0.067128576 0.63500005
-0.04678667 0.067445718 0.63800001
-0.045428574 0.067234293 0.63600004
-0.044217147 0.067234293 0.63600004
-0.043140955 0.067445718 0.63800001
-0.041991431 0.067551434 0.63900006
-0.04077429 0.067551434 0.63900006
-0.039742861 0.067868575 0.64200002
-0.038520001 0.067868575 0.64200002
-0.037297145 0.067868575 0.64200002
-0.036242861 0.068185717 0.64500004
-0.034100004 0.068820007 0.65100002
-0.032860003 0.068820007 0.65100002
-0.031668574 0.068925716 0.65200001
-0.030473335 0.069031432 0.65300006
-0.02931905 0.069242865 0.65500003
-0.027985716 0.069031432 0.65300006
-0.026741907 0.069031432 0.65300006
-0.025498098 0.069031432 0.65300006
-0.024254287 0.069031432 0.65300006
-0.016595239 0.07368286 0.69700003
-0.015289525 0.073788576 0.69800001
-0.014020001 0.074105717 0.70100003
-0.012666668 0.074000008 0.70000005
-0.011333334 0.074000008 0.70000005
-0.010000001 0.074000008 0.70000005
-0.0086666672 0.074000008 0.70000005
-0.0073333336 0.074000008 0.70000005
-0.0060000005 0.074000008 0.70000005
-0.059682861 0.068122864 0.63300002
-0.058477148 0.068122864 0.63300002
-0.057271432 0.068122864 0.63300002
-0.05606572 0.068122864 0.63300002
-0.054860003 0.068122864 0.63300002
-0.053654291 0.068122864 0.63300002
-0.052448574 0.068122864 0.63300002
-0.051242862 0.068122864 0.63300002
-0.050037146 0.068122864 0.63300002
-0.048908576 0.06823048 0.634
-0.047700956 0.06823048 0.634
-0.046493337 0.06823048 0.634
-0.045357145 0.068338096 0.63500005
-0.044078097 0.06823048 0.634
-0.042938098 0.068338096 0.63500005
-0.042057145 0.068876192 0.64000005
-0.040838096 0.068876192 0.64000005
-0.039742861 0.069091432 0.64200002
-0.038460001 0.068983816 0.64100003
-0.037297145 0.069091432 0.64200002
-0.036186669 0.069306672 0.64400005
-0.034960002 0.069306672 0.64400005
-0.033890478 0.069629528 0.64700001
-0.032658096 0.069629528 0.64700001
-0.031474289 0.069737144 0.648
-0.030333335 0.069952384 0.65000004
-0.029184764 0.070167623 0.65200001
-0.027942859 0.070167623 0.65200001
-0.026700955 0.070167623 0.65200001
-0.025459049 0.070167623 0.65200001
-0.024217144 0.070167623 0.65200001
-0.023010477 0.07027524 0.65300006
-0.016619049 0.075118102 0.69800001
-0.015333334 0.075333342 0.70000005
-0.014020001 0.075440958 0.70100003
-0.012666668 0.075333342 0.70000005
-0.011333334 0.075333342 0.70000005
-0.010000001 0.075333342 0.70000005
-0.0086666672 0.075333342 0.70000005
-0.0073019052 0.075010478 0.69700003
-0.067154288 0.068342865 0.62400001
-0.06596572 0.068342865 0.62400001
-0.054860003 0.069328576 0.63300002
-0.053654291 0.069328576 0.63300002
-0.052448574 0.069328576 0.63300002
-0.051161908 0.069219053 0.63200003
-0.050037146 0.069328576 0.63300002
-0.048831433 0.069328576 0.63300002
-0.047700956 0.0694381 0.634
-0.046493337 0.0694381 0.634
-0.045285717 0.0694381 0.634
-0.044078097 0.0694381 0.634
-0.043140955 0.069876194 0.63800001
-0.041991431 0.069985718 0.63900006
-0.04077429 0.069985718 0.63900006
-0.039619051 0.070095241 0.64000005
-0.038460001 0.070204765 0.64100003
-0.037180956 0.070095241 0.64000005
-0.036186669 0.070533335 0.64400005
-0.034960002 0.070533335 0.64400005
-0.033838097 0.070752382 0.64600003
-0.032607622 0.070752382 0.64600003
-0.031377144 0.070752382 0.64600003
-0.030240001 0.070971437 0.648
-0.029140001 0.071300007 0.65100002
-0.027900001 0.071300007 0.65100002
-0.026700955 0.071409531 0.65200001
-0.025459049 0.071409531 0.65200001
-0.024217144 0.071409531 0.65200001
-0.02297524 0.071409531 0.65200001
-0.021733334 0.071409531 0.65200001
-0.016619049 0.076447621 0.69800001
-0.015289525 0.076447621 0.69800001
-0.014020001 0.076776199 0.70100003
-0.012666668 0.076666668 0.70000005
-0.011333334 0.076666668 0.70000005
-0.010000001 0.076666668 0.70000005
-0.068452388 0.069642864 0.625
-0.067154288 0.069531433 0.62400001
-0.06596572 0.069531433 0.62400001
-0.064673334 0.069420002 0.62300003
-0.063486673 0.069420002 0.62300003
-0.053569525 0.070422865 0.63200003
-0.052365717 0.070422865 0.63200003
-0.051161908 0.070422865 0.63200003
-0.049958099 0.070422865 0.63200003
-0.048831433 0.070534289 0.63300002
-0.047625717 0.070534289 0.63300002
-0.046420004 0.070534289 0.63300002
-0.045285717 0.07064572 0.634
-0.044356193 0.071091436 0.63800001
-0.043140955 0.071091436 0.63800001
-0.041991431 0.071202859 0.63900006
-0.040838096 0.07131429 0.64000005
-0.039680954 0.071425721 0.64100003
-0.038400002 0.07131429 0.64000005
-0.037180956 0.07131429 0.64000005
-0.036074288 0.071537144 0.64200002
-0.034960002 0.071760006 0.64400005
-0.033838097 0.071982861 0.64600003
-0.032607622 0.071982861 0.64600003
-0.031377144 0.071982861 0.64600003
-0.030193334 0.072094291 0.64700001
-0.029005716 0.072205722 0.648
-0.027857145 0.072428577 0.65000004
-0.026660001 0.072540008 0.65100002
-0.025420001 0.072540008 0.65100002
-0.024180003 0.072540008 0.65100002
-0.02297524 0.072651431 0.65200001
-0.016666668 0.078000002 0.70000005
-0.015333334 0.078000002 0.70000005
-0.014020001 0.078111432 0.70100003
-0.012666668 0.078000002 0.70000005
-0.011300953 0.077777147 0.69800001
-0.068452388 0.07083334 0.625
-0.067154288 0.070720002 0.62400001
-0.06596572 0.070720002 0.62400001
-0.064673334 0.070606671 0.62300003
-0.063588575 0.070720002 0.62400001
-0.053484764 0.07151334 0.63100004
-0.052282862 0.07151334 0.63100004
-0.051080957 0.07151334 0.63100004
-0.049879052 0.07151334 0.63100004
-0.048831433 0.071740001 0.63300002
-0.047700956 0.07185334 0.634
-0.046420004 0.071740001 0.63300002
-0.045285717 0.07185334 0.634
-0.044356193 0.07230667 0.63800001
-0.043140955 0.07230667 0.63800001
-0.041991431 0.072420008 0.63900006
-0.040838096 0.072533339 0.64000005
-0.039680954 0.07264667 0.64100003
-0.038340002 0.072420008 0.63900006
-0.037180956 0.072533339 0.64000005
-0.036074288 0.072760008 0.64200002
-0.034960002 0.07298667 0.64400005
-0.033838097 0.073213339 0.64600003
-0.032658096 0.07332667 0.64700001
-0.031425714 0.07332667 0.64700001
-0.030240001 0.073440008 0.648
-0.02909524 0.073666669 0.65000004
-0.027857145 0.073666669 0.65000004
-0.026660001 0.073780008 0.65100002
-0.025420001 0.073780008 0.65100002
-0.024180003 0.073780008 0.65100002
-0.02297524 0.073893338 0.65200001
-0.016666668 0.079333335 0.70000005
-0.015333334 0.079333335 0.70000005
-0.014020001 0.079446673 0.70100003
-0.010671429 0.084660009 0.74700004
-0.065860003 0.07179334 0.62300003
-0.064569525 0.071678102 0.62200004
-0.063486673 0.07179334 0.62300003
-0.053230479 0.072369531 0.62800002
-0.052034289 0.072369531 0.62800002
-0.050838098 0.072369531 0.62800002
-0.049641907 0.072369531 0.62800002
-0.048831433 0.072945721 0.63300002
-0.047625717 0.072945721 0.63300002
-0.046420004 0.072945721 0.63300002
-0.045214288 0.072945721 0.63300002
-0.044356193 0.073521912 0.63800001
-0.043140955 0.073521912 0.63800001
-0.041991431 0.07363715 0.63900006
-0.04077429 0.07363715 0.63900006
-0.039495241 0.073521912 0.63800001
-0.038340002 0.07363715 0.63900006
-0.037180956 0.073752388 0.64000005
-0.036074288 0.073982865 0.64200002
-0.034960002 0.074213341 0.64400005
-0.033838097 0.074443817 0.64600003
-0.032607622 0.074443817 0.64600003
-0.031377144 0.074443817 0.64600003
-0.030193334 0.074559055 0.64700001
-0.029005716 0.074674293 0.648
-0.02777143 0.074674293 0.648
-0.026660001 0.075020008 0.65100002
-0.025420001 0.075020008 0.65100002
-0.024217144 0.075135246 0.65200001
-0.014860001 0.085621908 0.74300003
-0.013444763 0.085621908 0.74300003
-0.012061905 0.085852385 0.74500006
-0.064673334 0.072980002 0.62300003
-0.063486673 0.072980002 0.62300003
-0.057645719 0.073097147 0.62400001
-0.056547623 0.073214293 0.625
-0.055357147 0.073214293 0.625
-0.054253336 0.073331431 0.62600005
-0.053145718 0.073448576 0.62700003
-0.051951431 0.073448576 0.62700003
-0.050757147 0.073448576 0.62700003
-0.04956286 0.073448576 0.62700003
-0.048831433 0.074151434 0.63300002
-0.047625717 0.074151434 0.63300002
-0.046420004 0.074151434 0.63300002
-0.045214288 0.074151434 0.63300002
-0.044078097 0.074268579 0.634
-0.043140955 0.074737146 0.63800001
-0.041991431 0.074854292 0.63900006
-0.04077429 0.074854292 0.63900006
-0.039495241 0.074737146 0.63800001
-0.038280003 0.074737146 0.63800001
-0.037180956 0.07497143 0.64000005
-0.036074288 0.075205721 0.64200002
-0.034960002 0.075440004 0.64400005
-0.033838097 0.075674288 0.64600003
-0.032658096 0.075791433 0.64700001
-0.031425714 0.075791433 0.64700001
-0.030193334 0.075791433 0.64700001
-0.029005716 0.075908579 0.648
-0.027857145 0.076142862 0.65000004
-0.026660001 0.076260008 0.65100002
-0.025420001 0.076260008 0.65100002
-0.014860001 0.087037146 0.74300003
-0.013444763 0.087037146 0.74300003
-0.063588575 0.074285716 0.62400001
-0.062400006 0.074285716 0.62400001
-0.061211433 0.074285716 0.62400001
-0.058928575 0.074404769 0.625
-0.057738099 0.074404769 0.625
-0.056547623 0.074404769 0.625
-0.055357147 0.074404769 0.625
-0.054253336 0.074523814 0.62600005
-0.053060956 0.074523814 0.62600005
-0.051868577 0.074523814 0.62600005
-0.050757147 0.074642859 0.62700003
-0.049720954 0.074880958 0.62900001
-0.04875429 0.075238101 0.63200003
-0.047625717 0.075357147 0.63300002
-0.046493337 0.075476192 0.634
-0.045285717 0.075476192 0.634
-0.044147622 0.075595245 0.63500005
-0.042938098 0.075595245 0.63500005
-0.041925717 0.075952388 0.63800001
-0.040710479 0.075952388 0.63800001
-0.039371431 0.07571429 0.63600004
-0.038280003 0.075952388 0.63800001
-0.037180956 0.076190479 0.64000005
-0.036074288 0.076428577 0.64200002
-0.034960002 0.076666668 0.64400005
-0.033838097 0.076904766 0.64600003
-0.032607622 0.076904766 0.64600003
-0.031377144 0.076904766 0.64600003
-0.030193334 0.077023812 0.64700001
-0.029005716 0.077142864 0.648
-0.02777143 0.077142864 0.648
-0.063588575 0.075474292 0.62400001
-0.062400006 0.075474292 0.62400001
-0.061309528 0.075595245 0.625
-0.060119051 0.075595245 0.625
-0.058928575 0.075595245 0.625
-0.057738099 0.075595245 0.625
-0.056547623 0.075595245 0.625
-0.05544572 0.075716197 0.62600005
-0.054166671 0.075595245 0.625
-0.052976195 0.075595245 0.625
-0.051868577 0.075716197 0.62600005
-0.050757147 0.07583715 0.62700003
-0.049720954 0.076079056 0.62900001
-0.04875429 0.076441906 0.63200003
-0.047550481 0.076441906 0.63200003
-0.046420004 0.076562859 0.63300002
-0.045285717 0.076683812 0.634
-0.044147622 0.076804765 0.63500005
-0.042870481 0.076683812 0.634
-0.041925717 0.077167623 0.63800001
-0.040519051 0.076804765 0.63500005
-0.039371431 0.076925717 0.63600004
-0.038280003 0.077167623 0.63800001
-0.037122861 0.077288575 0.63900006
-0.036018096 0.077530481 0.64100003
-0.034851432 0.077651434 0.64200002
-0.033785716 0.078014292 0.64500004
-0.032607622 0.078135245 0.64600003
-0.031377144 0.078135245 0.64600003
-0.030193334 0.078256197 0.64700001
-0.029005716 0.07837715 0.648
-0.02777143 0.07837715 0.648
-0.064673334 0.076540008 0.62300003
-0.063486673 0.076540008 0.62300003
-0.062300004 0.076540008 0.62300003
-0.061211433 0.076662861 0.62400001
-0.060119051 0.076785721 0.625
-0.058834288 0.076662861 0.62400001
-0.057738099 0.076785721 0.625
-0.056547623 0.076785721 0.625
-0.055357147 0.076785721 0.625
-0.054166671 0.076785721 0.625
-0.052976195 0.076785721 0.625
-0.051785719 0.076785721 0.625
-0.050757147 0.077031434 0.62700003
-0.049720954 0.077277146 0.62900001
-0.048677146 0.077522859 0.63100004
-0.047475241 0.077522859 0.63100004
-0.046420004 0.077768579 0.63300002
-0.045285717 0.077891432 0.634
-0.044078097 0.077891432 0.634
-0.042870481 0.077891432 0.634
-0.041728575 0.078014292 0.63500005
-0.040519051 0.078014292 0.63500005
-0.039309528 0.078014292 0.63500005
-0.038280003 0.078382865 0.63800001
-0.037122861 0.078505717 0.63900006
-0.035961907 0.078628577 0.64000005
-0.034851432 0.07887429 0.64200002
-0.033733334 0.079120003 0.64400005
-0.032557145 0.079242863 0.64500004
-0.031377144 0.079365723 0.64600003
-0.030193334 0.079488575 0.64700001
-0.064673334 0.07772667 0.62300003
-0.063486673 0.07772667 0.62300003
-0.062300004 0.07772667 0.62300003
-0.061113339 0.07772667 0.62300003
-0.060119051 0.077976197 0.625
-0.058834288 0.077851437 0.62400001
-0.057738099 0.077976197 0.625
-0.056638099 0.078100957 0.62600005
-0.055357147 0.077976197 0.625
-0.054166671 0.077976197 0.625
-0.052976195 0.077976197 0.625
-0.051868577 0.078100957 0.62600005
-0.050757147 0.078225717 0.62700003
-0.04956286 0.078225717 0.62700003
-0.04875429 0.078849532 0.63200003
-0.047625717 0.078974292 0.63300002
-0.046493337 0.079099052 0.634
-0.045285717 0.079099052 0.634
-0.044078097 0.079099052 0.634
-0.042870481 0.079099052 0.634
-0.041662861 0.079099052 0.634
-0.040455241 0.079099052 0.634
-0.039309528 0.079223812 0.63500005
-0.038280003 0.079598099 0.63800001
-0.037122861 0.079722859 0.63900006
-0.036018096 0.079972386 0.64100003
-0.034851432 0.080097146 0.64200002
-0.033733334 0.080346674 0.64400005
-0.032557145 0.080471434 0.64500004
-0.031328574 0.080471434 0.64500004
-0.030146668 0.080596194 0.64600003
-0.018822858 0.091325723 0.73200005
-0.017476192 0.091575243 0.73400003
-0.064673334 0.078913338 0.62300003
-0.063486673 0.078913338 0.62300003
-0.062200002 0.078786671 0.62200004
-0.061113339 0.078913338 0.62300003
-0.060022861 0.079040006 0.62400001
-0.058834288 0.079040006 0.62400001
-0.057738099 0.079166673 0.625
-0.056547623 0.079166673 0.625
-0.055357147 0.079166673 0.625
-0.054166671 0.079166673 0.625
-0.052976195 0.079166673 0.625
-0.051785719 0.079166673 0.625
-0.050676193 0.07929334 0.62600005
-0.049483813 0.07929334 0.62600005
-0.048831433 0.080180004 0.63300002
-0.047625717 0.080180004 0.63300002
-0.046493337 0.080306672 0.634
-0.045285717 0.080306672 0.634
-0.044078097 0.080306672 0.634
-0.042870481 0.080306672 0.634
-0.041662861 0.080306672 0.634
-0.040455241 0.080306672 0.634
-0.039371431 0.080560006 0.63600004
-0.038160004 0.080560006 0.63600004
-0.037122861 0.080940008 0.63900006
-0.036018096 0.081193335 0.64100003
-0.034851432 0.081320003 0.64200002
-0.033733334 0.081573337 0.64400005
-0.032506667 0.081573337 0.64400005
-0.031328574 0.081700005 0.64500004
-0.030146668 0.081826672 0.64600003
-0.020217145 0.092720009 0.73200005
-0.018822858 0.092720009 0.73200005
-0.064569525 0.079971433 0.62200004
-0.063384764 0.079971433 0.62200004
-0.062200002 0.079971433 0.62200004
-0.061015241 0.079971433 0.62200004
-0.059830479 0.079971433 0.62200004
-0.058834288 0.080228575 0.62400001
-0.057645719 0.080228575 0.62400001
-0.056547623 0.080357149 0.625
-0.055268575 0.080228575 0.62400001
-0.054080002 0.080228575 0.62400001
-0.052976195 0.080357149 0.625
-0.051785719 0.080357149 0.625
-0.050838098 0.080742866 0.62800002
-0.049879052 0.081128575 0.63100004
-0.04875429 0.08125715 0.63200003
-0.047475241 0.081128575 0.63100004
-0.046420004 0.081385717 0.63300002
-0.045214288 0.081385717 0.63300002
-0.044008575 0.081385717 0.63300002
-0.042802859 0.081385717 0.63300002
-0.041662861 0.081514291 0.634
-0.040455241 0.081514291 0.634
-0.039371431 0.081771433 0.63600004
-0.038160004 0.081771433 0.63600004
-0.037064765 0.082028575 0.63800001
-0.035961907 0.082285717 0.64000005
-0.034851432 0.082542859 0.64200002
-0.033628572 0.082542859 0.64200002
-0.032506667 0.082800008 0.64400005
-0.031280003 0.082800008 0.64400005
-0.068974294 0.080764771 0.61900002
-0.067795239 0.080764771 0.61900002
-0.066723816 0.080895245 0.62
-0.065542862 0.080895245 0.62
-0.064361908 0.080895245 0.62
-0.063180953 0.080895245 0.62
-0.062000003 0.080895245 0.62
-0.061015241 0.081156194 0.62200004
-0.059638098 0.080895245 0.62
-0.058457147 0.080895245 0.62
-0.057645719 0.081417151 0.62400001
-0.056457147 0.081417151 0.62400001
-0.055268575 0.081417151 0.62400001
-0.054166671 0.081547625 0.625
-0.052976195 0.081547625 0.625
-0.052117147 0.082069531 0.62900001
-0.050919052 0.082069531 0.62900001
-0.049879052 0.08233048 0.63100004
-0.04875429 0.082460955 0.63200003
-0.047625717 0.082591437 0.63300002
-0.046420004 0.082591437 0.63300002
-0.045214288 0.082591437 0.63300002
-0.044008575 0.082591437 0.63300002
-0.042802859 0.082591437 0.63300002
-0.041597147 0.082591437 0.63300002
-0.04039143 0.082591437 0.63300002
-0.039371431 0.082982861 0.63600004
-0.038280003 0.083243817 0.63800001
-0.037122861 0.083374292 0.63900006
-0.036018096 0.083635241 0.64100003
-0.034851432 0.083765723 0.64200002
-0.033628572 0.083765723 0.64200002
-0.032506667 0.084026672 0.64400005
-0.031280003 0.084026672 0.64400005
-0.070153341 0.081943817 0.61900002
-0.069085717 0.082076199 0.62
-0.067904763 0.082076199 0.62
-0.066723816 0.082076199 0.62
-0.065542862 0.082076199 0.62
-0.064361908 0.082076199 0.62
-0.063180953 0.082076199 0.62
-0.062000003 0.082076199 0.62
-0.060819052 0.082076199 0.62
-0.059638098 0.082076199 0.62
-0.058457147 0.082076199 0.62
-0.057553336 0.082473338 0.62300003
-0.056366671 0.082473338 0.62300003
-0.055180002 0.082473338 0.62300003
-0.054080002 0.08260572 0.62400001
-0.053315241 0.083267622 0.62900001
-0.052117147 0.083267622 0.62900001
-0.050919052 0.083267622 0.62900001
-0.049720954 0.083267622 0.62900001
-0.048677146 0.083532386 0.63100004
-0.047475241 0.083532386 0.63100004
-0.046273336 0.083532386 0.63100004
-0.045071431 0.083532386 0.63100004
-0.043869525 0.083532386 0.63100004
-0.042532384 0.083267622 0.62900001
-0.041531432 0.083664767 0.63200003
-0.040327623 0.083664767 0.63200003
-0.039371431 0.084194288 0.63600004
-0.038280003 0.084459051 0.63800001
-0.037122861 0.084591433 0.63900006
-0.036018096 0.084856197 0.64100003
-0.034851432 0.084988579 0.64200002
-0.033628572 0.084988579 0.64200002
-0.070266671 0.083257146 0.62
-0.069085717 0.083257146 0.62
-0.067904763 0.083257146 0.62
-0.066723816 0.083257146 0.62
-0.065542862 0.083257146 0.62
-0.064361908 0.083257146 0.62
-0.063180953 0.083257146 0.62
-0.062000003 0.083257146 0.62
-0.060819052 0.083257146 0.62
-0.059638098 0.083257146 0.62
-0.058457147 0.083257146 0.62
-0.057460956 0.083525717 0.62200004
-0.056366671 0.083660007 0.62300003
-0.055091433 0.083525717 0.62200004
-0.053906672 0.083525717 0.62200004
-0.053230479 0.08433143 0.62800002
-0.052034289 0.08433143 0.62800002
-0.050838098 0.08433143 0.62800002
-0.049720954 0.08446572 0.62900001
-0.04852286 0.08446572 0.62900001
-0.047475241 0.084734291 0.63100004
-0.046126671 0.08446572 0.62900001
-0.044928573 0.08446572 0.62900001
-0.043730479 0.08446572 0.62900001
-0.042532384 0.08446572 0.62900001
-0.04133429 0.08446572 0.62900001
-0.038340002 0.085808575 0.63900006
-0.037239049 0.086077146 0.64100003
-0.036074288 0.086211435 0.64200002
-0.034960002 0.086480007 0.64400005
-0.033733334 0.086480007 0.64400005
-0.070266671 0.0844381 0.62
-0.069085717 0.0844381 0.62
-0.067904763 0.0844381 0.62
-0.066723816 0.0844381 0.62
-0.065437146 0.084301911 0.61900002
-0.064258099 0.084301911 0.61900002
-0.063079052 0.084301911 0.61900002
-0.062000003 0.0844381 0.62
-0.060819052 0.0844381 0.62
-0.059638098 0.0844381 0.62
-0.058645718 0.084710479 0.62200004
-0.057553336 0.084846675 0.62300003
-0.056457147 0.084982865 0.62400001
-0.055268575 0.084982865 0.62400001
-0.054166671 0.085119054 0.625
-0.053060956 0.085255243 0.62600005
-0.051868577 0.085255243 0.62600005
-0.050919052 0.085663818 0.62900001
-0.049720954 0.085663818 0.62900001
