# .PCD v0.7 - Point Cloud Data file format
VERSION 0.7
FIELDS x y z
SIZE 4 4 4
TYPE F F F
COUNT 1 1 1
WIDTH 1337
HEIGHT 1
VIEWPOINT 0 0 0 1 0 0 0
POINTS 1337
DATA ascii
-0.091419056 -0.12924762 0.66200006
-0.090158097 -0.12924762 0.66200006
-0.088762864 -0.12905239 0.66100001
-0.087106675 -0.12846668 0.65800005
-0.085853338 -0.12846668 0.65800005
-0.084471434 -0.12827143 0.65700001
-0.083220005 -0.12827143 0.65700001
-0.081968576 -0.12827143 0.65700001
-0.080594294 -0.1280762 0.65600002
-0.079344764 -0.1280762 0.65600002
-0.078095242 -0.1280762 0.65600002
-0.076728575 -0.12788096 0.65500003
-0.07548096 -0.12788096 0.65500003
-0.074233338 -0.12788096 0.65500003
-0.072762862 -0.12749049 0.65300006
-0.071738102 -0.12788096 0.65500003
-0.07027524 -0.12749049 0.65300006
-0.069242865 -0.12788096 0.65500003
-0.068099052 -0.1280762 0.65600002
-0.06684953 -0.1280762 0.65600002
-0.065700002 -0.12827143 0.65700001
-0.064546674 -0.12846668 0.65800005
-0.063293338 -0.12846668 0.65800005
-0.062040005 -0.12846668 0.65800005
-0.060971431 -0.12885715 0.66000003
-0.059804767 -0.12905239 0.66100001
-0.05854572 -0.12905239 0.66100001
-0.057373337 -0.12924762 0.66200006
-0.056197148 -0.12944287 0.66300005
-0.054934289 -0.12944287 0.66300005
-0.05391429 -0.13002858 0.66600001
-0.052724764 -0.13022381 0.66700006
-0.051454291 -0.13022381 0.66700006
-0.050183814 -0.13022381 0.66700006
-0.098757148 -0.12934001 0.66900003
-0.097191438 -0.12895334 0.66700006
-0.095920958 -0.12895334 0.66700006
-0.094082862 -0.12818001 0.66300005
-0.092820004 -0.12818001 0.66300005
-0.091557153 -0.12818001 0.66300005
-0.090158097 -0.12798667 0.66200006
-0.088762864 -0.12779334 0.66100001
-0.087371431 -0.12760001 0.66000003
-0.085853338 -0.12721334 0.65800005
-0.084600009 -0.12721334 0.65800005
-0.083220005 -0.12702 0.65700001
-0.081968576 -0.12702 0.65700001
-0.080717146 -0.12702 0.65700001
-0.079344764 -0.12682667 0.65600002
-0.078095242 -0.12682667 0.65600002
-0.076728575 -0.12663335 0.65500003
-0.07548096 -0.12663335 0.65500003
-0.074233338 -0.12663335 0.65500003
-0.072762862 -0.12624668 0.65300006
-0.071738102 -0.12663335 0.65500003
-0.070490479 -0.12663335 0.65500003
-0.069348574 -0.12682667 0.65600002
-0.068202861 -0.12702 0.65700001
-0.066951431 -0.12702 0.65700001
-0.065700002 -0.12702 0.65700001
-0.064546674 -0.12721334 0.65800005
-0.063293338 -0.12721334 0.65800005
-0.062040005 -0.12721334 0.65800005
-0.060971431 -0.12760001 0.66000003
-0.059804767 -0.12779334 0.66100001
-0.058634289 -0.12798667 0.66200006
-0.057373337 -0.12798667 0.66200006
-0.056197148 -0.12818001 0.66300005
-0.054934289 -0.12818001 0.66300005
-0.05399524 -0.12895334 0.66700006
-0.052724764 -0.12895334 0.66700006
-0.051608574 -0.12934001 0.66900003
-0.050183814 -0.12895334 0.66700006
-0.048913337 -0.12895334 0.66700006
-0.097191438 -0.12768286 0.66700006
-0.095777147 -0.12749144 0.66600001
-0.09436667 -0.12730001 0.66500002
-0.092820004 -0.12691715 0.66300005
-0.091557153 -0.12691715 0.66300005
-0.090158097 -0.12672572 0.66200006
-0.088897146 -0.12672572 0.66200006
-0.087503813 -0.1265343 0.66100001
-0.086114295 -0.12634286 0.66000003
-0.084600009 -0.12596001 0.65800005
-0.083346672 -0.12596001 0.65800005
-0.082093336 -0.12596001 0.65800005
-0.080717146 -0.12576859 0.65700001
-0.079465717 -0.12576859 0.65700001
-0.078095242 -0.12557715 0.65600002
-0.07684572 -0.12557715 0.65600002
-0.075596198 -0.12557715 0.65600002
-0.074346669 -0.12557715 0.65600002
-0.072985716 -0.12538572 0.65500003
-0.071847625 -0.12557715 0.65600002
-0.070598103 -0.12557715 0.65600002
-0.06945429 -0.12576859 0.65700001
-0.068202861 -0.12576859 0.65700001
-0.066951431 -0.12576859 0.65700001
-0.065700002 -0.12576859 0.65700001
-0.064546674 -0.12596001 0.65800005
-0.063293338 -0.12596001 0.65800005
-0.062228575 -0.12634286 0.66000003
-0.060971431 -0.12634286 0.66000003
-0.059804767 -0.1265343 0.66100001
-0.058634289 -0.12672572 0.66200006
-0.057373337 -0.12672572 0.66200006
-0.056112386 -0.12672572 0.66200006
-0.055100005 -0.12730001 0.66500002
-0.05391429 -0.12749144 0.66600001
-0.052882861 -0.12806572 0.66900003
-0.051685717 -0.12825716 0.67000002
-0.05033429 -0.12806572 0.66900003
-0.095777147 -0.12622286 0.66600001
-0.09436667 -0.12603334 0.66500002
-0.092820004 -0.1256543 0.66300005
-0.091557153 -0.1256543 0.66300005
-0.090294294 -0.1256543 0.66300005
-0.088897146 -0.12546477 0.66200006
-0.087636195 -0.12546477 0.66200006
-0.086114295 -0.12508573 0.66000003
-0.084857151 -0.12508573 0.66000003
-0.083600007 -0.12508573 0.66000003
-0.082093336 -0.12470668 0.65800005
-0.080717146 -0.12451715 0.65700001
-0.079465717 -0.12451715 0.65700001
-0.078214288 -0.12451715 0.65700001
-0.07684572 -0.12432763 0.65600002
-0.075596198 -0.12432763 0.65600002
-0.074460007 -0.12451715 0.65700001
-0.073097147 -0.12432763 0.65600002
-0.071847625 -0.12432763 0.65600002
-0.070598103 -0.12432763 0.65600002
-0.06945429 -0.12451715 0.65700001
-0.068202861 -0.12451715 0.65700001
-0.066951431 -0.12451715 0.65700001
-0.065800004 -0.12470668 0.65800005
-0.064546674 -0.12470668 0.65800005
-0.063293338 -0.12470668 0.65800005
-0.062228575 -0.12508573 0.66000003
-0.061063815 -0.12527524 0.66100001
-0.059804767 -0.12527524 0.66100001
-0.058634289 -0.12546477 0.66200006
-0.057373337 -0.12546477 0.66200006
-0.056197148 -0.1256543 0.66300005
-0.054934289 -0.1256543 0.66300005
-0.054157145 -0.12679143 0.66900003
-0.052961908 -0.12698096 0.67000002
-0.051685717 -0.12698096 0.67000002
-0.050484765 -0.12717049 0.671
-0.09748286 -0.12551714 0.66900003
-0.095777147 -0.12495429 0.66600001
-0.09436667 -0.12476668 0.66500002
-0.093100004 -0.12476668 0.66500002
-0.091557153 -0.12439144 0.66300005
-0.090294294 -0.12439144 0.66300005
-0.088897146 -0.12420382 0.66200006
-0.087636195 -0.12420382 0.66200006
-0.086244769 -0.1240162 0.66100001
-0.084985718 -0.1240162 0.66100001
-0.083600007 -0.12382858 0.66000003
-0.082093336 -0.12345334 0.65800005
-0.080840006 -0.12345334 0.65800005
-0.079465717 -0.12326572 0.65700001
-0.078214288 -0.12326572 0.65700001
-0.076962866 -0.12326572 0.65700001
-0.075711437 -0.12326572 0.65700001
-0.074460007 -0.12326572 0.65700001
-0.073208578 -0.12326572 0.65700001
-0.071957149 -0.12326572 0.65700001
-0.070705719 -0.12326572 0.65700001
-0.06945429 -0.12326572 0.65700001
-0.06830667 -0.12345334 0.65800005
-0.06705334 -0.12345334 0.65800005
-0.065800004 -0.12345334 0.65800005
-0.064742863 -0.12382858 0.66000003
-0.063485719 -0.12382858 0.66000003
-0.062228575 -0.12382858 0.66000003
-0.061063815 -0.1240162 0.66100001
-0.059804767 -0.1240162 0.66100001
-0.058634289 -0.12420382 0.66200006
-0.057373337 -0.12420382 0.66200006
-0.056112386 -0.12420382 0.66200006
-0.054934289 -0.12439144 0.66300005
-0.05391429 -0.12495429 0.66600001
-0.053040955 -0.12589239 0.671
-0.05176286 -0.12589239 0.671
-0.050560005 -0.12608001 0.67200005
-0.09748286 -0.12424286 0.66900003
-0.095920958 -0.12387144 0.66700006
-0.094650485 -0.12387144 0.66700006
-0.093100004 -0.1235 0.66500002
-0.091833338 -0.1235 0.66500002
-0.090294294 -0.12312858 0.66300005
-0.089031436 -0.12312858 0.66300005
-0.087636195 -0.12294286 0.66200006
-0.086375244 -0.12294286 0.66200006
-0.084985718 -0.12275715 0.66100001
-0.083600007 -0.12257144 0.66000003
-0.082093336 -0.1222 0.65800005
-0.080840006 -0.1222 0.65800005
-0.079465717 -0.12201429 0.65700001
-0.078214288 -0.12201429 0.65700001
-0.076962866 -0.12201429 0.65700001
-0.075826675 -0.1222 0.65800005
-0.074573338 -0.1222 0.65800005
-0.073320001 -0.1222 0.65800005
-0.072066672 -0.1222 0.65800005
-0.070813335 -0.1222 0.65800005
-0.06945429 -0.12201429 0.65700001
-0.06830667 -0.1222 0.65800005
-0.06705334 -0.1222 0.65800005
-0.066000007 -0.12257144 0.66000003
-0.064742863 -0.12257144 0.66000003
-0.063581906 -0.12275715 0.66100001
-0.062322862 -0.12275715 0.66100001
-0.061063815 -0.12275715 0.66100001
-0.059895243 -0.12294286 0.66200006
-0.058634289 -0.12294286 0.66200006
-0.057373337 -0.12294286 0.66200006
-0.056197148 -0.12312858 0.66300005
-0.055182859 -0.12368573 0.66600001
-0.054157145 -0.12424286 0.66900003
-0.053040955 -0.12461429 0.671
-0.05176286 -0.12461429 0.671
-0.050560005 -0.12480001 0.67200005
-0.09620858 -0.12296858 0.66900003
-0.094934292 -0.12296858 0.66900003
-0.093240008 -0.12241715 0.66600001
-0.091833338 -0.12223334 0.66500002
-0.090294294 -0.12186572 0.66300005
-0.089031436 -0.12186572 0.66300005
-0.087768577 -0.12186572 0.66300005
-0.086375244 -0.12168191 0.66200006
-0.084985718 -0.1214981 0.66100001
-0.083726674 -0.1214981 0.66100001
-0.082342863 -0.12131429 0.66000003
-0.080840006 -0.12094668 0.65800005
-0.079465717 -0.12076286 0.65700001
-0.078214288 -0.12076286 0.65700001
-0.077080004 -0.12094668 0.65800005
-0.075826675 -0.12094668 0.65800005
-0.074573338 -0.12094668 0.65800005
-0.073320001 -0.12094668 0.65800005
-0.072066672 -0.12094668 0.65800005
-0.070813335 -0.12094668 0.65800005
-0.069560006 -0.12094668 0.65800005
-0.06830667 -0.12094668 0.65800005
-0.06705334 -0.12094668 0.65800005
-0.066000007 -0.12131429 0.66000003
-0.064840958 -0.1214981 0.66100001
-0.063581906 -0.1214981 0.66100001
-0.062417146 -0.12168191 0.66200006
-0.061156195 -0.12168191 0.66200006
-0.059895243 -0.12168191 0.66200006
-0.058722861 -0.12186572 0.66300005
-0.057460003 -0.12186572 0.66300005
-0.056366671 -0.12223334 0.66500002
-0.055265717 -0.12260096 0.66700006
-0.0542381 -0.12315239 0.67000002
-0.053040955 -0.1233362 0.671
-0.051840004 -0.12352001 0.67200005
-0.050710481 -0.12388763 0.67400002
-0.09748286 -0.1216943 0.66900003
-0.09620858 -0.1216943 0.66900003
-0.094934292 -0.1216943 0.66900003
-0.093380004 -0.12133048 0.66700006
-0.091971435 -0.12114858 0.66600001
-0.090566672 -0.12096667 0.66500002
-0.089031436 -0.12060287 0.66300005
-0.087768577 -0.12060287 0.66300005
-0.086375244 -0.12042096 0.66200006
-0.085114293 -0.12042096 0.66200006
-0.083726674 -0.12023906 0.66100001
-0.082342863 -0.12005715 0.66000003
-0.081085719 -0.12005715 0.66000003
-0.07958667 -0.11969334 0.65800005
-0.078333341 -0.11969334 0.65800005
-0.077314287 -0.12005715 0.66000003
-0.075826675 -0.11969334 0.65800005
-0.074573338 -0.11969334 0.65800005
-0.073320001 -0.11969334 0.65800005
-0.072066672 -0.11969334 0.65800005
-0.070813335 -0.11969334 0.65800005
-0.069560006 -0.11969334 0.65800005
-0.06830667 -0.11969334 0.65800005
-0.067257144 -0.12005715 0.66000003
-0.066000007 -0.12005715 0.66000003
-0.064840958 -0.12023906 0.66100001
-0.063581906 -0.12023906 0.66100001
-0.062417146 -0.12042096 0.66200006
-0.061156195 -0.12042096 0.66200006
-0.059895243 -0.12042096 0.66200006
-0.058722861 -0.12060287 0.66300005
-0.057460003 -0.12060287 0.66300005
-0.056366671 -0.12096667 0.66500002
-0.055265717 -0.12133048 0.66700006
-0.0542381 -0.1218762 0.67000002
-0.053040955 -0.1220581 0.671
-0.051840004 -0.12224001 0.67200005
-0.09748286 -0.12042001 0.66900003
-0.095920958 -0.12006 0.66700006
-0.094934292 -0.12042001 0.66900003
-0.093660004 -0.12042001 0.66900003
-0.091971435 -0.11988001 0.66600001
-0.090566672 -0.11970001 0.66500002
-0.089031436 -0.11934001 0.66300005
-0.087768577 -0.11934001 0.66300005
-0.086505719 -0.11934001 0.66300005
-0.085114293 -0.11916001 0.66200006
-0.083853342 -0.11916001 0.66200006
-0.082592383 -0.11916001 0.66200006
-0.081208579 -0.11898001 0.66100001
-0.079828575 -0.11880001 0.66000003
-0.078333341 -0.11844001 0.65800005
-0.077314287 -0.11880001 0.66000003
-0.076057151 -0.11880001 0.66000003
-0.074800007 -0.11880001 0.66000003
-0.073542863 -0.11880001 0.66000003
-0.072285719 -0.11880001 0.66000003
-0.070813335 -0.11844001 0.65800005
-0.069560006 -0.11844001 0.65800005
-0.068514287 -0.11880001 0.66000003
-0.067257144 -0.11880001 0.66000003
-0.066100001 -0.11898001 0.66100001
-0.064840958 -0.11898001 0.66100001
-0.063581906 -0.11898001 0.66100001
-0.062417146 -0.11916001 0.66200006
-0.061248574 -0.11934001 0.66300005
-0.05998572 -0.11934001 0.66300005
-0.058900002 -0.11970001 0.66500002
-0.057633337 -0.11970001 0.66500002
-0.056536194 -0.12006 0.66700006
-0.055431433 -0.12042001 0.66900003
-0.0542381 -0.12060001 0.67000002
-0.053040955 -0.12078001 0.671
-0.051840004 -0.12096 0.67200005
-0.09620858 -0.11914572 0.66900003
-0.095076196 -0.11932382 0.67000002
-0.093660004 -0.11914572 0.66900003
-0.092109531 -0.11878953 0.66700006
-0.090702862 -0.11861144 0.66600001
-0.089300007 -0.11843334 0.66500002
-0.088033341 -0.11843334 0.66500002
-0.086505719 -0.11807715 0.66300005
-0.08524286 -0.11807715 0.66300005
-0.083980009 -0.11807715 0.66300005
-0.08271715 -0.11807715 0.66300005
-0.081331432 -0.11789905 0.66200006
-0.079949528 -0.11772096 0.66100001
-0.078690484 -0.11772096 0.66100001
-0.077431433 -0.11772096 0.66100001
-0.076057151 -0.11754286 0.66000003
-0.074800007 -0.11754286 0.66000003
-0.073542863 -0.11754286 0.66000003
-0.072285719 -0.11754286 0.66000003
-0.070813335 -0.11718667 0.65800005
-0.069560006 -0.11718667 0.65800005
-0.068514287 -0.11754286 0.66000003
-0.067257144 -0.11754286 0.66000003
-0.066100001 -0.11772096 0.66100001
-0.064840958 -0.11772096 0.66100001
-0.063678101 -0.11789905 0.66200006
-0.062417146 -0.11789905 0.66200006
-0.061156195 -0.11789905 0.66200006
-0.05998572 -0.11807715 0.66300005
-0.058900002 -0.11843334 0.66500002
-0.057720006 -0.11861144 0.66600001
-0.056536194 -0.11878953 0.66700006
-0.055431433 -0.11914572 0.66900003
-0.0542381 -0.11932382 0.67000002
-0.053040955 -0.11950191 0.671
-0.051840004 -0.11968001 0.67200005
-0.096352391 -0.11804762 0.67000002
-0.095076196 -0.11804762 0.67000002
-0.093660004 -0.11787143 0.66900003
-0.092109531 -0.11751906 0.66700006
-0.090702862 -0.11734287 0.66600001
-0.089300007 -0.11716668 0.66500002
-0.088033341 -0.11716668 0.66500002
-0.086505719 -0.11681429 0.66300005
-0.08524286 -0.11681429 0.66300005
-0.083980009 -0.11681429 0.66300005
-0.08271715 -0.11681429 0.66300005
-0.081331432 -0.1166381 0.66200006
-0.079949528 -0.11646191 0.66100001
-0.078690484 -0.11646191 0.66100001
-0.077431433 -0.11646191 0.66100001
-0.076057151 -0.11628572 0.66000003
-0.074800007 -0.11628572 0.66000003
-0.073542863 -0.11628572 0.66000003
-0.072285719 -0.11628572 0.66000003
-0.070813335 -0.11593334 0.65800005
-0.069560006 -0.11593334 0.65800005
-0.068514287 -0.11628572 0.66000003
-0.067257144 -0.11628572 0.66000003
-0.066100001 -0.11646191 0.66100001
-0.064840958 -0.11646191 0.66100001
-0.063678101 -0.1166381 0.66200006
-0.062417146 -0.1166381 0.66200006
-0.061248574 -0.11681429 0.66300005
-0.05998572 -0.11681429 0.66300005
-0.058988575 -0.11734287 0.66600001
-0.057720006 -0.11734287 0.66600001
-0.056536194 -0.11751906 0.66700006
-0.055431433 -0.11787143 0.66900003
-0.0542381 -0.11804762 0.67000002
-0.053040955 -0.11822382 0.671
-0.051840004 -0.11840001 0.67200005
-0.096352391 -0.11677144 0.67000002
-0.095076196 -0.11677144 0.67000002
-0.093380004 -0.11624858 0.66700006
-0.092385717 -0.11659715 0.66900003
-0.090839051 -0.11624858 0.66700006
-0.089300007 -0.11590001 0.66500002
-0.088033341 -0.11590001 0.66500002
-0.086766675 -0.11590001 0.66500002
-0.085500002 -0.11590001 0.66500002
-0.083980009 -0.11555143 0.66300005
-0.08271715 -0.11555143 0.66300005
-0.081331432 -0.11537715 0.66200006
-0.080070481 -0.11537715 0.66200006
-0.07880953 -0.11537715 0.66200006
-0.077548578 -0.11537715 0.66200006
-0.076172389 -0.11520287 0.66100001
-0.074913338 -0.11520287 0.66100001
-0.073654294 -0.11520287 0.66100001
-0.072395243 -0.11520287 0.66100001
-0.071028575 -0.11502858 0.66000003
-0.069771431 -0.11502858 0.66000003
-0.068514287 -0.11502858 0.66000003
-0.067359053 -0.11520287 0.66100001
-0.066200003 -0.11537715 0.66200006
-0.064939052 -0.11537715 0.66200006
-0.063678101 -0.11537715 0.66200006
-0.062417146 -0.11537715 0.66200006
-0.061248574 -0.11555143 0.66300005
-0.060166672 -0.11590001 0.66500002
-0.058988575 -0.11607429 0.66600001
-0.057806671 -0.11624858 0.66700006
-0.056705717 -0.11659715 0.66900003
-0.055431433 -0.11659715 0.66900003
-0.0542381 -0.11677144 0.67000002
-0.053120002 -0.11712001 0.67200005
-0.051840004 -0.11712001 0.67200005
-0.050710481 -0.11746858 0.67400002
-0.095076196 -0.11549524 0.67000002
-0.093380004 -0.1149781 0.66700006
-0.092385717 -0.11532287 0.66900003
-0.090839051 -0.1149781 0.66700006
-0.089434288 -0.11480572 0.66600001
-0.088165723 -0.11480572 0.66600001
-0.086766675 -0.11463334 0.66500002
-0.085500002 -0.11463334 0.66500002
-0.083980009 -0.11428858 0.66300005
-0.08271715 -0.11428858 0.66300005
-0.081454292 -0.11428858 0.66300005
-0.080070481 -0.1141162 0.66200006
-0.07880953 -0.1141162 0.66200006
-0.077548578 -0.1141162 0.66200006
-0.076172389 -0.11394382 0.66100001
-0.074913338 -0.11394382 0.66100001
-0.073654294 -0.11394382 0.66100001
-0.072395243 -0.11394382 0.66100001
-0.071028575 -0.11377144 0.66000003
-0.069771431 -0.11377144 0.66000003
-0.068514287 -0.11377144 0.66000003
-0.067359053 -0.11394382 0.66100001
-0.066200003 -0.1141162 0.66200006
-0.064939052 -0.1141162 0.66200006
-0.063678101 -0.1141162 0.66200006
-0.062417146 -0.1141162 0.66200006
-0.061248574 -0.11428858 0.66300005
-0.060257148 -0.11480572 0.66600001
-0.059077147 -0.1149781 0.66700006
-0.057980005 -0.11532287 0.66900003
-0.056790479 -0.11549524 0.67000002
-0.055597145 -0.11566763 0.671
-0.05431905 -0.11566763 0.671
-0.053040955 -0.11566763 0.671
-0.051840004 -0.11584001 0.67200005
-0.050710481 -0.11618477 0.67400002
-0.049426671 -0.11618477 0.67400002
-0.095076196 -0.11421905 0.67000002
-0.093660004 -0.11404858 0.66900003
-0.092385717 -0.11404858 0.66900003
-0.091111436 -0.11404858 0.66900003
-0.089568578 -0.11370762 0.66700006
-0.088298105 -0.11370762 0.66700006
-0.08689715 -0.11353715 0.66600001
-0.085628577 -0.11353715 0.66600001
-0.084233336 -0.11336667 0.66500002
-0.08296667 -0.11336667 0.66500002
-0.081454292 -0.11302572 0.66300005
-0.080191433 -0.11302572 0.66300005
-0.07880953 -0.11285525 0.66200006
-0.077548578 -0.11285525 0.66200006
-0.076172389 -0.11268477 0.66100001
-0.074913338 -0.11268477 0.66100001
-0.073654294 -0.11268477 0.66100001
-0.072395243 -0.11268477 0.66100001
-0.071136191 -0.11268477 0.66100001
-0.069877148 -0.11268477 0.66100001
-0.068618096 -0.11268477 0.66100001
-0.067460954 -0.11285525 0.66200006
-0.066200003 -0.11285525 0.66200006
-0.064939052 -0.11285525 0.66200006
-0.063774288 -0.11302572 0.66300005
-0.062511429 -0.11302572 0.66300005
-0.061248574 -0.11302572 0.66300005
-0.060347624 -0.11370762 0.66700006
-0.059077147 -0.11370762 0.66700006
-0.057980005 -0.11404858 0.66900003
-0.056790479 -0.11421905 0.67000002
-0.055597145 -0.11438953 0.671
-0.05431905 -0.11438953 0.671
-0.053120002 -0.11456001 0.67200005
-0.051840004 -0.11456001 0.67200005
-0.050710481 -0.11490096 0.67400002
-0.094080009 -0.11328001 0.67200005
-0.092523813 -0.11294287 0.67000002
-0.091247626 -0.11294287 0.67000002
-0.089837149 -0.11277429 0.66900003
-0.088298105 -0.11243715 0.66700006
-0.087027624 -0.11243715 0.66700006
-0.085628577 -0.11226858 0.66600001
-0.084360003 -0.11226858 0.66600001
-0.08309143 -0.11226858 0.66600001
-0.081454292 -0.11176287 0.66300005
-0.080191433 -0.11176287 0.66300005
-0.078928575 -0.11176287 0.66300005
-0.077548578 -0.11159429 0.66200006
-0.076287627 -0.11159429 0.66200006
-0.075026669 -0.11159429 0.66200006
-0.073765717 -0.11159429 0.66200006
-0.072504766 -0.11159429 0.66200006
-0.071136191 -0.11142572 0.66100001
-0.069982864 -0.11159429 0.66200006
-0.068721913 -0.11159429 0.66200006
-0.067460954 -0.11159429 0.66200006
-0.066300005 -0.11176287 0.66300005
-0.065037146 -0.11176287 0.66300005
-0.063774288 -0.11176287 0.66300005
-0.062511429 -0.11176287 0.66300005
-0.061525717 -0.11226858 0.66600001
-0.060347624 -0.11243715 0.66700006
-0.059254289 -0.11277429 0.66900003
-0.057980005 -0.11277429 0.66900003
-0.05687524 -0.11311144 0.671
-0.055597145 -0.11311144 0.671
-0.054400004 -0.11328001 0.67200005
-0.0532781 -0.11361715 0.67400002
-0.051840004 -0.11328001 0.67200005
-0.050785717 -0.11378572 0.67500001
-0.09266191 -0.11183334 0.671
-0.091383815 -0.11183334 0.671
-0.089971438 -0.11166667 0.67000002
-0.088562861 -0.11150001 0.66900003
-0.087027624 -0.11116667 0.66700006
-0.085757151 -0.11116667 0.66700006
-0.084486671 -0.11116667 0.66700006
-0.083216198 -0.11116667 0.66700006
-0.081822865 -0.11100001 0.66600001
-0.080191433 -0.11050001 0.66300005
-0.078928575 -0.11050001 0.66300005
-0.077665716 -0.11050001 0.66300005
-0.076402865 -0.11050001 0.66300005
-0.075140007 -0.11050001 0.66300005
-0.073765717 -0.11033334 0.66200006
-0.07261429 -0.11050001 0.66300005
-0.071243815 -0.11033334 0.66200006
-0.070088573 -0.11050001 0.66300005
-0.068721913 -0.11033334 0.66200006
-0.067460954 -0.11033334 0.66200006
-0.066300005 -0.11050001 0.66300005
-0.065037146 -0.11050001 0.66300005
-0.063966669 -0.11083334 0.66500002
-0.062700003 -0.11083334 0.66500002
-0.061525717 -0.11100001 0.66600001
-0.060347624 -0.11116667 0.66700006
-0.059254289 -0.11150001 0.66900003
-0.05806667 -0.11166667 0.67000002
-0.05687524 -0.11183334 0.671
-0.055680003 -0.11200001 0.67200005
-0.054400004 -0.11200001 0.67200005
-0.053357147 -0.1125 0.67500001
-0.051840004 -0.11200001 0.67200005
-0.050785717 -0.1125 0.67500001
-0.049500003 -0.1125 0.67500001
-0.092800006 -0.11072001 0.67200005
-0.091520004 -0.11072001 0.67200005
-0.09010572 -0.11055525 0.671
-0.088695243 -0.11039048 0.67000002
-0.087288581 -0.11022572 0.66900003
-0.086014293 -0.11022572 0.66900003
-0.084486671 -0.1098962 0.66700006
-0.083216198 -0.1098962 0.66700006
-0.081822865 -0.10973144 0.66600001
-0.080554292 -0.10973144 0.66600001
-0.079285719 -0.10973144 0.66600001
-0.077900007 -0.10956667 0.66500002
-0.076402865 -0.10923715 0.66300005
-0.075140007 -0.10923715 0.66300005
-0.073877148 -0.10923715 0.66300005
-0.07261429 -0.10923715 0.66300005
-0.071351431 -0.10923715 0.66300005
-0.070088573 -0.10923715 0.66300005
-0.068825722 -0.10923715 0.66300005
-0.067562863 -0.10923715 0.66300005
-0.066500001 -0.10956667 0.66500002
-0.065331429 -0.10973144 0.66600001
-0.064062864 -0.10973144 0.66600001
-0.06279429 -0.10973144 0.66600001
-0.061618101 -0.1098962 0.66700006
-0.060619052 -0.11039048 0.67000002
-0.059431434 -0.11055525 0.671
-0.058153339 -0.11055525 0.671
-0.056960005 -0.11072001 0.67200005
-0.055845719 -0.11104953 0.67400002
-0.054723814 -0.11137906 0.67600006
-0.053436194 -0.11137906 0.67600006
-0.05230286 -0.11170858 0.67800003
-0.051011432 -0.11170858 0.67800003
-0.049720004 -0.11170858 0.67800003
-0.094360009 -0.10976572 0.67400002
-0.092800006 -0.10944001 0.67200005
-0.091520004 -0.10944001 0.67200005
-0.09010572 -0.10927715 0.671
-0.088827625 -0.10927715 0.671
-0.087419055 -0.10911429 0.67000002
-0.086014293 -0.10895143 0.66900003
-0.084740005 -0.10895143 0.66900003
-0.083465718 -0.10895143 0.66900003
-0.081945717 -0.10862572 0.66700006
-0.080554292 -0.10846286 0.66600001
-0.079285719 -0.10846286 0.66600001
-0.078017145 -0.10846286 0.66600001
-0.07674858 -0.10846286 0.66600001
-0.075366668 -0.10830001 0.66500002
-0.073877148 -0.10797429 0.66300005
-0.07261429 -0.10797429 0.66300005
-0.071351431 -0.10797429 0.66300005
-0.070405722 -0.10846286 0.66600001
-0.06903334 -0.10830001 0.66500002
-0.067766674 -0.10830001 0.66500002
-0.066600002 -0.10846286 0.66600001
-0.065331429 -0.10846286 0.66600001
-0.064159051 -0.10862572 0.66700006
-0.062888578 -0.10862572 0.66700006
-0.06180286 -0.10895143 0.66900003
-0.060619052 -0.10911429 0.67000002
-0.059431434 -0.10927715 0.671
-0.058240004 -0.10944001 0.67200005
-0.056960005 -0.10944001 0.67200005
-0.055845719 -0.10976572 0.67400002
-0.054885719 -0.11041715 0.67800003
-0.053594287 -0.11041715 0.67800003
-0.05230286 -0.11041715 0.67800003
-0.051086672 -0.11058 0.67900002
-0.049793337 -0.11058 0.67900002
-0.04857143 -0.11074287 0.68000001
-0.047400955 -0.11416286 0.70100003
-0.046065718 -0.11416286 0.70100003
-0.094360009 -0.10848191 0.67400002
-0.093076199 -0.10848191 0.67400002
-0.091520004 -0.10816 0.67200005
-0.090240009 -0.10816 0.67200005
-0.088960007 -0.10816 0.67200005
-0.08754953 -0.10799906 0.671
-0.08614286 -0.1078381 0.67000002
-0.084866673 -0.1078381 0.67000002
-0.083590485 -0.1078381 0.67000002
-0.082191437 -0.10767715 0.66900003
-0.080675244 -0.10735524 0.66700006
-0.079404764 -0.10735524 0.66700006
-0.078134291 -0.10735524 0.66700006
-0.076863818 -0.10735524 0.66700006
-0.075480007 -0.10719429 0.66600001
-0.074100003 -0.10703334 0.66500002
-0.072833337 -0.10703334 0.66500002
-0.071566671 -0.10703334 0.66500002
-0.070511431 -0.10735524 0.66700006
-0.069240957 -0.10735524 0.66700006
-0.068174288 -0.10767715 0.66900003
-0.066600002 -0.10719429 0.66600001
-0.065429531 -0.10735524 0.66700006
-0.064159051 -0.10735524 0.66700006
-0.062888578 -0.10735524 0.66700006
-0.06180286 -0.10767715 0.66900003
-0.060619052 -0.1078381 0.67000002
-0.059431434 -0.10799906 0.671
-0.058153339 -0.10799906 0.671
-0.056960005 -0.10816 0.67200005
-0.055845719 -0.10848191 0.67400002
-0.054885719 -0.10912572 0.67800003
-0.053594287 -0.10912572 0.67800003
-0.052380003 -0.10928667 0.67900002
-0.051086672 -0.10928667 0.67900002
-0.049866669 -0.10944763 0.68000001
-0.04857143 -0.10944763 0.68000001
-0.047276195 -0.10944763 0.68000001
-0.046065718 -0.11282763 0.70100003
-0.04466667 -0.11266667 0.70000005
-0.043333337 -0.11266667 0.70000005
-0.094080009 -0.10688001 0.67200005
-0.092800006 -0.10688001 0.67200005
-0.091520004 -0.10688001 0.67200005
-0.090240009 -0.10688001 0.67200005
-0.088960007 -0.10688001 0.67200005
-0.08754953 -0.10672096 0.671
-0.08614286 -0.10656191 0.67000002
-0.084866673 -0.10656191 0.67000002
-0.083465718 -0.10640287 0.66900003
-0.081945717 -0.10608477 0.66700006
-0.080675244 -0.10608477 0.66700006
-0.079404764 -0.10608477 0.66700006
-0.078134291 -0.10608477 0.66700006
-0.076863818 -0.10608477 0.66700006
-0.075593337 -0.10608477 0.66700006
-0.074211434 -0.10592572 0.66600001
-0.072833337 -0.10576668 0.66500002
-0.071781911 -0.10608477 0.66700006
-0.070511431 -0.10608477 0.66700006
-0.069448575 -0.10640287 0.66900003
-0.068174288 -0.10640287 0.66900003
-0.066900007 -0.10640287 0.66900003
-0.06562572 -0.10640287 0.66900003
-0.064351432 -0.10640287 0.66900003
-0.063077144 -0.10640287 0.66900003
-0.061895244 -0.10656191 0.67000002
-0.060619052 -0.10656191 0.67000002
-0.059342861 -0.10656191 0.67000002
-0.058153339 -0.10672096 0.671
-0.056960005 -0.10688001 0.67200005
-0.055680003 -0.10688001 0.67200005
-0.054885719 -0.10783429 0.67800003
-0.053673338 -0.10799334 0.67900002
-0.052457146 -0.10815239 0.68000001
-0.051161908 -0.10815239 0.68000001
-0.050013337 -0.10847048 0.68200004
-0.048714288 -0.10847048 0.68200004
-0.047415242 -0.10847048 0.68200004
-0.046065718 -0.11149239 0.70100003
-0.04466667 -0.11133334 0.70000005
-0.043333337 -0.11133334 0.70000005
-0.095643818 -0.10591429 0.67400002
-0.094080009 -0.10560001 0.67200005
-0.093076199 -0.10591429 0.67400002
-0.09179239 -0.10591429 0.67400002
-0.090240009 -0.10560001 0.67200005
-0.088960007 -0.10560001 0.67200005
-0.08754953 -0.10544287 0.671
-0.08614286 -0.10528572 0.67000002
-0.084866673 -0.10528572 0.67000002
-0.083465718 -0.10512858 0.66900003
-0.082191437 -0.10512858 0.66900003
-0.080675244 -0.10481429 0.66700006
-0.079404764 -0.10481429 0.66700006
-0.078134291 -0.10481429 0.66700006
-0.076863818 -0.10481429 0.66700006
-0.075593337 -0.10481429 0.66700006
-0.074211434 -0.10465715 0.66600001
-0.07294286 -0.10465715 0.66600001
-0.071781911 -0.10481429 0.66700006
-0.070511431 -0.10481429 0.66700006
-0.069448575 -0.10512858 0.66900003
-0.068174288 -0.10512858 0.66900003
-0.066900007 -0.10512858 0.66900003
-0.06562572 -0.10512858 0.66900003
-0.064351432 -0.10512858 0.66900003
-0.063077144 -0.10512858 0.66900003
-0.061895244 -0.10528572 0.67000002
-0.060619052 -0.10528572 0.67000002
-0.059342861 -0.10528572 0.67000002
-0.058153339 -0.10544287 0.671
-0.056960005 -0.10560001 0.67200005
-0.055680003 -0.10560001 0.67200005
-0.054885719 -0.10654286 0.67800003
-0.053673338 -0.10670001 0.67900002
-0.052457146 -0.10685715 0.68000001
-0.051312383 -0.10717144 0.68200004
-0.05008667 -0.10732858 0.68300003
-0.048785716 -0.10732858 0.68300003
-0.047415242 -0.10717144 0.68200004
-0.046116192 -0.10717144 0.68200004
-0.04466667 -0.11000001 0.70000005
-0.043333337 -0.11000001 0.70000005
-0.042000003 -0.11000001 0.70000005
-0.095360003 -0.10432 0.67200005
-0.094080009 -0.10432 0.67200005
-0.092800006 -0.10432 0.67200005
-0.09179239 -0.10463049 0.67400002
-0.090240009 -0.10432 0.67200005
-0.088960007 -0.10432 0.67200005
-0.08754953 -0.10416477 0.671
-0.08614286 -0.10400953 0.67000002
-0.08499334 -0.10416477 0.671
-0.083590485 -0.10400953 0.67000002
-0.082191437 -0.10385429 0.66900003
-0.080675244 -0.10354382 0.66700006
-0.079404764 -0.10354382 0.66700006
-0.078134291 -0.10354382 0.66700006
-0.076863818 -0.10354382 0.66700006
-0.075593337 -0.10354382 0.66700006
-0.074211434 -0.10338858 0.66600001
-0.07294286 -0.10338858 0.66600001
-0.071674287 -0.10338858 0.66600001
-0.070511431 -0.10354382 0.66700006
-0.069240957 -0.10354382 0.66700006
-0.068174288 -0.10385429 0.66900003
-0.066700004 -0.10354382 0.66700006
-0.06562572 -0.10385429 0.66900003
-0.064351432 -0.10385429 0.66900003
-0.063077144 -0.10385429 0.66900003
-0.061895244 -0.10400953 0.67000002
-0.060619052 -0.10400953 0.67000002
-0.059342861 -0.10400953 0.67000002
-0.05806667 -0.10400953 0.67000002
-0.05687524 -0.10416477 0.671
-0.055597145 -0.10416477 0.671
-0.05431905 -0.10416477 0.671
-0.053989526 -0.10602763 0.68300003
-0.052688576 -0.10602763 0.68300003
-0.051387623 -0.10602763 0.68300003
-0.05008667 -0.10602763 0.68300003
-0.048785716 -0.10602763 0.68300003
-0.047484767 -0.10602763 0.68300003
-0.046183813 -0.10602763 0.68300003
-0.04488286 -0.10602763 0.68300003
-0.043209527 -0.1083562 0.69800001
-0.095360003 -0.10304001 0.67200005
-0.094080009 -0.10304001 0.67200005
-0.093076199 -0.10334668 0.67400002
-0.09179239 -0.10334668 0.67400002
-0.090240009 -0.10304001 0.67200005
-0.088960007 -0.10304001 0.67200005
-0.087680005 -0.10304001 0.67200005
-0.086271435 -0.10288668 0.671
-0.08499334 -0.10288668 0.671
-0.083590485 -0.10273334 0.67000002
-0.082191437 -0.10258 0.66900003
-0.08091715 -0.10258 0.66900003
-0.079404764 -0.10227334 0.66700006
-0.078368574 -0.10258 0.66900003
-0.077094294 -0.10258 0.66900003
-0.075593337 -0.10227334 0.66700006
-0.074322864 -0.10227334 0.66700006
-0.073052384 -0.10227334 0.66700006
-0.071674287 -0.10212 0.66600001
-0.070405722 -0.10212 0.66600001
-0.069240957 -0.10227334 0.66700006
-0.067970477 -0.10227334 0.66700006
-0.066700004 -0.10227334 0.66700006
-0.06562572 -0.10258 0.66900003
-0.064351432 -0.10258 0.66900003
-0.063171431 -0.10273334 0.67000002
-0.061895244 -0.10273334 0.67000002
-0.060619052 -0.10273334 0.67000002
-0.059342861 -0.10273334 0.67000002
-0.05806667 -0.10273334 0.67000002
-0.056960005 -0.10304001 0.67200005
-0.055680003 -0.10304001 0.67200005
-0.053989526 -0.10472667 0.68300003
-0.052688576 -0.10472667 0.68300003
-0.051387623 -0.10472667 0.68300003
-0.050160002 -0.10488001 0.68400002
-0.048857145 -0.10488001 0.68400002
-0.047554288 -0.10488001 0.68400002
-0.046183813 -0.10472667 0.68300003
-0.04488286 -0.10472667 0.68300003
-0.044220004 -0.10626001 0.69300002
-0.042900003 -0.10626001 0.69300002
-0.098794289 -0.10266858 0.67800003
-0.097502865 -0.10266858 0.67800003
-0.095785722 -0.10221429 0.67500001
-0.094360009 -0.10206287 0.67400002
-0.093076199 -0.10206287 0.67400002
-0.09179239 -0.10206287 0.67400002
-0.09050858 -0.10206287 0.67400002
-0.088960007 -0.10176001 0.67200005
-0.087680005 -0.10176001 0.67200005
-0.086271435 -0.10160857 0.671
-0.085120007 -0.10176001 0.67200005
-0.083715245 -0.10160857 0.671
-0.082191437 -0.10130572 0.66900003
-0.08091715 -0.10130572 0.66900003
-0.079404764 -0.10100286 0.66700006
-0.078368574 -0.10130572 0.66900003
-0.077094294 -0.10130572 0.66900003
-0.075593337 -0.10100286 0.66700006
-0.074322864 -0.10100286 0.66700006
-0.073052384 -0.10100286 0.66700006
-0.071566671 -0.10070001 0.66500002
-0.070405722 -0.10085143 0.66600001
-0.069240957 -0.10100286 0.66700006
-0.067970477 -0.10100286 0.66700006
-0.066700004 -0.10100286 0.66700006
-0.06562572 -0.10130572 0.66900003
-0.064351432 -0.10130572 0.66900003
-0.063077144 -0.10130572 0.66900003
-0.06180286 -0.10130572 0.66900003
-0.060619052 -0.10145715 0.67000002
-0.059342861 -0.10145715 0.67000002
-0.05806667 -0.10145715 0.67000002
-0.056960005 -0.10176001 0.67200005
-0.055680003 -0.10176001 0.67200005
-0.052688576 -0.10342572 0.68300003
-0.051387623 -0.10342572 0.68300003
-0.05008667 -0.10342572 0.68300003
-0.049214289 -0.10433429 0.68900001
-0.047901906 -0.10433429 0.68900001
-0.046454288 -0.10403144 0.68700004
-0.045277145 -0.10433429 0.68900001
-0.044092383 -0.10463715 0.69100004
-0.042776193 -0.10463715 0.69100004
-0.041580003 -0.10494 0.69300002
-0.040376194 -0.10524286 0.69500005
-0.10780001 -0.10257334 0.68600005
-0.10488001 -0.10227429 0.68400002
-0.10023334 -0.10152667 0.67900002
-0.098794289 -0.10137715 0.67800003
-0.097502865 -0.10137715 0.67800003
-0.095927626 -0.1010781 0.67600006
-0.094500005 -0.10092857 0.67500001
-0.093214288 -0.10092857 0.67500001
-0.09179239 -0.10077906 0.67400002
-0.09050858 -0.10077906 0.67400002
-0.088960007 -0.10048001 0.67200005
-0.087680005 -0.10048001 0.67200005
-0.086271435 -0.10033048 0.671
-0.085120007 -0.10048001 0.67200005
-0.083715245 -0.10033048 0.671
-0.08231429 -0.10018096 0.67000002
-0.08091715 -0.10003144 0.66900003
-0.079642862 -0.10003144 0.66900003
-0.078368574 -0.10003144 0.66900003
-0.077094294 -0.10003144 0.66900003
-0.075820006 -0.10003144 0.66900003
-0.074322864 -0.099732384 0.66700006
-0.073052384 -0.099732384 0.66700006
-0.071674287 -0.099582866 0.66600001
-0.070405722 -0.099582866 0.66600001
-0.069240957 -0.099732384 0.66700006
-0.067970477 -0.099732384 0.66700006
-0.066700004 -0.099732384 0.66700006
-0.065429531 -0.099732384 0.66700006
-0.064159051 -0.099732384 0.66700006
-0.063077144 -0.10003144 0.66900003
-0.06180286 -0.10003144 0.66900003
-0.060619052 -0.10018096 0.67000002
-0.059077147 -0.099732384 0.66700006
-0.057806671 -0.099732384 0.66700006
-0.056960005 -0.10048001 0.67200005
-0.052688576 -0.10212477 0.68300003
-0.051387623 -0.10212477 0.68300003
-0.050160002 -0.10227429 0.68400002
-0.048857145 -0.10227429 0.68400002
-0.047901906 -0.10302191 0.68900001
-0.046454288 -0.10272286 0.68700004
-0.045277145 -0.10302191 0.68900001
-0.044028573 -0.10317144 0.69000006
-0.04271429 -0.10317144 0.69000006
-0.041460004 -0.10332096 0.69100004
-0.040260002 -0.10362001 0.69300002
-0.10795715 -0.10141429 0.68700004
-0.10472667 -0.10082382 0.68300003
-0.10297143 -0.10038096 0.68000001
-0.1016762 -0.10038096 0.68000001
-0.10008572 -0.10008572 0.67800003
-0.098794289 -0.10008572 0.67800003
-0.097502865 -0.10008572 0.67800003
-0.095927626 -0.099790484 0.67600006
-0.094640009 -0.099790484 0.67600006
-0.093352385 -0.099790484 0.67600006
-0.092064768 -0.099790484 0.67600006
-0.09050858 -0.099495247 0.67400002
-0.089224771 -0.099495247 0.67400002
-0.087940961 -0.099495247 0.67400002
-0.086400002 -0.099200003 0.67200005
-0.085120007 -0.099200003 0.67200005
-0.083715245 -0.099052384 0.671
-0.08231429 -0.098904766 0.67000002
-0.08091715 -0.098757148 0.66900003
-0.079642862 -0.098757148 0.66900003
-0.078368574 -0.098757148 0.66900003
-0.077094294 -0.098757148 0.66900003
-0.075820006 -0.098757148 0.66900003
-0.074211434 -0.098314293 0.66600001
-0.07294286 -0.098314293 0.66600001
-0.071674287 -0.098314293 0.66600001
-0.070405722 -0.098314293 0.66600001
-0.069137149 -0.098314293 0.66600001
-0.067970477 -0.098461911 0.66700006
-0.066700004 -0.098461911 0.66700006
-0.065429531 -0.098461911 0.66700006
-0.064159051 -0.098461911 0.66700006
-0.062888578 -0.098461911 0.66700006
-0.06180286 -0.098757148 0.66900003
-0.060347624 -0.098461911 0.66700006
-0.059077147 -0.098461911 0.66700006
-0.057806671 -0.098461911 0.66700006
-0.056960005 -0.099200003 0.67200005
-0.051387623 -0.10082382 0.68300003
-0.050160002 -0.10097144 0.68400002
-0.049000002 -0.10126667 0.68600005
-0.04776286 -0.10141429 0.68700004
-0.04638667 -0.10126667 0.68600005
-0.045145717 -0.10141429 0.68700004
-0.043964766 -0.10170953 0.68900001
-0.042652383 -0.10170953 0.68900001
-0.041400004 -0.10185715 0.69000006
-0.040085718 -0.10185715 0.69000006
-0.038771432 -0.10185715 0.69000006
-0.037457146 -0.10185715 0.69000006
-0.10327429 -0.099377148 0.68200004
-0.1016762 -0.099085718 0.68000001
-0.10023334 -0.098940007 0.67900002
-0.098794289 -0.098794289 0.67800003
-0.097502865 -0.098794289 0.67800003
-0.096211433 -0.098794289 0.67800003
-0.094920009 -0.098794289 0.67800003
-0.093628578 -0.098794289 0.67800003
-0.092064768 -0.098502867 0.67600006
-0.09050858 -0.098211437 0.67400002
-0.089224771 -0.098211437 0.67400002
-0.087940961 -0.098211437 0.67400002
-0.086657152 -0.098211437 0.67400002
-0.085373342 -0.098211437 0.67400002
-0.083840005 -0.097920008 0.67200005
-0.08243715 -0.09777429 0.671
-0.08091715 -0.09748286 0.66900003
-0.079642862 -0.09748286 0.66900003
-0.078368574 -0.09748286 0.66900003
-0.077094294 -0.09748286 0.66900003
-0.075480007 -0.09704572 0.66600001
-0.074211434 -0.09704572 0.66600001
-0.072833337 -0.096900009 0.66500002
-0.071566671 -0.096900009 0.66500002
-0.070300005 -0.096900009 0.66500002
-0.069137149 -0.09704572 0.66600001
-0.067868575 -0.09704572 0.66600001
-0.066700004 -0.097191438 0.66700006
-0.065429531 -0.097191438 0.66700006
-0.064159051 -0.097191438 0.66700006
-0.062888578 -0.097191438 0.66700006
-0.061618101 -0.097191438 0.66700006
-0.060347624 -0.097191438 0.66700006
-0.059077147 -0.097191438 0.66700006
-0.057720006 -0.09704572 0.66600001
-0.050380003 -0.10010572 0.68700004
-0.049214289 -0.10039715 0.68900001
-0.047901906 -0.10039715 0.68900001
-0.046589527 -0.10039715 0.68900001
-0.045277145 -0.10039715 0.68900001
-0.043964766 -0.10039715 0.68900001
-0.042652383 -0.10039715 0.68900001
-0.041400004 -0.10054287 0.69000006
-0.040085718 -0.10054287 0.69000006
-0.038771432 -0.10054287 0.69000006
-0.037402861 -0.10039715 0.68900001
-0.036090478 -0.10039715 0.68900001
-0.10327429 -0.098078102 0.68200004
-0.1016762 -0.09779048 0.68000001
-0.10023334 -0.097646676 0.67900002
-0.098794289 -0.097502865 0.67800003
-0.097502865 -0.097502865 0.67800003
-0.096211433 -0.097502865 0.67800003
-0.094920009 -0.097502865 0.67800003
-0.093628578 -0.097502865 0.67800003
-0.092337146 -0.097502865 0.67800003
-0.09050858 -0.096927628 0.67400002
-0.088960007 -0.096640006 0.67200005
-0.087940961 -0.096927628 0.67400002
-0.086657152 -0.096927628 0.67400002
-0.085373342 -0.096927628 0.67400002
-0.083840005 -0.096640006 0.67200005
-0.08243715 -0.096496195 0.671
-0.081038103 -0.096352391 0.67000002
-0.079642862 -0.09620858 0.66900003
-0.078368574 -0.09620858 0.66900003
-0.07674858 -0.095777147 0.66600001
-0.075480007 -0.095777147 0.66600001
-0.074100003 -0.095633343 0.66500002
-0.072833337 -0.095633343 0.66500002
-0.071566671 -0.095633343 0.66500002
-0.070300005 -0.095633343 0.66500002
-0.06903334 -0.095633343 0.66500002
-0.067766674 -0.095633343 0.66500002
-0.066600002 -0.095777147 0.66600001
-0.065331429 -0.095777147 0.66600001
-0.064159051 -0.095920958 0.66700006
-0.062888578 -0.095920958 0.66700006
-0.061618101 -0.095920958 0.66700006
-0.060347624 -0.095920958 0.66700006
-0.059077147 -0.095920958 0.66700006
-0.057806671 -0.095920958 0.66700006
-0.056536194 -0.095920958 0.66700006
-0.049214289 -0.099084765 0.68900001
-0.047901906 -0.099084765 0.68900001
-0.046589527 -0.099084765 0.68900001
-0.045277145 -0.099084765 0.68900001
-0.043964766 -0.099084765 0.68900001
-0.04271429 -0.099228576 0.69000006
-0.041400004 -0.099228576 0.69000006
-0.040085718 -0.099228576 0.69000006
-0.038771432 -0.099228576 0.69000006
-0.037402861 -0.099084765 0.68900001
-0.036090478 -0.099084765 0.68900001
-0.10297143 -0.096495241 0.68000001
-0.10152667 -0.096353337 0.67900002
-0.10023334 -0.096353337 0.67900002
-0.098794289 -0.096211433 0.67800003
-0.097502865 -0.096211433 0.67800003
-0.096211433 -0.096211433 0.67800003
-0.094920009 -0.096211433 0.67800003
-0.093628578 -0.096211433 0.67800003
-0.092337146 -0.096211433 0.67800003
-0.090777151 -0.095927626 0.67600006
-0.089357145 -0.095785722 0.67500001
-0.087940961 -0.095643818 0.67400002
-0.086657152 -0.095643818 0.67400002
-0.085373342 -0.095643818 0.67400002
-0.083840005 -0.095360003 0.67200005
-0.082560003 -0.095360003 0.67200005
-0.081038103 -0.095076196 0.67000002
-0.079642862 -0.094934292 0.66900003
-0.078134291 -0.094650485 0.66700006
-0.07674858 -0.094508581 0.66600001
-0.075480007 -0.094508581 0.66600001
-0.074100003 -0.09436667 0.66500002
-0.072833337 -0.09436667 0.66500002
-0.071566671 -0.09436667 0.66500002
-0.070300005 -0.09436667 0.66500002
-0.06903334 -0.09436667 0.66500002
-0.067766674 -0.09436667 0.66500002
-0.066600002 -0.094508581 0.66600001
-0.065429531 -0.094650485 0.66700006
-0.064062864 -0.094508581 0.66600001
-0.062888578 -0.094650485 0.66700006
-0.061618101 -0.094650485 0.66700006
-0.060347624 -0.094650485 0.66700006
-0.059077147 -0.094650485 0.66700006
-0.057806671 -0.094650485 0.66700006
-0.056536194 -0.094650485 0.66700006
-0.055431433 -0.094934292 0.66900003
-0.046454288 -0.097488575 0.68700004
-0.045277145 -0.09777239 0.68900001
-0.043964766 -0.09777239 0.68900001
-0.04271429 -0.097914293 0.69000006
-0.041400004 -0.097914293 0.69000006
-0.040085718 -0.097914293 0.69000006
-0.03871524 -0.09777239 0.68900001
-0.037457146 -0.097914293 0.69000006
-0.036090478 -0.09777239 0.68900001
-0.10472667 -0.095620006 0.68300003
-0.10327429 -0.09548001 0.68200004
-0.1016762 -0.09520001 0.68000001
-0.10023334 -0.095060006 0.67900002
-0.098940007 -0.095060006 0.67900002
-0.097646676 -0.095060006 0.67900002
-0.096211433 -0.094920009 0.67800003
-0.094920009 -0.094920009 0.67800003
-0.093628578 -0.094920009 0.67800003
-0.092337146 -0.094920009 0.67800003
-0.090777151 -0.094640009 0.67600006
-0.089357145 -0.094500005 0.67500001
-0.088071436 -0.094500005 0.67500001
-0.086657152 -0.094360009 0.67400002
-0.085373342 -0.094360009 0.67400002
-0.083840005 -0.094080009 0.67200005
-0.082560003 -0.094080009 0.67200005
-0.081159055 -0.093940005 0.671
-0.079642862 -0.093660004 0.66900003
-0.078134291 -0.093380004 0.66700006
-0.07674858 -0.093240008 0.66600001
-0.075366668 -0.093100004 0.66500002
-0.074100003 -0.093100004 0.66500002
-0.072833337 -0.093100004 0.66500002
-0.071566671 -0.093100004 0.66500002
-0.070300005 -0.093100004 0.66500002
-0.06903334 -0.093100004 0.66500002
-0.067766674 -0.093100004 0.66500002
-0.066500001 -0.093100004 0.66500002
-0.065331429 -0.093240008 0.66600001
-0.064062864 -0.093240008 0.66600001
-0.06279429 -0.093240008 0.66600001
-0.061618101 -0.093380004 0.66700006
-0.060347624 -0.093380004 0.66700006
-0.058988575 -0.093240008 0.66600001
-0.057806671 -0.093380004 0.66700006
-0.056536194 -0.093380004 0.66700006
-0.055514291 -0.093800008 0.67000002
-0.046589527 -0.096460007 0.68900001
-0.045277145 -0.096460007 0.68900001
-0.044028573 -0.096600004 0.69000006
-0.04271429 -0.096600004 0.69000006
-0.041400004 -0.096600004 0.69000006
-0.040085718 -0.096600004 0.69000006
-0.038771432 -0.096600004 0.69000006
-0.037402861 -0.096460007 0.68900001
-0.03614286 -0.096600004 0.69000006
-0.10327429 -0.094180956 0.68200004
-0.10197525 -0.094180956 0.68200004
-0.10023334 -0.093766674 0.67900002
-0.098940007 -0.093766674 0.67900002
-0.097646676 -0.093766674 0.67900002
-0.096211433 -0.093628578 0.67800003
-0.094920009 -0.093628578 0.67800003
-0.093628578 -0.093628578 0.67800003
-0.092064768 -0.093352385 0.67600006
-0.090777151 -0.093352385 0.67600006
-0.089357145 -0.093214288 0.67500001
-0.087940961 -0.093076199 0.67400002
-0.086657152 -0.093076199 0.67400002
-0.085373342 -0.093076199 0.67400002
-0.083715245 -0.09266191 0.671
-0.08231429 -0.092523813 0.67000002
-0.08091715 -0.092385717 0.66900003
-0.079404764 -0.092109531 0.66700006
-0.078017145 -0.091971435 0.66600001
-0.07674858 -0.091971435 0.66600001
-0.075366668 -0.091833338 0.66500002
-0.074100003 -0.091833338 0.66500002
-0.072833337 -0.091833338 0.66500002
-0.071566671 -0.091833338 0.66500002
-0.070300005 -0.091833338 0.66500002
-0.06903334 -0.091833338 0.66500002
-0.067766674 -0.091833338 0.66500002
-0.066500001 -0.091833338 0.66500002
-0.065331429 -0.091971435 0.66600001
-0.064062864 -0.091971435 0.66600001
-0.06279429 -0.091971435 0.66600001
-0.061525717 -0.091971435 0.66600001
-0.060257148 -0.091971435 0.66600001
-0.058988575 -0.091971435 0.66600001
-0.057720006 -0.091971435 0.66600001
-0.056536194 -0.092109531 0.66700006
-0.055431433 -0.092385717 0.66900003
-0.054157145 -0.092385717 0.66900003
-0.052882861 -0.092385717 0.66900003
-0.045342859 -0.095285721 0.69000006
-0.044028573 -0.095285721 0.69000006
-0.042776193 -0.095423818 0.69100004
-0.041460004 -0.095423818 0.69100004
-0.040143814 -0.095423818 0.69100004
-0.038771432 -0.095285721 0.69000006
-0.037402861 -0.095147625 0.68900001
-0.036090478 -0.095147625 0.68900001
-0.10327429 -0.092881911 0.68200004
-0.10197525 -0.092881911 0.68200004
-0.10038096 -0.092609532 0.68000001
-0.098940007 -0.092473343 0.67900002
-0.097646676 -0.092473343 0.67900002
-0.096353337 -0.092473343 0.67900002
-0.095060006 -0.092473343 0.67900002
-0.093628578 -0.092337146 0.67800003
-0.092337146 -0.092337146 0.67800003
-0.090777151 -0.092064768 0.67600006
-0.089357145 -0.091928579 0.67500001
-0.087940961 -0.09179239 0.67400002
-0.086271435 -0.091383815 0.671
-0.08499334 -0.091383815 0.671
-0.083590485 -0.091247626 0.67000002
-0.08231429 -0.091247626 0.67000002
-0.08091715 -0.091111436 0.66900003
-0.079404764 -0.090839051 0.66700006
-0.078017145 -0.090702862 0.66600001
-0.07674858 -0.090702862 0.66600001
-0.075366668 -0.090566672 0.66500002
-0.074100003 -0.090566672 0.66500002
-0.072833337 -0.090566672 0.66500002
-0.071566671 -0.090566672 0.66500002
-0.070300005 -0.090566672 0.66500002
-0.06903334 -0.090566672 0.66500002
-0.067766674 -0.090566672 0.66500002
-0.066500001 -0.090566672 0.66500002
-0.065233335 -0.090566672 0.66500002
-0.064062864 -0.090702862 0.66600001
-0.06279429 -0.090702862 0.66600001
-0.061525717 -0.090702862 0.66600001
-0.060257148 -0.090702862 0.66600001
-0.058988575 -0.090702862 0.66600001
-0.057720006 -0.090702862 0.66600001
-0.056536194 -0.090839051 0.66700006
-0.055265717 -0.090839051 0.66700006
-0.05399524 -0.090839051 0.66700006
-0.05199429 -0.09179239 0.67400002
-0.045342859 -0.093971431 0.69000006
-0.044028573 -0.093971431 0.69000006
-0.04271429 -0.093971431 0.69000006
-0.041460004 -0.094107628 0.69100004
-0.040085718 -0.093971431 0.69000006
-0.038771432 -0.093971431 0.69000006
-0.037457146 -0.093971431 0.69000006
-0.03614286 -0.093971431 0.69000006
-0.034828573 -0.093971431 0.69000006
-0.10457334 -0.091582865 0.68200004
-0.10327429 -0.091582865 0.68200004
-0.1016762 -0.091314293 0.68000001
-0.10038096 -0.091314293 0.68000001
-0.098940007 -0.091180004 0.67900002
-0.097646676 -0.091180004 0.67900002
-0.096353337 -0.091180004 0.67900002
-0.094920009 -0.091045722 0.67800003
-0.093628578 -0.091045722 0.67800003
-0.092064768 -0.090777151 0.67600006
-0.090642862 -0.090642862 0.67500001
-0.089224771 -0.09050858 0.67400002
-0.087680005 -0.090240009 0.67200005
-0.086271435 -0.09010572 0.671
-0.084866673 -0.089971438 0.67000002
-0.083590485 -0.089971438 0.67000002
-0.08231429 -0.089971438 0.67000002
-0.08091715 -0.089837149 0.66900003
-0.079285719 -0.089434288 0.66600001
-0.077900007 -0.089300007 0.66500002
-0.076633342 -0.089300007 0.66500002
-0.075366668 -0.089300007 0.66500002
-0.073877148 -0.089031436 0.66300005
-0.07261429 -0.089031436 0.66300005
-0.071351431 -0.089031436 0.66300005
-0.070088573 -0.089031436 0.66300005
-0.068825722 -0.089031436 0.66300005
-0.067766674 -0.089300007 0.66500002
-0.066500001 -0.089300007 0.66500002
-0.065233335 -0.089300007 0.66500002
-0.063966669 -0.089300007 0.66500002
-0.06279429 -0.089434288 0.66600001
-0.061525717 -0.089434288 0.66600001
-0.060257148 -0.089434288 0.66600001
-0.058988575 -0.089434288 0.66600001
-0.057720006 -0.089434288 0.66600001
-0.056536194 -0.089568578 0.66700006
-0.055265717 -0.089568578 0.66700006
-0.054157145 -0.089837149 0.66900003
-0.052882861 -0.089837149 0.66900003
-0.045342859 -0.092657149 0.69000006
-0.044028573 -0.092657149 0.69000006
