# .PCD v0.7 - Point Cloud Data file format
VERSION 0.7
FIELDS x y z
SIZE 4 4 4
TYPE F F F
COUNT 1 1 1
WIDTH 1369
HEIGHT 1
VIEWPOINT 0 0 0 1 0 0 0
POINTS 1369
DATA ascii
0.056100003 -0.0019800002 0.69300002
0.057420004 -0.0019800002 0.69300002
0.058740005 -0.0019800002 0.69300002
0.060146671 -0.0019828572 0.69400001
0.061468575 -0.0019828572 0.69400001
0.062790483 -0.0019828572 0.69400001
0.064112388 -0.0019828572 0.69400001
0.065528579 -0.0019857143 0.69500005
0.02099143 -0.00067714287 0.71100003
0.022345716 -0.00067714287 0.71100003
0.023666669 -0.00067619054 0.71000004
0.024948573 -0.00067428575 0.708
0.026260002 -0.00067333336 0.70700002
0.027528573 -0.00067142863 0.70500004
0.028789526 -0.00066952384 0.70300001
0.030042859 -0.00066761911 0.70100003
0.031378098 -0.00066761911 0.70100003
0.032666668 -0.00066666672 0.70000005
0.034000002 -0.00066666672 0.70000005
0.035232384 -0.00066476193 0.69800001
0.036509525 -0.00066380959 0.69700003
0.037837144 -0.00066380959 0.69700003
0.039052382 -0.00066190481 0.69500005
0.040376194 -0.00066190481 0.69500005
0.041700002 -0.00066190481 0.69500005
0.042961907 -0.00066095241 0.69400001
0.044283811 -0.00066095241 0.69400001
0.045605719 -0.00066095241 0.69400001
0.046860002 -0.00066000002 0.69300002
0.048180003 -0.00066000002 0.69300002
0.049357146 -0.00065809529 0.69100004
0.050600003 -0.0006571429 0.69000006
0.05191429 -0.0006571429 0.69000006
0.053305719 -0.00065809529 0.69100004
0.054621909 -0.00065809529 0.69100004
0.056100003 -0.00066000002 0.69300002
0.057420004 -0.00066000002 0.69300002
0.058824766 -0.00066095241 0.69400001
0.060146671 -0.00066095241 0.69400001
0.061557148 -0.00066190481 0.69500005
0.062880956 -0.00066190481 0.69500005
0.064204767 -0.00066190481 0.69500005
0.065528579 -0.00066190481 0.69500005
0.067044765 -0.00066380959 0.69700003
0.021050477 0.00067904766 0.71300006
0.022408573 0.00067904766 0.71300006
0.023700001 0.00067714287 0.71100003
0.02501905 0.00067619054 0.71000004
0.026297145 0.00067428575 0.708
0.027606668 0.00067333336 0.70700002
0.028830478 0.00067047623 0.70400006
0.030128574 0.00066952384 0.70300001
0.031378098 0.00066761911 0.70100003
0.032713335 0.00066761911 0.70100003
0.034000002 0.00066666672 0.70000005
0.035333335 0.00066666672 0.70000005
0.036561906 0.00066476193 0.69800001
0.037891433 0.00066476193 0.69800001
0.039164763 0.00066380959 0.69700003
0.040376194 0.00066190481 0.69500005
0.041700002 0.00066190481 0.69500005
0.043023814 0.00066190481 0.69500005
0.044283811 0.00066095241 0.69400001
0.045605719 0.00066095241 0.69400001
0.046860002 0.00066000002 0.69300002
0.048180003 0.00066000002 0.69300002
0.049357146 0.00065809529 0.69100004
0.050673336 0.00065809529 0.69100004
0.051989526 0.00065809529 0.69100004
0.053305719 0.00065809529 0.69100004
0.054780003 0.00066000002 0.69300002
0.056100003 0.00066000002 0.69300002
0.057502862 0.00066095241 0.69400001
0.058824766 0.00066095241 0.69400001
0.060233336 0.00066190481 0.69500005
0.061734289 0.00066380959 0.69700003
0.062880956 0.00066190481 0.69500005
0.064204767 0.00066190481 0.69500005
0.065528579 0.00066190481 0.69500005
0.067044765 0.00066380959 0.69700003
0.021050477 0.0020371431 0.71300006
0.022408573 0.0020371431 0.71300006
0.023700001 0.0020314287 0.71100003
0.02501905 0.0020285717 0.71000004
0.026297145 0.0020228573 0.708
0.027606668 0.0020200002 0.70700002
0.028830478 0.0020114286 0.70400006
0.030128574 0.0020085715 0.70300001
0.031378098 0.0020028572 0.70100003
0.032713335 0.0020028572 0.70100003
0.034000002 0.0020000001 0.70000005
0.035333335 0.0020000001 0.70000005
0.036666669 0.0020000001 0.70000005
0.037891433 0.0019942857 0.69800001
0.039164763 0.0019914287 0.69700003
0.040492382 0.0019914287 0.69700003
0.041700002 0.0019857143 0.69500005
0.043023814 0.0019857143 0.69500005
0.044347622 0.0019857143 0.69500005
0.045605719 0.0019828572 0.69400001
0.046927623 0.0019828572 0.69400001
0.048180003 0.0019800002 0.69300002
0.049357146 0.0019742858 0.69100004
0.050673336 0.0019742858 0.69100004
0.052140005 0.0019800002 0.69300002
0.053460002 0.0019800002 0.69300002
0.05485905 0.0019828572 0.69400001
0.056180958 0.0019828572 0.69400001
0.057502862 0.0019828572 0.69400001
0.058909528 0.0019857143 0.69500005
0.060233336 0.0019857143 0.69500005
0.061734289 0.0019914287 0.69700003
0.062880956 0.0019857143 0.69500005
0.064204767 0.0019857143 0.69500005
0.065528579 0.0019857143 0.69500005
0.067044765 0.0019914287 0.69700003
0.021050477 0.0033952384 0.71300006
0.022408573 0.0033952384 0.71300006
0.023700001 0.0033857145 0.71100003
0.025054287 0.0033857145 0.71100003
0.026371431 0.0033809526 0.71000004
0.027645716 0.0033714287 0.708
0.028830478 0.0033523813 0.70400006
0.03017143 0.0033523813 0.70400006
0.03146762 0.0033476192 0.70300001
0.032713335 0.0033380955 0.70100003
0.034048572 0.0033380955 0.70100003
0.035333335 0.0033333336 0.70000005
0.036666669 0.0033333336 0.70000005
0.038000003 0.0033333336 0.70000005
0.039220955 0.0033238097 0.69800001
0.040492382 0.0033190479 0.69700003
0.041820005 0.0033190479 0.69700003
0.043023814 0.0033095239 0.69500005
0.044347622 0.0033095239 0.69500005
0.045605719 0.0033047621 0.69400001
0.046927623 0.0033047621 0.69400001
0.048249528 0.0033047621 0.69400001
0.049571432 0.0033047621 0.69400001
0.050820004 0.0033000002 0.69300002
0.052215241 0.0033047621 0.69400001
0.053537145 0.0033047621 0.69400001
0.0549381 0.0033095239 0.69500005
0.056261908 0.0033095239 0.69500005
0.057585716 0.0033095239 0.69500005
0.059079051 0.0033190479 0.69700003
0.06040667 0.0033190479 0.69700003
0.061734289 0.0033190479 0.69700003
0.063061908 0.0033190479 0.69700003
0.064389527 0.0033190479 0.69700003
0.065717146 0.0033190479 0.69700003
0.021050477 0.0047533335 0.71300006
0.022408573 0.0047533335 0.71300006
0.023700001 0.0047400002 0.71100003
0.025054287 0.0047400002 0.71100003
0.026371431 0.0047333338 0.71000004
0.027645716 0.0047200001 0.708
0.02887143 0.0047000004 0.70500004
0.03017143 0.0046933335 0.70400006
0.031512383 0.0046933335 0.70400006
0.032806668 0.0046866671 0.70300001
0.034048572 0.0046733338 0.70100003
0.035383813 0.0046733338 0.70100003
0.036666669 0.004666667 0.70000005
0.038000003 0.004666667 0.70000005
0.039220955 0.0046533337 0.69800001
0.040492382 0.0046466668 0.69700003
0.041820005 0.0046466668 0.69700003
0.043023814 0.0046333335 0.69500005
0.044347622 0.0046333335 0.69500005
0.045671433 0.0046333335 0.69500005
0.046995241 0.0046333335 0.69500005
0.048249528 0.0046266671 0.69400001
0.049571432 0.0046266671 0.69400001
0.050893337 0.0046266671 0.69400001
0.052215241 0.0046266671 0.69400001
0.053614289 0.0046333335 0.69500005
0.0549381 0.0046333335 0.69500005
0.056261908 0.0046333335 0.69500005
0.057751432 0.0046466668 0.69700003
0.059163813 0.0046533337 0.69800001
0.060493339 0.0046533337 0.69800001
0.061822861 0.0046533337 0.69800001
0.063152388 0.0046533337 0.69800001
0.064389527 0.0046466668 0.69700003
0.065717146 0.0046466668 0.69700003
0.17934191 0.0060066669 0.90100002
0.021050477 0.0061114291 0.71300006
0.022345716 0.0060942862 0.71100003
0.023700001 0.0060942862 0.71100003
0.02501905 0.0060857148 0.71000004
0.026371431 0.0060857148 0.71000004
0.027645716 0.0060685719 0.708
0.02887143 0.0060428577 0.70500004
0.03017143 0.0060342862 0.70400006
0.031512383 0.0060342862 0.70400006
0.032806668 0.0060257148 0.70300001
0.034145717 0.0060257148 0.70300001
0.035383813 0.0060085719 0.70100003
0.03671905 0.0060085719 0.70100003
0.038000003 0.0060000005 0.70000005
0.039333336 0.0060000005 0.70000005
0.040550478 0.0059828577 0.69800001
0.041880004 0.0059828577 0.69800001
0.043147624 0.0059742862 0.69700003
0.044347622 0.0059571434 0.69500005
0.045671433 0.0059571434 0.69500005
0.046995241 0.0059571434 0.69500005
0.048319049 0.0059571434 0.69500005
0.049642861 0.0059571434 0.69500005
0.050893337 0.005948572 0.69400001
0.052290481 0.0059571434 0.69500005
0.053614289 0.0059571434 0.69500005
0.055096194 0.0059742862 0.69700003
0.056423813 0.0059742862 0.69700003
0.057751432 0.0059742862 0.69700003
0.059163813 0.0059828577 0.69800001
0.060493339 0.0059828577 0.69800001
0.061822861 0.0059828577 0.69800001
0.063152388 0.0059828577 0.69800001
0.064481907 0.0059828577 0.69800001
0.065811433 0.0059828577 0.69800001
0.022408573 0.0074695242 0.71300006
0.023700001 0.0074485717 0.71100003
0.025054287 0.0074485717 0.71100003
0.026408574 0.0074485717 0.71100003
0.027645716 0.0074171433 0.708
0.02887143 0.0073857149 0.70500004
0.030214287 0.0073857149 0.70500004
0.031557146 0.0073857149 0.70500004
0.032853335 0.0073752385 0.70400006
0.034194287 0.0073752385 0.70400006
0.035484765 0.0073647625 0.70300001
0.03671905 0.0073438101 0.70100003
0.038054287 0.0073438101 0.70100003
0.039389525 0.0073438101 0.70100003
0.04066667 0.0073333336 0.70000005
0.041880004 0.0073123816 0.69800001
0.043147624 0.0073019052 0.69700003
0.044347622 0.0072809528 0.69500005
0.045671433 0.0072809528 0.69500005
0.046995241 0.0072809528 0.69500005
0.048319049 0.0072809528 0.69500005
0.049642861 0.0072809528 0.69500005
0.050966669 0.0072809528 0.69500005
0.052290481 0.0072809528 0.69500005
0.053768575 0.0073019052 0.69700003
0.055175241 0.0073123816 0.69800001
0.056423813 0.0073019052 0.69700003
0.05783429 0.0073123816 0.69800001
0.059163813 0.0073123816 0.69800001
0.060666669 0.0073333336 0.70000005
0.062000003 0.0073333336 0.70000005
0.063152388 0.0073123816 0.69800001
0.064481907 0.0073123816 0.69800001
0.065811433 0.0073123816 0.69800001
0.01588762 0.010870477 0.87800002
0.023766669 0.0088276193 0.71300006
0.025054287 0.0088028582 0.71100003
0.026408574 0.0088028582 0.71100003
0.027723812 0.0087904772 0.71000004
0.028994288 0.0087657152 0.708
0.030214287 0.0087285722 0.70500004
0.031557146 0.0087285722 0.70500004
0.032900002 0.0087285722 0.70500004
0.034242861 0.0087285722 0.70500004
0.035535239 0.0087161912 0.70400006
0.036823813 0.0087038102 0.70300001
0.038162861 0.0087038102 0.70300001
0.039501909 0.0087038102 0.70300001
0.04066667 0.0086666672 0.70000005
0.042000003 0.0086666672 0.70000005
0.043209527 0.0086419052 0.69800001
0.044539049 0.0086419052 0.69800001
0.045868576 0.0086419052 0.69800001
0.047198098 0.0086419052 0.69800001
0.048527621 0.0086419052 0.69800001
0.049857147 0.0086419052 0.69800001
0.051113337 0.0086295241 0.69700003
0.052440956 0.0086295241 0.69700003
0.053845719 0.0086419052 0.69800001
0.055175241 0.0086419052 0.69800001
0.056504767 0.0086419052 0.69800001
0.05783429 0.0086419052 0.69800001
0.059333336 0.0086666672 0.70000005
0.060666669 0.0086666672 0.70000005
0.062000003 0.0086666672 0.70000005
0.06333334 0.0086666672 0.70000005
0.064759053 0.0086790482 0.70100003
0.066094287 0.0086790482 0.70100003
0.014166668 0.012500001 0.87500006
0.015797144 0.012471429 0.87300003
0.023766669 0.010185715 0.71300006
0.025124764 0.010185715 0.71300006
0.026408574 0.010157144 0.71100003
0.027723812 0.010142858 0.71000004
0.028994288 0.010114286 0.708
0.030300003 0.010100001 0.70700002
0.031646669 0.010100001 0.70700002
0.032900002 0.010071429 0.70500004
0.034242861 0.010071429 0.70500004
0.035535239 0.010057144 0.70400006
0.036876194 0.010057144 0.70400006
0.038217146 0.010057144 0.70400006
0.039501909 0.010042857 0.70300001
0.040724766 0.010014286 0.70100003
0.042000003 0.010000001 0.70000005
0.043333337 0.010000001 0.70000005
0.044539049 0.0099714296 0.69800001
0.045868576 0.0099714296 0.69800001
0.047333337 0.010000001 0.70000005
0.048527621 0.0099714296 0.69800001
0.049857147 0.0099714296 0.69800001
0.05118667 0.0099714296 0.69800001
0.052516192 0.0099714296 0.69800001
0.054000005 0.010000001 0.70000005
0.055333339 0.010000001 0.70000005
0.056666672 0.010000001 0.70000005
0.058000002 0.010000001 0.70000005
0.059333336 0.010000001 0.70000005
0.060666669 0.010000001 0.70000005
0.062000003 0.010000001 0.70000005
0.06333334 0.010000001 0.70000005
0.064759053 0.010014286 0.70100003
0.066094287 0.010014286 0.70100003
0.017420001 0.014101906 0.87100005
0.023800002 0.01156 0.71400005
0.025124764 0.01154381 0.71300006
0.026408574 0.011511429 0.71100003
0.027723812 0.011495239 0.71000004
0.028994288 0.011462858 0.708
0.030300003 0.011446668 0.70700002
0.031646669 0.011446668 0.70700002
0.032900002 0.011414287 0.70500004
0.034242861 0.011414287 0.70500004
0.035535239 0.011398096 0.70400006
0.036876194 0.011398096 0.70400006
0.038217146 0.011398096 0.70400006
0.039501909 0.011381906 0.70300001
0.040724766 0.011349524 0.70100003
0.042060003 0.011349524 0.70100003
0.043333337 0.011333334 0.70000005
0.04466667 0.011333334 0.70000005
0.046000004 0.011333334 0.70000005
0.047333337 0.011333334 0.70000005
0.048666671 0.011333334 0.70000005
0.050000004 0.011333334 0.70000005
0.051333338 0.011333334 0.70000005
0.052666672 0.011333334 0.70000005
0.054000005 0.011333334 0.70000005
0.055333339 0.011333334 0.70000005
0.056666672 0.011333334 0.70000005
0.058000002 0.011333334 0.70000005
0.059418101 0.011349524 0.70100003
0.060753338 0.011349524 0.70100003
0.062088575 0.011349524 0.70100003
0.063423812 0.011349524 0.70100003
0.064759053 0.011349524 0.70100003
0.015688572 0.015688572 0.86700004
0.023866668 0.012956192 0.71600002
0.025124764 0.012901906 0.71300006
0.026408574 0.012865715 0.71100003
0.027762858 0.012865715 0.71100003
0.028994288 0.01281143 0.708
0.030300003 0.012793334 0.70700002
0.031646669 0.012793334 0.70700002
0.032993335 0.012793334 0.70700002
0.034242861 0.012757144 0.70500004
0.035585716 0.012757144 0.70500004
0.036876194 0.012739048 0.70400006
0.038217146 0.012739048 0.70400006
0.039501909 0.012720954 0.70300001
0.040724766 0.012684762 0.70100003
0.042060003 0.012684762 0.70100003
0.04339524 0.012684762 0.70100003
0.04466667 0.012666668 0.70000005
0.046000004 0.012666668 0.70000005
0.047333337 0.012666668 0.70000005
0.048666671 0.012666668 0.70000005
0.050000004 0.012666668 0.70000005
0.051333338 0.012666668 0.70000005
0.052666672 0.012666668 0.70000005
0.054000005 0.012666668 0.70000005
0.055333339 0.012666668 0.70000005
0.056666672 0.012666668 0.70000005
0.058000002 0.012666668 0.70000005
0.059418101 0.012684762 0.70100003
0.060753338 0.012684762 0.70100003
0.062088575 0.012684762 0.70100003
0.063423812 0.012684762 0.70100003
0.064759053 0.012684762 0.70100003
0.015652383 0.0173 0.86500007
0.0173 0.0173 0.86500007
0.018881906 0.017240001 0.86200005
0.022440001 0.014280001 0.71400005
0.023800002 0.014280001 0.71400005
0.025124764 0.014260001 0.71300006
0.02648286 0.014260001 0.71300006
0.027762858 0.014220001 0.71100003
0.029076193 0.014200001 0.71000004
0.030342858 0.014160001 0.708
0.031646669 0.014140001 0.70700002
0.032993335 0.014140001 0.70700002
0.034242861 0.014100001 0.70500004
0.035585716 0.014100001 0.70500004
0.036876194 0.014080001 0.70400006
0.038217146 0.014080001 0.70400006
0.039558098 0.014080001 0.70400006
0.040899049 0.014080001 0.70400006
0.042060003 0.014020001 0.70100003
0.04339524 0.014020001 0.70100003
0.044730481 0.014020001 0.70100003
0.046065718 0.014020001 0.70100003
0.047400955 0.014020001 0.70100003
0.048666671 0.014000001 0.70000005
0.050000004 0.014000001 0.70000005
0.051333338 0.014000001 0.70000005
0.052666672 0.014000001 0.70000005
0.054000005 0.014000001 0.70000005
0.055333339 0.014000001 0.70000005
0.056747623 0.014020001 0.70100003
0.05808286 0.014020001 0.70100003
0.059418101 0.014020001 0.70100003
0.060753338 0.014020001 0.70100003
0.062088575 0.014020001 0.70100003
0.063604765 0.014060001 0.70300001
0.064943813 0.014060001 0.70300001
0.015598096 0.018881906 0.86200005
0.017240001 0.018881906 0.86200005
0.018881906 0.018881906 0.86200005
0.022440001 0.015640002 0.71400005
0.023900002 0.015705716 0.71700001
0.025160002 0.015640002 0.71400005
0.02648286 0.015618096 0.71300006
0.027762858 0.015574287 0.71100003
0.029117145 0.015574287 0.71100003
0.030342858 0.015508573 0.708
0.031646669 0.015486668 0.70700002
0.032993335 0.015486668 0.70700002
0.034340002 0.015486668 0.70700002
0.035585716 0.015442858 0.70500004
0.036928575 0.015442858 0.70500004
0.038271431 0.015442858 0.70500004
0.039558098 0.015420954 0.70400006
0.040899049 0.015420954 0.70400006
0.042180002 0.015399049 0.70300001
0.04351905 0.015399049 0.70300001
0.044730481 0.015355239 0.70100003
0.046065718 0.015355239 0.70100003
0.047400955 0.015355239 0.70100003
0.048736192 0.015355239 0.70100003
0.050000004 0.015333334 0.70000005
0.051333338 0.015333334 0.70000005
0.052666672 0.015333334 0.70000005
0.054077145 0.015355239 0.70100003
0.055412386 0.015355239 0.70100003
0.056747623 0.015355239 0.70100003
0.05808286 0.015355239 0.70100003
0.059418101 0.015355239 0.70100003
0.060926672 0.015399049 0.70300001
0.06226572 0.015399049 0.70300001
0.063695244 0.015420954 0.70400006
0.065036193 0.015420954 0.70400006
0.017200001 0.020476192 0.86000001
0.018838096 0.020476192 0.86000001
0.023900002 0.01707143 0.71700001
0.025160002 0.017000001 0.71400005
0.02648286 0.016976191 0.71300006
0.027762858 0.016928572 0.71100003
0.029117145 0.016928572 0.71100003
0.030342858 0.016857143 0.708
0.031691432 0.016857143 0.708
0.032993335 0.016833335 0.70700002
0.034340002 0.016833335 0.70700002
0.035585716 0.016785715 0.70500004
0.036928575 0.016785715 0.70500004
0.038271431 0.016785715 0.70500004
0.039558098 0.016761906 0.70400006
0.040899049 0.016761906 0.70400006
0.042180002 0.016738096 0.70300001
0.04351905 0.016738096 0.70300001
0.044858098 0.016738096 0.70300001
0.046197146 0.016738096 0.70300001
0.047400955 0.016690478 0.70100003
0.048736192 0.016690478 0.70100003
0.050071433 0.016690478 0.70100003
0.05140667 0.016690478 0.70100003
0.052741908 0.016690478 0.70100003
0.054077145 0.016690478 0.70100003
0.055412386 0.016690478 0.70100003
0.056747623 0.016690478 0.70100003
0.05808286 0.016690478 0.70100003
0.059587624 0.016738096 0.70300001
0.060926672 0.016738096 0.70300001
0.062354289 0.016761906 0.70400006
0.063785717 0.016785715 0.70500004
0.065128572 0.016785715 0.70500004
0.023900002 0.018437143 0.71700001
0.025160002 0.018360002 0.71400005
0.02648286 0.018334286 0.71300006
0.027840953 0.018334286 0.71300006
0.029117145 0.018282859 0.71100003
0.030428573 0.018257145 0.71000004
0.031691432 0.018205715 0.708
0.033040002 0.018205715 0.708
0.034340002 0.018180002 0.70700002
0.035686668 0.018180002 0.70700002
0.036928575 0.018128572 0.70500004
0.038271431 0.018128572 0.70500004
0.03961429 0.018128572 0.70500004
0.040899049 0.018102858 0.70400006
0.042240001 0.018102858 0.70400006
0.043580957 0.018102858 0.70400006
0.044858098 0.018077144 0.70300001
0.04626286 0.018102858 0.70400006
0.047536194 0.018077144 0.70300001
0.048875242 0.018077144 0.70300001
0.050071433 0.018025715 0.70100003
0.05140667 0.018025715 0.70100003
0.052741908 0.018025715 0.70100003
0.054077145 0.018025715 0.70100003
0.055412386 0.018025715 0.70100003
0.056909528 0.018077144 0.70300001
0.058248576 0.018077144 0.70300001
0.059587624 0.018077144 0.70300001
0.061013337 0.018102858 0.70400006
0.062442861 0.018128572 0.70500004
0.063785717 0.018128572 0.70500004
0.023900002 0.019802859 0.71700001
0.025160002 0.019720001 0.71400005
0.02648286 0.019692382 0.71300006
0.027840953 0.019692382 0.71300006
0.029117145 0.019637143 0.71100003
0.030428573 0.019609526 0.71000004
0.031780954 0.019609526 0.71000004
0.033040002 0.019554287 0.708
0.034340002 0.019526668 0.70700002
0.035686668 0.019526668 0.70700002
0.036928575 0.019471429 0.70500004
0.038271431 0.019471429 0.70500004
0.03961429 0.019471429 0.70500004
0.040957145 0.019471429 0.70500004
0.042240001 0.01944381 0.70400006
0.043580957 0.01944381 0.70400006
0.044921909 0.01944381 0.70400006
0.04626286 0.01944381 0.70400006
0.047536194 0.019416193 0.70300001
0.048875242 0.019416193 0.70300001
0.050214291 0.019416193 0.70300001
0.051553335 0.019416193 0.70300001
0.052741908 0.019360954 0.70100003
0.054231431 0.019416193 0.70300001
0.055570479 0.019416193 0.70300001
0.056990478 0.01944381 0.70400006
0.058331434 0.01944381 0.70400006
0.059672385 0.01944381 0.70400006
0.061100002 0.019471429 0.70500004
0.062442861 0.019471429 0.70500004
0.017040001 0.025154287 0.85200006
0.018662859 0.025154287 0.85200006
0.020285716 0.025154287 0.85200006
0.021805715 0.025036192 0.84800005
0.023338096 0.024947621 0.84500003
0.023900002 0.021168573 0.71700001
0.025160002 0.021080002 0.71400005
0.02648286 0.021050477 0.71300006
0.027840953 0.021050477 0.71300006
0.029199049 0.021050477 0.71300006
0.030471431 0.02099143 0.71100003
0.031825718 0.02099143 0.71100003
0.033133335 0.020961907 0.71000004
0.034388572 0.020902859 0.708
0.035737146 0.020902859 0.708
0.037033334 0.020873334 0.70700002
0.038380001 0.020873334 0.70700002
0.03961429 0.020814287 0.70500004
0.040957145 0.020814287 0.70500004
0.042240001 0.020784764 0.70400006
0.043580957 0.020784764 0.70400006
0.044921909 0.020784764 0.70400006
0.04626286 0.020784764 0.70400006
0.047603812 0.020784764 0.70400006
0.048944764 0.020784764 0.70400006
0.050285719 0.020784764 0.70400006
0.051626671 0.020784764 0.70400006
0.052892383 0.020755239 0.70300001
0.054308575 0.020784764 0.70400006
0.055649526 0.020784764 0.70400006
0.056990478 0.020784764 0.70400006
0.058414288 0.020814287 0.70500004
0.059757147 0.020814287 0.70500004
0.061100002 0.020814287 0.70500004
0.062620007 0.020873334 0.70700002
0.021805715 0.026651431 0.84800005
0.023282859 0.026494287 0.84300005
0.02471143 0.026305716 0.83700001
0.023900002 0.022534287 0.71700001
0.025160002 0.022440001 0.71400005
0.026520003 0.022440001 0.71400005
0.027840953 0.022408573 0.71300006
0.029199049 0.022408573 0.71300006
0.030471431 0.022345716 0.71100003
0.031825718 0.022345716 0.71100003
0.033180002 0.022345716 0.71100003
0.034485716 0.022314288 0.71000004
0.035838097 0.022314288 0.71000004
0.037085716 0.022251431 0.708
0.038380001 0.022220001 0.70700002
0.039726671 0.022220001 0.70700002
0.041073337 0.022220001 0.70700002
0.042300005 0.022157144 0.70500004
0.04364286 0.022157144 0.70500004
0.044985719 0.022157144 0.70500004
0.046328574 0.022157144 0.70500004
0.047671434 0.022157144 0.70500004
0.049014289 0.022157144 0.70500004
0.050357144 0.022157144 0.70500004
0.051700003 0.022157144 0.70500004
0.053042859 0.022157144 0.70500004
0.054385718 0.022157144 0.70500004
0.055886671 0.022220001 0.70700002
0.057233337 0.022220001 0.70700002
0.058580004 0.022220001 0.70700002
0.05992667 0.022220001 0.70700002
0.061273336 0.022220001 0.70700002
0.062620007 0.022220001 0.70700002
0.063966669 0.022220001 0.70700002
0.023338096 0.028166668 0.84500003
0.024652382 0.027833335 0.83500004
0.026117144 0.027700001 0.83100003
0.023966668 0.023966668 0.71900004
0.025265716 0.023900002 0.71700001
0.026520003 0.023800002 0.71400005
0.027840953 0.023766669 0.71300006
0.029199049 0.023766669 0.71300006
0.030471431 0.023700001 0.71100003
0.031825718 0.023700001 0.71100003
0.033180002 0.023700001 0.71100003
0.034485716 0.023666669 0.71000004
0.035838097 0.023666669 0.71000004
0.037085716 0.023600001 0.708
0.038434289 0.023600001 0.708
0.039726671 0.023566669 0.70700002
0.041073337 0.023566669 0.70700002
0.042300005 0.023500001 0.70500004
0.04364286 0.023500001 0.70500004
0.044985719 0.023500001 0.70500004
0.046328574 0.023500001 0.70500004
0.047671434 0.023500001 0.70500004
0.049014289 0.023500001 0.70500004
0.050357144 0.023500001 0.70500004
0.051700003 0.023500001 0.70500004
0.053042859 0.023500001 0.70500004
0.054540005 0.023566669 0.70700002
0.055886671 0.023566669 0.70700002
0.057233337 0.023566669 0.70700002
0.058662862 0.023600001 0.708
0.060011432 0.023600001 0.708
0.061273336 0.023566669 0.70700002
0.062620007 0.023566669 0.70700002
0.063966669 0.023566669 0.70700002
0.023282859 0.029705716 0.84300005
0.024593335 0.029353335 0.83300006
0.026054287 0.029212384 0.82900006
0.026594287 0.025230478 0.71600002
0.027880002 0.025160002 0.71400005
0.029199049 0.025124764 0.71300006
0.030557144 0.025124764 0.71300006
0.03191524 0.025124764 0.71300006
0.033180002 0.025054287 0.71100003
0.034534287 0.025054287 0.71100003
0.035888575 0.025054287 0.71100003
0.037190478 0.02501905 0.71000004
0.038542859 0.02501905 0.71000004
0.039782859 0.024948573 0.708
0.041073337 0.024913335 0.70700002
0.042420004 0.024913335 0.70700002
0.04364286 0.024842858 0.70500004
0.044985719 0.024842858 0.70500004
0.046328574 0.024842858 0.70500004
0.047671434 0.024842858 0.70500004
0.049014289 0.024842858 0.70500004
0.050500002 0.024913335 0.70700002
0.051846672 0.024913335 0.70700002
0.053193338 0.024913335 0.70700002
0.054540005 0.024913335 0.70700002
0.055886671 0.024913335 0.70700002
0.057233337 0.024913335 0.70700002
0.058662862 0.024948573 0.708
0.060011432 0.024948573 0.708
0.061273336 0.024913335 0.70700002
0.062620007 0.024913335 0.70700002
0.063966669 0.024913335 0.70700002
0.02663143 0.02663143 0.71700001
0.027880002 0.026520003 0.71400005
0.029199049 0.02648286 0.71300006
0.030557144 0.02648286 0.71300006
0.03191524 0.02648286 0.71300006
0.033180002 0.026408574 0.71100003
0.034534287 0.026408574 0.71100003
0.035888575 0.026408574 0.71100003
0.037190478 0.026371431 0.71000004
0.038542859 0.026371431 0.71000004
0.03989524 0.026371431 0.71000004
0.041131433 0.026297145 0.708
0.042480003 0.026297145 0.708
0.04376667 0.026260002 0.70700002
0.045113336 0.026260002 0.70700002
0.046460003 0.026260002 0.70700002
0.047806669 0.026260002 0.70700002
0.049153335 0.026260002 0.70700002
0.050500002 0.026260002 0.70700002
0.051846672 0.026260002 0.70700002
0.053193338 0.026260002 0.70700002
0.054540005 0.026260002 0.70700002
0.055886671 0.026260002 0.70700002
0.057233337 0.026260002 0.70700002
0.058662862 0.026297145 0.708
0.060011432 0.026297145 0.708
0.061360005 0.026297145 0.708
0.062620007 0.026260002 0.70700002
0.063966669 0.026260002 0.70700002
0.02663143 0.027997145 0.71700001
0.027958097 0.027958097 0.71600002
0.029240001 0.027880002 0.71400005
0.030600002 0.027880002 0.71400005
0.03191524 0.027840953 0.71300006
0.033273336 0.027840953 0.71300006
0.034534287 0.027762858 0.71100003
0.035888575 0.027762858 0.71100003
0.03724286 0.027762858 0.71100003
0.038597144 0.027762858 0.71100003
0.03989524 0.027723812 0.71000004
0.041247621 0.027723812 0.71000004
0.042480003 0.027645716 0.708
0.04376667 0.027606668 0.70700002
0.045113336 0.027606668 0.70700002
0.046460003 0.027606668 0.70700002
0.047806669 0.027606668 0.70700002
0.049153335 0.027606668 0.70700002
0.050500002 0.027606668 0.70700002
0.051846672 0.027606668 0.70700002
0.053193338 0.027606668 0.70700002
0.054617148 0.027645716 0.708
0.055886671 0.027606668 0.70700002
0.057233337 0.027606668 0.70700002
0.058662862 0.027645716 0.708
0.060011432 0.027645716 0.708
0.061360005 0.027645716 0.708
0.062708579 0.027645716 0.708
0.064057149 0.027645716 0.708
0.027997145 0.029362859 0.71700001
0.029321907 0.029321907 0.71600002
0.030685715 0.029321907 0.71600002
0.031960003 0.029240001 0.71400005
0.033273336 0.029199049 0.71300006
0.034631431 0.029199049 0.71300006
0.035888575 0.029117145 0.71100003
0.03724286 0.029117145 0.71100003
0.038597144 0.029117145 0.71100003
0.039951432 0.029117145 0.71100003
0.041247621 0.029076193 0.71000004
0.042600002 0.029076193 0.71000004
0.043828573 0.028994288 0.708
0.045113336 0.028953334 0.70700002
0.046460003 0.028953334 0.70700002
0.047806669 0.028953334 0.70700002
0.049153335 0.028953334 0.70700002
0.050500002 0.028953334 0.70700002
0.051846672 0.028953334 0.70700002
0.053268574 0.028994288 0.708
0.054617148 0.028994288 0.708
0.055965718 0.028994288 0.708
0.057314288 0.028994288 0.708
0.058828574 0.029076193 0.71000004
0.060180955 0.029076193 0.71000004
0.061533336 0.029076193 0.71000004
0.062885717 0.029076193 0.71000004
0.064238101 0.029076193 0.71000004
0.028075241 0.030814288 0.71900004
0.029362859 0.030728573 0.71700001
0.030728573 0.030728573 0.71700001
0.032049526 0.030685715 0.71600002
0.033320002 0.030600002 0.71400005
0.034631431 0.030557144 0.71300006
0.035989527 0.030557144 0.71300006
0.03724286 0.030471431 0.71100003
0.038597144 0.030471431 0.71100003
0.039951432 0.030471431 0.71100003
0.041305717 0.030471431 0.71100003
0.042600002 0.030428573 0.71000004
0.043828573 0.030342858 0.708
0.045177147 0.030342858 0.708
0.046525717 0.030342858 0.708
0.047806669 0.030300003 0.70700002
0.04922286 0.030342858 0.708
0.05057143 0.030342858 0.708
0.051920004 0.030342858 0.708
0.053268574 0.030342858 0.708
0.054771431 0.030428573 0.71000004
0.056123812 0.030428573 0.71000004
0.057476193 0.030428573 0.71000004
0.058911432 0.030471431 0.71100003
0.06026572 0.030471431 0.71100003
0.061620004 0.030471431 0.71100003
0.062974289 0.030471431 0.71100003
0.064328574 0.030471431 0.71100003
0.024166668 0.032452382 0.72500002
0.02554762 0.032452382 0.72500002
0.026928574 0.032452382 0.72500002
0.028192382 0.032318097 0.72200006
0.029485716 0.032228574 0.72000003
0.030814288 0.032183811 0.71900004
0.032094289 0.032094289 0.71700001
0.033413336 0.032049526 0.71600002
0.034680001 0.031960003 0.71400005
0.035989527 0.03191524 0.71300006
0.037347622 0.03191524 0.71300006
0.038705718 0.03191524 0.71300006
0.039951432 0.031825718 0.71100003
0.041305717 0.031825718 0.71100003
0.042660002 0.031825718 0.71100003
0.043952383 0.031780954 0.71000004
0.045177147 0.031691432 0.708
0.046525717 0.031691432 0.708
0.04787429 0.031691432 0.708
0.04922286 0.031691432 0.708
0.05057143 0.031691432 0.708
0.052066669 0.031780954 0.71000004
0.05341905 0.031780954 0.71000004
0.054771431 0.031780954 0.71000004
0.056123812 0.031780954 0.71000004
0.057557147 0.031825718 0.71100003
0.058911432 0.031825718 0.71100003
0.060435243 0.03191524 0.71300006
0.061793339 0.03191524 0.71300006
0.063151434 0.03191524 0.71300006
0.064509526 0.03191524 0.71300006
0.024166668 0.033833336 0.72500002
0.02554762 0.033833336 0.72500002
0.026854288 0.033740003 0.72300005
0.028192382 0.033693336 0.72200006
0.029567622 0.033693336 0.72200006
0.030857146 0.033600003 0.72000003
0.032183811 0.033553336 0.71900004
0.033460002 0.033460002 0.71700001
0.034777146 0.033413336 0.71600002
0.036040001 0.033320002 0.71400005
0.037400004 0.033320002 0.71400005
0.038705718 0.033273336 0.71300006
0.040063813 0.033273336 0.71300006
0.041421909 0.033273336 0.71300006
0.042660002 0.033180002 0.71100003
0.04401429 0.033180002 0.71100003
0.045304764 0.033133335 0.71000004
0.046525717 0.033040002 0.708
0.04787429 0.033040002 0.708
0.049361907 0.033133335 0.71000004
0.050714288 0.033133335 0.71000004
0.052140005 0.033180002 0.71100003
0.05341905 0.033133335 0.71000004
0.054848574 0.033180002 0.71100003
0.056202862 0.033180002 0.71100003
0.057557147 0.033180002 0.71100003
0.059077147 0.033273336 0.71300006
0.060435243 0.033273336 0.71300006
0.061793339 0.033273336 0.71300006
0.063240007 0.033320002 0.71400005
0.064600006 0.033320002 0.71400005
0.024100002 0.035117146 0.72300005
0.025477145 0.035117146 0.72300005
0.026854288 0.035117146 0.72300005
0.028192382 0.035068575 0.72200006
0.029567622 0.035068575 0.72200006
0.030857146 0.034971431 0.72000003
0.032183811 0.034922861 0.71900004
0.033460002 0.034825716 0.71700001
0.034777146 0.034777146 0.71600002
0.036140956 0.034777146 0.71600002
0.037400004 0.034680001 0.71400005
0.038760003 0.034680001 0.71400005
0.040063813 0.034631431 0.71300006
0.041421909 0.034631431 0.71300006
0.042660002 0.034534287 0.71100003
0.04401429 0.034534287 0.71100003
0.045304764 0.034485716 0.71000004
0.046657145 0.034485716 0.71000004
0.04787429 0.034388572 0.708
0.049361907 0.034485716 0.71000004
0.050714288 0.034485716 0.71000004
0.052140005 0.034534287 0.71100003
0.05341905 0.034485716 0.71000004
0.054848574 0.034534287 0.71100003
0.056202862 0.034534287 0.71100003
0.057719052 0.034631431 0.71300006
0.059077147 0.034631431 0.71300006
0.060520004 0.034680001 0.71400005
0.062053338 0.034777146 0.71600002
0.063417144 0.034777146 0.71600002
0.064780958 0.034777146 0.71600002
0.024100002 0.036494289 0.72300005
0.025477145 0.036494289 0.72300005
0.026854288 0.036494289 0.72300005
0.028192382 0.036443811 0.72200006
0.029567622 0.036443811 0.72200006
0.030857146 0.036342859 0.72000003
0.032183811 0.036292382 0.71900004
0.033553336 0.036292382 0.71900004
0.034825716 0.03619143 0.71700001
0.03619143 0.03619143 0.71700001
0.037504766 0.036140956 0.71600002
0.038868573 0.036140956 0.71600002
0.040120002 0.036040001 0.71400005
0.041421909 0.035989527 0.71300006
0.042780004 0.035989527 0.71300006
0.0441381 0.035989527 0.71300006
0.045368575 0.035888575 0.71100003
0.046722859 0.035888575 0.71100003
0.048077147 0.035888575 0.71100003
0.049431432 0.035888575 0.71100003
0.050928574 0.035989527 0.71300006
0.05228667 0.035989527 0.71300006
0.053644765 0.035989527 0.71300006
0.055002861 0.035989527 0.71300006
0.056360956 0.035989527 0.71300006
0.057800002 0.036040001 0.71400005
0.059160005 0.036040001 0.71400005
0.060689528 0.036140956 0.71600002
0.062053338 0.036140956 0.71600002
0.063417144 0.036140956 0.71600002
0.025740001 0.042900003 0.81900007
0.024100002 0.037871432 0.72300005
0.025477145 0.037871432 0.72300005
0.026854288 0.037871432 0.72300005
0.028192382 0.03781905 0.72200006
0.029485716 0.037714288 0.72000003
0.030857146 0.037714288 0.72000003
0.032183811 0.037661906 0.71900004
0.033553336 0.037661906 0.71900004
0.034825716 0.037557144 0.71700001
0.03619143 0.037557144 0.71700001
0.037504766 0.037504766 0.71600002
0.038868573 0.037504766 0.71600002
0.040120002 0.037400004 0.71400005
0.041480001 0.037400004 0.71400005
0.042780004 0.037347622 0.71300006
0.0441381 0.037347622 0.71300006
0.045368575 0.03724286 0.71100003
0.046722859 0.03724286 0.71100003
0.048077147 0.03724286 0.71100003
0.049570478 0.037347622 0.71300006
0.050928574 0.037347622 0.71300006
0.05228667 0.037347622 0.71300006
0.053644765 0.037347622 0.71300006
0.055080004 0.037400004 0.71400005
0.056440003 0.037400004 0.71400005
0.057961907 0.037504766 0.71600002
0.059325717 0.037504766 0.71600002
0.060774289 0.037557144 0.71700001
0.062053338 0.037504766 0.71600002
0.063417144 0.037504766 0.71600002
0.021008573 0.044351432 0.81700003
0.022564763 0.044351432 0.81700003
0.024120955 0.044351432 0.81700003
0.025614288 0.044242859 0.81500006
0.024166668 0.039357144 0.72500002
0.02554762 0.039357144 0.72500002
0.026854288 0.039248575 0.72300005
0.028192382 0.03919429 0.72200006
0.029567622 0.03919429 0.72200006
0.030857146 0.039085716 0.72000003
0.032228574 0.039085716 0.72000003
0.033553336 0.039031431 0.71900004
0.034825716 0.038922861 0.71700001
0.03619143 0.038922861 0.71700001
0.037557144 0.038922861 0.71700001
0.038922861 0.038922861 0.71700001
0.040232383 0.038868573 0.71600002
0.041480001 0.038760003 0.71400005
0.042780004 0.038705718 0.71300006
0.0441381 0.038705718 0.71300006
0.045496192 0.038705718 0.71300006
0.046854287 0.038705718 0.71300006
0.048212383 0.038705718 0.71300006
0.049570478 0.038705718 0.71300006
0.050928574 0.038705718 0.71300006
0.05228667 0.038705718 0.71300006
0.053720005 0.038760003 0.71400005
0.055080004 0.038760003 0.71400005
0.056440003 0.038760003 0.71400005
0.057961907 0.038868573 0.71600002
0.059325717 0.038868573 0.71600002
0.060774289 0.038922861 0.71700001
0.062053338 0.038868573 0.71600002
0.063417144 0.038868573 0.71600002
0.026854288 0.040625717 0.72300005
0.028192382 0.040569525 0.72200006
0.029567622 0.040569525 0.72200006
0.030857146 0.040457144 0.72000003
0.032183811 0.040400956 0.71900004
0.033553336 0.040400956 0.71900004
0.034825716 0.040288575 0.71700001
0.03619143 0.040288575 0.71700001
0.037557144 0.040288575 0.71700001
0.038922861 0.040288575 0.71700001
0.040232383 0.040232383 0.71600002
0.041596193 0.040232383 0.71600002
0.042840004 0.040120002 0.71400005
0.044200003 0.040120002 0.71400005
0.045560002 0.040120002 0.71400005
0.046854287 0.040063813 0.71300006
0.048212383 0.040063813 0.71300006
0.049570478 0.040063813 0.71300006
0.050928574 0.040063813 0.71300006
0.05228667 0.040063813 0.71300006
0.053720005 0.040120002 0.71400005
0.055234291 0.040232383 0.71600002
0.056598101 0.040232383 0.71600002
0.057961907 0.040232383 0.71600002
0.059408575 0.040288575 0.71700001
0.060943812 0.040400956 0.71900004
0.062140003 0.040288575 0.71700001
0.063505717 0.040288575 0.71700001
0.028192382 0.041944765 0.72200006
0.029567622 0.041944765 0.72200006
0.030942859 0.041944765 0.72200006
0.032228574 0.041828573 0.72000003
0.033553336 0.041770481 0.71900004
0.034825716 0.041654289 0.71700001
0.03619143 0.041654289 0.71700001
0.037557144 0.041654289 0.71700001
0.038922861 0.041654289 0.71700001
0.040232383 0.041596193 0.71600002
0.041596193 0.041596193 0.71600002
0.042960003 0.041596193 0.71600002
0.044200003 0.041480001 0.71400005
0.045560002 0.041480001 0.71400005
0.046854287 0.041421909 0.71300006
0.048212383 0.041421909 0.71300006
0.049640004 0.041480001 0.71400005
0.051000003 0.041480001 0.71400005
0.052360002 0.041480001 0.71400005
0.053870481 0.041596193 0.71600002
0.055234291 0.041596193 0.71600002
0.056598101 0.041596193 0.71600002
0.058042862 0.041654289 0.71700001
0.059408575 0.041654289 0.71700001
0.060943812 0.041770481 0.71900004
0.062313337 0.041770481 0.71900004
0.063682862 0.041770481 0.71900004
0.026965717 0.043560002 0.72600001
0.028231431 0.043380003 0.72300005
0.029608574 0.043380003 0.72300005
0.030942859 0.043320004 0.72200006
0.032228574 0.043200001 0.72000003
0.033553336 0.043140002 0.71900004
0.034922861 0.043140002 0.71900004
0.03619143 0.043020003 0.71700001
0.037557144 0.043020003 0.71700001
0.038922861 0.043020003 0.71700001
0.040288575 0.043020003 0.71700001
0.041596193 0.042960003 0.71600002
0.042960003 0.042960003 0.71600002
0.044200003 0.042840004 0.71400005
0.045560002 0.042840004 0.71400005
0.046920002 0.042840004 0.71400005
0.048280004 0.042840004 0.71400005
0.049640004 0.042840004 0.71400005
0.051000003 0.042840004 0.71400005
0.052360002 0.042840004 0.71400005
0.053870481 0.042960003 0.71600002
0.055234291 0.042960003 0.71600002
0.056598101 0.042960003 0.71600002
0.058042862 0.043020003 0.71700001
0.059408575 0.043020003 0.71700001
0.060943812 0.043140002 0.71900004
0.062313337 0.043140002 0.71900004
0.063682862 0.043140002 0.71900004
0.025688574 0.045128573 0.72900003
0.027040001 0.04506667 0.72800004
0.028309526 0.044880956 0.72500002
0.029690478 0.044880956 0.72500002
0.03107143 0.044880956 0.72500002
0.03236286 0.044757146 0.72300005
0.033600003 0.044571433 0.72000003
0.034922861 0.044509526 0.71900004
0.036292382 0.044509526 0.71900004
0.037557144 0.044385716 0.71700001
0.038922861 0.044385716 0.71700001
0.040288575 0.044385716 0.71700001
0.041654289 0.044385716 0.71700001
0.042960003 0.044323813 0.71600002
0.044323813 0.044323813 0.71600002
0.045687623 0.044323813 0.71600002
0.046920002 0.044200003 0.71400005
0.048280004 0.044200003 0.71400005
0.04977905 0.044323813 0.71600002
0.05114286 0.044323813 0.71600002
0.05250667 0.044323813 0.71600002
0.053945716 0.044385716 0.71700001
0.055311434 0.044385716 0.71700001
0.056677148 0.044385716 0.71700001
0.058042862 0.044385716 0.71700001
0.059574291 0.044509526 0.71900004
0.060943812 0.044509526 0.71900004
0.062313337 0.044509526 0.71900004
0.063682862 0.044509526 0.71900004
0.025759049 0.046644766 0.73100001
0.027040001 0.046453338 0.72800004
0.028348573 0.046325717 0.72600001
0.029690478 0.046261907 0.72500002
0.03107143 0.046261907 0.72500002
0.03236286 0.046134289 0.72300005
0.033693336 0.046070479 0.72200006
0.034971431 0.045942862 0.72000003
0.036292382 0.045879051 0.71900004
0.037661906 0.045879051 0.71900004
0.038922861 0.04575143 0.71700001
0.040288575 0.04575143 0.71700001
0.041654289 0.04575143 0.71700001
0.043020003 0.04575143 0.71700001
0.044385716 0.04575143 0.71700001
0.04575143 0.04575143 0.71700001
0.047117148 0.04575143 0.71700001
0.04841524 0.045687623 0.71600002
0.049848575 0.04575143 0.71700001
0.051214289 0.04575143 0.71700001
0.052580003 0.04575143 0.71700001
0.053945716 0.04575143 0.71700001
0.055311434 0.04575143 0.71700001
0.056677148 0.04575143 0.71700001
0.058204766 0.045879051 0.71900004
0.059574291 0.045879051 0.71900004
0.060943812 0.045879051 0.71900004
0.062400006 0.045942862 0.72000003
0.063771434 0.045942862 0.72000003
0.028348573 0.047708575 0.72600001
0.02973143 0.047708575 0.72600001
0.03107143 0.047642861 0.72500002
0.032452382 0.047642861 0.72500002
0.033740003 0.047511432 0.72300005
0.035068575 0.047445718 0.72200006
0.036342859 0.04731429 0.72000003
0.037661906 0.047248576 0.71900004
0.039031431 0.047248576 0.71900004
0.040400956 0.047248576 0.71900004
0.041770481 0.047248576 0.71900004
0.043020003 0.047117148 0.71700001
0.044385716 0.047117148 0.71700001
0.04575143 0.047117148 0.71700001
0.047117148 0.047117148 0.71700001
0.048482861 0.047117148 0.71700001
0.049848575 0.047117148 0.71700001
0.051357146 0.047248576 0.71900004
0.052726671 0.047248576 0.71900004
0.054096196 0.047248576 0.71900004
0.055311434 0.047117148 0.71700001
0.056677148 0.047117148 0.71700001
0.058204766 0.047248576 0.71900004
0.059574291 0.047248576 0.71900004
0.060943812 0.047248576 0.71900004
0.062313337 0.047248576 0.71900004
0.063682862 0.047248576 0.71900004
0.027040001 0.049226671 0.72800004
0.028348573 0.049091432 0.72600001
0.02973143 0.049091432 0.72600001
0.031114288 0.049091432 0.72600001
0.032452382 0.049023814 0.72500002
0.033740003 0.048888575 0.72300005
0.035117146 0.048888575 0.72300005
0.036443811 0.048820954 0.72200006
0.037714288 0.048685718 0.72000003
0.039031431 0.048618097 0.71900004
0.040400956 0.048618097 0.71900004
0.041770481 0.048618097 0.71900004
0.043140002 0.048618097 0.71900004
0.044509526 0.048618097 0.71900004
0.045879051 0.048618097 0.71900004
0.047248576 0.048618097 0.71900004
0.048618097 0.048618097 0.71900004
0.049987622 0.048618097 0.71900004
0.051357146 0.048618097 0.71900004
0.052726671 0.048618097 0.71900004
0.054096196 0.048618097 0.71900004
0.055465717 0.048618097 0.71900004
0.056835242 0.048618097 0.71900004
0.058204766 0.048618097 0.71900004
0.059657145 0.048685718 0.72000003
0.061028574 0.048685718 0.72000003
0.062400006 0.048685718 0.72000003
0.027040001 0.050613336 0.72800004
0.028426668 0.050613336 0.72800004
0.02973143 0.05047429 0.72600001
0.031114288 0.05047429 0.72600001
0.032452382 0.050404765 0.72500002
0.033833336 0.050404765 0.72500002
0.035117146 0.050265718 0.72300005
0.036443811 0.050196193 0.72200006
0.037714288 0.050057147 0.72000003
0.039085716 0.050057147 0.72000003
0.040400956 0.049987622 0.71900004
0.041770481 0.049987622 0.71900004
0.043140002 0.049987622 0.71900004
0.044509526 0.049987622 0.71900004
0.045879051 0.049987622 0.71900004
0.047248576 0.049987622 0.71900004
0.048618097 0.049987622 0.71900004
0.049987622 0.049987622 0.71900004
0.051428575 0.050057147 0.72000003
0.052800003 0.050057147 0.72000003
0.054096196 0.049987622 0.71900004
0.055465717 0.049987622 0.71900004
0.056835242 0.049987622 0.71900004
0.058204766 0.049987622 0.71900004
0.059657145 0.050057147 0.72000003
0.061028574 0.050057147 0.72000003
0.062573336 0.050196193 0.72200006
0.064214289 0.050404765 0.72500002
0.027077144 0.052071434 0.72900003
0.028426668 0.052000005 0.72800004
0.029813336 0.052000005 0.72800004
0.031200003 0.052000005 0.72800004
0.032586668 0.052000005 0.72800004
0.033880003 0.051857147 0.72600001
0.035214286 0.051785719 0.72500002
0.036494289 0.051642861 0.72300005
0.03781905 0.051571433 0.72200006
0.03919429 0.051571433 0.72200006
0.040457144 0.051428575 0.72000003
0.041828573 0.051428575 0.72000003
0.043200001 0.051428575 0.72000003
0.044571433 0.051428575 0.72000003
0.046070479 0.051571433 0.72200006
0.047445718 0.051571433 0.72200006
0.048820954 0.051571433 0.72200006
0.050196193 0.051571433 0.72200006
0.051571433 0.051571433 0.72200006
0.053020004 0.051642861 0.72300005
0.054321907 0.051571433 0.72200006
0.05554286 0.051428575 0.72000003
0.056914289 0.051428575 0.72000003
0.058528576 0.051642861 0.72300005
0.059905719 0.051642861 0.72300005
0.061282862 0.051642861 0.72300005
0.063093334 0.052000005 0.72800004
0.064480007 0.052000005 0.72800004
0.027077144 0.053460002 0.72900003
0.028426668 0.05338667 0.72800004
0.029813336 0.05338667 0.72800004
0.031200003 0.05338667 0.72800004
0.032586668 0.05338667 0.72800004
0.033880003 0.053240005 0.72600001
0.035214286 0.053166669 0.72500002
0.036494289 0.053020004 0.72300005
0.03781905 0.052946672 0.72200006
0.03919429 0.052946672 0.72200006
0.040457144 0.052800003 0.72000003
0.041828573 0.052800003 0.72000003
0.043200001 0.052800003 0.72000003
0.044571433 0.052800003 0.72000003
0.046070479 0.052946672 0.72200006
0.047445718 0.052946672 0.72200006
0.048820954 0.052946672 0.72200006
0.050196193 0.052946672 0.72200006
0.051642861 0.053020004 0.72300005
0.053020004 0.053020004 0.72300005
0.054321907 0.052946672 0.72200006
0.055697147 0.052946672 0.72200006
0.057072386 0.052946672 0.72200006
0.058528576 0.053020004 0.72300005
0.059905719 0.053020004 0.72300005
0.061282862 0.053020004 0.72300005
0.063180007 0.053460002 0.72900003
0.064568579 0.053460002 0.72900003
0.028426668 0.054773338 0.72800004
0.029813336 0.054773338 0.72800004
0.031200003 0.054773338 0.72800004
0.032586668 0.054773338 0.72800004
0.033880003 0.054622862 0.72600001
0.03526286 0.054622862 0.72600001
0.036494289 0.054397147 0.72300005
0.03781905 0.054321907 0.72200006
0.03919429 0.054321907 0.72200006
0.040569525 0.054321907 0.72200006
0.041828573 0.054171432 0.72000003
0.043200001 0.054171432 0.72000003
0.04469524 0.054321907 0.72200006
0.046070479 0.054321907 0.72200006
0.047511432 0.054397147 0.72300005
0.048820954 0.054321907 0.72200006
0.050196193 0.054321907 0.72200006
0.051642861 0.054397147 0.72300005
0.053020004 0.054397147 0.72300005
0.054321907 0.054321907 0.72200006
0.055697147 0.054321907 0.72200006
0.057072386 0.054321907 0.72200006
0.058690481 0.054547623 0.72500002
0.060071431 0.054547623 0.72500002
0.061282862 0.054397147 0.72300005
0.063353337 0.05499905 0.73100001
0.064745717 0.05499905 0.73100001
0.027040001 0.056160003 0.72800004
0.028426668 0.056160003 0.72800004
0.029813336 0.056160003 0.72800004
0.031242859 0.056237146 0.72900003
0.032631431 0.056237146 0.72900003
0.033973336 0.056160003 0.72800004
0.03526286 0.056005716 0.72600001
0.03659524 0.055928577 0.72500002
0.037871432 0.05577429 0.72300005
0.039248575 0.05577429 0.72300005
0.040569525 0.055697147 0.72200006
0.041828573 0.05554286 0.72000003
0.043200001 0.05554286 0.72000003
0.04469524 0.055697147 0.72200006
0.046134289 0.05577429 0.72300005
0.047511432 0.05577429 0.72300005
0.048888575 0.05577429 0.72300005
0.050265718 0.05577429 0.72300005
0.051642861 0.05577429 0.72300005
0.053020004 0.05577429 0.72300005
0.054397147 0.05577429 0.72300005
0.05577429 0.05577429 0.72300005
0.057151433 0.05577429 0.72300005
0.058690481 0.055928577 0.72500002
0.059905719 0.05577429 0.72300005
0.061282862 0.05577429 0.72300005
0.063440003 0.056468576 0.73200005
0.064834289 0.056468576 0.73200005
0.027077144 0.057625718 0.72900003
0.028426668 0.057546671 0.72800004
0.029813336 0.057546671 0.72800004
0.031242859 0.057625718 0.72900003
0.032631431 0.057625718 0.72900003
0.033973336 0.057546671 0.72800004
0.035360001 0.057546671 0.72800004
0.036645718 0.057388574 0.72600001
0.037871432 0.057151433 0.72300005
0.039248575 0.057151433 0.72300005
0.040625717 0.057151433 0.72300005
0.041944765 0.057072386 0.72200006
0.043320004 0.057072386 0.72200006
0.044757146 0.057151433 0.72300005
0.046134289 0.057151433 0.72300005
0.047511432 0.057151433 0.72300005
0.048888575 0.057151433 0.72300005
0.050265718 0.057151433 0.72300005
0.051642861 0.057151433 0.72300005
0.053020004 0.057151433 0.72300005
0.054397147 0.057151433 0.72300005
0.05577429 0.057151433 0.72300005
0.057309527 0.057309527 0.72500002
0.058771431 0.057388574 0.72600001
0.060071431 0.057309527 0.72500002
0.061452385 0.057309527 0.72500002
0.06361334 0.058020957 0.73400003
0.065011434 0.058020957 0.73400003
0.066138096 0.057783812 0.73100001
0.02715143 0.059176195 0.73100001
0.028543811 0.059176195 0.73100001
0.029936193 0.059176195 0.73100001
0.031328574 0.059176195 0.73100001
0.032631431 0.059014291 0.72900003
0.034020003 0.059014291 0.72900003
0.035408575 0.059014291 0.72900003
0.03674667 0.058933336 0.72800004
0.037976194 0.058690481 0.72500002
0.039357144 0.058690481 0.72500002
0.040625717 0.058528576 0.72300005
