# .PCD v0.7 - Point Cloud Data file format
VERSION 0.7
FIELDS x y z
SIZE 4 4 4
TYPE F F F
COUNT 1 1 1
WIDTH 1361
HEIGHT 1
VIEWPOINT 0 0 0 1 0 0 0
POINTS 1361
DATA ascii
-0.15518573 -0.031037144 0.63900006
-0.15420954 -0.031085717 0.64000005
-0.15346858 -0.031182859 0.64200002
-0.15272 -0.031280003 0.64400005
-0.15172859 -0.031328574 0.64500004
-0.15096667 -0.031425714 0.64700001
-0.14996572 -0.031474289 0.648
-0.14919049 -0.031571429 0.65000004
-0.14840762 -0.031668574 0.65200001
-0.14806858 -0.031862859 0.65600002
-0.14704287 -0.031911429 0.65700001
-0.14601335 -0.031960003 0.65800005
-0.14520001 -0.032057144 0.66000003
-0.14394286 -0.032057144 0.66000003
-0.16656573 -0.028840002 0.61800003
-0.16565619 -0.028886668 0.61900002
-0.16447715 -0.028886668 0.61900002
-0.1632981 -0.028886668 0.61900002
-0.16238096 -0.028933335 0.62
-0.16198002 -0.029073335 0.62300003
-0.16130954 -0.029166669 0.625
-0.16088763 -0.029306669 0.62800002
-0.15969144 -0.029306669 0.62800002
-0.15925239 -0.029446669 0.63100004
-0.15805049 -0.029446669 0.63100004
-0.15709715 -0.029493336 0.63200003
-0.15638667 -0.029586669 0.634
-0.1561581 -0.029773336 0.63800001
-0.15494287 -0.029773336 0.63800001
-0.15420954 -0.029866669 0.64000005
-0.15346858 -0.029960003 0.64200002
-0.15272 -0.030053336 0.64400005
-0.15172859 -0.030100003 0.64500004
-0.15096667 -0.030193334 0.64700001
-0.14973429 -0.030193334 0.64700001
-0.14818001 -0.030380001 0.65100002
-0.14806858 -0.030613335 0.65600002
-0.14704287 -0.030660002 0.65700001
-0.14601335 -0.030706668 0.65800005
-0.14476001 -0.030706668 0.65800005
-0.14350668 -0.030706668 0.65800005
-0.1680143 -0.027707621 0.61900002
-0.16683525 -0.027707621 0.61900002
-0.16565619 -0.027707621 0.61900002
-0.16447715 -0.027707621 0.61900002
-0.1632981 -0.027707621 0.61900002
-0.16238096 -0.027752383 0.62
-0.16198002 -0.027886668 0.62300003
-0.16130954 -0.027976193 0.625
-0.16088763 -0.028110478 0.62800002
-0.15969144 -0.028110478 0.62800002
-0.15874763 -0.028155239 0.62900001
-0.15805049 -0.028244764 0.63100004
-0.15684858 -0.028244764 0.63100004
-0.15638667 -0.028379049 0.634
-0.15566859 -0.028468573 0.63600004
-0.15494287 -0.028558098 0.63800001
-0.15396859 -0.028602859 0.63900006
-0.15322953 -0.028692383 0.64100003
-0.15272 -0.028826669 0.64400005
-0.15172859 -0.02887143 0.64500004
-0.15073334 -0.028916193 0.64600003
-0.14973429 -0.028960954 0.64700001
-0.14818001 -0.029140001 0.65100002
-0.14806858 -0.029363811 0.65600002
-0.14704287 -0.029408574 0.65700001
-0.14601335 -0.029453335 0.65800005
-0.14476001 -0.029453335 0.65800005
-0.14350668 -0.029453335 0.65800005
-0.1680143 -0.026528573 0.61900002
-0.16683525 -0.026528573 0.61900002
-0.16565619 -0.026528573 0.61900002
-0.16447715 -0.026528573 0.61900002
-0.1632981 -0.026528573 0.61900002
-0.16238096 -0.02657143 0.62
-0.16172001 -0.026657145 0.62200004
-0.16182573 -0.02687143 0.62700003
-0.16088763 -0.026914287 0.62800002
-0.15969144 -0.026914287 0.62800002
-0.15874763 -0.026957145 0.62900001
-0.15805049 -0.027042858 0.63100004
-0.15684858 -0.027042858 0.63100004
-0.15614001 -0.027128574 0.63300002
-0.15566859 -0.027257144 0.63600004
-0.15494287 -0.02734286 0.63800001
-0.15396859 -0.027385715 0.63900006
-0.15322953 -0.027471431 0.64100003
-0.15224573 -0.027514288 0.64200002
-0.15149334 -0.027600002 0.64400005
-0.15073334 -0.027685717 0.64600003
-0.14973429 -0.027728572 0.64700001
-0.14919049 -0.027857145 0.65000004
-0.14840762 -0.027942859 0.65200001
-0.14806858 -0.028114287 0.65600002
-0.14704287 -0.028157145 0.65700001
-0.14579144 -0.028157145 0.65700001
-0.14476001 -0.028200002 0.65800005
-0.14350668 -0.028200002 0.65800005
-0.1680143 -0.025349526 0.61900002
-0.16683525 -0.025349526 0.61900002
-0.16565619 -0.025349526 0.61900002
-0.16447715 -0.025349526 0.61900002
-0.1632981 -0.025349526 0.61900002
-0.16238096 -0.025390478 0.62
-0.16172001 -0.025472382 0.62200004
-0.16130954 -0.02559524 0.625
-0.16063143 -0.025677145 0.62700003
-0.15969144 -0.025718097 0.62800002
-0.15849525 -0.025718097 0.62800002
-0.15754953 -0.025759049 0.62900001
-0.15684858 -0.025840955 0.63100004
-0.15614001 -0.025922859 0.63300002
-0.15566859 -0.026045715 0.63600004
-0.15494287 -0.026127622 0.63800001
-0.15396859 -0.026168574 0.63900006
-0.15322953 -0.026250478 0.64100003
-0.15224573 -0.02629143 0.64200002
-0.15149334 -0.026373334 0.64400005
-0.15073334 -0.02645524 0.64600003
-0.14973429 -0.026496192 0.64700001
-0.14919049 -0.026619049 0.65000004
-0.14840762 -0.026700955 0.65200001
-0.14806858 -0.026864763 0.65600002
-0.14704287 -0.026905715 0.65700001
-0.14601335 -0.026946668 0.65800005
-0.14476001 -0.026946668 0.65800005
-0.1680143 -0.024170477 0.61900002
-0.16683525 -0.024170477 0.61900002
-0.16565619 -0.024170477 0.61900002
-0.16447715 -0.024170477 0.61900002
-0.1632981 -0.024170477 0.61900002
-0.16211906 -0.024170477 0.61900002
-0.16172001 -0.024287621 0.62200004
-0.16079335 -0.024326669 0.62300003
-0.16063143 -0.024482859 0.62700003
-0.15943715 -0.024482859 0.62700003
-0.15849525 -0.024521906 0.62800002
-0.15754953 -0.024560954 0.62900001
-0.15684858 -0.02463905 0.63100004
-0.15589334 -0.024678096 0.63200003
-0.15542382 -0.02479524 0.63500005
-0.15445715 -0.024834286 0.63600004
-0.15396859 -0.02495143 0.63900006
-0.15299049 -0.024990479 0.64000005
-0.15224573 -0.025068574 0.64200002
-0.15149334 -0.025146669 0.64400005
-0.15073334 -0.025224764 0.64600003
-0.14973429 -0.025263811 0.64700001
-0.14919049 -0.025380954 0.65000004
-0.14840762 -0.025459049 0.65200001
-0.14806858 -0.02561524 0.65600002
-0.14704287 -0.025654288 0.65700001
-0.14579144 -0.025654288 0.65700001
-0.1680143 -0.02299143 0.61900002
-0.16683525 -0.02299143 0.61900002
-0.16565619 -0.02299143 0.61900002
-0.16447715 -0.02299143 0.61900002
-0.1632981 -0.02299143 0.61900002
-0.16238096 -0.023028573 0.62
-0.16172001 -0.023102859 0.62200004
-0.16079335 -0.023140002 0.62300003
-0.16011906 -0.023214288 0.625
-0.15918286 -0.023251429 0.62600005
-0.15824287 -0.023288572 0.62700003
-0.15729906 -0.023325715 0.62800002
-0.15635143 -0.023362858 0.62900001
-0.15589334 -0.023474287 0.63200003
-0.15517905 -0.023548573 0.634
-0.15421429 -0.023585716 0.63500005
-0.15396859 -0.023734286 0.63900006
-0.15322953 -0.023808572 0.64100003
-0.15224573 -0.023845715 0.64200002
-0.15149334 -0.023920001 0.64400005
-0.15050001 -0.023957144 0.64500004
-0.14973429 -0.02403143 0.64700001
-0.14919049 -0.02414286 0.65000004
-0.14840762 -0.024217144 0.65200001
-0.14739144 -0.024254287 0.65300006
-0.14659525 -0.024328573 0.65500003
-0.14556953 -0.024365716 0.65600002
-0.16774286 -0.021777144 0.61800003
-0.16683525 -0.021812383 0.61900002
-0.16565619 -0.021812383 0.61900002
-0.16447715 -0.021812383 0.61900002
-0.1632981 -0.021812383 0.61900002
-0.16238096 -0.021847621 0.62
-0.16172001 -0.021918098 0.62200004
-0.16079335 -0.021953335 0.62300003
-0.16011906 -0.02202381 0.625
-0.15918286 -0.022059049 0.62600005
-0.15824287 -0.022094287 0.62700003
-0.15729906 -0.022129524 0.62800002
-0.15635143 -0.022164764 0.62900001
-0.15564668 -0.022235239 0.63100004
-0.1549343 -0.022305716 0.63300002
-0.15421429 -0.022376193 0.63500005
-0.15396859 -0.022517145 0.63900006
-0.15299049 -0.022552382 0.64000005
-0.15224573 -0.022622859 0.64200002
-0.15149334 -0.022693334 0.64400005
-0.15050001 -0.022728574 0.64500004
-0.14973429 -0.022799049 0.64700001
-0.14919049 -0.022904763 0.65000004
-0.14818001 -0.022940002 0.65100002
-0.14739144 -0.023010477 0.65300006
-0.14659525 -0.023080954 0.65500003
-0.14534763 -0.023080954 0.65500003
-0.16774286 -0.020600002 0.61800003
-0.16683525 -0.020633334 0.61900002
-0.16565619 -0.020633334 0.61900002
-0.16447715 -0.020633334 0.61900002
-0.1632981 -0.020633334 0.61900002
-0.16238096 -0.020666668 0.62
-0.16172001 -0.020733334 0.62200004
-0.16079335 -0.020766668 0.62300003
-0.16011906 -0.020833334 0.625
-0.15892859 -0.020833334 0.625
-0.15799049 -0.020866668 0.62600005
-0.15729906 -0.020933334 0.62800002
-0.15610287 -0.020933334 0.62800002
-0.15564668 -0.021033335 0.63100004
-0.15468954 -0.021066668 0.63200003
-0.15397143 -0.021133335 0.634
-0.15372764 -0.021266667 0.63800001
-0.15322953 -0.021366669 0.64100003
-0.15224573 -0.021400001 0.64200002
-0.15102287 -0.021400001 0.64200002
-0.15050001 -0.021500001 0.64500004
-0.14973429 -0.021566669 0.64700001
-0.14919049 -0.021666668 0.65000004
-0.14818001 -0.021700002 0.65100002
-0.14739144 -0.021766668 0.65300006
-0.14659525 -0.021833334 0.65500003
-0.14534763 -0.021833334 0.65500003
-0.14410001 -0.021833334 0.65500003
-0.16774286 -0.019422859 0.61800003
-0.16683525 -0.019454287 0.61900002
-0.16565619 -0.019454287 0.61900002
-0.16474287 -0.019485716 0.62
-0.16356191 -0.019485716 0.62
-0.16238096 -0.019485716 0.62
-0.16198002 -0.019580001 0.62300003
-0.16079335 -0.019580001 0.62300003
-0.15986286 -0.019611429 0.62400001
-0.15892859 -0.019642858 0.625
-0.15799049 -0.019674286 0.62600005
-0.15704858 -0.019705715 0.62700003
-0.15610287 -0.019737145 0.62800002
-0.15515335 -0.019768573 0.62900001
-0.15468954 -0.019862859 0.63200003
-0.15397143 -0.019925715 0.634
-0.15396859 -0.020082859 0.63900006
-0.15299049 -0.020114288 0.64000005
-0.15224573 -0.020177145 0.64200002
-0.15149334 -0.020240001 0.64400005
-0.15050001 -0.02027143 0.64500004
-0.14973429 -0.020334287 0.64700001
-0.14942001 -0.020460002 0.65100002
-0.14818001 -0.020460002 0.65100002
-0.14739144 -0.020522859 0.65300006
-0.14614762 -0.020522859 0.65300006
-0.14534763 -0.020585716 0.65500003
-0.14410001 -0.020585716 0.65500003
-0.1428524 -0.020585716 0.65500003
-0.16774286 -0.018245716 0.61800003
-0.16683525 -0.018275239 0.61900002
-0.16565619 -0.018275239 0.61900002
-0.16474287 -0.018304763 0.62
-0.16356191 -0.018304763 0.62
-0.16290477 -0.018363811 0.62200004
-0.16198002 -0.018393334 0.62300003
-0.16079335 -0.018393334 0.62300003
-0.15986286 -0.018422859 0.62400001
-0.15892859 -0.018452382 0.625
-0.15799049 -0.018481907 0.62600005
-0.15679811 -0.018481907 0.62600005
-0.15610287 -0.018540954 0.62800002
-0.15515335 -0.018570477 0.62900001
-0.15468954 -0.01865905 0.63200003
-0.15372857 -0.018688573 0.63300002
-0.15372764 -0.018836191 0.63800001
-0.15275145 -0.018865716 0.63900006
-0.15177144 -0.018895239 0.64000005
-0.15102287 -0.018954286 0.64200002
-0.15050001 -0.019042859 0.64500004
-0.14973429 -0.019101907 0.64700001
-0.14942001 -0.019220002 0.65100002
-0.14818001 -0.019220002 0.65100002
-0.14739144 -0.01927905 0.65300006
-0.14614762 -0.01927905 0.65300006
-0.14534763 -0.019338097 0.65500003
-0.14410001 -0.019338097 0.65500003
-0.14328858 -0.019397143 0.65700001
-0.16774286 -0.017068572 0.61800003
-0.16710477 -0.017123811 0.62
-0.16592382 -0.017123811 0.62
-0.16527429 -0.01717905 0.62200004
-0.16435334 -0.017206667 0.62300003
-0.16316667 -0.017206667 0.62300003
-0.16198002 -0.017206667 0.62300003
-0.16105144 -0.017234286 0.62400001
-0.15986286 -0.017234286 0.62400001
-0.15892859 -0.017261906 0.625
-0.15799049 -0.017289525 0.62600005
-0.15704858 -0.017317144 0.62700003
-0.15610287 -0.017344764 0.62800002
-0.15589334 -0.017455239 0.63200003
-0.15468954 -0.017455239 0.63200003
-0.15372857 -0.017482858 0.63300002
-0.15300477 -0.017538097 0.63500005
-0.15275145 -0.017648572 0.63900006
-0.15177144 -0.017676191 0.64000005
-0.15102287 -0.01773143 0.64200002
-0.15026668 -0.017786669 0.64400005
-0.14942001 -0.017980002 0.65100002
-0.14840762 -0.018007619 0.65200001
-0.14739144 -0.018035239 0.65300006
-0.14659525 -0.018090477 0.65500003
-0.14556953 -0.018118097 0.65600002
-0.14454001 -0.018145716 0.65700001
-0.14350668 -0.018173335 0.65800005
-0.16710477 -0.015942859 0.62
-0.16645905 -0.015994286 0.62200004
-0.16554001 -0.016020002 0.62300003
-0.16435334 -0.016020002 0.62300003
-0.16316667 -0.016020002 0.62300003
-0.16224001 -0.016045716 0.62400001
-0.16105144 -0.016045716 0.62400001
-0.16011906 -0.016071429 0.625
-0.15892859 -0.016071429 0.625
-0.15824287 -0.016122859 0.62700003
-0.15704858 -0.016122859 0.62700003
-0.15610287 -0.016148573 0.62800002
-0.15564668 -0.016225716 0.63100004
-0.15444477 -0.016225716 0.63100004
-0.15348573 -0.01625143 0.63200003
-0.15300477 -0.016328573 0.63500005
-0.15275145 -0.01643143 0.63900006
-0.15200858 -0.016482858 0.64100003
-0.15102287 -0.016508572 0.64200002
-0.15026668 -0.016560001 0.64400005
-0.14942001 -0.016740002 0.65100002
-0.14840762 -0.016765716 0.65200001
-0.14784287 -0.016842859 0.65500003
-0.14681906 -0.016868573 0.65600002
-0.14579144 -0.016894286 0.65700001
-0.14476001 -0.01692 0.65800005
-0.14394286 -0.01697143 0.66000003
-0.16791335 -0.014833334 0.62300003
-0.16672668 -0.014833334 0.62300003
-0.16554001 -0.014833334 0.62300003
-0.16461715 -0.014857144 0.62400001
-0.16342857 -0.014857144 0.62400001
-0.16224001 -0.014857144 0.62400001
-0.16105144 -0.014857144 0.62400001
-0.16011906 -0.014880953 0.625
-0.15892859 -0.014880953 0.625
-0.15824287 -0.014928573 0.62700003
-0.15704858 -0.014928573 0.62700003
-0.15610287 -0.014952382 0.62800002
-0.15564668 -0.015023811 0.63100004
-0.15444477 -0.015023811 0.63100004
-0.15348573 -0.01504762 0.63200003
-0.15276381 -0.01509524 0.634
-0.15275145 -0.015214287 0.63900006
-0.15177144 -0.015238096 0.64000005
-0.15078762 -0.015261906 0.64100003
-0.15050001 -0.015357144 0.64500004
-0.14942001 -0.015500001 0.65100002
-0.14840762 -0.015523811 0.65200001
-0.14784287 -0.015595239 0.65500003
-0.14704287 -0.015642859 0.65700001
-0.14645715 -0.015714286 0.66000003
-0.14542001 -0.015738096 0.66100001
-0.14437906 -0.015761906 0.66200006
-0.1433343 -0.015785715 0.66300005
-0.16818286 -0.013668573 0.62400001
-0.1669943 -0.013668573 0.62400001
-0.16580573 -0.013668573 0.62400001
-0.16461715 -0.013668573 0.62400001
-0.16342857 -0.013668573 0.62400001
-0.16224001 -0.013668573 0.62400001
-0.16105144 -0.013668573 0.62400001
-0.16011906 -0.013690477 0.625
-0.15918286 -0.013712382 0.62600005
-0.15824287 -0.013734287 0.62700003
-0.15704858 -0.013734287 0.62700003
-0.15610287 -0.013756191 0.62800002
-0.15564668 -0.013821905 0.63100004
-0.15444477 -0.013821905 0.63100004
-0.15348573 -0.01384381 0.63200003
-0.15276381 -0.01388762 0.634
-0.15275145 -0.013997144 0.63900006
-0.15153429 -0.013997144 0.63900006
-0.15078762 -0.014040953 0.64100003
-0.14950287 -0.014150477 0.64600003
-0.14942001 -0.014260001 0.65100002
-0.14863525 -0.014303811 0.65300006
-0.14784287 -0.01434762 0.65500003
-0.14726667 -0.014413334 0.65800005
-0.14645715 -0.014457144 0.66000003
-0.14520001 -0.014457144 0.66000003
-0.14416096 -0.014479049 0.66100001
-0.1431181 -0.014500953 0.66200006
-0.1684524 -0.012500001 0.625
-0.1669943 -0.012480001 0.62400001
-0.16580573 -0.012480001 0.62400001
-0.16488096 -0.012500001 0.625
-0.16369049 -0.012500001 0.625
-0.16224001 -0.012480001 0.62400001
-0.16105144 -0.012480001 0.62400001
-0.16011906 -0.012500001 0.625
-0.15918286 -0.012520001 0.62600005
-0.15824287 -0.01254 0.62700003
-0.15704858 -0.01254 0.62700003
-0.15635143 -0.012580001 0.62900001
-0.15589334 -0.012640001 0.63200003
-0.15468954 -0.012640001 0.63200003
-0.15372857 -0.01266 0.63300002
-0.15300477 -0.012700001 0.63500005
-0.15275145 -0.01278 0.63900006
-0.15153429 -0.01278 0.63900006
-0.15055239 -0.012800001 0.64000005
-0.15050001 -0.0129 0.64500004
-0.14919049 -0.013000001 0.65000004
-0.14909048 -0.013100001 0.65500003
-0.14806858 -0.013120001 0.65600002
-0.14726667 -0.013160001 0.65800005
-0.14601335 -0.013160001 0.65800005
-0.14520001 -0.013200001 0.66000003
-0.14416096 -0.013220001 0.66100001
-0.1431181 -0.013240001 0.66200006
-0.14185715 -0.013240001 0.66200006
-0.1684524 -0.011309525 0.625
-0.1669943 -0.011291429 0.62400001
-0.16607144 -0.011309525 0.625
-0.16488096 -0.011309525 0.625
-0.16369049 -0.011309525 0.625
-0.16250001 -0.011309525 0.625
-0.16130954 -0.011309525 0.625
-0.16037525 -0.01132762 0.62600005
-0.15943715 -0.011345715 0.62700003
-0.15849525 -0.01136381 0.62800002
-0.15729906 -0.01136381 0.62800002
-0.15635143 -0.011381906 0.62900001
-0.15564668 -0.011418096 0.63100004
-0.15468954 -0.011436191 0.63200003
-0.15372857 -0.011454286 0.63300002
-0.15276381 -0.011472382 0.634
-0.15251239 -0.011544763 0.63800001
-0.15153429 -0.011562858 0.63900006
-0.15055239 -0.011580953 0.64000005
-0.15050001 -0.011671429 0.64500004
-0.14973429 -0.01170762 0.64700001
-0.14863525 -0.011816191 0.65300006
-0.14806858 -0.011870477 0.65600002
-0.14704287 -0.011888572 0.65700001
-0.14601335 -0.011906668 0.65800005
-0.14520001 -0.011942858 0.66000003
-0.14416096 -0.011960953 0.66100001
-0.14290191 -0.011960953 0.66100001
-0.14164287 -0.011960953 0.66100001
-0.16991429 -0.010135239 0.62600005
-0.1684524 -0.010119048 0.625
-0.16726191 -0.010119048 0.625
-0.16607144 -0.010119048 0.625
-0.16514477 -0.010135239 0.62600005
-0.1639524 -0.010135239 0.62600005
-0.16276 -0.010135239 0.62600005
-0.16156763 -0.010135239 0.62600005
-0.16063143 -0.010151429 0.62700003
-0.15943715 -0.010151429 0.62700003
-0.15849525 -0.01016762 0.62800002
-0.15729906 -0.01016762 0.62800002
-0.15635143 -0.01018381 0.62900001
-0.15564668 -0.010216191 0.63100004
-0.15468954 -0.010232382 0.63200003
-0.15372857 -0.010248573 0.63300002
-0.15300477 -0.010280953 0.63500005
-0.15251239 -0.010329524 0.63800001
-0.15177144 -0.010361905 0.64000005
-0.15078762 -0.010378096 0.64100003
-0.15026668 -0.010426668 0.64400005
-0.14973429 -0.010475239 0.64700001
-0.14919049 -0.01052381 0.65000004
-0.14806858 -0.010620954 0.65600002
-0.14704287 -0.010637144 0.65700001
-0.14645715 -0.010685715 0.66000003
-0.14520001 -0.010685715 0.66000003
-0.14416096 -0.010701905 0.66100001
-0.14290191 -0.010701905 0.66100001
-0.14164287 -0.010701905 0.66100001
-0.1684524 -0.0089285718 0.625
-0.16726191 -0.0089285718 0.625
-0.16633715 -0.0089428574 0.62600005
-0.16540858 -0.0089571439 0.62700003
-0.1642143 -0.0089571439 0.62700003
-0.16302001 -0.0089571439 0.62700003
-0.16182573 -0.0089571439 0.62700003
-0.16063143 -0.0089571439 0.62700003
-0.15943715 -0.0089571439 0.62700003
-0.15849525 -0.0089714294 0.62800002
-0.15729906 -0.0089714294 0.62800002
-0.15610287 -0.0089714294 0.62800002
-0.15564668 -0.0090142861 0.63100004
-0.15444477 -0.0090142861 0.63100004
-0.15372857 -0.0090428581 0.63300002
-0.15300477 -0.0090714293 0.63500005
-0.15251239 -0.0091142859 0.63800001
-0.15177144 -0.009142858 0.64000005
-0.15078762 -0.0091571435 0.64100003
-0.15050001 -0.0092142867 0.64500004
-0.14950287 -0.0092285722 0.64600003
-0.14873144 -0.0092571434 0.648
-0.14806858 -0.0093714288 0.65600002
-0.14704287 -0.0093857152 0.65700001
-0.14645715 -0.0094285719 0.66000003
-0.14542001 -0.0094428575 0.66100001
-0.14437906 -0.009457143 0.66200006
-0.14290191 -0.0094428575 0.66100001
-0.14164287 -0.0094428575 0.66100001
-0.1684524 -0.0077380957 0.625
-0.16726191 -0.0077380957 0.625
-0.16633715 -0.0077504767 0.62600005
-0.16540858 -0.0077628577 0.62700003
-0.1642143 -0.0077628577 0.62700003
-0.16302001 -0.0077628577 0.62700003
-0.16182573 -0.0077628577 0.62700003
-0.16088763 -0.0077752387 0.62800002
-0.15969144 -0.0077752387 0.62800002
-0.15849525 -0.0077752387 0.62800002
-0.15729906 -0.0077752387 0.62800002
-0.15610287 -0.0077752387 0.62800002
-0.15515335 -0.0077876197 0.62900001
-0.15444477 -0.0078123813 0.63100004
-0.15372857 -0.0078371437 0.63300002
-0.15300477 -0.0078619057 0.63500005
-0.15275145 -0.0079114288 0.63900006
-0.15177144 -0.0079238098 0.64000005
-0.15149334 -0.0079733338 0.64400005
-0.15073334 -0.0079980958 0.64600003
-0.14950287 -0.0079980958 0.64600003
-0.14873144 -0.0080228578 0.648
-0.14749715 -0.0080228578 0.648
-0.14806858 -0.0081219049 0.65600002
-0.14726667 -0.0081466669 0.65800005
-0.14645715 -0.0081714289 0.66000003
-0.14542001 -0.0081838099 0.66100001
-0.14437906 -0.0081961909 0.66200006
-0.1431181 -0.0081961909 0.66200006
-0.14185715 -0.0081961909 0.66200006
-0.16872191 -0.0065580956 0.62600005
-0.16752954 -0.0065580956 0.62600005
-0.16660286 -0.006568572 0.62700003
-0.16567239 -0.006579048 0.62800002
-0.1644762 -0.006579048 0.62800002
-0.16328001 -0.006579048 0.62800002
-0.16208382 -0.006579048 0.62800002
-0.16088763 -0.006579048 0.62800002
-0.15969144 -0.006579048 0.62800002
-0.15849525 -0.006579048 0.62800002
-0.15729906 -0.006579048 0.62800002
-0.15635143 -0.0065895244 0.62900001
-0.15515335 -0.0065895244 0.62900001
-0.15395525 -0.0065895244 0.62900001
-0.15275715 -0.0065895244 0.62900001
-0.15396859 -0.0066942861 0.63900006
-0.15275145 -0.0066942861 0.63900006
-0.15200858 -0.0067152386 0.64100003
-0.15149334 -0.006746667 0.64400005
-0.15073334 -0.0067676194 0.64600003
-0.14950287 -0.0067676194 0.64600003
-0.14873144 -0.0067885718 0.648
-0.14749715 -0.0067885718 0.648
-0.14806858 -0.0068723815 0.65600002
-0.14704287 -0.0068828575 0.65700001
-0.14645715 -0.0069142859 0.66000003
-0.14520001 -0.0069142859 0.66000003
-0.14416096 -0.0069247624 0.66100001
-0.14290191 -0.0069247624 0.66100001
-0.14185715 -0.0069352384 0.66200006
-0.1683324 -0.0053914287 0.62900001
-0.1671343 -0.0053914287 0.62900001
-0.1659362 -0.0053914287 0.62900001
-0.1647381 -0.0053914287 0.62900001
-0.16406001 -0.0054085716 0.63100004
-0.16234192 -0.0053914287 0.62900001
-0.16114382 -0.0053914287 0.62900001
-0.15994573 -0.0053914287 0.62900001
-0.15874763 -0.0053914287 0.62900001
-0.15754953 -0.0053914287 0.62900001
-0.15635143 -0.0053914287 0.62900001
-0.15564668 -0.0054085716 0.63100004
-0.15444477 -0.0054085716 0.63100004
-0.15324287 -0.0054085716 0.63100004
-0.15420954 -0.0054857144 0.64000005
-0.15299049 -0.0054857144 0.64000005
-0.15224573 -0.0055028577 0.64200002
-0.15149334 -0.0055200006 0.64400005
-0.15050001 -0.005528572 0.64500004
-0.14973429 -0.0055457149 0.64700001
-0.14850192 -0.0055457149 0.64700001
-0.14726953 -0.0055457149 0.64700001
-0.14784287 -0.0056142863 0.65500003
-0.14704287 -0.0056314291 0.65700001
-0.14667906 -0.0056657149 0.66100001
-0.14542001 -0.0056657149 0.66100001
-0.14416096 -0.0056657149 0.66100001
-0.14290191 -0.0056657149 0.66100001
-0.14164287 -0.0056657149 0.66100001
-0.1683324 -0.0041933334 0.62900001
-0.1671343 -0.0041933334 0.62900001
-0.1659362 -0.0041933334 0.62900001
-0.16526191 -0.0042066667 0.63100004
-0.16406001 -0.0042066667 0.63100004
-0.1628581 -0.0042066667 0.63100004
-0.16114382 -0.0041933334 0.62900001
-0.15994573 -0.0041933334 0.62900001
-0.15874763 -0.0041933334 0.62900001
-0.15805049 -0.0042066667 0.63100004
-0.15635143 -0.0041933334 0.62900001
-0.15515335 -0.0041933334 0.62900001
-0.15395525 -0.0041933334 0.62900001
-0.15591429 -0.0042800005 0.64200002
-0.15469144 -0.0042800005 0.64200002
-0.15346858 -0.0042800005 0.64200002
-0.15272 -0.0042933337 0.64400005
-0.15172859 -0.0043000001 0.64500004
-0.15050001 -0.0043000001 0.64500004
-0.14973429 -0.0043133334 0.64700001
-0.14850192 -0.0043133334 0.64700001
-0.14726953 -0.0043133334 0.64700001
-0.14603715 -0.0043133334 0.64700001
-0.14502858 -0.0043200003 0.648
-0.14667906 -0.0044066668 0.66100001
-0.14542001 -0.0044066668 0.66100001
-0.14416096 -0.0044066668 0.66100001
-0.14290191 -0.0044066668 0.66100001
-0.16886763 -0.0030047621 0.63100004
-0.1671343 -0.0029952384 0.62900001
-0.16646382 -0.0030047621 0.63100004
-0.16552383 -0.003009524 0.63200003
-0.16432001 -0.003009524 0.63200003
-0.1628581 -0.0030047621 0.63100004
-0.1616562 -0.0030047621 0.63100004
-0.1604543 -0.0030047621 0.63100004
-0.15925239 -0.0030047621 0.63100004
-0.15805049 -0.0030047621 0.63100004
-0.15684858 -0.0030047621 0.63100004
-0.15564668 -0.0030047621 0.63100004
-0.15517905 -0.0030190479 0.634
-0.15591429 -0.003057143 0.64200002
-0.15469144 -0.003057143 0.64200002
-0.15346858 -0.003057143 0.64200002
-0.15272 -0.0030666669 0.64400005
-0.15149334 -0.0030666669 0.64400005
-0.15050001 -0.0030714287 0.64500004
-0.14950287 -0.0030761906 0.64600003
-0.14850192 -0.0030809527 0.64700001
-0.14726953 -0.0030809527 0.64700001
-0.14626287 -0.0030857145 0.648
-0.14502858 -0.0030857145 0.648
-0.14667906 -0.0031476193 0.66100001
-0.14542001 -0.0031476193 0.66100001
-0.14416096 -0.0031476193 0.66100001
-0.14290191 -0.0031476193 0.66100001
-0.16793144 -0.0018057144 0.63200003
-0.16672763 -0.0018057144 0.63200003
-0.16578573 -0.0018085715 0.63300002
-0.16458002 -0.0018085715 0.63300002
-0.1631162 -0.0018057144 0.63200003
-0.1619124 -0.0018057144 0.63200003
-0.16070858 -0.0018057144 0.63200003
-0.15975715 -0.0018085715 0.63300002
-0.15855144 -0.0018085715 0.63300002
-0.15734573 -0.0018085715 0.63300002
-0.15638667 -0.0018114287 0.634
-0.15517905 -0.0018114287 0.634
-0.15542859 -0.0018285715 0.64000005
-0.15445049 -0.0018314287 0.64100003
-0.15322953 -0.0018314287 0.64100003
-0.15224573 -0.0018342858 0.64200002
-0.15102287 -0.0018342858 0.64200002
-0.15026668 -0.0018400002 0.64400005
-0.14950287 -0.0018457144 0.64600003
-0.14873144 -0.0018514286 0.648
-0.14749715 -0.0018514286 0.648
-0.14806858 -0.0018742859 0.65600002
-0.14681906 -0.0018742859 0.65600002
-0.14645715 -0.0018857144 0.66000003
-0.14542001 -0.0018885715 0.66100001
-0.14416096 -0.0018885715 0.66100001
-0.14290191 -0.0018885715 0.66100001
-0.16766572 -0.00060095242 0.63100004
-0.16672763 -0.00060190482 0.63200003
-0.16578573 -0.00060285721 0.63300002
-0.16458002 -0.00060285721 0.63300002
-0.16337429 -0.00060285721 0.63300002
-0.1619124 -0.00060190482 0.63200003
-0.16096286 -0.00060285721 0.63300002
-0.15975715 -0.00060285721 0.63300002
-0.15855144 -0.00060285721 0.63300002
-0.15734573 -0.00060285721 0.63300002
-0.15638667 -0.00060380955 0.634
-0.1561581 -0.00060761906 0.63800001
-0.15542859 -0.00060952385 0.64000005
-0.15420954 -0.00060952385 0.64000005
-0.15322953 -0.00061047624 0.64100003
-0.15200858 -0.00061047624 0.64100003
-0.15102287 -0.00061142864 0.64200002
-0.15026668 -0.00061333337 0.64400005
-0.14950287 -0.00061523815 0.64600003
-0.1482724 -0.00061523815 0.64600003
-0.14852001 -0.0006266667 0.65800005
-0.14704287 -0.00062571431 0.65700001
-0.14645715 -0.00062857149 0.66000003
-0.14542001 -0.00062952383 0.66100001
-0.14416096 -0.00062952383 0.66100001
-0.1431181 -0.00063047622 0.66200006
-0.14185715 -0.00063047622 0.66200006
-0.1405962 -0.00063047622 0.66200006
-0.16819715 0.00060285721 0.63300002
-0.16725525 0.00060380955 0.634
-0.16604763 0.00060380955 0.634
-0.16484001 0.00060380955 0.634
-0.16337429 0.00060285721 0.63300002
-0.16216858 0.00060285721 0.63300002
-0.16096286 0.00060285721 0.63300002
-0.15975715 0.00060285721 0.63300002
-0.15855144 0.00060285721 0.63300002
-0.15759429 0.00060380955 0.634
-0.15638667 0.00060380955 0.634
-0.1561581 0.00060761906 0.63800001
-0.15542859 0.00060952385 0.64000005
-0.15420954 0.00060952385 0.64000005
-0.15322953 0.00061047624 0.64100003
-0.15200858 0.00061047624 0.64100003
-0.15102287 0.00061142864 0.64200002
-0.15026668 0.00061333337 0.64400005
-0.14927144 0.00061428576 0.64500004
-0.14850192 0.00061619049 0.64700001
-0.14749715 0.00061714288 0.648
-0.14806858 0.00062476192 0.65600002
-0.14704287 0.00062571431 0.65700001
-0.14645715 0.00062857149 0.66000003
-0.14542001 0.00062952383 0.66100001
-0.14416096 0.00062952383 0.66100001
-0.1431181 0.00063047622 0.66200006
-0.14185715 0.00063047622 0.66200006
-0.1405962 0.00063047622 0.66200006
-0.17100859 0.0018257144 0.63900006
-0.16952573 0.0018228573 0.63800001
-0.16751906 0.0018142859 0.63500005
-0.16604763 0.0018114287 0.634
-0.16484001 0.0018114287 0.634
-0.16363239 0.0018114287 0.634
-0.16242477 0.0018114287 0.634
-0.16121715 0.0018114287 0.634
-0.16000953 0.0018114287 0.634
-0.15880191 0.0018114287 0.634
-0.15784287 0.0018142859 0.63500005
-0.15688001 0.0018171429 0.63600004
-0.15640287 0.0018257144 0.63900006
-0.15518573 0.0018257144 0.63900006
-0.15420954 0.0018285715 0.64000005
-0.15299049 0.0018285715 0.64000005
-0.15200858 0.0018314287 0.64100003
-0.15078762 0.0018314287 0.64100003
-0.1498 0.0018342858 0.64200002
-0.14927144 0.0018428572 0.64500004
-0.1482724 0.0018457144 0.64600003
-0.14726953 0.0018485716 0.64700001
-0.14603715 0.0018485716 0.64700001
-0.14704287 0.0018771429 0.65700001
-0.14645715 0.0018857144 0.66000003
-0.14542001 0.0018885715 0.66100001
-0.14437906 0.0018914287 0.66200006
-0.1431181 0.0018914287 0.66200006
-0.14185715 0.0018914287 0.66200006
-0.1405962 0.0018914287 0.66200006
-0.1712762 0.0030476192 0.64000005
-0.16979145 0.0030428574 0.63900006
-0.16831049 0.0030380955 0.63800001
-0.16630954 0.0030238098 0.63500005
-0.16510001 0.0030238098 0.63500005
-0.16363239 0.0030190479 0.634
-0.16242477 0.0030190479 0.634
-0.16121715 0.0030190479 0.634
-0.16000953 0.0030190479 0.634
-0.15905239 0.0030238098 0.63500005
-0.15809144 0.0030285716 0.63600004
-0.15688001 0.0030285716 0.63600004
-0.1561581 0.0030380955 0.63800001
-0.15518573 0.0030428574 0.63900006
-0.15396859 0.0030428574 0.63900006
-0.15299049 0.0030476192 0.64000005
-0.15200858 0.0030523811 0.64100003
-0.15078762 0.0030523811 0.64100003
-0.15026668 0.0030666669 0.64400005
-0.14927144 0.0030714287 0.64500004
-0.1482724 0.0030761906 0.64600003
-0.14726953 0.0030809527 0.64700001
-0.14603715 0.0030809527 0.64700001
-0.14659525 0.0031190477 0.65500003
-0.14667906 0.0031476193 0.66100001
-0.14564002 0.0031523812 0.66200006
-0.14459716 0.003157143 0.66300005
-0.1433343 0.003157143 0.66300005
-0.14207144 0.003157143 0.66300005
-0.14080858 0.003157143 0.66300005
-0.1712762 0.0042666672 0.64000005
-0.16778287 0.0042400002 0.63600004
-0.16657144 0.0042400002 0.63600004
-0.16510001 0.0042333337 0.63500005
-0.16389048 0.0042333337 0.63500005
-0.16268097 0.0042333337 0.63500005
-0.16147144 0.0042333337 0.63500005
-0.16026191 0.0042333337 0.63500005
-0.15930286 0.0042400002 0.63600004
-0.15809144 0.0042400002 0.63600004
-0.15737334 0.0042533334 0.63800001
-0.15640287 0.0042600003 0.63900006
-0.15518573 0.0042600003 0.63900006
-0.15420954 0.0042666672 0.64000005
-0.15299049 0.0042666672 0.64000005
-0.15200858 0.0042733336 0.64100003
-0.15078762 0.0042733336 0.64100003
-0.15026668 0.0042933337 0.64400005
-0.14950287 0.004306667 0.64600003
-0.14850192 0.0043133334 0.64700001
-0.14749715 0.0043200003 0.648
-0.14626287 0.0043200003 0.648
-0.14659525 0.004366667 0.65500003
-0.14601335 0.0043866672 0.65800005
-0.14564002 0.0044133337 0.66200006
-0.14503334 0.0044333334 0.66500002
-0.14398287 0.0044400003 0.66600001
-0.14271429 0.0044400003 0.66600001
-0.1416581 0.0044466672 0.66700006
-0.14038762 0.0044466672 0.66700006
-0.16831049 0.0054685716 0.63800001
-0.16657144 0.0054514287 0.63600004
-0.16536 0.0054514287 0.63600004
-0.16414858 0.0054514287 0.63600004
-0.16268097 0.0054428573 0.63500005
-0.16147144 0.0054428573 0.63500005
-0.16026191 0.0054428573 0.63500005
-0.15930286 0.0054514287 0.63600004
-0.15858859 0.0054685716 0.63800001
-0.15737334 0.0054685716 0.63800001
-0.15640287 0.005477143 0.63900006
-0.15518573 0.005477143 0.63900006
-0.15396859 0.005477143 0.63900006
-0.15299049 0.0054857144 0.64000005
-0.15200858 0.0054942863 0.64100003
-0.15078762 0.0054942863 0.64100003
-0.15026668 0.0055200006 0.64400005
-0.14950287 0.0055371434 0.64600003
-0.14850192 0.0055457149 0.64700001
-0.14795239 0.0055714292 0.65000004
-0.14694001 0.0055800006 0.65100002
-0.14681906 0.0056228577 0.65600002
-0.14645715 0.0056571434 0.66000003
-0.1463 0.0057000006 0.66500002
-0.14525144 0.005708572 0.66600001
-0.14419906 0.0057171434 0.66700006
-0.14292859 0.0057171434 0.66700006
-0.1416581 0.0057171434 0.66700006
-0.14038762 0.0057171434 0.66700006
-0.16709524 0.0066838101 0.63800001
-0.16588001 0.0066838101 0.63800001
-0.16414858 0.0066628577 0.63600004
-0.16293715 0.0066628577 0.63600004
-0.16172573 0.0066628577 0.63600004
-0.1605143 0.0066628577 0.63600004
-0.15980382 0.0066838101 0.63800001
-0.15858859 0.0066838101 0.63800001
-0.15737334 0.0066838101 0.63800001
-0.15640287 0.0066942861 0.63900006
-0.15518573 0.0066942861 0.63900006
-0.15396859 0.0066942861 0.63900006
-0.15299049 0.0067047626 0.64000005
-0.15177144 0.0067047626 0.64000005
-0.15078762 0.0067152386 0.64100003
-0.15026668 0.006746667 0.64400005
-0.14950287 0.0067676194 0.64600003
-0.14850192 0.0067780958 0.64700001
-0.14795239 0.0068095243 0.65000004
-0.14716573 0.0068304767 0.65200001
-0.14614762 0.0068409527 0.65300006
-0.14601335 0.006893334 0.65800005
-0.14586002 0.0069457148 0.66300005
-0.14503334 0.0069666672 0.66500002
-0.14398287 0.0069771432 0.66600001
-0.14271429 0.0069771432 0.66600001
-0.1416581 0.0069876197 0.66700006
-0.14038762 0.0069876197 0.66700006
-0.13890858 0.0069771432 0.66600001
-0.16640002 0.0079238098 0.64000005
-0.16492286 0.0079114288 0.63900006
-0.16370572 0.0079114288 0.63900006
-0.16248858 0.0079114288 0.63900006
-0.16101906 0.0078990478 0.63800001
-0.15980382 0.0078990478 0.63800001
-0.15883715 0.0079114288 0.63900006
-0.15762001 0.0079114288 0.63900006
-0.15640287 0.0079114288 0.63900006
-0.15542859 0.0079238098 0.64000005
-0.15445049 0.0079361908 0.64100003
-0.15322953 0.0079361908 0.64100003
-0.15224573 0.0079485718 0.64200002
-0.15149334 0.0079733338 0.64400005
-0.15026668 0.0079733338 0.64400005
-0.14950287 0.0079980958 0.64600003
-0.14850192 0.0080104768 0.64700001
-0.14795239 0.0080476198 0.65000004
-0.14694001 0.0080600008 0.65100002
-0.14614762 0.0080847628 0.65300006
-0.14556953 0.0081219049 0.65600002
-0.14525144 0.0082457149 0.66600001
-0.14419906 0.0082580959 0.66700006
-0.14292859 0.0082580959 0.66700006
-0.1416581 0.0082580959 0.66700006
-0.14038762 0.0082580959 0.66700006
-0.13890858 0.0082457149 0.66600001
-0.16640002 0.009142858 0.64000005
-0.16518097 0.009142858 0.64000005
-0.16370572 0.0091285724 0.63900006
-0.16248858 0.0091285724 0.63900006
-0.16127144 0.0091285724 0.63900006
-0.1600543 0.0091285724 0.63900006
-0.15883715 0.0091285724 0.63900006
-0.15762001 0.0091285724 0.63900006
-0.15664762 0.009142858 0.64000005
-0.15542859 0.009142858 0.64000005
-0.15445049 0.0091571435 0.64100003
-0.15322953 0.0091571435 0.64100003
-0.15224573 0.0091714291 0.64200002
-0.15149334 0.0092000002 0.64400005
-0.15026668 0.0092000002 0.64400005
-0.14950287 0.0092285722 0.64600003
-0.14873144 0.0092571434 0.648
-0.14863525 0.0093285721 0.65300006
-0.14784287 0.0093571432 0.65500003
-0.14659525 0.0093571432 0.65500003
-0.14579144 0.0093857152 0.65700001
-0.14525144 0.0095142862 0.66600001
-0.14419906 0.0095285717 0.66700006
-0.14335716 0.0095571438 0.66900003
-0.14208287 0.0095571438 0.66900003
-0.14038762 0.0095285717 0.66700006
-0.13911715 0.0095285717 0.66700006
-0.16640002 0.010361905 0.64000005
-0.16518097 0.010361905 0.64000005
-0.16370572 0.010345715 0.63900006
-0.16274287 0.010361905 0.64000005
-0.16127144 0.010345715 0.63900006
-0.1600543 0.010345715 0.63900006
-0.15883715 0.010345715 0.63900006
-0.15786667 0.010361905 0.64000005
-0.15664762 0.010361905 0.64000005
-0.15567143 0.010378096 0.64100003
-0.15469144 0.010394286 0.64200002
-0.15322953 0.010378096 0.64100003
-0.15224573 0.010394286 0.64200002
-0.15149334 0.010426668 0.64400005
-0.15050001 0.010442858 0.64500004
-0.14950287 0.010459049 0.64600003
-0.14873144 0.010491429 0.648
-0.14840762 0.010556191 0.65200001
-0.14716573 0.010556191 0.65200001
-0.14659525 0.010604762 0.65500003
-0.14579144 0.010637144 0.65700001
-0.14520001 0.010685715 0.66000003
-0.14546953 0.010799048 0.66700006
-0.14463145 0.01083143 0.66900003
-0.14335716 0.01083143 0.66900003
-0.14208287 0.01083143 0.66900003
-0.14038762 0.010799048 0.66700006
-0.13911715 0.010799048 0.66700006
-0.16814287 0.011617144 0.64200002
-0.16666001 0.011599048 0.64100003
-0.16543905 0.011599048 0.64100003
-0.16421811 0.011599048 0.64100003
-0.16299716 0.011599048 0.64100003
-0.16152382 0.011580953 0.64000005
-0.16030477 0.011580953 0.64000005
-0.15908572 0.011580953 0.64000005
-0.15811335 0.011599048 0.64100003
-0.15689239 0.011599048 0.64100003
-0.15591429 0.011617144 0.64200002
-0.15469144 0.011617144 0.64200002
-0.15346858 0.011617144 0.64200002
-0.15272 0.011653334 0.64400005
-0.15149334 0.011653334 0.64400005
-0.15073334 0.011689524 0.64600003
-0.14973429 0.01170762 0.64700001
-0.14919049 0.011761906 0.65000004
-0.14840762 0.011798096 0.65200001
-0.14739144 0.011816191 0.65300006
-0.14659525 0.011852382 0.65500003
-0.14579144 0.011888572 0.65700001
-0.14525144 0.01205143 0.66600001
-0.14463145 0.012105715 0.66900003
-0.14335716 0.012105715 0.66900003
-0.14208287 0.012105715 0.66900003
-0.14038762 0.012069524 0.66700006
-0.13911715 0.012069524 0.66700006
-0.17015715 0.0129 0.64500004
-0.16866668 0.012880001 0.64400005
-0.16692001 0.012840001 0.64200002
-0.16569716 0.012840001 0.64200002
-0.16447429 0.012840001 0.64200002
-0.16299716 0.012820001 0.64100003
-0.1617762 0.012820001 0.64100003
-0.16055524 0.012820001 0.64100003
-0.1593343 0.012820001 0.64100003
-0.15811335 0.012820001 0.64100003
-0.15689239 0.012820001 0.64100003
-0.15591429 0.012840001 0.64200002
-0.15469144 0.012840001 0.64200002
-0.15346858 0.012840001 0.64200002
-0.15272 0.012880001 0.64400005
-0.15172859 0.0129 0.64500004
-0.15096667 0.012940001 0.64700001
-0.14973429 0.012940001 0.64700001
-0.14873144 0.012960001 0.648
-0.14840762 0.013040001 0.65200001
-0.14739144 0.013060001 0.65300006
-0.14614762 0.013060001 0.65300006
-0.14601335 0.013160001 0.65800005
-0.14525144 0.013320001 0.66600001
-0.14419906 0.013340001 0.66700006
-0.14292859 0.013340001 0.66700006
-0.14208287 0.013380001 0.66900003
-0.14038762 0.013340001 0.66700006
-0.13911715 0.013340001 0.66700006
-0.17015715 0.014128572 0.64500004
-0.16866668 0.014106668 0.64400005
-0.16692001 0.014062858 0.64200002
-0.16569716 0.014062858 0.64200002
-0.16447429 0.014062858 0.64200002
-0.16325144 0.014062858 0.64200002
-0.1617762 0.014040953 0.64100003
-0.16055524 0.014040953 0.64100003
-0.1593343 0.014040953 0.64100003
-0.15836 0.014062858 0.64200002
-0.15713716 0.014062858 0.64200002
-0.15591429 0.014062858 0.64200002
-0.15469144 0.014062858 0.64200002
-0.15346858 0.014062858 0.64200002
-0.15272 0.014106668 0.64400005
-0.15172859 0.014128572 0.64500004
-0.15096667 0.014172382 0.64700001
-0.14973429 0.014172382 0.64700001
-0.14873144 0.014194286 0.648
-0.14840762 0.014281905 0.65200001
-0.14739144 0.014303811 0.65300006
-0.14614762 0.014303811 0.65300006
-0.1463 0.014566667 0.66500002
-0.14525144 0.014588572 0.66600001
-0.14419906 0.014610477 0.66700006
-0.14292859 0.014610477 0.66700006
-0.14208287 0.014654287 0.66900003
-0.14080858 0.014654287 0.66900003
-0.13953429 0.014654287 0.66900003
-0.16989334 0.015333334 0.64400005
-0.16866668 0.015333334 0.64400005
-0.16692001 0.015285715 0.64200002
-0.16569716 0.015285715 0.64200002
-0.16447429 0.015285715 0.64200002
-0.16325144 0.015285715 0.64200002
-0.16202858 0.015285715 0.64200002
-0.16080573 0.015285715 0.64200002
-0.15958287 0.015285715 0.64200002
-0.15836 0.015285715 0.64200002
-0.15713716 0.015285715 0.64200002
-0.15640001 0.015333334 0.64400005
-0.15517335 0.015333334 0.64400005
-0.15394668 0.015333334 0.64400005
-0.15295716 0.015357144 0.64500004
-0.15196382 0.015380953 0.64600003
-0.15120001 0.015428573 0.648
-0.14996572 0.015428573 0.648
-0.14873144 0.015428573 0.648
-0.14818001 0.015500001 0.65100002
-0.14716573 0.015523811 0.65200001
-0.14592382 0.015523811 0.65200001
-0.14652 0.015857143 0.66600001
-0.14525144 0.015857143 0.66600001
-0.14419906 0.015880954 0.66700006
-0.14335716 0.015928572 0.66900003
-0.14229524 0.015952382 0.67000002
-0.14101906 0.015952382 0.67000002
-0.13953429 0.015928572 0.66900003
-0.17015715 0.016585715 0.64500004
-0.16866668 0.016560001 0.64400005
-0.16744001 0.016560001 0.64400005
-0.16569716 0.016508572 0.64200002
-0.16447429 0.016508572 0.64200002
-0.16325144 0.016508572 0.64200002
-0.16202858 0.016508572 0.64200002
-0.16130668 0.016560001 0.64400005
-0.16008002 0.016560001 0.64400005
-0.15885334 0.016560001 0.64400005
-0.15762667 0.016560001 0.64400005
-0.15640001 0.016560001 0.64400005
-0.15517335 0.016560001 0.64400005
-0.15394668 0.016560001 0.64400005
-0.15295716 0.016585715 0.64500004
-0.15219906 0.016637145 0.64700001
-0.15120001 0.016662858 0.648
-0.14996572 0.016662858 0.648
-0.14919049 0.016714286 0.65000004
-0.14840762 0.016765716 0.65200001
-0.14739144 0.016791429 0.65300006
-0.14614762 0.016791429 0.65300006
-0.1463 0.017100001 0.66500002
-0.14525144 0.017125715 0.66600001
-0.14419906 0.01715143 0.66700006
-0.14335716 0.017202858 0.66900003
-0.14229524 0.017228572 0.67000002
-0.14101906 0.017228572 0.67000002
-0.13974287 0.017228572 0.67000002
-0.13867334 0.017254287 0.671
-0.17042096 0.017841905 0.64600003
-0.16892858 0.017814286 0.64500004
-0.16744001 0.017786669 0.64400005
-0.16621335 0.017786669 0.64400005
-0.16498668 0.017786669 0.64400005
-0.16376001 0.017786669 0.64400005
-0.16253334 0.017786669 0.64400005
-0.16130668 0.017786669 0.64400005
-0.16008002 0.017786669 0.64400005
-0.15910001 0.017814286 0.64500004
-0.15762667 0.017786669 0.64400005
-0.15640001 0.017786669 0.64400005
-0.15517335 0.017786669 0.64400005
-0.15418573 0.017814286 0.64500004
-0.15319429 0.017841905 0.64600003
-0.15243429 0.017897144 0.648
-0.15166667 0.017952383 0.65000004
-0.15042858 0.017952383 0.65000004
-0.14942001 0.017980002 0.65100002
-0.14818001 0.017980002 0.65100002
-0.14739144 0.018035239 0.65300006
-0.14614762 0.018035239 0.65300006
-0.14586002 0.01831143 0.66300005
-0.14525144 0.018394288 0.66600001
-0.14419906 0.018421905 0.66700006
-0.14335716 0.018477144 0.66900003
-0.14229524 0.018504763 0.67000002
-0.14101906 0.018504763 0.67000002
-0.13974287 0.018504763 0.67000002
-0.13867334 0.018532382 0.671
-0.17068477 0.019101907 0.64700001
-0.1694524 0.019101907 0.64700001
-0.16796002 0.019072382 0.64600003
-0.16672954 0.019072382 0.64600003
-0.16549906 0.019072382 0.64600003
-0.16426858 0.019072382 0.64600003
-0.16278572 0.019042859 0.64500004
-0.16180763 0.019072382 0.64600003
-0.16032858 0.019042859 0.64500004
-0.15934667 0.019072382 0.64600003
-0.15787144 0.019042859 0.64500004
-0.15688573 0.019072382 0.64600003
-0.15565525 0.019072382 0.64600003
-0.15442477 0.019072382 0.64600003
-0.15343145 0.019101907 0.64700001
-0.15243429 0.019131429 0.648
-0.15166667 0.019190477 0.65000004
-0.15042858 0.019190477 0.65000004
-0.14942001 0.019220002 0.65100002
-0.14840762 0.019249525 0.65200001
-0.14739144 0.01927905 0.65300006
-0.14726667 0.019426668 0.65800005
-0.14690097 0.019544763 0.66200006
-0.14586002 0.019574286 0.66300005
-0.14503334 0.019633334 0.66500002
-0.14419906 0.019692382 0.66700006
-0.14292859 0.019692382 0.66700006
-0.14208287 0.01975143 0.66900003
-0.14101906 0.019780954 0.67000002
-0.13974287 0.019780954 0.67000002
-0.13867334 0.019810477 0.671
-0.17094858 0.020365715 0.648
-0.1697143 0.020365715 0.648
-0.16848001 0.020365715 0.648
-0.16698763 0.020334287 0.64700001
-0.16575524 0.020334287 0.64700001
-0.16452287 0.020334287 0.64700001
-0.16329049 0.020334287 0.64700001
-0.1620581 0.020334287 0.64700001
-0.16057715 0.020302858 0.64600003
-0.15934667 0.020302858 0.64600003
-0.15811621 0.020302858 0.64600003
-0.15688573 0.020302858 0.64600003
-0.15565525 0.020302858 0.64600003
-0.15466382 0.020334287 0.64700001
-0.15343145 0.020334287 0.64700001
-0.15243429 0.020365715 0.648
-0.15166667 0.020428572 0.65000004
-0.15066001 0.020460002 0.65100002
-0.14964953 0.020491431 0.65200001
-0.14863525 0.020522859 0.65300006
-0.14784287 0.020585716 0.65500003
-0.14667906 0.020774286 0.66100001
-0.14586002 0.020837145 0.66300005
-0.14503334 0.020900002 0.66500002
-0.14398287 0.02093143 0.66600001
-0.14292859 0.020962859 0.66700006
-0.14208287 0.021025715 0.66900003
-0.14122954 0.021088572 0.671
-0.13995144 0.021088572 0.671
-0.13867334 0.021088572 0.671
-0.1376 0.021120001 0.67200005
-0.1697143 0.021600001 0.648
-0.16848001 0.021600001 0.648
-0.16724573 0.021600001 0.648
-0.16575524 0.021566669 0.64700001
-0.16452287 0.021566669 0.64700001
-0.16329049 0.021566669 0.64700001
-0.1620581 0.021566669 0.64700001
-0.16082573 0.021566669 0.64700001
-0.15959334 0.021566669 0.64700001
-0.15836096 0.021566669 0.64700001
-0.15712859 0.021566669 0.64700001
-0.1558962 0.021566669 0.64700001
-0.15466382 0.021566669 0.64700001
-0.15343145 0.021566669 0.64700001
-0.15290478 0.021666668 0.65000004
-0.15190001 0.021700002 0.65100002
-0.15089144 0.021733334 0.65200001
-0.14964953 0.021733334 0.65200001
-0.14863525 0.021766668 0.65300006
-0.14784287 0.021833334 0.65500003
-0.14667906 0.022033336 0.66100001
-0.14586002 0.022100002 0.66300005
-0.14503334 0.022166668 0.66500002
-0.14398287 0.022200001 0.66600001
-0.14292859 0.022233335 0.66700006
-0.14208287 0.022300001 0.66900003
-0.14122954 0.022366669 0.671
-0.13995144 0.022366669 0.671
-0.13867334 0.022366669 0.671
-0.1376 0.022400001 0.67200005
-0.1697143 0.022834288 0.648
-0.16848001 0.022834288 0.648
-0.16724573 0.022834288 0.648
-0.16601144 0.022834288 0.648
-0.16452287 0.022799049 0.64700001
-0.16329049 0.022799049 0.64700001
-0.1620581 0.022799049 0.64700001
-0.16082573 0.022799049 0.64700001
-0.15959334 0.022799049 0.64700001
-0.15836096 0.022799049 0.64700001
-0.15712859 0.022799049 0.64700001
-0.1558962 0.022799049 0.64700001
-0.15466382 0.022799049 0.64700001
-0.15366858 0.022834288 0.648
-0.15290478 0.022904763 0.65000004
-0.15190001 0.022940002 0.65100002
-0.15066001 0.022940002 0.65100002
-0.14964953 0.02297524 0.65200001
-0.14863525 0.023010477 0.65300006
-0.14784287 0.023080954 0.65500003
-0.14667906 0.023292383 0.66100001
-0.14586002 0.023362858 0.66300005
-0.14503334 0.023433335 0.66500002
-0.14398287 0.023468573 0.66600001
-0.14335716 0.023574287 0.66900003
-0.14229524 0.023609525 0.67000002
-0.14122954 0.023644764 0.671
-0.13995144 0.023644764 0.671
-0.13888001 0.023680001 0.67200005
-0.1376 0.023680001 0.67200005
-0.1714762 0.02414286 0.65000004
-0.17023811 0.02414286 0.65000004
-0.16900001 0.02414286 0.65000004
-0.16724573 0.024068573 0.648
-0.16601144 0.024068573 0.648
-0.16477716 0.024068573 0.648
-0.16354287 0.024068573 0.648
-0.1620581 0.02403143 0.64700001
-0.16082573 0.02403143 0.64700001
-0.15959334 0.02403143 0.64700001
-0.15836096 0.02403143 0.64700001
-0.15712859 0.02403143 0.64700001
-0.1558962 0.02403143 0.64700001
-0.15490286 0.024068573 0.648
-0.15366858 0.024068573 0.648
-0.15314001 0.024180003 0.65100002
-0.15190001 0.024180003 0.65100002
-0.15089144 0.024217144 0.65200001
-0.14964953 0.024217144 0.65200001
-0.14863525 0.024254287 0.65300006
-0.14784287 0.024328573 0.65500003
-0.14667906 0.024551431 0.66100001
-0.14586002 0.024625717 0.66300005
-0.14503334 0.024700001 0.66500002
-0.14398287 0.024737144 0.66600001
-0.14292859 0.024774287 0.66700006
-0.14208287 0.024848573 0.66900003
-0.14101906 0.024885716 0.67000002
-0.13995144 0.024922859 0.671
-0.13867334 0.024922859 0.671
-0.1376 0.024960002 0.67200005
-0.17023811 0.025380954 0.65000004
-0.16900001 0.025380954 0.65000004
-0.16724573 0.025302859 0.648
-0.16601144 0.025302859 0.648
-0.16477716 0.025302859 0.648
-0.16354287 0.025302859 0.648
-0.16230859 0.025302859 0.648
-0.1610743 0.025302859 0.648
-0.15984002 0.025302859 0.648
-0.15860572 0.025302859 0.648
-0.15737143 0.025302859 0.648
-0.15661906 0.025380954 0.65000004
-0.15538096 0.025380954 0.65000004
-0.15438001 0.025420001 0.65100002
-0.15337525 0.025459049 0.65200001
-0.15213335 0.025459049 0.65200001
-0.15089144 0.025459049 0.65200001
-0.14987905 0.025498098 0.65300006
-0.14863525 0.025498098 0.65300006
-0.14784287 0.025576193 0.65500003
-0.14667906 0.025810478 0.66100001
-0.14586002 0.025888573 0.66300005
-0.14459716 0.025888573 0.66300005
-0.14398287 0.026005715 0.66600001
-0.14292859 0.026044764 0.66700006
-0.14208287 0.026122859 0.66900003
-0.14122954 0.026200954 0.671
-0.13995144 0.026200954 0.671
-0.13867334 0.026200954 0.671
-0.1376 0.026240002 0.67200005
-0.16900001 0.026619049 0.65000004
-0.16724573 0.026537145 0.648
-0.16601144 0.026537145 0.648
-0.16477716 0.026537145 0.648
-0.16354287 0.026537145 0.648
-0.16230859 0.026537145 0.648
-0.1610743 0.026537145 0.648
-0.16033335 0.026619049 0.65000004
-0.15909524 0.026619049 0.65000004
-0.15785715 0.026619049 0.65000004
-0.15686001 0.026660001 0.65100002
-0.15562001 0.026660001 0.65100002
-0.15438001 0.026660001 0.65100002
-0.15337525 0.026700955 0.65200001
-0.15213335 0.026700955 0.65200001
-0.15089144 0.026700955 0.65200001
-0.14987905 0.026741907 0.65300006
-0.14909048 0.026823811 0.65500003
-0.14784287 0.026823811 0.65500003
-0.14690097 0.027110478 0.66200006
-0.14564002 0.027110478 0.66200006
-0.14459716 0.02715143 0.66300005
-0.14419906 0.02731524 0.66700006
