# .PCD v0.7 - Point Cloud Data file format
VERSION 0.7
FIELDS x y z
SIZE 4 4 4
TYPE F F F
COUNT 1 1 1
WIDTH 1423
HEIGHT 1
VIEWPOINT 0 0 0 1 0 0 0
POINTS 1423
DATA ascii
-0.087414294 0.12358572 0.63300002
-0.086208574 0.12358572 0.63300002
-0.085002862 0.12358572 0.63300002
-0.083797149 0.12358572 0.63300002
-0.082721911 0.12378096 0.634
-0.081514291 0.12378096 0.634
-0.080306672 0.12378096 0.634
-0.079099052 0.12378096 0.634
-0.078014292 0.1239762 0.63500005
-0.076804765 0.1239762 0.63500005
-0.075595245 0.1239762 0.63500005
-0.13248096 0.12755144 0.64700001
-0.13124858 0.12755144 0.64700001
-0.13001619 0.12755144 0.64700001
-0.12858477 0.12735429 0.64600003
-0.12696001 0.12696001 0.64400005
-0.12495239 0.12617144 0.64000005
-0.12354001 0.1259743 0.63900006
-0.12213144 0.12577716 0.63800001
-0.1209162 0.12577716 0.63800001
-0.11970096 0.12577716 0.63800001
-0.11811429 0.12538287 0.63600004
-0.11690287 0.12538287 0.63600004
-0.11532763 0.12498858 0.634
-0.11412001 0.12498858 0.634
-0.11291239 0.12498858 0.634
-0.11152858 0.12479144 0.63300002
-0.11032286 0.12479144 0.63300002
-0.10894477 0.12459429 0.63200003
-0.10774096 0.12459429 0.63200003
-0.10653715 0.12459429 0.63200003
-0.10533334 0.12459429 0.63200003
-0.10412953 0.12459429 0.63200003
-0.10292572 0.12459429 0.63200003
-0.10172191 0.12459429 0.63200003
-0.10067715 0.12479144 0.63300002
-0.099471435 0.12479144 0.63300002
-0.098265722 0.12479144 0.63300002
-0.09706001 0.12479144 0.63300002
-0.09585429 0.12479144 0.63300002
-0.094648577 0.12479144 0.63300002
-0.093442865 0.12479144 0.63300002
-0.092237152 0.12479144 0.63300002
-0.090887628 0.12459429 0.63200003
-0.089683816 0.12459429 0.63200003
-0.088480003 0.12459429 0.63200003
-0.087276198 0.12459429 0.63200003
-0.086072385 0.12459429 0.63200003
-0.08486858 0.12459429 0.63200003
-0.083664767 0.12459429 0.63200003
-0.082591437 0.12479144 0.63300002
-0.081385717 0.12479144 0.63300002
-0.080180004 0.12479144 0.63300002
-0.078974292 0.12479144 0.63300002
-0.077891432 0.12498858 0.634
-0.076804765 0.12518573 0.63500005
-0.075476192 0.12498858 0.634
-0.12941334 0.12818667 0.64400005
-0.12818667 0.12818667 0.64400005
-0.12696001 0.12818667 0.64400005
-0.12475715 0.12719144 0.63900006
-0.12334667 0.12699239 0.63800001
-0.12213144 0.12699239 0.63800001
-0.12053715 0.12659429 0.63600004
-0.11932572 0.12659429 0.63600004
-0.11792858 0.12639524 0.63500005
-0.11653525 0.12619621 0.634
-0.11532763 0.12619621 0.634
-0.11394001 0.12599716 0.63300002
-0.1125562 0.12579811 0.63200003
-0.11135239 0.12579811 0.63200003
-0.11014858 0.12579811 0.63200003
-0.10877239 0.12559906 0.63100004
-0.10757048 0.12559906 0.63100004
-0.10636858 0.12559906 0.63100004
-0.10483334 0.12520096 0.62900001
-0.10396477 0.12559906 0.63100004
-0.10276286 0.12559906 0.63100004
-0.10156096 0.12559906 0.63100004
-0.1005181 0.12579811 0.63200003
-0.099314295 0.12579811 0.63200003
-0.098110482 0.12579811 0.63200003
-0.096906669 0.12579811 0.63200003
-0.095702864 0.12579811 0.63200003
-0.094499052 0.12579811 0.63200003
-0.093295246 0.12579811 0.63200003
-0.092091434 0.12579811 0.63200003
-0.090743817 0.12559906 0.63100004
-0.089541912 0.12559906 0.63100004
-0.088340007 0.12559906 0.63100004
-0.086861908 0.12520096 0.62900001
-0.085663818 0.12520096 0.62900001
-0.08446572 0.12520096 0.62900001
-0.083267622 0.12520096 0.62900001
-0.08233048 0.12559906 0.63100004
-0.08125715 0.12579811 0.63200003
-0.080053337 0.12579811 0.63200003
-0.078849532 0.12579811 0.63200003
-0.077768579 0.12599716 0.63300002
-0.076683812 0.12619621 0.634
-0.075476192 0.12619621 0.634
-0.074151434 0.12599716 0.63300002
-0.072945721 0.12599716 0.63300002
-0.12719144 0.12840858 0.63900006
-0.1259743 0.12840858 0.63900006
-0.12475715 0.12840858 0.63900006
-0.12334667 0.12820762 0.63800001
-0.12174858 0.12780572 0.63600004
-0.12034763 0.12760477 0.63500005
-0.11895049 0.12740381 0.634
-0.11755715 0.12720287 0.63300002
-0.11635143 0.12720287 0.63300002
-0.11514572 0.12720287 0.63300002
-0.11376001 0.12700191 0.63200003
-0.1125562 0.12700191 0.63200003
-0.1111762 0.12680095 0.63100004
-0.10997429 0.12680095 0.63100004
-0.10877239 0.12680095 0.63100004
-0.10722953 0.12639906 0.62900001
-0.10603143 0.12639906 0.62900001
-0.10483334 0.12639906 0.62900001
-0.10363524 0.12639906 0.62900001
-0.10243715 0.12639906 0.62900001
-0.10123906 0.12639906 0.62900001
-0.10004096 0.12639906 0.62900001
-0.099157147 0.12680095 0.63100004
-0.097955242 0.12680095 0.63100004
-0.096753336 0.12680095 0.63100004
-0.095702864 0.12700191 0.63200003
-0.094499052 0.12700191 0.63200003
-0.093295246 0.12700191 0.63200003
-0.092091434 0.12700191 0.63200003
-0.090456195 0.12639906 0.62900001
-0.089258105 0.12639906 0.62900001
-0.088060006 0.12639906 0.62900001
-0.086861908 0.12639906 0.62900001
-0.085663818 0.12639906 0.62900001
-0.08446572 0.12639906 0.62900001
-0.083267622 0.12639906 0.62900001
-0.082069531 0.12639906 0.62900001
-0.080871433 0.12639906 0.62900001
-0.07992667 0.12680095 0.63100004
-0.078849532 0.12700191 0.63200003
-0.077645719 0.12700191 0.63200003
-0.076441906 0.12700191 0.63200003
-0.075357147 0.12720287 0.63300002
-0.074034289 0.12700191 0.63200003
-0.072945721 0.12720287 0.63300002
-0.12719144 0.12962572 0.63900006
-0.1259743 0.12962572 0.63900006
-0.12456191 0.12942286 0.63800001
-0.12296001 0.12901714 0.63600004
-0.12155715 0.12881429 0.63500005
-0.12015811 0.12861143 0.634
-0.11895049 0.12861143 0.634
-0.11755715 0.12840858 0.63300002
-0.11598381 0.12800287 0.63100004
-0.11478191 0.12800287 0.63100004
-0.11358001 0.12800287 0.63100004
-0.11237811 0.12800287 0.63100004
-0.11082382 0.12759715 0.62900001
-0.10962572 0.12759715 0.62900001
-0.10842763 0.12759715 0.62900001
-0.10722953 0.12759715 0.62900001
-0.10586286 0.12739429 0.62800002
-0.10466667 0.12739429 0.62800002
-0.10347048 0.12739429 0.62800002
-0.10227429 0.12739429 0.62800002
-0.1010781 0.12739429 0.62800002
-0.09988191 0.12739429 0.62800002
-0.098842867 0.12759715 0.62900001
-0.097644769 0.12759715 0.62900001
-0.096446671 0.12759715 0.62900001
-0.095551431 0.12800287 0.63100004
-0.094349533 0.12800287 0.63100004
-0.093147628 0.12800287 0.63100004
-0.091654293 0.12759715 0.62900001
-0.090456195 0.12759715 0.62900001
-0.089258105 0.12759715 0.62900001
-0.088060006 0.12759715 0.62900001
-0.086861908 0.12759715 0.62900001
-0.085527621 0.12739429 0.62800002
-0.08433143 0.12739429 0.62800002
-0.083135247 0.12739429 0.62800002
-0.082069531 0.12759715 0.62900001
-0.080871433 0.12759715 0.62900001
-0.079673335 0.12759715 0.62900001
-0.078724764 0.12800287 0.63100004
-0.077645719 0.12820572 0.63200003
-0.076441906 0.12820572 0.63200003
-0.075238101 0.12820572 0.63200003
-0.07391715 0.12800287 0.63100004
-0.072830483 0.12820572 0.63200003
-0.07151334 0.12800287 0.63100004
-0.12577716 0.13063811 0.63800001
-0.12456191 0.13063811 0.63800001
-0.12276667 0.13002382 0.63500005
-0.12136572 0.12981905 0.634
-0.12015811 0.12981905 0.634
-0.11876287 0.12961429 0.63300002
-0.11737144 0.12940954 0.63200003
-0.11561619 0.12879525 0.62900001
-0.11478191 0.12920476 0.63100004
-0.11322001 0.12879525 0.62900001
-0.11202192 0.12879525 0.62900001
-0.11082382 0.12879525 0.62900001
-0.10962572 0.12879525 0.62900001
-0.10842763 0.12879525 0.62900001
-0.10705905 0.12859048 0.62800002
-0.10586286 0.12859048 0.62800002
-0.1045 0.12838572 0.62700003
-0.10330572 0.12838572 0.62700003
-0.10211144 0.12838572 0.62700003
-0.10091715 0.12838572 0.62700003
-0.099722862 0.12838572 0.62700003
-0.098685719 0.12859048 0.62800002
-0.097489528 0.12859048 0.62800002
-0.096293338 0.12859048 0.62800002
-0.095097147 0.12859048 0.62800002
-0.093900956 0.12859048 0.62800002
-0.092852384 0.12879525 0.62900001
-0.091508575 0.12859048 0.62800002
-0.090312384 0.12859048 0.62800002
-0.089116193 0.12859048 0.62800002
-0.087920003 0.12859048 0.62800002
-0.086723812 0.12859048 0.62800002
-0.085527621 0.12859048 0.62800002
-0.08433143 0.12859048 0.62800002
-0.083135247 0.12859048 0.62800002
-0.081939057 0.12859048 0.62800002
-0.080742866 0.12859048 0.62800002
-0.079546675 0.12859048 0.62800002
-0.078350484 0.12859048 0.62800002
-0.077277146 0.12879525 0.62900001
-0.076079056 0.12879525 0.62900001
-0.074880958 0.12879525 0.62900001
-0.073565722 0.12859048 0.62800002
-0.072369531 0.12859048 0.62800002
-0.071060002 0.12838572 0.62700003
-0.069865718 0.12838572 0.62700003
-0.12498858 0.13102667 0.634
-0.12378096 0.13102667 0.634
-0.12238001 0.13082001 0.63300002
-0.12098286 0.13061334 0.63200003
-0.11977906 0.13061334 0.63200003
-0.11838762 0.13040668 0.63100004
-0.11681429 0.12999335 0.62900001
-0.11561619 0.12999335 0.62900001
-0.1144181 0.12999335 0.62900001
-0.11304001 0.12978667 0.62800002
-0.11184382 0.12978667 0.62800002
-0.11047143 0.12958001 0.62700003
-0.10927715 0.12958001 0.62700003
-0.10808286 0.12958001 0.62700003
-0.1067181 0.12937334 0.62600005
-0.10535715 0.12916668 0.625
-0.10433334 0.12937334 0.62600005
-0.10314096 0.12937334 0.62600005
-0.10194858 0.12937334 0.62600005
-0.1007562 0.12937334 0.62600005
-0.099563815 0.12937334 0.62600005
-0.098371439 0.12937334 0.62600005
-0.097179055 0.12937334 0.62600005
-0.095986672 0.12937334 0.62600005
-0.094794288 0.12937334 0.62600005
-0.093452387 0.12916668 0.625
-0.092409529 0.12937334 0.62600005
-0.091217145 0.12937334 0.62600005
-0.090024769 0.12937334 0.62600005
-0.088832386 0.12937334 0.62600005
-0.087640002 0.12937334 0.62600005
-0.086585723 0.12958001 0.62700003
-0.085255243 0.12937334 0.62600005
-0.084062859 0.12937334 0.62600005
-0.082870483 0.12937334 0.62600005
-0.081547625 0.12916668 0.625
-0.080357149 0.12916668 0.625
-0.079166673 0.12916668 0.625
-0.077976197 0.12916668 0.625
-0.076785721 0.12916668 0.625
-0.075595245 0.12916668 0.625
-0.074404769 0.12916668 0.625
-0.073214293 0.12916668 0.625
-0.072023816 0.12916668 0.625
-0.07083334 0.12916668 0.625
-0.069642864 0.12916668 0.625
-0.068342865 0.12896001 0.62400001
-0.12218668 0.13181715 0.63200003
-0.12079144 0.13160858 0.63100004
-0.11958953 0.13160858 0.63100004
-0.11801239 0.13119143 0.62900001
-0.11662858 0.13098286 0.62800002
-0.11543239 0.13098286 0.62800002
-0.1142362 0.13098286 0.62800002
-0.11286001 0.13077429 0.62700003
-0.11166572 0.13077429 0.62700003
-0.11047143 0.13077429 0.62700003
-0.10910287 0.13056572 0.62600005
-0.10791048 0.13056572 0.62600005
-0.10654762 0.13035715 0.625
-0.10535715 0.13035715 0.625
-0.10416667 0.13035715 0.625
-0.1029762 0.13035715 0.625
-0.10178572 0.13035715 0.625
-0.10059524 0.13035715 0.625
-0.099404767 0.13035715 0.625
-0.098214291 0.13035715 0.625
-0.097023815 0.13035715 0.625
-0.095833339 0.13035715 0.625
-0.094642863 0.13035715 0.625
-0.093452387 0.13035715 0.625
-0.09226191 0.13035715 0.625
-0.091071434 0.13035715 0.625
-0.089880958 0.13035715 0.625
-0.088690482 0.13035715 0.625
-0.087640002 0.13056572 0.62600005
-0.086447626 0.13056572 0.62600005
-0.085255243 0.13056572 0.62600005
-0.083928578 0.13035715 0.625
-0.082738101 0.13035715 0.625
-0.081547625 0.13035715 0.625
-0.080228575 0.13014857 0.62400001
-0.079040006 0.13014857 0.62400001
-0.077851437 0.13014857 0.62400001
-0.076785721 0.13035715 0.625
-0.075595245 0.13035715 0.625
-0.074404769 0.13035715 0.625
-0.073214293 0.13035715 0.625
-0.072023816 0.13035715 0.625
-0.07083334 0.13035715 0.625
-0.069531433 0.13014857 0.62400001
-0.068342865 0.13014857 0.62400001
-0.067046672 0.12994 0.62300003
-0.12160668 0.13238953 0.62900001
-0.12040858 0.13238953 0.62900001
-0.11958953 0.13281049 0.63100004
-0.11801239 0.13238953 0.62900001
-0.11662858 0.13217905 0.62800002
-0.11543239 0.13217905 0.62800002
-0.11405429 0.13196857 0.62700003
-0.11286001 0.13196857 0.62700003
-0.11148763 0.13175811 0.62600005
-0.11011905 0.13154763 0.625
-0.10892858 0.13154763 0.625
-0.1077381 0.13154763 0.625
-0.10654762 0.13154763 0.625
-0.10518858 0.13133715 0.62400001
-0.10400001 0.13133715 0.62400001
-0.10281143 0.13133715 0.62400001
-0.10162286 0.13133715 0.62400001
-0.1004343 0.13133715 0.62400001
-0.09924572 0.13133715 0.62400001
-0.098057151 0.13133715 0.62400001
-0.096868575 0.13133715 0.62400001
-0.095680006 0.13133715 0.62400001
-0.094491437 0.13133715 0.62400001
-0.093302861 0.13133715 0.62400001
-0.092114292 0.13133715 0.62400001
-0.090925723 0.13133715 0.62400001
-0.089880958 0.13154763 0.625
-0.088548578 0.13133715 0.62400001
-0.087500006 0.13154763 0.625
-0.08630953 0.13154763 0.625
-0.085119054 0.13154763 0.625
-0.083928578 0.13154763 0.625
-0.08260572 0.13133715 0.62400001
-0.081417151 0.13133715 0.62400001
-0.080228575 0.13133715 0.62400001
-0.078913338 0.13112667 0.62300003
-0.077851437 0.13133715 0.62400001
-0.076662861 0.13133715 0.62400001
-0.075474292 0.13133715 0.62400001
-0.074285716 0.13133715 0.62400001
-0.073097147 0.13133715 0.62400001
-0.071908578 0.13133715 0.62400001
-0.070720002 0.13133715 0.62400001
-0.069531433 0.13133715 0.62400001
-0.068233341 0.13112667 0.62300003
-0.067046672 0.13112667 0.62300003
-0.065860003 0.13112667 0.62300003
-0.064777151 0.13133715 0.62400001
-0.12280477 0.13358763 0.62900001
-0.12160668 0.13358763 0.62900001
-0.12040858 0.13358763 0.62900001
-0.11921048 0.13358763 0.62900001
-0.11801239 0.13358763 0.62900001
-0.11662858 0.13337524 0.62800002
-0.11524858 0.13316287 0.62700003
-0.11387239 0.13295048 0.62600005
-0.1125 0.1327381 0.625
-0.11130953 0.1327381 0.625
-0.10994286 0.13252573 0.62400001
-0.10875429 0.13252573 0.62400001
-0.10756572 0.13252573 0.62400001
-0.10637715 0.13252573 0.62400001
-0.10502001 0.13231334 0.62300003
-0.10383334 0.13231334 0.62300003
-0.10264667 0.13231334 0.62300003
-0.10146001 0.13231334 0.62300003
-0.10027334 0.13231334 0.62300003
-0.099086672 0.13231334 0.62300003
-0.097900003 0.13231334 0.62300003
-0.096713342 0.13231334 0.62300003
-0.095526673 0.13231334 0.62300003
-0.094340004 0.13231334 0.62300003
-0.093153343 0.13231334 0.62300003
-0.091966674 0.13231334 0.62300003
-0.090780005 0.13231334 0.62300003
-0.089737147 0.13252573 0.62400001
-0.088406675 0.13231334 0.62300003
-0.087360002 0.13252573 0.62400001
-0.086171433 0.13252573 0.62400001
-0.084982865 0.13252573 0.62400001
-0.083794288 0.13252573 0.62400001
-0.08260572 0.13252573 0.62400001
-0.081286669 0.13231334 0.62300003
-0.080100007 0.13231334 0.62300003
-0.078913338 0.13231334 0.62300003
-0.07772667 0.13231334 0.62300003
-0.076540008 0.13231334 0.62300003
-0.075353339 0.13231334 0.62300003
-0.074285716 0.13252573 0.62400001
-0.073097147 0.13252573 0.62400001
-0.071908578 0.13252573 0.62400001
-0.070720002 0.13252573 0.62400001
-0.069531433 0.13252573 0.62400001
-0.068233341 0.13231334 0.62300003
-0.067046672 0.13231334 0.62300003
-0.065860003 0.13231334 0.62300003
-0.064777151 0.13252573 0.62400001
-0.13110001 0.14250001 0.66500002
-0.12280477 0.13478573 0.62900001
-0.12141334 0.13457143 0.62800002
-0.12021715 0.13457143 0.62800002
-0.11921048 0.13478573 0.62900001
-0.11782477 0.13457143 0.62800002
-0.11625715 0.13414286 0.62600005
-0.11488096 0.13392858 0.625
-0.11369048 0.13392858 0.625
-0.11232001 0.13371429 0.62400001
-0.11113144 0.13371429 0.62400001
-0.10994286 0.13371429 0.62400001
-0.10875429 0.13371429 0.62400001
-0.10739334 0.13350001 0.62300003
-0.1060362 0.13328572 0.62200004
-0.10502001 0.13350001 0.62300003
-0.10366667 0.13328572 0.62200004
-0.10248191 0.13328572 0.62200004
-0.10129715 0.13328572 0.62200004
-0.10011239 0.13328572 0.62200004
-0.098927625 0.13328572 0.62200004
-0.097428575 0.13285716 0.62
-0.096247628 0.13285716 0.62
-0.095066674 0.13285716 0.62
-0.09388572 0.13285716 0.62
-0.093003817 0.13328572 0.62200004
-0.091819055 0.13328572 0.62200004
-0.090634294 0.13328572 0.62200004
-0.089449532 0.13328572 0.62200004
-0.088264771 0.13328572 0.62200004
-0.087080009 0.13328572 0.62200004
-0.08589524 0.13328572 0.62200004
-0.084846675 0.13350001 0.62300003
-0.083660007 0.13350001 0.62300003
-0.082473338 0.13350001 0.62300003
-0.081156194 0.13328572 0.62200004
-0.079971433 0.13328572 0.62200004
-0.078786671 0.13328572 0.62200004
-0.07760191 0.13328572 0.62200004
-0.076417148 0.13328572 0.62200004
-0.075353339 0.13350001 0.62300003
-0.07416667 0.13350001 0.62300003
-0.072980002 0.13350001 0.62300003
-0.07179334 0.13350001 0.62300003
-0.070606671 0.13350001 0.62300003
-0.069308579 0.13328572 0.62200004
-0.068123817 0.13328572 0.62200004
-0.066939048 0.13328572 0.62200004
-0.065754287 0.13328572 0.62200004
-0.064673334 0.13350001 0.62300003
-0.12301715 0.13490286 0.62400001
-0.12260953 0.13576762 0.62800002
-0.12141334 0.13576762 0.62800002
-0.12021715 0.13576762 0.62800002
-0.11921048 0.13598382 0.62900001
-0.11744953 0.13533525 0.62600005
-0.11607143 0.13511905 0.625
-0.11488096 0.13511905 0.625
-0.11350858 0.13490286 0.62400001
-0.11232001 0.13490286 0.62400001
-0.11113144 0.13490286 0.62400001
-0.10976668 0.13468668 0.62300003
-0.10858001 0.13468668 0.62300003
-0.10739334 0.13468668 0.62300003
-0.1060362 0.13447048 0.62200004
-0.10485143 0.13447048 0.62200004
-0.10366667 0.13447048 0.62200004
-0.10248191 0.13447048 0.62200004
-0.10097144 0.13403811 0.62
-0.099790484 0.13403811 0.62
-0.098609529 0.13403811 0.62
-0.097428575 0.13403811 0.62
-0.096247628 0.13403811 0.62
-0.095066674 0.13403811 0.62
-0.09388572 0.13403811 0.62
-0.092704765 0.13403811 0.62
-0.091523819 0.13403811 0.62
-0.090342864 0.13403811 0.62
-0.089449532 0.13447048 0.62200004
-0.087980956 0.13403811 0.62
-0.086800009 0.13403811 0.62
-0.08589524 0.13447048 0.62200004
-0.084710479 0.13447048 0.62200004
-0.083525717 0.13447048 0.62200004
-0.082076199 0.13403811 0.62
-0.080895245 0.13403811 0.62
-0.079714291 0.13403811 0.62
-0.078533337 0.13403811 0.62
-0.07760191 0.13447048 0.62200004
-0.076417148 0.13447048 0.62200004
-0.075232387 0.13447048 0.62200004
-0.074047625 0.13447048 0.62200004
-0.072862864 0.13447048 0.62200004
-0.071678102 0.13447048 0.62200004
-0.07049334 0.13447048 0.62200004
-0.069308579 0.13447048 0.62200004
-0.068123817 0.13447048 0.62200004
-0.066939048 0.13447048 0.62200004
-0.065754287 0.13447048 0.62200004
-0.064569525 0.13447048 0.62200004
-0.063384764 0.13447048 0.62200004
-0.062200002 0.13447048 0.62200004
-0.12301715 0.13609144 0.62400001
-0.12260953 0.13696381 0.62800002
-0.12141334 0.13696381 0.62800002
-0.12002572 0.13674572 0.62700003
-0.11902096 0.13696381 0.62800002
-0.11726191 0.13630953 0.625
-0.11607143 0.13630953 0.625
-0.11469715 0.13609144 0.62400001
-0.11350858 0.13609144 0.62400001
-0.11214001 0.13587335 0.62300003
-0.11095334 0.13587335 0.62300003
-0.10976668 0.13587335 0.62300003
-0.10840572 0.13565525 0.62200004
-0.10722096 0.13565525 0.62200004
-0.10569525 0.13521905 0.62
-0.10451429 0.13521905 0.62
-0.10333334 0.13521905 0.62
-0.10215238 0.13521905 0.62
-0.10097144 0.13521905 0.62
-0.099629529 0.13500096 0.61900002
-0.098450482 0.13500096 0.61900002
-0.097271435 0.13500096 0.61900002
-0.096092388 0.13500096 0.61900002
-0.094913341 0.13500096 0.61900002
-0.093734294 0.13500096 0.61900002
-0.092555247 0.13500096 0.61900002
-0.091523819 0.13521905 0.62
-0.090342864 0.13521905 0.62
-0.08916191 0.13521905 0.62
-0.087980956 0.13521905 0.62
-0.086800009 0.13521905 0.62
-0.085619055 0.13521905 0.62
-0.0844381 0.13521905 0.62
-0.083257146 0.13521905 0.62
-0.082076199 0.13521905 0.62
-0.080895245 0.13521905 0.62
-0.079714291 0.13521905 0.62
-0.078533337 0.13521905 0.62
-0.07735239 0.13521905 0.62
-0.076171435 0.13521905 0.62
-0.074990481 0.13521905 0.62
-0.074047625 0.13565525 0.62200004
-0.072628573 0.13521905 0.62
-0.071447626 0.13521905 0.62
-0.07049334 0.13565525 0.62200004
-0.069085717 0.13521905 0.62
-0.067904763 0.13521905 0.62
-0.066723816 0.13521905 0.62
-0.065542862 0.13521905 0.62
-0.064569525 0.13565525 0.62200004
-0.063384764 0.13565525 0.62200004
-0.062000003 0.13521905 0.62
-0.1253943 0.13728 0.62400001
-0.12420572 0.13728 0.62400001
-0.12282 0.13706002 0.62300003
-0.12260953 0.13816001 0.62800002
-0.12141334 0.13816001 0.62800002
-0.12002572 0.13794 0.62700003
-0.11902096 0.13816001 0.62800002
-0.11726191 0.1375 0.625
-0.11588572 0.13728 0.62400001
-0.11469715 0.13728 0.62400001
-0.11332668 0.13706002 0.62300003
-0.11214001 0.13706002 0.62300003
-0.11077525 0.13684002 0.62200004
-0.10959049 0.13684002 0.62200004
-0.10840572 0.13684002 0.62200004
-0.10687619 0.13640001 0.62
-0.10569525 0.13640001 0.62
-0.10451429 0.13640001 0.62
-0.10316668 0.13618001 0.61900002
-0.10198762 0.13618001 0.61900002
-0.10080858 0.13618001 0.61900002
-0.099629529 0.13618001 0.61900002
-0.098450482 0.13618001 0.61900002
-0.097114295 0.13596001 0.61800003
-0.096092388 0.13618001 0.61900002
-0.094760008 0.13596001 0.61800003
-0.093734294 0.13618001 0.61900002
-0.092555247 0.13618001 0.61900002
-0.091376193 0.13618001 0.61900002
-0.090197146 0.13618001 0.61900002
-0.089018099 0.13618001 0.61900002
-0.087839052 0.13618001 0.61900002
-0.086660005 0.13618001 0.61900002
-0.085480958 0.13618001 0.61900002
-0.084301911 0.13618001 0.61900002
-0.083122864 0.13618001 0.61900002
-0.081943817 0.13618001 0.61900002
-0.080764771 0.13618001 0.61900002
-0.079585716 0.13618001 0.61900002
-0.078406669 0.13618001 0.61900002
-0.077227622 0.13618001 0.61900002
-0.076048575 0.13618001 0.61900002
-0.074869528 0.13618001 0.61900002
-0.073690481 0.13618001 0.61900002
-0.072628573 0.13640001 0.62
-0.071332388 0.13618001 0.61900002
-0.070266671 0.13640001 0.62
-0.069085717 0.13640001 0.62
-0.067904763 0.13640001 0.62
-0.066723816 0.13640001 0.62
-0.065542862 0.13640001 0.62
-0.064361908 0.13640001 0.62
-0.063180953 0.13640001 0.62
-0.062000003 0.13640001 0.62
-0.060819052 0.13640001 0.62
-0.059638098 0.13640001 0.62
-0.12658286 0.13846858 0.62400001
-0.1253943 0.13846858 0.62400001
-0.12400667 0.13824667 0.62300003
-0.12282 0.13824667 0.62300003
-0.12163334 0.13824667 0.62300003
-0.12122001 0.13913429 0.62700003
-0.12021715 0.1393562 0.62800002
-0.11883143 0.13913429 0.62700003
-0.1170743 0.13846858 0.62400001
-0.11588572 0.13846858 0.62400001
-0.11469715 0.13846858 0.62400001
-0.11332668 0.13824667 0.62300003
-0.11196001 0.13802478 0.62200004
-0.11077525 0.13802478 0.62200004
-0.1092381 0.13758096 0.62
-0.10805715 0.13758096 0.62
-0.10670382 0.13735905 0.61900002
-0.10552477 0.13735905 0.61900002
-0.10434572 0.13735905 0.61900002
-0.10316668 0.13735905 0.61900002
-0.10198762 0.13735905 0.61900002
-0.10064572 0.13713714 0.61800003
-0.099468581 0.13713714 0.61800003
-0.098291434 0.13713714 0.61800003
-0.097114295 0.13713714 0.61800003
-0.095937148 0.13713714 0.61800003
-0.094606675 0.13691525 0.61700004
-0.093582861 0.13713714 0.61800003
-0.092405722 0.13713714 0.61800003
-0.091228575 0.13713714 0.61800003
-0.090051435 0.13713714 0.61800003
-0.088874288 0.13713714 0.61800003
-0.087697148 0.13713714 0.61800003
-0.086380005 0.13691525 0.61700004
-0.085342862 0.13713714 0.61800003
-0.084165722 0.13713714 0.61800003
-0.082988575 0.13713714 0.61800003
-0.081811436 0.13713714 0.61800003
-0.080634288 0.13713714 0.61800003
-0.079457149 0.13713714 0.61800003
-0.078280002 0.13713714 0.61800003
-0.077102862 0.13713714 0.61800003
-0.075925723 0.13713714 0.61800003
-0.074748576 0.13713714 0.61800003
-0.073571436 0.13713714 0.61800003
-0.072511435 0.13735905 0.61900002
-0.071332388 0.13735905 0.61900002
-0.070153341 0.13735905 0.61900002
-0.069085717 0.13758096 0.62
-0.067795239 0.13735905 0.61900002
-0.066616192 0.13735905 0.61900002
-0.065542862 0.13758096 0.62
-0.064361908 0.13758096 0.62
-0.063180953 0.13758096 0.62
-0.062000003 0.13758096 0.62
-0.060819052 0.13758096 0.62
-0.059541907 0.13735905 0.61900002
-0.12658286 0.13965715 0.62400001
-0.12519334 0.13943334 0.62300003
-0.12380762 0.13920954 0.62200004
-0.12262286 0.13920954 0.62200004
-0.1214381 0.13920954 0.62200004
-0.12025334 0.13920954 0.62200004
-0.11964287 0.13988096 0.625
-0.11826286 0.13965715 0.62400001
-0.11688668 0.13943334 0.62300003
-0.11570001 0.13943334 0.62300003
-0.11451334 0.13943334 0.62300003
-0.11314477 0.13920954 0.62200004
-0.11196001 0.13920954 0.62200004
-0.11041906 0.13876191 0.62
-0.1092381 0.13876191 0.62
-0.10805715 0.13876191 0.62
-0.10670382 0.13853811 0.61900002
-0.10552477 0.13853811 0.61900002
-0.10434572 0.13853811 0.61900002
-0.10316668 0.13853811 0.61900002
-0.10182286 0.13831429 0.61800003
-0.10064572 0.13831429 0.61800003
-0.099468581 0.13831429 0.61800003
-0.098132387 0.13809049 0.61700004
-0.096957147 0.13809049 0.61700004
-0.095781907 0.13809049 0.61700004
-0.094606675 0.13809049 0.61700004
-0.093431436 0.13809049 0.61700004
-0.092256196 0.13809049 0.61700004
-0.091080956 0.13809049 0.61700004
-0.089905716 0.13809049 0.61700004
-0.088730484 0.13809049 0.61700004
-0.087413341 0.13786668 0.61600006
-0.086240008 0.13786668 0.61600006
-0.085204765 0.13809049 0.61700004
-0.084029533 0.13809049 0.61700004
-0.082854293 0.13809049 0.61700004
-0.081679054 0.13809049 0.61700004
-0.080503814 0.13809049 0.61700004
-0.079328574 0.13809049 0.61700004
-0.078280002 0.13831429 0.61800003
-0.076978102 0.13809049 0.61700004
-0.075802863 0.13809049 0.61700004
-0.074748576 0.13831429 0.61800003
-0.073452383 0.13809049 0.61700004
-0.072394289 0.13831429 0.61800003
-0.071217149 0.13831429 0.61800003
-0.070040002 0.13831429 0.61800003
-0.068974294 0.13853811 0.61900002
-0.067795239 0.13853811 0.61900002
-0.066616192 0.13853811 0.61900002
-0.065437146 0.13853811 0.61900002
-0.064258099 0.13853811 0.61900002
-0.063079052 0.13853811 0.61900002
-0.061900005 0.13853811 0.61900002
-0.060720958 0.13853811 0.61900002
-0.059445716 0.13831429 0.61800003
-0.05836286 0.13853811 0.61900002
-0.12519334 0.14062001 0.62300003
-0.12380762 0.1403943 0.62200004
-0.12262286 0.1403943 0.62200004
-0.11849429 0.13971715 0.61900002
-0.11731525 0.13971715 0.61900002
-0.1161362 0.13971715 0.61900002
-0.11495715 0.13971715 0.61900002
-0.11396191 0.13994287 0.62
-0.11278096 0.13994287 0.62
-0.11142001 0.13971715 0.61900002
-0.11024096 0.13971715 0.61900002
-0.10906191 0.13971715 0.61900002
-0.10770858 0.13949144 0.61800003
-0.10635906 0.13926572 0.61700004
-0.10535429 0.13949144 0.61800003
-0.10417715 0.13949144 0.61800003
-0.10283334 0.13926572 0.61700004
-0.10149334 0.13904001 0.61600006
-0.10032 0.13904001 0.61600006
-0.099146672 0.13904001 0.61600006
-0.097973339 0.13904001 0.61600006
-0.096800007 0.13904001 0.61600006
-0.095626675 0.13904001 0.61600006
-0.094453342 0.13904001 0.61600006
-0.093280002 0.13904001 0.61600006
-0.09210667 0.13904001 0.61600006
-0.090933338 0.13904001 0.61600006
-0.089760005 0.13904001 0.61600006
-0.088586673 0.13904001 0.61600006
-0.087271437 0.1388143 0.61500001
-0.086100005 0.1388143 0.61500001
-0.08492858 0.1388143 0.61500001
-0.083893336 0.13904001 0.61600006
-0.082720004 0.13904001 0.61600006
-0.081546672 0.13904001 0.61600006
-0.080373339 0.13904001 0.61600006
-0.079200007 0.13904001 0.61600006
-0.078026675 0.13904001 0.61600006
-0.076853335 0.13904001 0.61600006
-0.075680003 0.13904001 0.61600006
-0.07450667 0.13904001 0.61600006
-0.073333338 0.13904001 0.61600006
-0.072277151 0.13926572 0.61700004
-0.071101911 0.13926572 0.61700004
-0.069926672 0.13926572 0.61700004
-0.068751432 0.13926572 0.61700004
-0.067576192 0.13926572 0.61700004
-0.06640096 0.13926572 0.61700004
-0.065331429 0.13949144 0.61800003
-0.06415429 0.13949144 0.61800003
-0.06297715 0.13949144 0.61800003
-0.061800003 0.13949144 0.61800003
-0.06062286 0.13949144 0.61800003
-0.059349529 0.13926572 0.61700004
-0.05817429 0.13926572 0.61700004
-0.11830287 0.14066859 0.61800003
-0.11712572 0.14066859 0.61800003
-0.11594858 0.14066859 0.61800003
-0.11495715 0.1408962 0.61900002
-0.1137781 0.1408962 0.61900002
-0.11259905 0.1408962 0.61900002
-0.11124001 0.14066859 0.61800003
-0.11006287 0.14066859 0.61800003
-0.10870953 0.14044096 0.61700004
-0.10753429 0.14044096 0.61700004
-0.10618667 0.14021334 0.61600006
-0.10501334 0.14021334 0.61600006
-0.10384001 0.14021334 0.61600006
-0.10266668 0.14021334 0.61600006
-0.10132858 0.13998573 0.61500001
-0.10015715 0.13998573 0.61500001
-0.098985724 0.13998573 0.61500001
-0.097814292 0.13998573 0.61500001
-0.096642867 0.13998573 0.61500001
-0.095471434 0.13998573 0.61500001
-0.094300009 0.13998573 0.61500001
-0.093128577 0.13998573 0.61500001
-0.091957152 0.13998573 0.61500001
-0.090785719 0.13998573 0.61500001
-0.089760005 0.14021334 0.61600006
-0.088442862 0.13998573 0.61500001
-0.087271437 0.13998573 0.61500001
-0.086100005 0.13998573 0.61500001
-0.08492858 0.13998573 0.61500001
-0.083757147 0.13998573 0.61500001
-0.082585722 0.13998573 0.61500001
-0.08141429 0.13998573 0.61500001
-0.080242865 0.13998573 0.61500001
-0.079071432 0.13998573 0.61500001
-0.078026675 0.14021334 0.61600006
-0.076853335 0.14021334 0.61600006
-0.075680003 0.14021334 0.61600006
-0.07450667 0.14021334 0.61600006
-0.073333338 0.14021334 0.61600006
-0.072160006 0.14021334 0.61600006
-0.070986673 0.14021334 0.61600006
-0.069813341 0.14021334 0.61600006
-0.068640001 0.14021334 0.61600006
-0.067466669 0.14021334 0.61600006
-0.06640096 0.14044096 0.61700004
-0.06522572 0.14044096 0.61700004
-0.064050481 0.14044096 0.61700004
-0.062875241 0.14044096 0.61700004
-0.061700005 0.14044096 0.61700004
-0.060524765 0.14044096 0.61700004
-0.059253339 0.14021334 0.61600006
-0.058080003 0.14021334 0.61600006
-0.05690667 0.14021334 0.61600006
-0.11792001 0.14138667 0.61600006
-0.11674667 0.14138667 0.61600006
-0.11632381 0.14230478 0.62
-0.11477143 0.14184572 0.61800003
-0.1137781 0.14207524 0.61900002
-0.11259905 0.14207524 0.61900002
-0.11106001 0.1416162 0.61700004
-0.10988477 0.1416162 0.61700004
-0.10870953 0.1416162 0.61700004
-0.10736001 0.14138667 0.61600006
-0.10601429 0.14115715 0.61500001
-0.10484286 0.14115715 0.61500001
-0.10367144 0.14115715 0.61500001
-0.10250001 0.14115715 0.61500001
-0.10116382 0.14092763 0.61400002
-0.099994294 0.14092763 0.61400002
-0.098824769 0.14092763 0.61400002
-0.097814292 0.14115715 0.61500001
-0.096642867 0.14115715 0.61500001
-0.095471434 0.14115715 0.61500001
-0.094146676 0.14092763 0.61400002
-0.093128577 0.14115715 0.61500001
-0.091807626 0.14092763 0.61400002
-0.090785719 0.14115715 0.61500001
-0.089468576 0.14092763 0.61400002
-0.088299051 0.14092763 0.61400002
-0.087271437 0.14115715 0.61500001
-0.085960008 0.14092763 0.61400002
-0.084790483 0.14092763 0.61400002
-0.083757147 0.14115715 0.61500001
-0.082585722 0.14115715 0.61500001
-0.08141429 0.14115715 0.61500001
-0.080242865 0.14115715 0.61500001
-0.079071432 0.14115715 0.61500001
-0.077900007 0.14115715 0.61500001
-0.076728575 0.14115715 0.61500001
-0.07555715 0.14115715 0.61500001
-0.074385718 0.14115715 0.61500001
-0.073214293 0.14115715 0.61500001
-0.072160006 0.14138667 0.61600006
-0.070986673 0.14138667 0.61600006
-0.069813341 0.14138667 0.61600006
-0.068640001 0.14138667 0.61600006
-0.067357145 0.14115715 0.61500001
-0.066293336 0.14138667 0.61600006
-0.065120004 0.14138667 0.61600006
-0.063946672 0.14138667 0.61600006
-0.062773339 0.14138667 0.61600006
-0.061600003 0.14138667 0.61600006
-0.060426671 0.14138667 0.61600006
-0.059253339 0.14138667 0.61600006
-0.058080003 0.14138667 0.61600006
-0.05690667 0.14138667 0.61600006
-0.055642862 0.14115715 0.61500001
-0.054471433 0.14115715 0.61500001
-0.11772858 0.14232858 0.61500001
-0.11655715 0.14232858 0.61500001
-0.11557334 0.14256001 0.61600006
-0.11458572 0.14279144 0.61700004
-0.11341048 0.14279144 0.61700004
-0.11223525 0.14279144 0.61700004
-0.11088001 0.14256001 0.61600006
-0.10970668 0.14256001 0.61600006
-0.10835715 0.14232858 0.61500001
-0.10701144 0.14209715 0.61400002
-0.10584191 0.14209715 0.61400002
-0.10467239 0.14209715 0.61400002
-0.10350286 0.14209715 0.61400002
-0.10233334 0.14209715 0.61400002
-0.10099906 0.14186573 0.61300004
-0.099831432 0.14186573 0.61300004
-0.098663814 0.14186573 0.61300004
-0.097496197 0.14186573 0.61300004
-0.096485719 0.14209715 0.61400002
-0.095160961 0.14186573 0.61300004
-0.093993336 0.14186573 0.61300004
-0.092977151 0.14209715 0.61400002
-0.091807626 0.14209715 0.61400002
-0.090638101 0.14209715 0.61400002
-0.089468576 0.14209715 0.61400002
-0.088299051 0.14209715 0.61400002
-0.087129526 0.14209715 0.61400002
-0.085960008 0.14209715 0.61400002
-0.084790483 0.14209715 0.61400002
-0.083620958 0.14209715 0.61400002
-0.082585722 0.14232858 0.61500001
-0.08141429 0.14232858 0.61500001
-0.080242865 0.14232858 0.61500001
-0.078942865 0.14209715 0.61400002
-0.077900007 0.14232858 0.61500001
-0.076728575 0.14232858 0.61500001
-0.07555715 0.14232858 0.61500001
-0.074385718 0.14232858 0.61500001
-0.073214293 0.14232858 0.61500001
-0.07204286 0.14232858 0.61500001
-0.070986673 0.14256001 0.61600006
-0.069813341 0.14256001 0.61600006
-0.068528578 0.14232858 0.61500001
-0.067357145 0.14232858 0.61500001
-0.06618572 0.14232858 0.61500001
-0.065014288 0.14232858 0.61500001
-0.063842863 0.14232858 0.61500001
-0.06267143 0.14232858 0.61500001
-0.061500005 0.14232858 0.61500001
-0.060328577 0.14232858 0.61500001
-0.059157148 0.14232858 0.61500001
-0.057985719 0.14232858 0.61500001
-0.056814291 0.14232858 0.61500001
-0.055642862 0.14232858 0.61500001
-0.054471433 0.14232858 0.61500001
-0.053300004 0.14232858 0.61500001
-0.052213337 0.14256001 0.61600006
-0.11792001 0.14373334 0.61600006
-0.11674667 0.14373334 0.61600006
-0.11576096 0.14396667 0.61700004
-0.11458572 0.14396667 0.61700004
-0.11341048 0.14396667 0.61700004
-0.11223525 0.14396667 0.61700004
-0.11088001 0.14373334 0.61600006
-0.10970668 0.14373334 0.61600006
-0.10835715 0.14350002 0.61500001
-0.10701144 0.14326668 0.61400002
-0.10566953 0.14303334 0.61300004
-0.10467239 0.14326668 0.61400002
-0.10350286 0.14326668 0.61400002
-0.10216668 0.14303334 0.61300004
-0.10099906 0.14303334 0.61300004
-0.099668577 0.1428 0.61200005
-0.098502867 0.1428 0.61200005
-0.097337149 0.1428 0.61200005
-0.096171431 0.1428 0.61200005
-0.095005721 0.1428 0.61200005
-0.093840003 0.1428 0.61200005
-0.092825718 0.14303334 0.61300004
-0.091508575 0.1428 0.61200005
-0.090490483 0.14303334 0.61300004
-0.089322865 0.14303334 0.61300004
-0.088155247 0.14303334 0.61300004
-0.087129526 0.14326668 0.61400002
-0.085960008 0.14326668 0.61400002
-0.084790483 0.14326668 0.61400002
-0.083620958 0.14326668 0.61400002
-0.082451433 0.14326668 0.61400002
-0.081281908 0.14326668 0.61400002
-0.080112383 0.14326668 0.61400002
-0.078942865 0.14326668 0.61400002
-0.07777334 0.14326668 0.61400002
-0.076603815 0.14326668 0.61400002
-0.07543429 0.14326668 0.61400002
-0.074385718 0.14350002 0.61500001
-0.073214293 0.14350002 0.61500001
-0.07204286 0.14350002 0.61500001
-0.070871435 0.14350002 0.61500001
-0.069700003 0.14350002 0.61500001
-0.068528578 0.14350002 0.61500001
-0.067357145 0.14350002 0.61500001
-0.06618572 0.14350002 0.61500001
-0.065014288 0.14350002 0.61500001
-0.063842863 0.14350002 0.61500001
-0.062569529 0.14326668 0.61400002
-0.061400004 0.14326668 0.61400002
-0.060230479 0.14326668 0.61400002
-0.059157148 0.14350002 0.61500001
-0.057985719 0.14350002 0.61500001
-0.056721907 0.14326668 0.61400002
-0.055552386 0.14326668 0.61400002
-0.054382861 0.14326668 0.61400002
-0.053213336 0.14326668 0.61400002
-0.052043814 0.14326668 0.61400002
-0.050874289 0.14326668 0.61400002
-0.11772858 0.14467144 0.61500001
-0.11674667 0.14490667 0.61600006
-0.11557334 0.14490667 0.61600006
-0.11440001 0.14490667 0.61600006
-0.11322667 0.14490667 0.61600006
-0.11205334 0.14490667 0.61600006
-0.1107 0.14467144 0.61500001
-0.10952858 0.14467144 0.61500001
-0.10818096 0.1444362 0.61400002
-0.10683715 0.14420097 0.61300004
-0.10566953 0.14420097 0.61300004
-0.10450191 0.14420097 0.61300004
-0.10333429 0.14420097 0.61300004
-0.10216668 0.14420097 0.61300004
-0.1008343 0.14396572 0.61200005
-0.099668577 0.14396572 0.61200005
-0.098502867 0.14396572 0.61200005
-0.097337149 0.14396572 0.61200005
-0.096171431 0.14396572 0.61200005
-0.094850481 0.14373049 0.611
-0.093840003 0.14396572 0.61200005
-0.092674293 0.14396572 0.61200005
-0.091508575 0.14396572 0.61200005
-0.090342864 0.14396572 0.61200005
-0.089177147 0.14396572 0.61200005
-0.088155247 0.14420097 0.61300004
-0.086987622 0.14420097 0.61300004
-0.085820004 0.14420097 0.61300004
-0.084652387 0.14420097 0.61300004
-0.083484769 0.14420097 0.61300004
-0.082451433 0.1444362 0.61400002
-0.081149526 0.14420097 0.61300004
-0.079981908 0.14420097 0.61300004
-0.07881429 0.14420097 0.61300004
-0.077646673 0.14420097 0.61300004
-0.076479055 0.14420097 0.61300004
-0.07531143 0.14420097 0.61300004
-0.074264765 0.1444362 0.61400002
-0.072976194 0.14420097 0.61300004
-0.071925722 0.1444362 0.61400002
-0.070756197 0.1444362 0.61400002
-0.069700003 0.14467144 0.61500001
-0.068417147 0.1444362 0.61400002
-0.067247622 0.1444362 0.61400002
-0.066078097 0.1444362 0.61400002
-0.064908579 0.1444362 0.61400002
-0.063739054 0.1444362 0.61400002
-0.062467624 0.14420097 0.61300004
-0.061400004 0.1444362 0.61400002
-0.060132384 0.14420097 0.61300004
-0.059060957 0.1444362 0.61400002
-0.057891432 0.1444362 0.61400002
-0.056721907 0.1444362 0.61400002
-0.055552386 0.1444362 0.61400002
-0.054382861 0.1444362 0.61400002
-0.053213336 0.1444362 0.61400002
-0.052043814 0.1444362 0.61400002
-0.050791431 0.14420097 0.61300004
-0.049623813 0.14420097 0.61300004
-0.048377145 0.14396572 0.61200005
-0.11674667 0.14608 0.61600006
-0.11557334 0.14608 0.61600006
-0.11440001 0.14608 0.61600006
-0.11322667 0.14608 0.61600006
-0.11187144 0.14584287 0.61500001
-0.11052001 0.14560573 0.61400002
-0.10935048 0.14560573 0.61400002
-0.10800477 0.14536858 0.61300004
-0.10683715 0.14536858 0.61300004
-0.10549715 0.14513144 0.61200005
-0.10433143 0.14513144 0.61200005
-0.10333429 0.14536858 0.61300004
-0.10200001 0.14513144 0.61200005
-0.1008343 0.14513144 0.61200005
-0.099668577 0.14513144 0.61200005
-0.098341912 0.1448943 0.611
-0.097178102 0.1448943 0.611
-0.096014291 0.1448943 0.611
-0.094850481 0.1448943 0.611
-0.09368667 0.1448943 0.611
-0.09252286 0.1448943 0.611
-0.091359057 0.1448943 0.611
-0.090342864 0.14513144 0.61200005
-0.089177147 0.14513144 0.61200005
-0.088011436 0.14513144 0.61200005
-0.086845718 0.14513144 0.61200005
-0.085820004 0.14536858 0.61300004
-0.08451429 0.14513144 0.61200005
-0.083484769 0.14536858 0.61300004
-0.082182862 0.14513144 0.61200005
-0.081017151 0.14513144 0.61200005
-0.079981908 0.14536858 0.61300004
-0.078685716 0.14513144 0.61200005
-0.077520005 0.14513144 0.61200005
-0.076354288 0.14513144 0.61200005
-0.075188577 0.14513144 0.61200005
-0.074143812 0.14536858 0.61300004
-0.072976194 0.14536858 0.61300004
-0.071808577 0.14536858 0.61300004
-0.070756197 0.14560573 0.61400002
-0.069586672 0.14560573 0.61400002
-0.068417147 0.14560573 0.61400002
-0.067247622 0.14560573 0.61400002
-0.06597048 0.14536858 0.61300004
-0.064908579 0.14560573 0.61400002
-0.063635245 0.14536858 0.61300004
-0.062467624 0.14536858 0.61300004
-0.061300006 0.14536858 0.61300004
-0.06003429 0.14513144 0.61200005
-0.059060957 0.14560573 0.61400002
-0.057891432 0.14560573 0.61400002
-0.056721907 0.14560573 0.61400002
-0.05546191 0.14536858 0.61300004
-0.054382861 0.14560573 0.61400002
-0.053213336 0.14560573 0.61400002
-0.052043814 0.14560573 0.61400002
-0.050791431 0.14536858 0.61300004
-0.049542859 0.14513144 0.61200005
-0.048377145 0.14513144 0.61200005
-0.11557334 0.14725335 0.61600006
-0.11440001 0.14725335 0.61600006
-0.11304286 0.14701429 0.61500001
-0.11187144 0.14701429 0.61500001
-0.11052001 0.14677525 0.61400002
-0.10917239 0.1465362 0.61300004
-0.10782858 0.14629716 0.61200005
-0.10666286 0.14629716 0.61200005
-0.10549715 0.14629716 0.61200005
-0.10433143 0.14629716 0.61200005
-0.10316572 0.14629716 0.61200005
-0.10200001 0.14629716 0.61200005
-0.10066953 0.1460581 0.611
-0.099505723 0.1460581 0.611
-0.09802001 0.14558001 0.60900003
-0.096860006 0.14558001 0.60900003
-0.095700003 0.14558001 0.60900003
-0.094540007 0.14558001 0.60900003
-0.093380004 0.14558001 0.60900003
-0.092220008 0.14558001 0.60900003
-0.091060005 0.14558001 0.60900003
-0.090195246 0.1460581 0.611
-0.089031436 0.1460581 0.611
-0.088011436 0.14629716 0.61200005
-0.086845718 0.14629716 0.61200005
-0.085680008 0.14629716 0.61200005
-0.08451429 0.14629716 0.61200005
-0.08334858 0.14629716 0.61200005
-0.082182862 0.14629716 0.61200005
-0.081017151 0.14629716 0.61200005
-0.079851434 0.14629716 0.61200005
-0.078685716 0.14629716 0.61200005
-0.077520005 0.14629716 0.61200005
-0.076354288 0.14629716 0.61200005
-0.075188577 0.14629716 0.61200005
-0.074022859 0.14629716 0.61200005
-0.072857149 0.14629716 0.61200005
-0.071691431 0.14629716 0.61200005
-0.070640959 0.1465362 0.61300004
-0.069473341 0.1465362 0.61300004
-0.068305716 0.1465362 0.61300004
-0.067028575 0.14629716 0.61200005
-0.065862864 0.14629716 0.61200005
-0.064802863 0.1465362 0.61300004
-0.063531436 0.14629716 0.61200005
-0.062365718 0.14629716 0.61200005
-0.061200004 0.14629716 0.61200005
-0.06003429 0.14629716 0.61200005
-0.058964767 0.1465362 0.61300004
-0.057797145 0.1465362 0.61300004
-0.056629527 0.1465362 0.61300004
-0.05546191 0.1465362 0.61300004
-0.054294288 0.1465362 0.61300004
-0.05312667 0.1465362 0.61300004
-0.051959053 0.1465362 0.61300004
-0.050708573 0.14629716 0.61200005
-0.049542859 0.14629716 0.61200005
-0.048377145 0.14629716 0.61200005
-0.11538572 0.14818573 0.61500001
-0.11421429 0.14818573 0.61500001
-0.11304286 0.14818573 0.61500001
-0.11150762 0.14770383 0.61300004
-0.11034001 0.14770383 0.61300004
-0.10899429 0.14746286 0.61200005
-0.10782858 0.14746286 0.61200005
-0.10666286 0.14746286 0.61200005
-0.10532477 0.14722191 0.611
-0.10416096 0.14722191 0.611
-0.10299715 0.14722191 0.611
-0.10183334 0.14722191 0.611
-0.10066953 0.14722191 0.611
-0.099505723 0.14722191 0.611
-0.09802001 0.14674 0.60900003
-0.096700959 0.14649905 0.60800004
-0.095542863 0.14649905 0.60800004
-0.094384767 0.14649905 0.60800004
-0.093226671 0.14649905 0.60800004
-0.092068575 0.14649905 0.60800004
-0.090910479 0.14649905 0.60800004
-0.089900009 0.14674 0.60900003
-0.089031436 0.14722191 0.611
-0.087867625 0.14722191 0.611
-0.086703815 0.14722191 0.611
-0.085680008 0.14746286 0.61200005
-0.08451429 0.14746286 0.61200005
-0.08334858 0.14746286 0.61200005
-0.08204858 0.14722191 0.611
-0.08088477 0.14722191 0.611
-0.079851434 0.14746286 0.61200005
-0.078685716 0.14746286 0.61200005
-0.077393338 0.14722191 0.611
-0.076229528 0.14722191 0.611
-0.075065717 0.14722191 0.611
-0.073901907 0.14722191 0.611
-0.072738104 0.14722191 0.611
-0.071691431 0.14746286 0.61200005
-0.070525721 0.14746286 0.61200005
-0.069360003 0.14746286 0.61200005
-0.068194292 0.14746286 0.61200005
-0.067028575 0.14746286 0.61200005
-0.065862864 0.14746286 0.61200005
-0.064697146 0.14746286 0.61200005
-0.063531436 0.14746286 0.61200005
-0.062365718 0.14746286 0.61200005
-0.061100002 0.14722191 0.611
-0.059936196 0.14722191 0.611
-0.058868576 0.14746286 0.61200005
-0.057702862 0.14746286 0.61200005
-0.056537148 0.14746286 0.61200005
-0.055371433 0.14746286 0.61200005
-0.054205719 0.14746286 0.61200005
-0.053040005 0.14746286 0.61200005
-0.051874287 0.14746286 0.61200005
-0.050708573 0.14746286 0.61200005
-0.049542859 0.14746286 0.61200005
-0.048298098 0.14722191 0.611
-0.11421429 0.14935715 0.61500001
-0.11285906 0.1491143 0.61400002
-0.11150762 0.14887144 0.61300004
-0.11016001 0.14862858 0.61200005
-0.1088162 0.14838572 0.611
-0.10765239 0.14838572 0.611
-0.10648858 0.14838572 0.611
-0.10498001 0.14790002 0.60900003
-0.10382 0.14790002 0.60900003
-0.10249144 0.14765716 0.60800004
-0.10183334 0.14838572 0.611
-0.10034001 0.14790002 0.60900003
-0.099180005 0.14790002 0.60900003
-0.097859055 0.14765716 0.60800004
-0.096541911 0.1474143 0.60700005
-0.095542863 0.14765716 0.60800004
-0.094384767 0.14765716 0.60800004
-0.093226671 0.14765716 0.60800004
-0.092068575 0.14765716 0.60800004
-0.090910479 0.14765716 0.60800004
-0.089900009 0.14790002 0.60900003
-0.088740006 0.14790002 0.60900003
-0.087867625 0.14838572 0.611
-0.086703815 0.14838572 0.611
-0.085540004 0.14838572 0.611
-0.084376194 0.14838572 0.611
-0.083212383 0.14838572 0.611
-0.08204858 0.14838572 0.611
-0.08088477 0.14838572 0.611
-0.079720959 0.14838572 0.611
-0.078557149 0.14838572 0.611
-0.077393338 0.14838572 0.611
-0.076229528 0.14838572 0.611
-0.075065717 0.14838572 0.611
-0.073901907 0.14838572 0.611
-0.072738104 0.14838572 0.611
-0.071574293 0.14838572 0.611
-0.070525721 0.14862858 0.61200005
-0.069360003 0.14862858 0.61200005
-0.068194292 0.14862858 0.61200005
-0.067028575 0.14862858 0.61200005
-0.065862864 0.14862858 0.61200005
-0.064697146 0.14862858 0.61200005
-0.063531436 0.14862858 0.61200005
-0.062263813 0.14838572 0.611
-0.061100002 0.14838572 0.611
-0.059936196 0.14838572 0.611
-0.058772385 0.14838572 0.611
-0.057702862 0.14862858 0.61200005
-0.056444764 0.14838572 0.611
-0.055371433 0.14862858 0.61200005
-0.054205719 0.14862858 0.61200005
-0.053040005 0.14862858 0.61200005
-0.051874287 0.14862858 0.61200005
-0.050708573 0.14862858 0.61200005
-0.049542859 0.14862858 0.61200005
-0.048298098 0.14838572 0.611
-0.11384287 0.15003906 0.61300004
-0.11267524 0.15003906 0.61300004
-0.11150762 0.15003906 0.61300004
-0.11016001 0.1497943 0.61200005
-0.1088162 0.14954953 0.611
-0.10765239 0.14954953 0.611
-0.10614001 0.14906001 0.60900003
-0.10480762 0.14881524 0.60800004
-0.10347906 0.14857049 0.60700005
-0.10215429 0.14832573 0.60600001
-0.10116667 0.14857049 0.60700005
-0.10001048 0.14857049 0.60700005
-0.098854296 0.14857049 0.60700005
-0.0976981 0.14857049 0.60700005
-0.096541911 0.14857049 0.60700005
-0.095385723 0.14857049 0.60700005
-0.094229527 0.14857049 0.60700005
-0.093073338 0.14857049 0.60700005
-0.09191715 0.14857049 0.60700005
-0.090910479 0.14881524 0.60800004
-0.089752384 0.14881524 0.60800004
-0.088740006 0.14906001 0.60900003
-0.087580003 0.14906001 0.60900003
-0.086420007 0.14906001 0.60900003
-0.085260004 0.14906001 0.60900003
-0.084100008 0.14906001 0.60900003
-0.082940005 0.14906001 0.60900003
-0.081780009 0.14906001 0.60900003
-0.080620006 0.14906001 0.60900003
-0.079460002 0.14906001 0.60900003
-0.078557149 0.14954953 0.611
-0.077140003 0.14906001 0.60900003
-0.076229528 0.14954953 0.611
-0.075065717 0.14954953 0.611
-0.073901907 0.14954953 0.611
-0.072738104 0.14954953 0.611
-0.071574293 0.14954953 0.611
-0.070410483 0.14954953 0.611
-0.069360003 0.1497943 0.61200005
-0.068082862 0.14954953 0.611
-0.066919051 0.14954953 0.611
-0.065755241 0.14954953 0.611
-0.06459143 0.14954953 0.611
-0.06342762 0.14954953 0.611
-0.062263813 0.14954953 0.611
-0.060900003 0.14906001 0.60900003
-0.059740003 0.14906001 0.60900003
-0.058772385 0.14954953 0.611
-0.057608575 0.14954953 0.611
-0.056444764 0.14954953 0.611
-0.055280957 0.14954953 0.611
-0.054205719 0.1497943 0.61200005
-0.052953336 0.14954953 0.611
-0.051789526 0.14954953 0.611
-0.050625719 0.14954953 0.611
-0.049461909 0.14954953 0.611
-0.11267524 0.15120667 0.61300004
-0.11150762 0.15120667 0.61300004
-0.11016001 0.15096001 0.61200005
-0.10846001 0.15022001 0.60900003
-0.10712381 0.14997335 0.60800004
-0.10579143 0.14972667 0.60700005
-0.10446286 0.14948002 0.60600001
-0.1031381 0.14923334 0.60500002
-0.10198572 0.14923334 0.60500002
-0.10066667 0.14898668 0.60400003
-0.099516198 0.14898668 0.60400003
-0.098528579 0.14923334 0.60500002
-0.097537152 0.14948002 0.60600001
-0.096223816 0.14923334 0.60500002
-0.095228575 0.14948002 0.60600001
-0.094074294 0.14948002 0.60600001
-0.092920005 0.14948002 0.60600001
-0.091765717 0.14948002 0.60600001
-0.090760961 0.14972667 0.60700005
-0.089604765 0.14972667 0.60700005
-0.088448577 0.14972667 0.60700005
-0.087436199 0.14997335 0.60800004
-0.086278103 0.14997335 0.60800004
-0.084980004 0.14972667 0.60700005
-0.083961911 0.14997335 0.60800004
-0.082803816 0.14997335 0.60800004
-0.08164572 0.14997335 0.60800004
-0.080355242 0.14972667 0.60700005
-0.079199053 0.14972667 0.60700005
-0.078171432 0.14997335 0.60800004
-0.077013336 0.14997335 0.60800004
-0.07585524 0.14997335 0.60800004
-0.074820004 0.15022001 0.60900003
-0.073660001 0.15022001 0.60900003
-0.072500005 0.15022001 0.60900003
-0.071340002 0.15022001 0.60900003
-0.070180006 0.15022001 0.60900003
-0.069020003 0.15022001 0.60900003
-0.067860007 0.15022001 0.60900003
-0.066700004 0.15022001 0.60900003
-0.065540001 0.15022001 0.60900003
-0.064380005 0.15022001 0.60900003
