# .PCD v0.7 - Point Cloud Data file format
VERSION 0.7
FIELDS x y z
SIZE 4 4 4
TYPE F F F
COUNT 1 1 1
WIDTH 1428
HEIGHT 1
VIEWPOINT 0 0 0 1 0 0 0
POINTS 1428
DATA ascii
-0.07298667 0.12082668 0.64400005
-0.071760006 0.12082668 0.64400005
-0.070752382 0.12120191 0.64600003
-0.069521911 0.12120191 0.64600003
-0.068397149 0.12138953 0.64700001
-0.067268573 0.12157715 0.648
-0.066034287 0.12157715 0.648
-0.065000005 0.12195239 0.65000004
-0.063761912 0.12195239 0.65000004
-0.062523812 0.12195239 0.65000004
-0.061380003 0.12214001 0.65100002
-0.12085239 0.11731525 0.61900002
-0.11928667 0.1169362 0.61700004
-0.11792001 0.11674667 0.61600006
-0.11674667 0.11674667 0.61600006
-0.11557334 0.11674667 0.61600006
-0.11458572 0.1169362 0.61700004
-0.11359429 0.11712572 0.61800003
-0.11241715 0.11712572 0.61800003
-0.11142001 0.11731525 0.61900002
-0.11006287 0.11712572 0.61800003
-0.10906191 0.11731525 0.61900002
-0.10788286 0.11731525 0.61900002
-0.10670382 0.11731525 0.61900002
-0.10552477 0.11731525 0.61900002
-0.10434572 0.11731525 0.61900002
-0.10316668 0.11731525 0.61900002
-0.10198762 0.11731525 0.61900002
-0.10097144 0.11750477 0.62
-0.099790484 0.11750477 0.62
-0.098609529 0.11750477 0.62
-0.097742863 0.11788382 0.62200004
-0.096713342 0.11807334 0.62300003
-0.095526673 0.11807334 0.62300003
-0.094491437 0.11826286 0.62400001
-0.093302861 0.11826286 0.62400001
-0.09226191 0.11845239 0.625
-0.091071434 0.11845239 0.625
-0.09016858 0.11883143 0.62700003
-0.08897429 0.11883143 0.62700003
-0.087920003 0.11902096 0.62800002
-0.086861908 0.11921048 0.62900001
-0.085936196 0.11958953 0.63100004
-0.08486858 0.11977906 0.63200003
-0.083797149 0.11996858 0.63300002
-0.082591437 0.11996858 0.63300002
-0.081514291 0.12015811 0.634
-0.080306672 0.12015811 0.634
-0.079223812 0.12034763 0.63500005
-0.078014292 0.12034763 0.63500005
-0.077167623 0.1209162 0.63800001
-0.076071434 0.12110572 0.63900006
-0.07497143 0.12129524 0.64000005
-0.073982865 0.12167429 0.64200002
-0.07298667 0.12205334 0.64400005
-0.07187143 0.12224287 0.64500004
-0.070752382 0.12243239 0.64600003
-0.069629528 0.12262192 0.64700001
-0.068397149 0.12262192 0.64700001
-0.067268573 0.12281144 0.648
-0.066034287 0.12281144 0.648
-0.065000005 0.12319048 0.65000004
-0.063761912 0.12319048 0.65000004
-0.062523812 0.12319048 0.65000004
-0.12007143 0.11772858 0.61500001
-0.11928667 0.11811144 0.61700004
-0.11772858 0.11772858 0.61500001
-0.11655715 0.11772858 0.61500001
-0.11557334 0.11792001 0.61600006
-0.11440001 0.11792001 0.61600006
-0.11322667 0.11792001 0.61600006
-0.11205334 0.11792001 0.61600006
-0.11088001 0.11792001 0.61600006
-0.10970668 0.11792001 0.61600006
-0.10870953 0.11811144 0.61700004
-0.10770858 0.11830287 0.61800003
-0.10670382 0.11849429 0.61900002
-0.10552477 0.11849429 0.61900002
-0.10434572 0.11849429 0.61900002
-0.10316668 0.11849429 0.61900002
-0.10198762 0.11849429 0.61900002
-0.10080858 0.11849429 0.61900002
-0.099629529 0.11849429 0.61900002
-0.098609529 0.11868572 0.62
-0.097428575 0.11868572 0.62
-0.096558101 0.11906858 0.62200004
-0.09537334 0.11906858 0.62200004
-0.094340004 0.11926001 0.62300003
-0.093153343 0.11926001 0.62300003
-0.092114292 0.11945143 0.62400001
-0.091071434 0.11964287 0.625
-0.090024769 0.1198343 0.62600005
-0.08897429 0.12002572 0.62700003
-0.087920003 0.12021715 0.62800002
-0.086861908 0.12040858 0.62900001
-0.085936196 0.12079144 0.63100004
-0.08486858 0.12098286 0.63200003
-0.083664767 0.12098286 0.63200003
-0.082591437 0.12117429 0.63300002
-0.081385717 0.12117429 0.63300002
-0.080306672 0.12136572 0.634
-0.079099052 0.12136572 0.634
-0.078014292 0.12155715 0.63500005
-0.077167623 0.12213144 0.63800001
-0.076071434 0.12232286 0.63900006
-0.074854292 0.12232286 0.63900006
-0.073982865 0.12289715 0.64200002
-0.07298667 0.12328001 0.64400005
-0.07187143 0.12347144 0.64500004
-0.070752382 0.12366287 0.64600003
-0.069521911 0.12366287 0.64600003
-0.068397149 0.12385429 0.64700001
-0.067164764 0.12385429 0.64700001
-0.066034287 0.12404572 0.648
-0.064800002 0.12404572 0.648
-0.063565716 0.12404572 0.648
-0.12144001 0.11909334 0.61600006
-0.12007143 0.11890001 0.61500001
-0.11890001 0.11890001 0.61500001
-0.11772858 0.11890001 0.61500001
-0.11655715 0.11890001 0.61500001
-0.11557334 0.11909334 0.61600006
-0.11421429 0.11890001 0.61500001
-0.11304286 0.11890001 0.61500001
-0.11187144 0.11890001 0.61500001
-0.1107 0.11890001 0.61500001
-0.10952858 0.11890001 0.61500001
-0.10835715 0.11890001 0.61500001
-0.10736001 0.11909334 0.61600006
-0.10653143 0.11948001 0.61800003
-0.10552477 0.11967334 0.61900002
-0.10434572 0.11967334 0.61900002
-0.10300001 0.11948001 0.61800003
-0.10198762 0.11967334 0.61900002
-0.10080858 0.11967334 0.61900002
-0.099629529 0.11967334 0.61900002
-0.098450482 0.11967334 0.61900002
-0.097428575 0.11986668 0.62
-0.096247628 0.11986668 0.62
-0.095066674 0.11986668 0.62
-0.094188578 0.12025334 0.62200004
-0.093003817 0.12025334 0.62200004
-0.092114292 0.12064001 0.62400001
-0.091071434 0.12083334 0.625
-0.090024769 0.12102667 0.62600005
-0.08897429 0.12122001 0.62700003
-0.087920003 0.12141334 0.62800002
-0.086723812 0.12141334 0.62800002
-0.085663818 0.12160668 0.62900001
-0.084734291 0.12199334 0.63100004
-0.083532386 0.12199334 0.63100004
-0.082460955 0.12218668 0.63200003
-0.081385717 0.12238001 0.63300002
-0.080306672 0.12257334 0.634
-0.079099052 0.12257334 0.634
-0.078014292 0.12276667 0.63500005
-0.077167623 0.12334667 0.63800001
-0.076071434 0.12354001 0.63900006
-0.07497143 0.12373334 0.64000005
-0.073867626 0.12392668 0.64100003
-0.072760008 0.12412 0.64200002
-0.071760006 0.12450667 0.64400005
-0.070642859 0.12470001 0.64500004
-0.069521911 0.12489334 0.64600003
-0.068397149 0.12508668 0.64700001
-0.067164764 0.12508668 0.64700001
-0.066034287 0.12528001 0.648
-0.064800002 0.12528001 0.648
-0.063565716 0.12528001 0.648
-0.12221525 0.1198762 0.61400002
-0.12144001 0.12026668 0.61600006
-0.12007143 0.12007143 0.61500001
-0.11890001 0.12007143 0.61500001
-0.11772858 0.12007143 0.61500001
-0.11655715 0.12007143 0.61500001
-0.11538572 0.12007143 0.61500001
-0.11421429 0.12007143 0.61500001
-0.11304286 0.12007143 0.61500001
-0.11168953 0.1198762 0.61400002
-0.11052001 0.1198762 0.61400002
-0.10935048 0.1198762 0.61400002
-0.10818096 0.1198762 0.61400002
-0.10718572 0.12007143 0.61500001
-0.10653143 0.12065715 0.61800003
-0.10535429 0.12065715 0.61800003
-0.10400858 0.12046191 0.61700004
-0.10283334 0.12046191 0.61700004
-0.1016581 0.12046191 0.61700004
-0.10064572 0.12065715 0.61800003
-0.099468581 0.12065715 0.61800003
-0.098291434 0.12065715 0.61800003
-0.097271435 0.12085239 0.61900002
-0.096247628 0.12104762 0.62
-0.095066674 0.12104762 0.62
-0.09388572 0.12104762 0.62
-0.093003817 0.1214381 0.62200004
-0.091966674 0.12163334 0.62300003
-0.090925723 0.12182858 0.62400001
-0.089880958 0.12202382 0.625
-0.08897429 0.12241429 0.62700003
-0.087920003 0.12260953 0.62800002
-0.086723812 0.12260953 0.62800002
-0.085663818 0.12280477 0.62900001
-0.084734291 0.12319525 0.63100004
-0.083532386 0.12319525 0.63100004
-0.082460955 0.12339048 0.63200003
-0.081385717 0.12358572 0.63300002
-0.080306672 0.12378096 0.634
-0.079099052 0.12378096 0.634
-0.078137144 0.12417144 0.63600004
-0.077167623 0.12456191 0.63800001
-0.076071434 0.12475715 0.63900006
-0.07497143 0.12495239 0.64000005
-0.073867626 0.12514763 0.64100003
-0.072760008 0.12534286 0.64200002
-0.071760006 0.12573335 0.64400005
-0.070642859 0.12592858 0.64500004
-0.069414288 0.12592858 0.64500004
-0.068291433 0.12612382 0.64600003
-0.067164764 0.12631905 0.64700001
-0.065932386 0.12631905 0.64700001
-0.064700007 0.12631905 0.64700001
-0.12221525 0.12104572 0.61400002
-0.12124287 0.12124287 0.61500001
-0.1198762 0.12104572 0.61400002
-0.11870667 0.12104572 0.61400002
-0.11772858 0.12124287 0.61500001
-0.11636762 0.12104572 0.61400002
-0.11519811 0.12104572 0.61400002
-0.11402858 0.12104572 0.61400002
-0.11285906 0.12104572 0.61400002
-0.11150762 0.12084858 0.61300004
-0.11034001 0.12084858 0.61300004
-0.10917239 0.12084858 0.61300004
-0.10800477 0.12084858 0.61300004
-0.10701144 0.12104572 0.61400002
-0.10635906 0.12163715 0.61700004
-0.10484286 0.12124287 0.61500001
-0.10384001 0.12144001 0.61600006
-0.10266668 0.12144001 0.61600006
-0.10149334 0.12144001 0.61600006
-0.10032 0.12144001 0.61600006
-0.099307626 0.12163715 0.61700004
-0.098132387 0.12163715 0.61700004
-0.097114295 0.12183429 0.61800003
-0.096092388 0.12203144 0.61900002
-0.094913341 0.12203144 0.61900002
-0.09388572 0.12222858 0.62
-0.093003817 0.12262286 0.62200004
-0.091966674 0.12282 0.62300003
-0.090925723 0.12301715 0.62400001
-0.089737147 0.12301715 0.62400001
-0.088690482 0.1232143 0.625
-0.087780006 0.12360858 0.62700003
-0.086723812 0.12380572 0.62800002
-0.085527621 0.12380572 0.62800002
-0.08446572 0.12400287 0.62900001
-0.083532386 0.12439715 0.63100004
-0.082460955 0.12459429 0.63200003
-0.081385717 0.12479144 0.63300002
-0.080306672 0.12498858 0.634
-0.079099052 0.12498858 0.634
-0.078014292 0.12518573 0.63500005
-0.076925717 0.12538287 0.63600004
-0.075952388 0.12577716 0.63800001
-0.07497143 0.12617144 0.64000005
-0.073867626 0.12636858 0.64100003
-0.072760008 0.12656572 0.64200002
-0.071760006 0.12696001 0.64400005
-0.070642859 0.12715715 0.64500004
-0.069414288 0.12715715 0.64500004
-0.068291433 0.12735429 0.64600003
-0.067164764 0.12755144 0.64700001
-0.065932386 0.12755144 0.64700001
-0.12084858 0.1220162 0.61300004
-0.11948572 0.12181715 0.61200005
-0.11832001 0.12181715 0.61200005
-0.11734572 0.1220162 0.61300004
-0.1161781 0.1220162 0.61300004
-0.11501049 0.1220162 0.61300004
-0.11384287 0.1220162 0.61300004
-0.11267524 0.1220162 0.61300004
-0.11132572 0.12181715 0.61200005
-0.11016001 0.12181715 0.61200005
-0.10899429 0.12181715 0.61200005
-0.10800477 0.1220162 0.61300004
-0.10683715 0.1220162 0.61300004
-0.10618667 0.12261334 0.61600006
-0.10467239 0.12221525 0.61400002
-0.10350286 0.12221525 0.61400002
-0.10250001 0.12241429 0.61500001
-0.10132858 0.12241429 0.61500001
-0.10015715 0.12241429 0.61500001
-0.099146672 0.12261334 0.61600006
-0.097973339 0.12261334 0.61600006
-0.096957147 0.12281239 0.61700004
-0.095937148 0.12301144 0.61800003
-0.094913341 0.12321048 0.61900002
-0.09388572 0.12340953 0.62
-0.092704765 0.12340953 0.62
-0.091819055 0.12380762 0.62200004
-0.090780005 0.12400667 0.62300003
-0.089737147 0.12420572 0.62400001
-0.088548578 0.12420572 0.62400001
-0.087500006 0.12440477 0.625
-0.086585723 0.12480287 0.62700003
-0.085391432 0.12480287 0.62700003
-0.08433143 0.12500191 0.62800002
-0.083267622 0.12520096 0.62900001
-0.082460955 0.12579811 0.63200003
-0.081385717 0.12599716 0.63300002
-0.080306672 0.12619621 0.634
-0.079099052 0.12619621 0.634
-0.078014292 0.12639524 0.63500005
-0.076925717 0.12659429 0.63600004
-0.075952388 0.12699239 0.63800001
-0.075088575 0.12758954 0.64100003
-0.073867626 0.12758954 0.64100003
-0.072760008 0.12778857 0.64200002
-0.07187143 0.12838572 0.64500004
-0.070642859 0.12838572 0.64500004
-0.069414288 0.12838572 0.64500004
-0.068397149 0.12878382 0.64700001
-0.067164764 0.12878382 0.64700001
-0.12181715 0.12298287 0.61200005
-0.1204543 0.12278191 0.611
-0.11929049 0.12278191 0.611
-0.11812668 0.12278191 0.611
-0.11696286 0.12278191 0.611
-0.11579905 0.12278191 0.611
-0.11482286 0.12298287 0.61200005
-0.11347143 0.12278191 0.611
-0.11249144 0.12298287 0.61200005
-0.11132572 0.12298287 0.61200005
-0.11016001 0.12298287 0.61200005
-0.10899429 0.12298287 0.61200005
-0.10782858 0.12298287 0.61200005
-0.10666286 0.12298287 0.61200005
-0.10566953 0.12318382 0.61300004
-0.10450191 0.12318382 0.61300004
-0.10333429 0.12318382 0.61300004
-0.10233334 0.12338477 0.61400002
-0.10116382 0.12338477 0.61400002
-0.099994294 0.12338477 0.61400002
-0.098985724 0.12358572 0.61500001
-0.097814292 0.12358572 0.61500001
-0.096800007 0.12378667 0.61600006
-0.095781907 0.12398763 0.61700004
-0.094760008 0.12418858 0.61800003
-0.093734294 0.12438953 0.61900002
-0.092704765 0.12459049 0.62
-0.091819055 0.12499239 0.62200004
-0.090780005 0.12519334 0.62300003
-0.089737147 0.1253943 0.62400001
-0.088690482 0.12559524 0.625
-0.087640002 0.1257962 0.62600005
-0.086447626 0.1257962 0.62600005
-0.085391432 0.12599716 0.62700003
-0.08433143 0.1261981 0.62800002
-0.083267622 0.12639906 0.62900001
-0.08233048 0.12680095 0.63100004
-0.081385717 0.12720287 0.63300002
-0.080306672 0.12740381 0.634
-0.079099052 0.12740381 0.634
-0.078014292 0.12760477 0.63500005
-0.076925717 0.12780572 0.63600004
-0.075952388 0.12820762 0.63800001
-0.07497143 0.12860954 0.64000005
-0.073982865 0.12901144 0.64200002
-0.072760008 0.12901144 0.64200002
-0.071760006 0.12941334 0.64400005
-0.070642859 0.12961429 0.64500004
-0.069414288 0.12961429 0.64500004
-0.068185717 0.12961429 0.64500004
-0.12217905 0.12333715 0.60800004
-0.12102096 0.12333715 0.60800004
-0.12006 0.12354001 0.60900003
-0.11890001 0.12354001 0.60900003
-0.11774001 0.12354001 0.60900003
-0.11638858 0.12333715 0.60800004
-0.11523049 0.12333715 0.60800004
-0.11426001 0.12354001 0.60900003
-0.11310001 0.12354001 0.60900003
-0.11194 0.12354001 0.60900003
-0.11114382 0.12394572 0.611
-0.10998001 0.12394572 0.611
-0.1088162 0.12394572 0.611
-0.10782858 0.12414858 0.61200005
-0.10666286 0.12414858 0.61200005
-0.10549715 0.12414858 0.61200005
-0.10433143 0.12414858 0.61200005
-0.10333429 0.12435143 0.61300004
-0.10216668 0.12435143 0.61300004
-0.10099906 0.12435143 0.61300004
-0.099994294 0.12455429 0.61400002
-0.098824769 0.12455429 0.61400002
-0.097814292 0.12475715 0.61500001
-0.096800007 0.12496001 0.61600006
-0.095626675 0.12496001 0.61600006
-0.094606675 0.12516287 0.61700004
-0.093582861 0.12536572 0.61800003
-0.092704765 0.12577143 0.62
-0.091819055 0.12617715 0.62200004
-0.090780005 0.12638001 0.62300003
-0.089737147 0.12658286 0.62400001
-0.088832386 0.12698857 0.62600005
-0.087640002 0.12698857 0.62600005
-0.086447626 0.12698857 0.62600005
-0.085391432 0.12719144 0.62700003
-0.08433143 0.12739429 0.62800002
-0.083267622 0.12759715 0.62900001
-0.08233048 0.12800287 0.63100004
-0.081385717 0.12840858 0.63300002
-0.080306672 0.12861143 0.634
-0.079099052 0.12861143 0.634
-0.078014292 0.12881429 0.63500005
-0.076804765 0.12881429 0.63500005
-0.075952388 0.12942286 0.63800001
-0.07497143 0.12982859 0.64000005
-0.073982865 0.1302343 0.64200002
-0.07298667 0.13064002 0.64400005
-0.07187143 0.13084286 0.64500004
-0.070642859 0.13084286 0.64500004
-0.069414288 0.13084286 0.64500004
-0.1219781 0.12429048 0.60700005
-0.12082192 0.12429048 0.60700005
-0.11986286 0.12449525 0.60800004
-0.11870477 0.12449525 0.60800004
-0.11754668 0.12449525 0.60800004
-0.11619715 0.12429048 0.60700005
-0.11523049 0.12449525 0.60800004
-0.11407239 0.12449525 0.60800004
-0.11291429 0.12449525 0.60800004
-0.11157238 0.12429048 0.60700005
-0.1105981 0.12449525 0.60800004
-0.10998001 0.12510954 0.611
-0.1088162 0.12510954 0.611
-0.10765239 0.12510954 0.611
-0.10648858 0.12510954 0.611
-0.10549715 0.1253143 0.61200005
-0.10433143 0.1253143 0.61200005
-0.10316572 0.1253143 0.61200005
-0.10200001 0.1253143 0.61200005
-0.10099906 0.12551905 0.61300004
-0.099831432 0.12551905 0.61300004
-0.098824769 0.12572382 0.61400002
-0.097814292 0.12592858 0.61500001
-0.096642867 0.12592858 0.61500001
-0.095626675 0.12613334 0.61600006
-0.094606675 0.12633811 0.61700004
-0.093582861 0.12654287 0.61800003
-0.092555247 0.12674762 0.61900002
-0.091819055 0.12736191 0.62200004
-0.090780005 0.12756668 0.62300003
-0.089737147 0.12777144 0.62400001
-0.088690482 0.12797619 0.625
-0.087640002 0.12818097 0.62600005
-0.086447626 0.12818097 0.62600005
-0.085391432 0.12838572 0.62700003
-0.08433143 0.12859048 0.62800002
-0.083532386 0.12920476 0.63100004
-0.082460955 0.12940954 0.63200003
-0.081385717 0.12961429 0.63300002
-0.080306672 0.12981905 0.634
-0.079099052 0.12981905 0.634
-0.078014292 0.13002382 0.63500005
-0.076804765 0.13002382 0.63500005
-0.075952388 0.13063811 0.63800001
-0.075088575 0.13125239 0.64100003
-0.073867626 0.13125239 0.64100003
-0.07264667 0.13125239 0.64100003
-0.071425721 0.13125239 0.64100003
-0.12764096 0.12420668 0.60100001
-0.12607525 0.12379334 0.59900004
-0.12535144 0.12420668 0.60100001
-0.12420668 0.12420668 0.60100001
-0.12306191 0.12420668 0.60100001
-0.12232286 0.12462001 0.60300004
-0.12117429 0.12462001 0.60300004
-0.12002572 0.12462001 0.60300004
-0.11887715 0.12462001 0.60300004
-0.11792382 0.12482668 0.60400003
-0.11677334 0.12482668 0.60400003
-0.11562286 0.12482668 0.60400003
-0.11485144 0.12524001 0.60600001
-0.11369715 0.12524001 0.60600001
-0.11254287 0.12524001 0.60600001
-0.11138858 0.12524001 0.60600001
-0.1104162 0.12544668 0.60700005
-0.10944001 0.12565334 0.60800004
-0.10828191 0.12565334 0.60800004
-0.10730001 0.12586001 0.60900003
-0.10614001 0.12586001 0.60900003
-0.10498001 0.12586001 0.60900003
-0.10382 0.12586001 0.60900003
-0.10266001 0.12586001 0.60900003
-0.1015 0.12586001 0.60900003
-0.10066953 0.12627335 0.611
-0.099505723 0.12627335 0.611
-0.098502867 0.12648001 0.61200005
-0.097496197 0.12668668 0.61300004
-0.096485719 0.12689334 0.61400002
-0.095471434 0.12710001 0.61500001
-0.094453342 0.12730667 0.61600006
-0.093582861 0.12772001 0.61800003
-0.092555247 0.12792668 0.61900002
-0.091523819 0.12813334 0.62
-0.090780005 0.12875335 0.62300003
-0.089737147 0.12896001 0.62400001
-0.088690482 0.12916668 0.625
-0.087500006 0.12916668 0.625
-0.086447626 0.12937334 0.62600005
-0.085255243 0.12937334 0.62600005
-0.08433143 0.12978667 0.62800002
-0.083532386 0.13040668 0.63100004
-0.082460955 0.13061334 0.63200003
-0.081385717 0.13082001 0.63300002
-0.080306672 0.13102667 0.634
-0.078974292 0.13082001 0.63300002
-0.077768579 0.13082001 0.63300002
-0.076562859 0.13082001 0.63300002
-0.075357147 0.13082001 0.63300002
-0.074737146 0.13185334 0.63800001
-0.13129334 0.12556002 0.60200006
-0.12900001 0.12556002 0.60200006
-0.12764096 0.12535144 0.60100001
-0.12607525 0.12493429 0.59900004
-0.12514287 0.12514287 0.60000002
-0.12400001 0.12514287 0.60000002
-0.12306191 0.12535144 0.60100001
-0.12212001 0.12556002 0.60200006
-0.12117429 0.12576859 0.60300004
-0.11982667 0.12556002 0.60200006
-0.11887715 0.12576859 0.60300004
-0.11772858 0.12576859 0.60300004
-0.11658001 0.12576859 0.60300004
-0.11543144 0.12576859 0.60300004
-0.11428286 0.12576859 0.60300004
-0.11332192 0.12597716 0.60400003
-0.11235715 0.12618572 0.60500002
-0.11138858 0.12639429 0.60600001
-0.11023429 0.12639429 0.60600001
-0.10926001 0.12660286 0.60700005
-0.10828191 0.12681143 0.60800004
-0.10730001 0.12702 0.60900003
-0.10614001 0.12702 0.60900003
-0.10498001 0.12702 0.60900003
-0.10382 0.12702 0.60900003
-0.10266001 0.12702 0.60900003
-0.1015 0.12702 0.60900003
-0.10066953 0.12743714 0.611
-0.099505723 0.12743714 0.611
-0.098502867 0.12764572 0.61200005
-0.097337149 0.12764572 0.61200005
-0.096328579 0.12785429 0.61300004
-0.095471434 0.12827143 0.61500001
-0.094453342 0.12848 0.61600006
-0.093431436 0.12868857 0.61700004
-0.092555247 0.12910572 0.61900002
-0.091523819 0.12931429 0.62
-0.090780005 0.12994 0.62300003
-0.089737147 0.13014857 0.62400001
-0.088690482 0.13035715 0.625
-0.087500006 0.13035715 0.625
-0.086447626 0.13056572 0.62600005
-0.085391432 0.13077429 0.62700003
-0.08433143 0.13098286 0.62800002
-0.083267622 0.13119143 0.62900001
-0.082591437 0.13202572 0.63300002
-0.081385717 0.13202572 0.63300002
-0.080306672 0.13223429 0.634
-0.078974292 0.13202572 0.63300002
-0.077645719 0.13181715 0.63200003
-0.076320961 0.13160858 0.63100004
-0.075119056 0.13160858 0.63100004
-0.13358667 0.12670667 0.60200006
-0.13222001 0.1264962 0.60100001
-0.13107525 0.1264962 0.60100001
-0.1297143 0.12628572 0.60000002
-0.12857144 0.12628572 0.60000002
-0.12721621 0.12607525 0.59900004
-0.12607525 0.12607525 0.59900004
-0.12493429 0.12607525 0.59900004
-0.12379334 0.12607525 0.59900004
-0.12306191 0.1264962 0.60100001
-0.12212001 0.12670667 0.60200006
-0.12097334 0.12670667 0.60200006
-0.11982667 0.12670667 0.60200006
-0.11868001 0.12670667 0.60200006
-0.11753334 0.12670667 0.60200006
-0.11658001 0.12691715 0.60300004
-0.11543144 0.12691715 0.60300004
-0.11428286 0.12691715 0.60300004
-0.11313429 0.12691715 0.60300004
-0.11235715 0.1273381 0.60500002
-0.11120477 0.1273381 0.60500002
-0.11023429 0.12754858 0.60600001
-0.10908001 0.12754858 0.60600001
-0.10810382 0.12775905 0.60700005
-0.10712381 0.12796953 0.60800004
-0.10614001 0.12818001 0.60900003
-0.10498001 0.12818001 0.60900003
-0.10382 0.12818001 0.60900003
-0.10266001 0.12818001 0.60900003
-0.1015 0.12818001 0.60900003
-0.10066953 0.12860096 0.611
-0.099668577 0.12881143 0.61200005
-0.098502867 0.12881143 0.61200005
-0.097496197 0.12902191 0.61300004
-0.096485719 0.12923239 0.61400002
-0.095471434 0.12944287 0.61500001
-0.094453342 0.12965333 0.61600006
-0.093431436 0.12986381 0.61700004
-0.092555247 0.13028477 0.61900002
-0.091523819 0.13049525 0.62
-0.090780005 0.13112667 0.62300003
-0.089737147 0.13133715 0.62400001
-0.088548578 0.13133715 0.62400001
-0.087500006 0.13154763 0.625
-0.08630953 0.13154763 0.625
-0.085391432 0.13196857 0.62700003
-0.08433143 0.13217905 0.62800002
-0.083135247 0.13217905 0.62800002
-0.08233048 0.13281049 0.63100004
-0.081128575 0.13281049 0.63100004
-0.080306672 0.13344191 0.634
-0.078974292 0.13323143 0.63300002
-0.077645719 0.13302097 0.63200003
-0.13473335 0.12785335 0.60200006
-0.13358667 0.12785335 0.60200006
-0.13222001 0.12764096 0.60100001
-0.13085715 0.12742858 0.60000002
-0.12949811 0.12721621 0.59900004
-0.12835716 0.12721621 0.59900004
-0.12721621 0.12721621 0.59900004
-0.12607525 0.12721621 0.59900004
-0.12493429 0.12721621 0.59900004
-0.12379334 0.12721621 0.59900004
-0.12285715 0.12742858 0.60000002
-0.12191715 0.12764096 0.60100001
-0.12077239 0.12764096 0.60100001
-0.11962762 0.12764096 0.60100001
-0.11868001 0.12785335 0.60200006
-0.11753334 0.12785335 0.60200006
-0.11638667 0.12785335 0.60200006
-0.11524001 0.12785335 0.60200006
-0.11409334 0.12785335 0.60200006
-0.11313429 0.12806572 0.60300004
-0.11198572 0.12806572 0.60300004
-0.11083715 0.12806572 0.60300004
-0.11005239 0.12849048 0.60500002
-0.10908001 0.12870286 0.60600001
-0.10792572 0.12870286 0.60600001
-0.10694762 0.12891525 0.60700005
-0.10596572 0.12912762 0.60800004
-0.10498001 0.12934001 0.60900003
-0.10382 0.12934001 0.60900003
-0.10266001 0.12934001 0.60900003
-0.1015 0.12934001 0.60900003
-0.10066953 0.12976477 0.611
-0.099668577 0.12997715 0.61200005
-0.098502867 0.12997715 0.61200005
-0.097496197 0.13018954 0.61300004
-0.096485719 0.13040191 0.61400002
-0.095471434 0.1306143 0.61500001
-0.094453342 0.13082668 0.61600006
-0.093431436 0.13103905 0.61700004
-0.092405722 0.13125144 0.61800003
-0.091523819 0.1316762 0.62
-0.090780005 0.13231334 0.62300003
-0.089737147 0.13252573 0.62400001
-0.088548578 0.13252573 0.62400001
-0.087360002 0.13252573 0.62400001
-0.086447626 0.13295048 0.62600005
-0.085391432 0.13316287 0.62700003
-0.08433143 0.13337524 0.62800002
-0.083135247 0.13337524 0.62800002
-0.08233048 0.13401239 0.63100004
-0.081128575 0.13401239 0.63100004
-0.13610572 0.12921429 0.60300004
-0.13473335 0.12900001 0.60200006
-0.13358667 0.12900001 0.60200006
-0.13222001 0.12878573 0.60100001
-0.13085715 0.12857144 0.60000002
-0.12949811 0.12835716 0.59900004
-0.12835716 0.12835716 0.59900004
-0.12721621 0.12835716 0.59900004
-0.12586477 0.12814286 0.59800005
-0.12472572 0.12814286 0.59800005
-0.12379334 0.12835716 0.59900004
-0.12265239 0.12835716 0.59900004
-0.12171429 0.12857144 0.60000002
-0.12077239 0.12878573 0.60100001
-0.11942858 0.12857144 0.60000002
-0.11848287 0.12878573 0.60100001
-0.11733811 0.12878573 0.60100001
-0.11619334 0.12878573 0.60100001
-0.11504858 0.12878573 0.60100001
-0.11409334 0.12900001 0.60200006
-0.11294667 0.12900001 0.60200006
-0.11180001 0.12900001 0.60200006
-0.11083715 0.12921429 0.60300004
-0.10987049 0.12942858 0.60400003
-0.10890001 0.12964286 0.60500002
-0.10792572 0.12985715 0.60600001
-0.10694762 0.13007143 0.60700005
-0.10596572 0.13028572 0.60800004
-0.10480762 0.13028572 0.60800004
-0.10364953 0.13028572 0.60800004
-0.10266001 0.1305 0.60900003
-0.1015 0.1305 0.60900003
-0.10066953 0.13092858 0.611
-0.099668577 0.13114287 0.61200005
-0.098502867 0.13114287 0.61200005
-0.097337149 0.13114287 0.61200005
-0.096485719 0.13157144 0.61400002
-0.095471434 0.13178572 0.61500001
-0.094453342 0.13200001 0.61600006
-0.093431436 0.13221429 0.61700004
-0.092555247 0.13264287 0.61900002
-0.091523819 0.13285716 0.62
-0.090634294 0.13328572 0.62200004
-0.089593336 0.13350001 0.62300003
-0.088548578 0.13371429 0.62400001
-0.087360002 0.13371429 0.62400001
-0.086447626 0.13414286 0.62600005
-0.085391432 0.13435715 0.62700003
-0.08433143 0.13457143 0.62800002
-0.083135247 0.13457143 0.62800002
-0.08233048 0.1352143 0.63100004
-0.081128575 0.1352143 0.63100004
-0.13610572 0.13036287 0.60300004
-0.13473335 0.13014668 0.60200006
-0.13358667 0.13014668 0.60200006
-0.13222001 0.12993048 0.60100001
-0.13107525 0.12993048 0.60100001
-0.12949811 0.12949811 0.59900004
-0.12835716 0.12949811 0.59900004
-0.12721621 0.12949811 0.59900004
-0.12586477 0.12928191 0.59800005
-0.12472572 0.12928191 0.59800005
-0.12358668 0.12928191 0.59800005
-0.12244762 0.12928191 0.59800005
-0.12151144 0.12949811 0.59900004
-0.12037048 0.12949811 0.59900004
-0.11922953 0.12949811 0.59900004
-0.11808858 0.12949811 0.59900004
-0.11714286 0.1297143 0.60000002
-0.116 0.1297143 0.60000002
-0.11485715 0.1297143 0.60000002
-0.11390382 0.12993048 0.60100001
-0.11275905 0.12993048 0.60100001
-0.11161429 0.12993048 0.60100001
-0.11083715 0.13036287 0.60300004
-0.10968858 0.13036287 0.60300004
-0.10872 0.13057905 0.60400003
-0.10774763 0.13079524 0.60500002
-0.10694762 0.13122763 0.60700005
-0.10579143 0.13122763 0.60700005
-0.10480762 0.13144381 0.60800004
-0.10382 0.13166001 0.60900003
-0.10266001 0.13166001 0.60900003
-0.1015 0.13166001 0.60900003
-0.10066953 0.13209239 0.611
-0.099505723 0.13209239 0.611
-0.098502867 0.13230859 0.61200005
-0.097337149 0.13230859 0.61200005
-0.096328579 0.13252477 0.61300004
-0.095471434 0.13295715 0.61500001
-0.094453342 0.13317335 0.61600006
-0.093582861 0.13360572 0.61800003
-0.092555247 0.13382192 0.61900002
-0.091376193 0.13382192 0.61900002
-0.090342864 0.13403811 0.62
-0.089449532 0.13447048 0.62200004
-0.088406675 0.13468668 0.62300003
-0.087360002 0.13490286 0.62400001
-0.086447626 0.13533525 0.62600005
-0.085527621 0.13576762 0.62800002
-0.08446572 0.13598382 0.62900001
-0.083267622 0.13598382 0.62900001
-0.082069531 0.13598382 0.62900001
-0.13770953 0.13194762 0.60500002
-0.13633144 0.13172953 0.60400003
-0.13473335 0.13129334 0.60200006
-0.13358667 0.13129334 0.60200006
-0.13222001 0.13107525 0.60100001
-0.13107525 0.13107525 0.60100001
-0.12949811 0.13063906 0.59900004
-0.12835716 0.13063906 0.59900004
-0.12721621 0.13063906 0.59900004
-0.12586477 0.13042097 0.59800005
-0.12472572 0.13042097 0.59800005
-0.12358668 0.13042097 0.59800005
-0.12244762 0.13042097 0.59800005
-0.12130858 0.13042097 0.59800005
-0.12016954 0.13042097 0.59800005
-0.11903048 0.13042097 0.59800005
-0.11789144 0.13042097 0.59800005
-0.11694763 0.13063906 0.59900004
-0.11580668 0.13063906 0.59900004
-0.11466572 0.13063906 0.59900004
-0.11371429 0.13085715 0.60000002
-0.11257143 0.13085715 0.60000002
-0.11180001 0.13129334 0.60200006
-0.11065334 0.13129334 0.60200006
-0.10968858 0.13151143 0.60300004
-0.10872 0.13172953 0.60400003
-0.10774763 0.13194762 0.60500002
-0.10677143 0.13216573 0.60600001
-0.10579143 0.13238382 0.60700005
-0.10480762 0.13260192 0.60800004
-0.10382 0.13282001 0.60900003
-0.10266001 0.13282001 0.60900003
-0.10183334 0.1332562 0.611
-0.10066953 0.1332562 0.611
-0.099505723 0.1332562 0.611
-0.098502867 0.13347429 0.61200005
-0.097337149 0.13347429 0.61200005
-0.096328579 0.13369238 0.61300004
-0.095471434 0.13412859 0.61500001
-0.094453342 0.13434668 0.61600006
-0.093582861 0.13478287 0.61800003
-0.092555247 0.13500096 0.61900002
-0.091376193 0.13500096 0.61900002
-0.090342864 0.13521905 0.62
-0.089449532 0.13565525 0.62200004
-0.088264771 0.13565525 0.62200004
-0.087360002 0.13609144 0.62400001
-0.086585723 0.13674572 0.62700003
-0.085663818 0.13718191 0.62900001
-0.08446572 0.13718191 0.62900001
-0.083267622 0.13718191 0.62900001
-0.13932095 0.13354 0.60700005
-0.13793716 0.13332 0.60600001
-0.13633144 0.13288 0.60400003
-0.13495715 0.13266 0.60300004
-0.13358667 0.13244002 0.60200006
-0.13222001 0.13222001 0.60100001
-0.13107525 0.13222001 0.60100001
-0.1297143 0.13200001 0.60000002
-0.12835716 0.13178001 0.59900004
-0.12721621 0.13178001 0.59900004
-0.12586477 0.13156001 0.59800005
-0.12451715 0.13134001 0.597
-0.12338001 0.13134001 0.597
-0.12224287 0.13134001 0.597
-0.12110572 0.13134001 0.597
-0.11996858 0.13134001 0.597
-0.11883143 0.13134001 0.597
-0.11789144 0.13156001 0.59800005
-0.11675239 0.13156001 0.59800005
-0.11561334 0.13156001 0.59800005
-0.11466572 0.13178001 0.59900004
-0.11352477 0.13178001 0.59900004
-0.11257143 0.13200001 0.60000002
-0.11161429 0.13222001 0.60100001
-0.11065334 0.13244002 0.60200006
-0.10968858 0.13266 0.60300004
-0.10872 0.13288 0.60400003
-0.10774763 0.1331 0.60500002
-0.10677143 0.13332 0.60600001
-0.10579143 0.13354 0.60700005
-0.10480762 0.13376001 0.60800004
-0.10382 0.13398001 0.60900003
-0.10266001 0.13398001 0.60900003
-0.10183334 0.13442001 0.611
-0.1008343 0.13464001 0.61200005
-0.099668577 0.13464001 0.61200005
-0.098502867 0.13464001 0.61200005
-0.097337149 0.13464001 0.61200005
-0.096171431 0.13464001 0.61200005
-0.095316194 0.13508001 0.61400002
-0.094453342 0.13552001 0.61600006
-0.093582861 0.13596001 0.61800003
-0.092555247 0.13618001 0.61900002
-0.091376193 0.13618001 0.61900002
-0.090342864 0.13640001 0.62
-0.08916191 0.13640001 0.62
-0.088264771 0.13684002 0.62200004
-0.086800009 0.13640001 0.62
-0.085619055 0.13640001 0.62
-0.085936196 0.13882001 0.63100004
-0.13932095 0.1346962 0.60700005
-0.13793716 0.13447429 0.60600001
-0.13655715 0.13425238 0.60500002
-0.13495715 0.13380858 0.60300004
-0.13358667 0.13358667 0.60200006
-0.13222001 0.13336477 0.60100001
-0.13107525 0.13336477 0.60100001
-0.1297143 0.13314286 0.60000002
-0.12835716 0.13292097 0.59900004
-0.12700382 0.13269906 0.59800005
-0.12586477 0.13269906 0.59800005
-0.12451715 0.13247715 0.597
-0.12317334 0.13225524 0.59600002
-0.1220381 0.13225524 0.59600002
-0.12090287 0.13225524 0.59600002
-0.11976763 0.13225524 0.59600002
-0.11883143 0.13247715 0.597
-0.1176943 0.13247715 0.597
-0.11655715 0.13247715 0.597
-0.11561334 0.13269906 0.59800005
-0.1144743 0.13269906 0.59800005
-0.11352477 0.13292097 0.59900004
-0.11238382 0.13292097 0.59900004
-0.11142858 0.13314286 0.60000002
-0.11046953 0.13336477 0.60100001
-0.10950667 0.13358667 0.60200006
-0.10872 0.13403049 0.60400003
-0.10756953 0.13403049 0.60400003
-0.10677143 0.13447429 0.60600001
-0.10579143 0.1346962 0.60700005
-0.10463525 0.1346962 0.60700005
-0.10382 0.13514 0.60900003
-0.10299715 0.13558382 0.611
-0.10183334 0.13558382 0.611
-0.10066953 0.13558382 0.611
-0.099668577 0.13580573 0.61200005
-0.098502867 0.13580573 0.61200005
-0.097337149 0.13580573 0.61200005
-0.096328579 0.13602763 0.61300004
-0.095471434 0.13647144 0.61500001
-0.094453342 0.13669334 0.61600006
-0.093734294 0.13735905 0.61900002
-0.092555247 0.13735905 0.61900002
-0.091523819 0.13758096 0.62
-0.090342864 0.13758096 0.62
-0.089449532 0.13802478 0.62200004
-0.087980956 0.13758096 0.62
-0.086800009 0.13758096 0.62
-0.085619055 0.13758096 0.62
-0.13932095 0.1358524 0.60700005
-0.13793716 0.13562858 0.60600001
-0.13655715 0.13540477 0.60500002
-0.13495715 0.13495715 0.60300004
-0.13358667 0.13473335 0.60200006
-0.13222001 0.13450953 0.60100001
-0.13107525 0.13450953 0.60100001
-0.1297143 0.13428572 0.60000002
-0.12835716 0.13406192 0.59900004
-0.12700382 0.1338381 0.59800005
-0.12586477 0.1338381 0.59800005
-0.12430858 0.13339049 0.59600002
-0.12317334 0.13339049 0.59600002
-0.1220381 0.13339049 0.59600002
-0.12090287 0.13339049 0.59600002
-0.11956667 0.13316667 0.59500003
-0.11863239 0.13339049 0.59600002
-0.11749715 0.13339049 0.59600002
-0.11655715 0.1336143 0.597
-0.11542001 0.1336143 0.597
-0.1144743 0.1338381 0.59800005
-0.11333524 0.1338381 0.59800005
-0.11238382 0.13406192 0.59900004
-0.11142858 0.13428572 0.60000002
-0.11046953 0.13450953 0.60100001
-0.10950667 0.13473335 0.60200006
-0.10854001 0.13495715 0.60300004
-0.10756953 0.13518097 0.60400003
-0.10659525 0.13540477 0.60500002
-0.10561715 0.13562858 0.60600001
-0.10463525 0.1358524 0.60700005
-0.10364953 0.1360762 0.60800004
-0.10266001 0.13630001 0.60900003
-0.1015 0.13630001 0.60900003
-0.10066953 0.13674763 0.611
-0.099668577 0.13697144 0.61200005
-0.098502867 0.13697144 0.61200005
-0.097337149 0.13697144 0.61200005
-0.096328579 0.13719524 0.61300004
-0.095471434 0.13764286 0.61500001
-0.094606675 0.13809049 0.61700004
-0.093734294 0.13853811 0.61900002
-0.092555247 0.13853811 0.61900002
-0.091523819 0.13876191 0.62
-0.090342864 0.13876191 0.62
-0.08916191 0.13876191 0.62
-0.087839052 0.13853811 0.61900002
-0.086520009 0.13831429 0.61800003
-0.13978001 0.13746001 0.60900003
-0.13816477 0.13700858 0.60700005
-0.13678287 0.13678287 0.60600001
-0.13473335 0.13588001 0.60200006
-0.13403049 0.13633144 0.60400003
-0.13266 0.13610572 0.60300004
-0.13129334 0.13588001 0.60200006
-0.1297143 0.13542858 0.60000002
-0.12835716 0.13520287 0.59900004
-0.12700382 0.13497715 0.59800005
-0.12544382 0.13452572 0.59600002
-0.12430858 0.13452572 0.59600002
-0.12296668 0.13430001 0.59500003
-0.12183334 0.13430001 0.59500003
-0.12070001 0.13430001 0.59500003
-0.11956667 0.13430001 0.59500003
-0.11843334 0.13430001 0.59500003
-0.11730001 0.13430001 0.59500003
-0.11616667 0.13430001 0.59500003
-0.11542001 0.13475144 0.597
-0.11428286 0.13475144 0.597
-0.11333524 0.13497715 0.59800005
-0.1121962 0.13497715 0.59800005
-0.11142858 0.13542858 0.60000002
-0.11028572 0.13542858 0.60000002
-0.10914286 0.13542858 0.60000002
-0.10836001 0.13588001 0.60200006
-0.10739143 0.13610572 0.60300004
-0.10659525 0.13655715 0.60500002
-0.10544287 0.13655715 0.60500002
-0.10446286 0.13678287 0.60600001
-0.10347906 0.13700858 0.60700005
-0.10249144 0.1372343 0.60800004
-0.1015 0.13746001 0.60900003
-0.10066953 0.13791144 0.611
-0.099505723 0.13791144 0.611
-0.098502867 0.13813715 0.61200005
-0.097337149 0.13813715 0.61200005
-0.096328579 0.13836287 0.61300004
-0.095471434 0.1388143 0.61500001
-0.094453342 0.13904001 0.61600006
-0.093734294 0.13971715 0.61900002
-0.092555247 0.13971715 0.61900002
-0.091376193 0.13971715 0.61900002
-0.090197146 0.13971715 0.61900002
-0.089018099 0.13971715 0.61900002
-0.087839052 0.13971715 0.61900002
-0.13862 0.13862 0.60900003
-0.1372343 0.13839239 0.60800004
-0.1358524 0.13816477 0.60700005
-0.13447429 0.13793716 0.60600001
-0.13332 0.13793716 0.60600001
-0.13194762 0.13770953 0.60500002
-0.13079524 0.13770953 0.60500002
-0.12921429 0.1372543 0.60300004
-0.12679143 0.13588858 0.597
-0.1256543 0.13588858 0.597
-0.12430858 0.13566096 0.59600002
-0.12296668 0.13543335 0.59500003
-0.12183334 0.13543335 0.59500003
-0.12070001 0.13543335 0.59500003
-0.11956667 0.13543335 0.59500003
-0.11843334 0.13543335 0.59500003
-0.11730001 0.13543335 0.59500003
-0.11616667 0.13543335 0.59500003
-0.11542001 0.13588858 0.597
-0.11428286 0.13588858 0.597
-0.11333524 0.13611621 0.59800005
-0.1121962 0.13611621 0.59800005
-0.11124287 0.13634382 0.59900004
-0.11028572 0.13657144 0.60000002
-0.10914286 0.13657144 0.60000002
-0.10818001 0.13679905 0.60100001
-0.10739143 0.1372543 0.60300004
-0.10624287 0.1372543 0.60300004
-0.10526858 0.13748191 0.60400003
-0.10429049 0.13770953 0.60500002
-0.10347906 0.13816477 0.60700005
-0.10232286 0.13816477 0.60700005
-0.10133334 0.13839239 0.60800004
-0.10034001 0.13862 0.60900003
-0.099505723 0.13907525 0.611
-0.098502867 0.13930286 0.61200005
-0.097496197 0.13953048 0.61300004
-0.096328579 0.13953048 0.61300004
-0.095471434 0.13998573 0.61500001
-0.094606675 0.14044096 0.61700004
-0.093734294 0.1408962 0.61900002
-0.092555247 0.1408962 0.61900002
-0.091376193 0.1408962 0.61900002
-0.090197146 0.1408962 0.61900002
-0.1358524 0.13932095 0.60700005
-0.13447429 0.13909143 0.60600001
-0.13332 0.13909143 0.60600001
-0.13194762 0.13886191 0.60500002
-0.13036287 0.13840286 0.60300004
-0.12921429 0.13840286 0.60300004
-0.12700382 0.13725525 0.59800005
-0.12586477 0.13725525 0.59800005
-0.12430858 0.13679621 0.59600002
-0.12296668 0.13656667 0.59500003
-0.1220381 0.13679621 0.59600002
-0.12070001 0.13656667 0.59500003
-0.11956667 0.13656667 0.59500003
-0.11843334 0.13656667 0.59500003
-0.11730001 0.13656667 0.59500003
-0.11616667 0.13656667 0.59500003
-0.11522667 0.13679621 0.59600002
-0.11409143 0.13679621 0.59600002
-0.11314572 0.13702573 0.597
-0.1121962 0.13725525 0.59800005
-0.11124287 0.13748477 0.59900004
-0.11010191 0.13748477 0.59900004
-0.10896096 0.13748477 0.59900004
-0.10818001 0.13794382 0.60100001
-0.10721334 0.13817334 0.60200006
-0.10624287 0.13840286 0.60300004
-0.10526858 0.13863239 0.60400003
-0.10429049 0.13886191 0.60500002
-0.10330858 0.13909143 0.60600001
-0.10232286 0.13932095 0.60700005
-0.10133334 0.13955049 0.60800004
-0.10034001 0.13978001 0.60900003
-0.099505723 0.14023906 0.611
-0.098502867 0.14046858 0.61200005
-0.097496197 0.14069811 0.61300004
-0.096328579 0.14069811 0.61300004
-0.095626675 0.14138667 0.61600006
-0.094760008 0.14184572 0.61800003
-0.093734294 0.14207524 0.61900002
-0.092555247 0.14207524 0.61900002
-0.091376193 0.14207524 0.61900002
-0.090197146 0.14207524 0.61900002
-0.1346962 0.14047715 0.60700005
-0.13332 0.14024572 0.60600001
-0.13216573 0.14024572 0.60600001
-0.13079524 0.14001429 0.60500002
-0.12964286 0.14001429 0.60500002
-0.12742858 0.13885716 0.60000002
-0.12628572 0.13885716 0.60000002
-0.12451715 0.13816287 0.597
-0.12317334 0.13793144 0.59600002
-0.1220381 0.13793144 0.59600002
-0.12090287 0.13793144 0.59600002
-0.11956667 0.13770001 0.59500003
-0.11843334 0.13770001 0.59500003
-0.11730001 0.13770001 0.59500003
-0.11616667 0.13770001 0.59500003
-0.11503334 0.13770001 0.59500003
-0.11390001 0.13770001 0.59500003
-0.1129562 0.13793144 0.59600002
-0.11200858 0.13816287 0.597
-0.11105715 0.1383943 0.59800005
-0.11010191 0.13862573 0.59900004
-0.10896096 0.13862573 0.59900004
-0.10818001 0.13908859 0.60100001
-0.10721334 0.13932002 0.60200006
-0.10606667 0.13932002 0.60200006
-0.10509429 0.13955143 0.60300004
-0.1041181 0.13978286 0.60400003
-0.1031381 0.14001429 0.60500002
-0.10232286 0.14047715 0.60700005
-0.10133334 0.14070858 0.60800004
-0.10066953 0.14140287 0.611
-0.099668577 0.1416343 0.61200005
-0.098502867 0.1416343 0.61200005
-0.097496197 0.14186573 0.61300004
-0.096485719 0.14209715 0.61400002
-0.095626675 0.14256001 0.61600006
-0.094606675 0.14279144 0.61700004
-0.093734294 0.14325429 0.61900002
-0.092555247 0.14325429 0.61900002
-0.13674763 0.14256668 0.611
-0.13491811 0.14186667 0.60800004
-0.13354 0.14163335 0.60700005
-0.13216573 0.14140001 0.60600001
-0.13079524 0.14116667 0.60500002
-0.12964286 0.14116667 0.60500002
-0.12806572 0.14070001 0.60300004
-0.12691715 0.14070001 0.60300004
-0.12472572 0.13953334 0.59800005
-0.12317334 0.13906668 0.59600002
-0.1220381 0.13906668 0.59600002
-0.12090287 0.13906668 0.59600002
-0.11976763 0.13906668 0.59600002
-0.11843334 0.13883334 0.59500003
-0.11730001 0.13883334 0.59500003
-0.11616667 0.13883334 0.59500003
-0.11503334 0.13883334 0.59500003
-0.11409143 0.13906668 0.59600002
-0.1129562 0.13906668 0.59600002
-0.11200858 0.1393 0.597
-0.11105715 0.13953334 0.59800005
-0.1099181 0.13953334 0.59800005
-0.10896096 0.13976668 0.59900004
-0.10800001 0.14000002 0.60000002
-0.10721334 0.14046668 0.60200006
-0.10606667 0.14046668 0.60200006
-0.10509429 0.14070001 0.60300004
-0.1041181 0.14093335 0.60400003
-0.1031381 0.14116667 0.60500002
-0.10215429 0.14140001 0.60600001
-0.10133334 0.14186667 0.60800004
-0.10066953 0.14256668 0.611
-0.099668577 0.1428 0.61200005
-0.098824769 0.14326668 0.61400002
-0.097655244 0.14326668 0.61400002
-0.096642867 0.14350002 0.61500001
-0.095626675 0.14373334 0.61600006
-0.094606675 0.14396667 0.61700004
-0.093734294 0.14443335 0.61900002
-0.092555247 0.14443335 0.61900002
-0.13791144 0.14373049 0.611
-0.13674763 0.14373049 0.611
-0.13491811 0.14302477 0.60800004
-0.13354 0.14278953 0.60700005
-0.13216573 0.1425543 0.60600001
-0.13079524 0.14231905 0.60500002
-0.12964286 0.14231905 0.60500002
-0.12806572 0.14184858 0.60300004
-0.12670667 0.14161335 0.60200006
-0.12472572 0.14067239 0.59800005
-0.12317334 0.14020191 0.59600002
-0.12183334 0.13996668 0.59500003
-0.12070001 0.13996668 0.59500003
-0.11956667 0.13996668 0.59500003
-0.11823429 0.13973144 0.59400004
-0.11710286 0.13973144 0.59400004
-0.11597144 0.13973144 0.59400004
-0.11503334 0.13996668 0.59500003
-0.11390001 0.13996668 0.59500003
-0.1129562 0.14020191 0.59600002
-0.11182096 0.14020191 0.59600002
-0.11105715 0.14067239 0.59800005
-0.11010191 0.14090763 0.59900004
-0.10896096 0.14090763 0.59900004
-0.10800001 0.14114286 0.60000002
-0.10721334 0.14161335 0.60200006
-0.10606667 0.14161335 0.60200006
-0.10509429 0.14184858 0.60300004
-0.10394572 0.14184858 0.60300004
-0.1031381 0.14231905 0.60500002
-0.10215429 0.1425543 0.60600001
-0.10133334 0.14302477 0.60800004
-0.10066953 0.14373049 0.611
-0.099668577 0.14396572 0.61200005
-0.098824769 0.1444362 0.61400002
-0.097655244 0.1444362 0.61400002
-0.096642867 0.14467144 0.61500001
-0.095626675 0.14490667 0.61600006
-0.094760008 0.14537716 0.61800003
-0.13930286 0.14513144 0.61200005
-0.13791144 0.1448943 0.611
-0.13674763 0.1448943 0.611
-0.13514 0.14442001 0.60900003
-0.13354 0.14394572 0.60700005
-0.13238382 0.14394572 0.60700005
-0.13101144 0.14370859 0.60600001
-0.12985715 0.14370859 0.60600001
-0.12849048 0.14347143 0.60500002
-0.1264962 0.14252287 0.60100001
-0.12514287 0.14228572 0.60000002
-0.12358668 0.14181143 0.59800005
-0.12224287 0.14157429 0.597
-0.12110572 0.14157429 0.597
-0.11996858 0.14157429 0.597
-0.11843334 0.1411 0.59500003
-0.11710286 0.14086287 0.59400004
-0.11616667 0.1411 0.59500003
-0.11503334 0.1411 0.59500003
-0.11390001 0.1411 0.59500003
-0.11276668 0.1411 0.59500003
-0.11182096 0.14133716 0.59600002
-0.11105715 0.14181143 0.59800005
-0.11010191 0.14204858 0.59900004
-0.10896096 0.14204858 0.59900004
-0.10800001 0.14228572 0.60000002
-0.10721334 0.14276001 0.60200006
-0.10606667 0.14276001 0.60200006
-0.10509429 0.14299715 0.60300004
-0.10394572 0.14299715 0.60300004
-0.1031381 0.14347143 0.60500002
-0.10215429 0.14370859 0.60600001
-0.10133334 0.14418286 0.60800004
-0.10066953 0.1448943 0.611
-0.099668577 0.14513144 0.61200005
-0.098824769 0.14560573 0.61400002
-0.097655244 0.14560573 0.61400002
-0.096642867 0.14584287 0.61500001
-0.095781907 0.14631715 0.61700004
-0.094606675 0.14631715 0.61700004
-0.13930286 0.14629716 0.61200005
-0.13813715 0.14629716 0.61200005
-0.13674763 0.1460581 0.611
-0.13514 0.14558001 0.60900003
-0.13376001 0.14534096 0.60800004
-0.13238382 0.14510192 0.60700005
-0.13122763 0.14510192 0.60700005
-0.13007143 0.14510192 0.60700005
-0.12870286 0.14486286 0.60600001
-0.12670667 0.14390668 0.60200006
-0.12535144 0.14366762 0.60100001
-0.12379334 0.14318953 0.59900004
-0.12244762 0.14295049 0.59800005
-0.12110572 0.14271143 0.597
-0.11996858 0.14271143 0.597
-0.11863239 0.14247239 0.59600002
-0.11730001 0.14223334 0.59500003
-0.11616667 0.14223334 0.59500003
-0.11503334 0.14223334 0.59500003
-0.11390001 0.14223334 0.59500003
-0.11276668 0.14223334 0.59500003
-0.11163334 0.14223334 0.59500003
-0.11105715 0.14295049 0.59800005
-0.1099181 0.14295049 0.59800005
-0.10896096 0.14318953 0.59900004
-0.10800001 0.14342858 0.60000002
-0.10721334 0.14390668 0.60200006
-0.10624287 0.14414573 0.60300004
-0.10509429 0.14414573 0.60300004
-0.1041181 0.14438477 0.60400003
-0.1031381 0.14462382 0.60500002
-0.10215429 0.14486286 0.60600001
-0.1015 0.14558001 0.60900003
-0.1008343 0.14629716 0.61200005
-0.099831432 0.1465362 0.61300004
-0.098985724 0.14701429 0.61500001
-0.097814292 0.14701429 0.61500001
-0.096642867 0.14701429 0.61500001
-0.13930286 0.14746286 0.61200005
-0.13813715 0.14746286 0.61200005
-0.13674763 0.14722191 0.611
-0.13558382 0.14722191 0.611
-0.13398001 0.14674 0.60900003
-0.13216573 0.14601715 0.60600001
-0.13101144 0.14601715 0.60600001
-0.13007143 0.1462581 0.60700005
-0.12870286 0.14601715 0.60600001
-0.12691715 0.14529429 0.60300004
-0.12556002 0.14505334 0.60200006
-0.12441334 0.14505334 0.60200006
-0.12265239 0.14433049 0.59900004
-0.12130858 0.14408953 0.59800005
-0.11996858 0.14384858 0.597
-0.11863239 0.14360763 0.59600002
-0.11730001 0.14336668 0.59500003
-0.11616667 0.14336668 0.59500003
-0.11503334 0.14336668 0.59500003
-0.11409143 0.14360763 0.59600002
-0.11276668 0.14336668 0.59500003
-0.11163334 0.14336668 0.59500003
-0.11087143 0.14384858 0.597
-0.1099181 0.14408953 0.59800005
-0.10896096 0.14433049 0.59900004
-0.10800001 0.14457144 0.60000002
-0.10721334 0.14505334 0.60200006
-0.10624287 0.14529429 0.60300004
-0.10509429 0.14529429 0.60300004
-0.10394572 0.14529429 0.60300004
-0.10330858 0.14601715 0.60600001
-0.10232286 0.1462581 0.60700005
-0.1015 0.14674 0.60900003
-0.1008343 0.14746286 0.61200005
-0.099831432 0.14770383 0.61300004
-0.098824769 0.14794478 0.61400002
-0.097655244 0.14794478 0.61400002
-0.13674763 0.14838572 0.611
-0.13558382 0.14838572 0.611
-0.13398001 0.14790002 0.60900003
-0.13260192 0.14765716 0.60800004
-0.13144381 0.14765716 0.60800004
-0.13007143 0.1474143 0.60700005
-0.12870286 0.14717144 0.60600001
-0.1273381 0.14692858 0.60500002
-0.12556002 0.14620002 0.60200006
-0.12441334 0.14620002 0.60200006
-0.12265239 0.14547144 0.59900004
-0.12130858 0.14522858 0.59800005
-0.12016954 0.14522858 0.59800005
-0.11883143 0.14498572 0.597
-0.11749715 0.14474286 0.59600002
-0.11636192 0.14474286 0.59600002
-0.11503334 0.1445 0.59500003
-0.11390001 0.1445 0.59500003
-0.1129562 0.14474286 0.59600002
-0.11163334 0.1445 0.59500003
-0.11087143 0.14498572 0.597
-0.1099181 0.14522858 0.59800005
-0.10896096 0.14547144 0.59900004
-0.10800001 0.1457143 0.60000002
-0.10739143 0.14644286 0.60300004
-0.10624287 0.14644286 0.60300004
-0.10509429 0.14644286 0.60300004
-0.1041181 0.14668572 0.60400003
-0.10347906 0.1474143 0.60700005
-0.10232286 0.1474143 0.60700005
-0.1015 0.14790002 0.60900003
-0.1008343 0.14862858 0.61200005
-0.099831432 0.14887144 0.61300004
-0.13813715 0.1497943 0.61200005
-0.13697144 0.1497943 0.61200005
-0.13558382 0.14954953 0.611
-0.13398001 0.14906001 0.60900003
-0.13282001 0.14906001 0.60900003
-0.13144381 0.14881524 0.60800004
-0.13028572 0.14881524 0.60800004
-0.12891525 0.14857049 0.60700005
-0.12754858 0.14832573 0.60600001
-0.12597716 0.14783619 0.60400003
-0.12462001 0.14759144 0.60300004
-0.12265239 0.14661239 0.59900004
-0.12151144 0.14661239 0.59900004
-0.12016954 0.14636762 0.59800005
-0.11903048 0.14636762 0.59800005
-0.1176943 0.14612287 0.597
-0.11636192 0.14587811 0.59600002
-0.11503334 0.14563334 0.59500003
-0.11390001 0.14563334 0.59500003
-0.1129562 0.14587811 0.59600002
-0.11182096 0.14587811 0.59600002
-0.11087143 0.14612287 0.597
-0.1099181 0.14636762 0.59800005
-0.10877906 0.14636762 0.59800005
-0.10836001 0.14734668 0.60200006
-0.10739143 0.14759144 0.60300004
-0.10624287 0.14759144 0.60300004
-0.10509429 0.14759144 0.60300004
-0.1041181 0.14783619 0.60400003
-0.10347906 0.14857049 0.60700005
-0.10232286 0.14857049 0.60700005
-0.10116667 0.14857049 0.60700005
-0.13674763 0.15071334 0.611
-0.13558382 0.15071334 0.611
-0.13398001 0.15022001 0.60900003
-0.13282001 0.15022001 0.60900003
-0.13166001 0.15022001 0.60900003
-0.13028572 0.14997335 0.60800004
-0.12891525 0.14972667 0.60700005
-0.12754858 0.14948002 0.60600001
-0.12618572 0.14923334 0.60500002
-0.12462001 0.14874001 0.60300004
-0.12326667 0.14849335 0.60200006
-0.12191715 0.14824668 0.60100001
-0.12037048 0.14775334 0.59900004
-0.11903048 0.14750667 0.59800005
-0.1176943 0.14726001 0.597
-0.11636192 0.14701334 0.59600002
-0.11522667 0.14701334 0.59600002
