# .PCD v0.7 - Point Cloud Data file format
VERSION 0.7
FIELDS x y z
SIZE 4 4 4
TYPE F F F
COUNT 1 1 1
WIDTH 1409
HEIGHT 1
VIEWPOINT 0 0 0 1 0 0 0
POINTS 1409
DATA ascii
0.0078247627 0.11857525 0.63200003
0.0090142861 0.11838762 0.63100004
0.01018381 0.11801239 0.62900001
0.011418096 0.11838762 0.63100004
0.012620001 0.11838762 0.63100004
0.013778096 0.11801239 0.62900001
0.014976191 0.11801239 0.62900001
0.016174287 0.11801239 0.62900001
0.017482858 0.11876287 0.63300002
0.018718097 0.11895049 0.634
0.019925715 0.11895049 0.634
0.021166667 0.11913811 0.63500005
0.022376193 0.11913811 0.63500005
0.023585716 0.11913811 0.63500005
0.024756191 0.11895049 0.634
0.025963811 0.11895049 0.634
0.027128574 0.11876287 0.63300002
0.028379049 0.11895049 0.634
0.029586669 0.11895049 0.634
0.030794287 0.11895049 0.634
0.032001905 0.11895049 0.634
0.033261906 0.11913811 0.63500005
0.03447143 0.11913811 0.63500005
0.035737146 0.11932572 0.63600004
0.036948573 0.11932572 0.63600004
0.038340002 0.11988858 0.63900006
0.039557144 0.11988858 0.63900006
0.04077429 0.11988858 0.63900006
0.041991431 0.11988858 0.63900006
0.043208573 0.11988858 0.63900006
0.044425718 0.11988858 0.63900006
0.04564286 0.11988858 0.63900006
0.046860002 0.11988858 0.63900006
0.048077147 0.11988858 0.63900006
0.049371433 0.1200762 0.64000005
0.052214291 0.1210143 0.64500004
0.053442862 0.1210143 0.64500004
0.054671433 0.1210143 0.64500004
0.055986669 0.12120191 0.64600003
0.057128575 0.1210143 0.64500004
0.058447622 0.12120191 0.64600003
0.05977048 0.12138953 0.64700001
0.061097145 0.12157715 0.648
0.062523812 0.12195239 0.65000004
0.063761912 0.12195239 0.65000004
0.065000005 0.12195239 0.65000004
0.067476198 0.12195239 0.65000004
-0.10552477 0.11731525 0.61900002
-0.10434572 0.11731525 0.61900002
-0.10300001 0.11712572 0.61800003
-0.10198762 0.11731525 0.61900002
-0.10064572 0.11712572 0.61800003
-0.099468581 0.11712572 0.61800003
-0.098291434 0.11712572 0.61800003
-0.097114295 0.11712572 0.61800003
-0.095937148 0.11712572 0.61800003
-0.094760008 0.11712572 0.61800003
-0.093431436 0.1169362 0.61700004
-0.092256196 0.1169362 0.61700004
-0.091080956 0.1169362 0.61700004
-0.089905716 0.1169362 0.61700004
-0.088730484 0.1169362 0.61700004
-0.087697148 0.11712572 0.61800003
-0.086520009 0.11712572 0.61800003
-0.085342862 0.11712572 0.61800003
-0.084165722 0.11712572 0.61800003
-0.082854293 0.1169362 0.61700004
-0.081679054 0.1169362 0.61700004
-0.080503814 0.1169362 0.61700004
-0.079200007 0.11674667 0.61600006
-0.078026675 0.11674667 0.61600006
-0.076853335 0.11674667 0.61600006
-0.075680003 0.11674667 0.61600006
-0.074627623 0.1169362 0.61700004
-0.073452383 0.1169362 0.61700004
-0.072277151 0.1169362 0.61700004
-0.071101911 0.1169362 0.61700004
-0.069926672 0.1169362 0.61700004
-0.068862863 0.11712572 0.61800003
-0.067685716 0.11712572 0.61800003
-0.066508576 0.11712572 0.61800003
-0.065437146 0.11731525 0.61900002
-0.064258099 0.11731525 0.61900002
-0.063180953 0.11750477 0.62
-0.062000003 0.11750477 0.62
-0.060720958 0.11731525 0.61900002
-0.059638098 0.11750477 0.62
-0.058457147 0.11750477 0.62
-0.057183813 0.11731525 0.61900002
-0.056004766 0.11731525 0.61900002
-0.054914288 0.11750477 0.62
-0.053733338 0.11750477 0.62
-0.052552383 0.11750477 0.62
-0.051371433 0.11750477 0.62
-0.050352383 0.11788382 0.62200004
-0.049167622 0.11788382 0.62200004
-0.04798286 0.11788382 0.62200004
-0.046798099 0.11788382 0.62200004
-0.045613337 0.11788382 0.62200004
-0.044428576 0.11788382 0.62200004
-0.043243811 0.11788382 0.62200004
-0.042059049 0.11788382 0.62200004
-0.040874287 0.11788382 0.62200004
-0.039753336 0.11807334 0.62300003
-0.038628574 0.11826286 0.62400001
-0.037440002 0.11826286 0.62400001
-0.036251429 0.11826286 0.62400001
-0.035062861 0.11826286 0.62400001
-0.033874288 0.11826286 0.62400001
-0.032685716 0.11826286 0.62400001
-0.031497143 0.11826286 0.62400001
-0.030260002 0.11807334 0.62300003
-0.029073335 0.11807334 0.62300003
-0.027886668 0.11807334 0.62300003
-0.026700001 0.11807334 0.62300003
-0.025513334 0.11807334 0.62300003
-0.024365716 0.11826286 0.62400001
-0.023177145 0.11826286 0.62400001
-0.02202381 0.11845239 0.625
-0.020866668 0.11864191 0.62600005
-0.019674286 0.11864191 0.62600005
-0.018481907 0.11864191 0.62600005
-0.017289525 0.11864191 0.62600005
-0.016097143 0.11864191 0.62600005
-0.014904763 0.11864191 0.62600005
-0.013712382 0.11864191 0.62600005
-0.012520001 0.11864191 0.62600005
-0.01132762 0.11864191 0.62600005
-0.010135239 0.11864191 0.62600005
-0.0089571439 0.11883143 0.62700003
-0.0077628577 0.11883143 0.62700003
-0.006579048 0.11902096 0.62800002
-0.0053914287 0.11921048 0.62900001
-0.0041933334 0.11921048 0.62900001
-0.0029952384 0.11921048 0.62900001
-0.001797143 0.11921048 0.62900001
-0.00059904763 0.11921048 0.62900001
0.00059904763 0.11921048 0.62900001
0.0018028573 0.11958953 0.63100004
0.0030047621 0.11958953 0.63100004
0.0042066667 0.11958953 0.63100004
0.0054085716 0.11958953 0.63100004
0.0066104764 0.11958953 0.63100004
0.0078123813 0.11958953 0.63100004
0.0090142861 0.11958953 0.63100004
0.01018381 0.11921048 0.62900001
0.011381906 0.11921048 0.62900001
0.012580001 0.11921048 0.62900001
0.013778096 0.11921048 0.62900001
0.014976191 0.11921048 0.62900001
0.016225716 0.11958953 0.63100004
0.017482858 0.11996858 0.63300002
0.018718097 0.12015811 0.634
0.019925715 0.12015811 0.634
0.021133335 0.12015811 0.634
0.022340953 0.12015811 0.634
0.023548573 0.12015811 0.634
0.024717145 0.11996858 0.63300002
0.025922859 0.11996858 0.63300002
0.027085716 0.11977906 0.63200003
0.028334288 0.11996858 0.63300002
0.029586669 0.12015811 0.634
0.030794287 0.12015811 0.634
0.032001905 0.12015811 0.634
0.033261906 0.12034763 0.63500005
0.03447143 0.12034763 0.63500005
0.035737146 0.12053715 0.63600004
0.036948573 0.12053715 0.63600004
0.038160004 0.12053715 0.63600004
0.039495241 0.1209162 0.63800001
0.04077429 0.12110572 0.63900006
0.041991431 0.12110572 0.63900006
0.043208573 0.12110572 0.63900006
0.044425718 0.12110572 0.63900006
0.04564286 0.12110572 0.63900006
0.046860002 0.12110572 0.63900006
0.048077147 0.12110572 0.63900006
0.049371433 0.12129524 0.64000005
0.050669529 0.12148477 0.64100003
0.051971432 0.12167429 0.64200002
0.053360004 0.12205334 0.64400005
0.054586671 0.12205334 0.64400005
0.055900004 0.12224287 0.64500004
0.057128575 0.12224287 0.64500004
0.058447622 0.12243239 0.64600003
0.05977048 0.12262192 0.64700001
0.061097145 0.12281144 0.648
0.062331434 0.12281144 0.648
0.063565716 0.12281144 0.648
0.065000005 0.12319048 0.65000004
0.066034287 0.12281144 0.648
0.067268573 0.12281144 0.648
-0.10618667 0.11792001 0.61600006
-0.10501334 0.11792001 0.61600006
-0.10384001 0.11792001 0.61600006
-0.10283334 0.11811144 0.61700004
-0.1016581 0.11811144 0.61700004
-0.10048287 0.11811144 0.61700004
-0.099307626 0.11811144 0.61700004
-0.098132387 0.11811144 0.61700004
-0.096957147 0.11811144 0.61700004
-0.095781907 0.11811144 0.61700004
-0.094606675 0.11811144 0.61700004
-0.093431436 0.11811144 0.61700004
-0.092256196 0.11811144 0.61700004
-0.091080956 0.11811144 0.61700004
-0.089905716 0.11811144 0.61700004
-0.088730484 0.11811144 0.61700004
-0.087555245 0.11811144 0.61700004
-0.086520009 0.11830287 0.61800003
-0.085204765 0.11811144 0.61700004
-0.084029533 0.11811144 0.61700004
-0.082854293 0.11811144 0.61700004
-0.081679054 0.11811144 0.61700004
-0.080373339 0.11792001 0.61600006
-0.079200007 0.11792001 0.61600006
-0.077900007 0.11772858 0.61500001
-0.076853335 0.11792001 0.61600006
-0.075680003 0.11792001 0.61600006
-0.07450667 0.11792001 0.61600006
-0.073333338 0.11792001 0.61600006
-0.072160006 0.11792001 0.61600006
-0.070986673 0.11792001 0.61600006
-0.069926672 0.11811144 0.61700004
-0.068862863 0.11830287 0.61800003
-0.067685716 0.11830287 0.61800003
-0.066508576 0.11830287 0.61800003
-0.065331429 0.11830287 0.61800003
-0.06415429 0.11830287 0.61800003
-0.063079052 0.11849429 0.61900002
-0.061900005 0.11849429 0.61900002
-0.06062286 0.11830287 0.61800003
-0.059445716 0.11830287 0.61800003
-0.058268577 0.11830287 0.61800003
-0.057091434 0.11830287 0.61800003
-0.05591429 0.11830287 0.61800003
-0.054737147 0.11830287 0.61800003
-0.053646669 0.11849429 0.61900002
-0.052467622 0.11849429 0.61900002
-0.051288575 0.11849429 0.61900002
-0.050190479 0.11868572 0.62
-0.049009528 0.11868572 0.62
-0.047828574 0.11868572 0.62
-0.046647623 0.11868572 0.62
-0.045393337 0.11849429 0.61900002
-0.04421429 0.11849429 0.61900002
-0.043104764 0.11868572 0.62
-0.041923814 0.11868572 0.62
-0.040874287 0.11906858 0.62200004
-0.039689526 0.11906858 0.62200004
-0.038566668 0.11926001 0.62300003
-0.037440002 0.11945143 0.62400001
-0.036193337 0.11926001 0.62300003
-0.035062861 0.11945143 0.62400001
-0.033820003 0.11926001 0.62300003
-0.032633334 0.11926001 0.62300003
-0.031446669 0.11926001 0.62300003
-0.03021143 0.11906858 0.62200004
-0.029026669 0.11906858 0.62200004
-0.027841907 0.11906858 0.62200004
-0.026657145 0.11906858 0.62200004
-0.025513334 0.11926001 0.62300003
-0.024326669 0.11926001 0.62300003
-0.023140002 0.11926001 0.62300003
-0.021988573 0.11945143 0.62400001
-0.020833334 0.11964287 0.625
-0.019642858 0.11964287 0.625
-0.018452382 0.11964287 0.625
-0.017289525 0.1198343 0.62600005
-0.016097143 0.1198343 0.62600005
-0.014904763 0.1198343 0.62600005
-0.013712382 0.1198343 0.62600005
-0.012520001 0.1198343 0.62600005
-0.01132762 0.1198343 0.62600005
-0.010119048 0.11964287 0.625
-0.0089428574 0.1198343 0.62600005
-0.0077504767 0.1198343 0.62600005
-0.0065580956 0.1198343 0.62600005
-0.0053742859 0.12002572 0.62700003
-0.0041800002 0.12002572 0.62700003
-0.0029857145 0.12002572 0.62700003
-0.0017942858 0.12021715 0.62800002
-0.0005980953 0.12021715 0.62800002
0.0005980953 0.12021715 0.62800002
0.001797143 0.12040858 0.62900001
0.0029952384 0.12040858 0.62900001
0.0041933334 0.12040858 0.62900001
0.0054085716 0.12079144 0.63100004
0.0065895244 0.12040858 0.62900001
0.0077876197 0.12040858 0.62900001
0.008985715 0.12040858 0.62900001
0.01018381 0.12040858 0.62900001
0.011381906 0.12040858 0.62900001
0.012580001 0.12040858 0.62900001
0.013756191 0.12021715 0.62800002
0.014952382 0.12021715 0.62800002
0.016174287 0.12040858 0.62900001
0.01742762 0.12079144 0.63100004
0.01865905 0.12098286 0.63200003
0.019862859 0.12098286 0.63200003
0.021066668 0.12098286 0.63200003
0.022305716 0.12117429 0.63300002
0.02351143 0.12117429 0.63300002
0.024717145 0.12117429 0.63300002
0.025881907 0.12098286 0.63200003
0.027042858 0.12079144 0.63100004
0.028334288 0.12117429 0.63300002
0.029586669 0.12136572 0.634
0.030794287 0.12136572 0.634
0.032001905 0.12136572 0.634
0.033209525 0.12136572 0.634
0.03447143 0.12155715 0.63500005
0.035680953 0.12155715 0.63500005
0.036890477 0.12155715 0.63500005
0.038100004 0.12155715 0.63500005
0.039371431 0.12174858 0.63600004
0.040710479 0.12213144 0.63800001
0.041925717 0.12213144 0.63800001
0.043140955 0.12213144 0.63800001
0.044356193 0.12213144 0.63800001
0.04564286 0.12232286 0.63900006
0.046860002 0.12232286 0.63900006
0.048077147 0.12232286 0.63900006
0.049371433 0.12251429 0.64000005
0.050590478 0.12251429 0.64000005
0.051971432 0.12289715 0.64200002
0.053194288 0.12289715 0.64200002
0.054417148 0.12289715 0.64200002
0.055813339 0.12328001 0.64400005
0.057040002 0.12328001 0.64400005
0.058357146 0.12347144 0.64500004
0.05977048 0.12385429 0.64700001
0.061002862 0.12385429 0.64700001
0.062331434 0.12404572 0.648
0.063565716 0.12404572 0.648
0.064800002 0.12404572 0.648
0.066034287 0.12404572 0.648
0.067268573 0.12404572 0.648
-0.10618667 0.11909334 0.61600006
-0.10501334 0.11909334 0.61600006
-0.10384001 0.11909334 0.61600006
-0.10266668 0.11909334 0.61600006
-0.10149334 0.11909334 0.61600006
-0.10032 0.11909334 0.61600006
-0.099146672 0.11909334 0.61600006
-0.097973339 0.11909334 0.61600006
-0.096957147 0.11928667 0.61700004
-0.095781907 0.11928667 0.61700004
-0.094606675 0.11928667 0.61700004
-0.093280002 0.11909334 0.61600006
-0.09210667 0.11909334 0.61600006
-0.090933338 0.11909334 0.61600006
-0.089760005 0.11909334 0.61600006
-0.088586673 0.11909334 0.61600006
-0.087413341 0.11909334 0.61600006
-0.086380005 0.11928667 0.61700004
-0.085066669 0.11909334 0.61600006
-0.083893336 0.11909334 0.61600006
-0.082720004 0.11909334 0.61600006
-0.081546672 0.11909334 0.61600006
-0.080373339 0.11909334 0.61600006
-0.079071432 0.11890001 0.61500001
-0.077900007 0.11890001 0.61500001
-0.076728575 0.11890001 0.61500001
-0.07555715 0.11890001 0.61500001
-0.074385718 0.11890001 0.61500001
-0.073214293 0.11890001 0.61500001
-0.072160006 0.11909334 0.61600006
-0.070986673 0.11909334 0.61600006
-0.069813341 0.11909334 0.61600006
-0.068751432 0.11928667 0.61700004
-0.067576192 0.11928667 0.61700004
-0.06640096 0.11928667 0.61700004
-0.06522572 0.11928667 0.61700004
-0.06415429 0.11948001 0.61800003
-0.06297715 0.11948001 0.61800003
-0.061800003 0.11948001 0.61800003
-0.06062286 0.11948001 0.61800003
-0.059445716 0.11948001 0.61800003
-0.058268577 0.11948001 0.61800003
-0.057091434 0.11948001 0.61800003
-0.05591429 0.11948001 0.61800003
-0.054737147 0.11948001 0.61800003
-0.053560004 0.11948001 0.61800003
-0.052467622 0.11967334 0.61900002
-0.051205717 0.11948001 0.61800003
-0.050109528 0.11967334 0.61900002
-0.04885143 0.11948001 0.61800003
-0.04775143 0.11967334 0.61900002
-0.046497148 0.11948001 0.61800003
-0.045320004 0.11948001 0.61800003
-0.044142861 0.11948001 0.61800003
-0.043035243 0.11967334 0.61900002
-0.041856192 0.11967334 0.61900002
-0.040677145 0.11967334 0.61900002
-0.039498098 0.11967334 0.61900002
-0.038380954 0.11986668 0.62
-0.037320003 0.12025334 0.62200004
-0.036135241 0.12025334 0.62200004
-0.03495048 0.12025334 0.62200004
-0.033765718 0.12025334 0.62200004
-0.032580953 0.12025334 0.62200004
-0.031396192 0.12025334 0.62200004
-0.030114288 0.11986668 0.62
-0.028933335 0.11986668 0.62
-0.027752383 0.11986668 0.62
-0.02657143 0.11986668 0.62
-0.025472382 0.12025334 0.62200004
-0.024287621 0.12025334 0.62200004
-0.023102859 0.12025334 0.62200004
-0.021953335 0.12044667 0.62300003
-0.020766668 0.12044667 0.62300003
-0.019611429 0.12064001 0.62400001
-0.018422859 0.12064001 0.62400001
-0.017234286 0.12064001 0.62400001
-0.016045716 0.12064001 0.62400001
-0.014880953 0.12083334 0.625
-0.013690477 0.12083334 0.625
-0.012500001 0.12083334 0.625
-0.011291429 0.12064001 0.62400001
-0.010102858 0.12064001 0.62400001
-0.0089142863 0.12064001 0.62400001
-0.0077380957 0.12083334 0.625
-0.0065476196 0.12083334 0.625
-0.005357143 0.12083334 0.625
-0.0041733338 0.12102667 0.62600005
-0.0029809526 0.12102667 0.62600005
-0.0017914287 0.12122001 0.62700003
-0.00059619051 0.12102667 0.62600005
0.00059714291 0.12122001 0.62700003
0.0017914287 0.12122001 0.62700003
0.0029809526 0.12102667 0.62600005
0.004186667 0.12141334 0.62800002
0.0053914287 0.12160668 0.62900001
0.0065895244 0.12160668 0.62900001
0.0077876197 0.12160668 0.62900001
0.008985715 0.12160668 0.62900001
0.01016762 0.12141334 0.62800002
0.01136381 0.12141334 0.62800002
0.01254 0.12122001 0.62700003
0.013756191 0.12141334 0.62800002
0.014952382 0.12141334 0.62800002
0.016148573 0.12141334 0.62800002
0.017372383 0.12160668 0.62900001
0.018570477 0.12160668 0.62900001
0.01983143 0.12199334 0.63100004
0.021033335 0.12199334 0.63100004
0.022270478 0.12218668 0.63200003
0.023474287 0.12218668 0.63200003
0.024678096 0.12218668 0.63200003
0.025881907 0.12218668 0.63200003
0.027042858 0.12199334 0.63100004
0.028289525 0.12218668 0.63200003
0.029493336 0.12218668 0.63200003
0.030745717 0.12238001 0.63300002
0.031951431 0.12238001 0.63300002
0.033209525 0.12257334 0.634
0.034417145 0.12257334 0.634
0.035680953 0.12276667 0.63500005
0.036890477 0.12276667 0.63500005
0.038040001 0.12257334 0.634
0.039309528 0.12276667 0.63500005
0.040582858 0.12296001 0.63600004
0.041794289 0.12296001 0.63600004
0.043005716 0.12296001 0.63600004
0.044217147 0.12296001 0.63600004
0.045571432 0.12334667 0.63800001
0.04678667 0.12334667 0.63800001
0.048001908 0.12334667 0.63800001
0.049294289 0.12354001 0.63900006
0.050511431 0.12354001 0.63900006
0.051971432 0.12412 0.64200002
0.053194288 0.12412 0.64200002
0.054417148 0.12412 0.64200002
0.055813339 0.12450667 0.64400005
0.057040002 0.12450667 0.64400005
0.058357146 0.12470001 0.64500004
0.0596781 0.12489334 0.64600003
0.061002862 0.12508668 0.64700001
0.062331434 0.12528001 0.648
0.063565716 0.12528001 0.648
0.064800002 0.12528001 0.648
0.066034287 0.12528001 0.648
0.067164764 0.12508668 0.64700001
-0.10618667 0.12026668 0.61600006
-0.10501334 0.12026668 0.61600006
-0.10384001 0.12026668 0.61600006
-0.10266668 0.12026668 0.61600006
-0.10149334 0.12026668 0.61600006
-0.10032 0.12026668 0.61600006
-0.099146672 0.12026668 0.61600006
-0.097973339 0.12026668 0.61600006
-0.096800007 0.12026668 0.61600006
-0.095626675 0.12026668 0.61600006
-0.094453342 0.12026668 0.61600006
-0.093280002 0.12026668 0.61600006
-0.09210667 0.12026668 0.61600006
-0.090933338 0.12026668 0.61600006
-0.089760005 0.12026668 0.61600006
-0.088586673 0.12026668 0.61600006
-0.087413341 0.12026668 0.61600006
-0.086240008 0.12026668 0.61600006
-0.085066669 0.12026668 0.61600006
-0.083893336 0.12026668 0.61600006
-0.082720004 0.12026668 0.61600006
-0.08141429 0.12007143 0.61500001
-0.080242865 0.12007143 0.61500001
-0.079071432 0.12007143 0.61500001
-0.07777334 0.1198762 0.61400002
-0.076728575 0.12007143 0.61500001
-0.07555715 0.12007143 0.61500001
-0.074385718 0.12007143 0.61500001
-0.073214293 0.12007143 0.61500001
-0.07204286 0.12007143 0.61500001
-0.070871435 0.12007143 0.61500001
-0.069813341 0.12026668 0.61600006
-0.068751432 0.12046191 0.61700004
-0.067576192 0.12046191 0.61700004
-0.066293336 0.12026668 0.61600006
-0.06522572 0.12046191 0.61700004
-0.064050481 0.12046191 0.61700004
-0.062875241 0.12046191 0.61700004
-0.061700005 0.12046191 0.61700004
-0.060524765 0.12046191 0.61700004
-0.059349529 0.12046191 0.61700004
-0.05817429 0.12046191 0.61700004
-0.05699905 0.12046191 0.61700004
-0.055823814 0.12046191 0.61700004
-0.054648574 0.12046191 0.61700004
-0.053560004 0.12065715 0.61800003
-0.052298099 0.12046191 0.61700004
-0.051122859 0.12046191 0.61700004
-0.050028574 0.12065715 0.61800003
-0.04885143 0.12065715 0.61800003
-0.047674287 0.12065715 0.61800003
-0.046497148 0.12065715 0.61800003
-0.045246668 0.12046191 0.61700004
-0.044071432 0.12046191 0.61700004
-0.042965718 0.12065715 0.61800003
-0.041788574 0.12065715 0.61800003
-0.040611431 0.12065715 0.61800003
-0.039434288 0.12065715 0.61800003
-0.038319051 0.12085239 0.61900002
-0.037140001 0.12085239 0.61900002
-0.035960954 0.12085239 0.61900002
-0.034781907 0.12085239 0.61900002
-0.03360286 0.12085239 0.61900002
-0.032423813 0.12085239 0.61900002
-0.031244764 0.12085239 0.61900002
-0.030065717 0.12085239 0.61900002
-0.028886668 0.12085239 0.61900002
-0.027707621 0.12085239 0.61900002
-0.026528573 0.12085239 0.61900002
-0.025349526 0.12085239 0.61900002
-0.024209525 0.12104762 0.62
-0.023028573 0.12104762 0.62
-0.021847621 0.12104762 0.62
-0.020733334 0.1214381 0.62200004
-0.019548573 0.1214381 0.62200004
-0.018393334 0.12163334 0.62300003
-0.017206667 0.12163334 0.62300003
-0.016020002 0.12163334 0.62300003
-0.014833334 0.12163334 0.62300003
-0.013646668 0.12163334 0.62300003
-0.012460001 0.12163334 0.62300003
-0.011273334 0.12163334 0.62300003
-0.010086668 0.12163334 0.62300003
-0.0089000007 0.12163334 0.62300003
-0.0077257147 0.12182858 0.62400001
-0.0065266672 0.12163334 0.62300003
-0.0053485716 0.12182858 0.62400001
-0.0041666669 0.12202382 0.625
-0.0029761908 0.12202382 0.625
-0.0017885716 0.12221906 0.62600005
-0.00059523812 0.12202382 0.625
0.00059523812 0.12202382 0.625
0.0017857144 0.12202382 0.625
0.0029809526 0.12221906 0.62600005
0.0041733338 0.12221906 0.62600005
0.0053742859 0.12241429 0.62700003
0.006568572 0.12241429 0.62700003
0.0077752387 0.12260953 0.62800002
0.0089714294 0.12260953 0.62800002
0.010151429 0.12241429 0.62700003
0.011345715 0.12241429 0.62700003
0.01254 0.12241429 0.62700003
0.013734287 0.12241429 0.62700003
0.014928573 0.12241429 0.62700003
0.016122859 0.12241429 0.62700003
0.017317144 0.12241429 0.62700003
0.018511429 0.12241429 0.62700003
0.019768573 0.12280477 0.62900001
0.020966668 0.12280477 0.62900001
0.022235239 0.12319525 0.63100004
0.023437144 0.12319525 0.63100004
0.02463905 0.12319525 0.63100004
0.025840955 0.12319525 0.63100004
0.027042858 0.12319525 0.63100004
0.028244764 0.12319525 0.63100004
0.029493336 0.12339048 0.63200003
0.030745717 0.12358572 0.63300002
0.031951431 0.12358572 0.63300002
0.033157144 0.12358572 0.63300002
0.034417145 0.12378096 0.634
0.035680953 0.1239762 0.63500005
0.036832385 0.12378096 0.634
0.038040001 0.12378096 0.634
0.039247621 0.12378096 0.634
0.040455241 0.12378096 0.634
0.041728575 0.1239762 0.63500005
0.042938098 0.1239762 0.63500005
0.044147622 0.1239762 0.63500005
0.045428574 0.12417144 0.63600004
0.04678667 0.12456191 0.63800001
0.047851432 0.12417144 0.63600004
0.049217146 0.12456191 0.63800001
0.050511431 0.12475715 0.63900006
0.051890481 0.12514763 0.64100003
0.05311143 0.12514763 0.64100003
0.054332383 0.12514763 0.64100003
0.055640005 0.12534286 0.64200002
0.057040002 0.12573335 0.64400005
0.058357146 0.12592858 0.64500004
0.059585717 0.12592858 0.64500004
0.060908575 0.12612382 0.64600003
0.062139053 0.12612382 0.64600003
0.063369527 0.12612382 0.64600003
0.064700007 0.12631905 0.64700001
0.065830484 0.12612382 0.64600003
0.066957146 0.12592858 0.64500004
-0.10736001 0.12144001 0.61600006
-0.10618667 0.12144001 0.61600006
-0.10484286 0.12124287 0.61500001
-0.10384001 0.12144001 0.61600006
-0.10266668 0.12144001 0.61600006
-0.10149334 0.12144001 0.61600006
-0.10032 0.12144001 0.61600006
-0.099146672 0.12144001 0.61600006
-0.097973339 0.12144001 0.61600006
-0.096800007 0.12144001 0.61600006
-0.095626675 0.12144001 0.61600006
-0.094453342 0.12144001 0.61600006
-0.093128577 0.12124287 0.61500001
-0.091957152 0.12124287 0.61500001
-0.090785719 0.12124287 0.61500001
-0.089614294 0.12124287 0.61500001
-0.088442862 0.12124287 0.61500001
-0.087271437 0.12124287 0.61500001
-0.086100005 0.12124287 0.61500001
-0.08492858 0.12124287 0.61500001
-0.083757147 0.12124287 0.61500001
-0.082585722 0.12124287 0.61500001
-0.08141429 0.12124287 0.61500001
-0.080242865 0.12124287 0.61500001
-0.078942865 0.12104572 0.61400002
-0.07777334 0.12104572 0.61400002
-0.076603815 0.12104572 0.61400002
-0.07543429 0.12104572 0.61400002
-0.074264765 0.12104572 0.61400002
-0.07309524 0.12104572 0.61400002
-0.07204286 0.12124287 0.61500001
-0.070871435 0.12124287 0.61500001
-0.069700003 0.12124287 0.61500001
-0.068640001 0.12144001 0.61600006
-0.067466669 0.12144001 0.61600006
-0.066293336 0.12144001 0.61600006
-0.065120004 0.12144001 0.61600006
-0.063946672 0.12144001 0.61600006
-0.062773339 0.12144001 0.61600006
-0.061600003 0.12144001 0.61600006
-0.060426671 0.12144001 0.61600006
-0.059253339 0.12144001 0.61600006
-0.05817429 0.12163715 0.61700004
-0.05699905 0.12163715 0.61700004
-0.055823814 0.12163715 0.61700004
-0.054648574 0.12163715 0.61700004
-0.053473338 0.12163715 0.61700004
-0.052213337 0.12144001 0.61600006
-0.051122859 0.12163715 0.61700004
-0.049947623 0.12163715 0.61700004
-0.048772383 0.12163715 0.61700004
-0.047520004 0.12144001 0.61600006
-0.046346668 0.12144001 0.61600006
-0.045246668 0.12163715 0.61700004
-0.044071432 0.12163715 0.61700004
-0.042896193 0.12163715 0.61700004
-0.041720957 0.12163715 0.61700004
-0.040611431 0.12183429 0.61800003
-0.039434288 0.12183429 0.61800003
-0.038257144 0.12183429 0.61800003
-0.037080001 0.12183429 0.61800003
-0.035902858 0.12183429 0.61800003
-0.034725718 0.12183429 0.61800003
-0.03360286 0.12203144 0.61900002
-0.032371432 0.12183429 0.61800003
-0.031244764 0.12203144 0.61900002
-0.030017145 0.12183429 0.61800003
-0.028886668 0.12203144 0.61900002
-0.027707621 0.12203144 0.61900002
-0.026528573 0.12203144 0.61900002
-0.025349526 0.12203144 0.61900002
-0.024170477 0.12203144 0.61900002
-0.023028573 0.12222858 0.62
-0.021847621 0.12222858 0.62
-0.020666668 0.12222858 0.62
-0.019548573 0.12262286 0.62200004
-0.018363811 0.12262286 0.62200004
-0.01717905 0.12262286 0.62200004
-0.015994286 0.12262286 0.62200004
-0.014809525 0.12262286 0.62200004
-0.013624763 0.12262286 0.62200004
-0.012440001 0.12262286 0.62200004
-0.011255239 0.12262286 0.62200004
-0.010070477 0.12262286 0.62200004
-0.0088857152 0.12262286 0.62200004
-0.0077009527 0.12262286 0.62200004
-0.0065161907 0.12262286 0.62200004
-0.0053400001 0.12282 0.62300003
-0.0041600005 0.12301715 0.62400001
-0.0029714287 0.12301715 0.62400001
-0.0017857144 0.1232143 0.625
-0.00059523812 0.1232143 0.625
0.00059428578 0.12301715 0.62400001
0.0017828572 0.12301715 0.62400001
0.0029761908 0.1232143 0.625
0.0041600005 0.12301715 0.62400001
0.005357143 0.1232143 0.625
0.0065580956 0.12341144 0.62600005
0.0077628577 0.12360858 0.62700003
0.0089428574 0.12341144 0.62600005
0.010135239 0.12341144 0.62600005
0.01132762 0.12341144 0.62600005
0.012520001 0.12341144 0.62600005
0.013712382 0.12341144 0.62600005
0.014904763 0.12341144 0.62600005
0.016097143 0.12341144 0.62600005
0.017317144 0.12360858 0.62700003
0.018511429 0.12360858 0.62700003
0.019737145 0.12380572 0.62800002
0.020933334 0.12380572 0.62800002
0.022164764 0.12400287 0.62900001
0.023362858 0.12400287 0.62900001
0.024560954 0.12400287 0.62900001
0.025759049 0.12400287 0.62900001
0.026957145 0.12400287 0.62900001
0.028244764 0.12439715 0.63100004
0.029446669 0.12439715 0.63100004
0.030697145 0.12459429 0.63200003
0.031900954 0.12459429 0.63200003
0.033157144 0.12479144 0.63300002
0.03436286 0.12479144 0.63300002
0.035624765 0.12498858 0.634
0.036774289 0.12479144 0.63300002
0.037980001 0.12479144 0.63300002
0.039185718 0.12479144 0.63300002
0.040455241 0.12498858 0.634
0.041662861 0.12498858 0.634
0.042870481 0.12498858 0.634
0.044147622 0.12518573 0.63500005
0.045357145 0.12518573 0.63500005
0.046640001 0.12538287 0.63600004
0.047851432 0.12538287 0.63600004
0.049217146 0.12577716 0.63800001
0.050511431 0.1259743 0.63900006
0.051728576 0.1259743 0.63900006
0.053028576 0.12617144 0.64000005
0.054247621 0.12617144 0.64000005
0.055553336 0.12636858 0.64100003
0.056862861 0.12656572 0.64200002
0.05826667 0.12696001 0.64400005
0.059585717 0.12715715 0.64500004
0.060814291 0.12715715 0.64500004
0.062042862 0.12715715 0.64500004
0.063271433 0.12715715 0.64500004
0.064600006 0.12735429 0.64600003
0.065728575 0.12715715 0.64500004
0.066853337 0.12696001 0.64400005
-0.10718572 0.12241429 0.61500001
-0.10601429 0.12241429 0.61500001
-0.10484286 0.12241429 0.61500001
-0.10367144 0.12241429 0.61500001
-0.10250001 0.12241429 0.61500001
-0.10132858 0.12241429 0.61500001
-0.10015715 0.12241429 0.61500001
-0.098985724 0.12241429 0.61500001
-0.097973339 0.12261334 0.61600006
-0.096642867 0.12241429 0.61500001
-0.095471434 0.12241429 0.61500001
-0.094300009 0.12241429 0.61500001
-0.093128577 0.12241429 0.61500001
-0.091957152 0.12241429 0.61500001
-0.090785719 0.12241429 0.61500001
-0.089614294 0.12241429 0.61500001
-0.088442862 0.12241429 0.61500001
-0.087271437 0.12241429 0.61500001
-0.086100005 0.12241429 0.61500001
-0.08492858 0.12241429 0.61500001
-0.083757147 0.12241429 0.61500001
-0.082451433 0.12221525 0.61400002
-0.081281908 0.12221525 0.61400002
-0.079981908 0.1220162 0.61300004
-0.07881429 0.1220162 0.61300004
-0.077646673 0.1220162 0.61300004
-0.076479055 0.1220162 0.61300004
-0.07531143 0.1220162 0.61300004
-0.074143812 0.1220162 0.61300004
-0.072976194 0.1220162 0.61300004
-0.071808577 0.1220162 0.61300004
-0.070756197 0.12221525 0.61400002
-0.069700003 0.12241429 0.61500001
-0.068528578 0.12241429 0.61500001
-0.067357145 0.12241429 0.61500001
-0.06618572 0.12241429 0.61500001
-0.065014288 0.12241429 0.61500001
-0.063842863 0.12241429 0.61500001
-0.06267143 0.12241429 0.61500001
-0.061500005 0.12241429 0.61500001
-0.060426671 0.12261334 0.61600006
-0.059253339 0.12261334 0.61600006
-0.058080003 0.12261334 0.61600006
-0.05690667 0.12261334 0.61600006
-0.055733338 0.12261334 0.61600006
-0.054560002 0.12261334 0.61600006
-0.05338667 0.12261334 0.61600006
-0.052213337 0.12261334 0.61600006
-0.051040005 0.12261334 0.61600006
-0.049866669 0.12261334 0.61600006
-0.048693337 0.12261334 0.61600006
-0.047442861 0.12241429 0.61500001
-0.046346668 0.12261334 0.61600006
-0.045173336 0.12261334 0.61600006
-0.044000003 0.12261334 0.61600006
-0.042896193 0.12281239 0.61700004
-0.041720957 0.12281239 0.61700004
-0.040545717 0.12281239 0.61700004
-0.039370477 0.12281239 0.61700004
-0.038195241 0.12281239 0.61700004
-0.037020002 0.12281239 0.61700004
-0.035844766 0.12281239 0.61700004
-0.034669526 0.12281239 0.61700004
-0.033494286 0.12281239 0.61700004
-0.03231905 0.12281239 0.61700004
-0.031194288 0.12301144 0.61800003
-0.030017145 0.12301144 0.61800003
-0.028840002 0.12301144 0.61800003
-0.027662858 0.12301144 0.61800003
-0.026485717 0.12301144 0.61800003
-0.025308574 0.12301144 0.61800003
-0.02413143 0.12301144 0.61800003
-0.02299143 0.12321048 0.61900002
-0.021812383 0.12321048 0.61900002
-0.020666668 0.12340953 0.62
-0.019485716 0.12340953 0.62
-0.018304763 0.12340953 0.62
-0.017123811 0.12340953 0.62
-0.015942859 0.12340953 0.62
-0.014761906 0.12340953 0.62
-0.013580954 0.12340953 0.62
-0.0124 0.12340953 0.62
-0.011219048 0.12340953 0.62
-0.010038096 0.12340953 0.62
-0.0088571431 0.12340953 0.62
-0.0076761912 0.12340953 0.62
-0.0064952387 0.12340953 0.62
-0.0053314287 0.12380762 0.62200004
-0.0041466667 0.12380762 0.62200004
-0.002961905 0.12380762 0.62200004
-0.0017828572 0.12420572 0.62400001
-0.00059428578 0.12420572 0.62400001
0.00059333339 0.12400667 0.62300003
0.0017800002 0.12400667 0.62300003
0.0029714287 0.12420572 0.62400001
0.0041533336 0.12400667 0.62300003
0.005357143 0.12440477 0.625
0.0065476196 0.12440477 0.625
0.0077380957 0.12440477 0.625
0.0089285718 0.12440477 0.625
0.010135239 0.12460382 0.62600005
0.011309525 0.12440477 0.625
0.012520001 0.12460382 0.62600005
0.013712382 0.12460382 0.62600005
0.014904763 0.12460382 0.62600005
0.016097143 0.12460382 0.62600005
0.017289525 0.12460382 0.62600005
0.018481907 0.12460382 0.62600005
0.019737145 0.12500191 0.62800002
0.020900002 0.12480287 0.62700003
0.022129524 0.12500191 0.62800002
0.023325715 0.12500191 0.62800002
0.024521906 0.12500191 0.62800002
0.025759049 0.12520096 0.62900001
0.026957145 0.12520096 0.62900001
0.028155239 0.12520096 0.62900001
0.029353335 0.12520096 0.62900001
0.030648574 0.12559906 0.63100004
0.03185048 0.12559906 0.63100004
0.033104762 0.12579811 0.63200003
0.034308575 0.12579811 0.63200003
0.035568573 0.12599716 0.63300002
0.036716193 0.12579811 0.63200003
0.037920002 0.12579811 0.63200003
0.039123811 0.12579811 0.63200003
0.04039143 0.12599716 0.63300002
0.041597147 0.12599716 0.63300002
0.042802859 0.12599716 0.63300002
0.044078097 0.12619621 0.634
0.045285717 0.12619621 0.634
0.046566669 0.12639524 0.63500005
0.047776192 0.12639524 0.63500005
0.049062859 0.12659429 0.63600004
0.05027429 0.12659429 0.63600004
0.051647622 0.12699239 0.63800001
0.05286286 0.12699239 0.63800001
0.05416286 0.12719144 0.63900006
0.055466671 0.12739049 0.64000005
0.056774288 0.12758954 0.64100003
0.058085717 0.12778857 0.64200002
0.059493337 0.12818667 0.64400005
0.060720004 0.12818667 0.64400005
0.062042862 0.12838572 0.64500004
0.063173339 0.12818667 0.64400005
0.064500004 0.12838572 0.64500004
0.065626673 0.12818667 0.64400005
0.066645719 0.12778857 0.64200002
0.067868575 0.12778857 0.64200002
-0.10718572 0.12358572 0.61500001
-0.10601429 0.12358572 0.61500001
-0.10484286 0.12358572 0.61500001
-0.10367144 0.12358572 0.61500001
-0.10250001 0.12358572 0.61500001
-0.10132858 0.12358572 0.61500001
-0.10015715 0.12358572 0.61500001
-0.098985724 0.12358572 0.61500001
-0.097814292 0.12358572 0.61500001
-0.096642867 0.12358572 0.61500001
-0.095471434 0.12358572 0.61500001
-0.094300009 0.12358572 0.61500001
-0.093128577 0.12358572 0.61500001
-0.091957152 0.12358572 0.61500001
-0.090638101 0.12338477 0.61400002
-0.089468576 0.12338477 0.61400002
-0.088299051 0.12338477 0.61400002
-0.087271437 0.12358572 0.61500001
-0.085960008 0.12338477 0.61400002
-0.08492858 0.12358572 0.61500001
-0.083620958 0.12338477 0.61400002
-0.082451433 0.12338477 0.61400002
-0.081281908 0.12338477 0.61400002
-0.079981908 0.12318382 0.61300004
-0.07881429 0.12318382 0.61300004
-0.077520005 0.12298287 0.61200005
-0.076354288 0.12298287 0.61200005
-0.075188577 0.12298287 0.61200005
-0.074022859 0.12298287 0.61200005
-0.072976194 0.12318382 0.61300004
-0.071808577 0.12318382 0.61300004
-0.070640959 0.12318382 0.61300004
-0.069586672 0.12338477 0.61400002
-0.068417147 0.12338477 0.61400002
-0.067247622 0.12338477 0.61400002
-0.066078097 0.12338477 0.61400002
-0.064908579 0.12338477 0.61400002
-0.063739054 0.12338477 0.61400002
-0.062569529 0.12338477 0.61400002
-0.061500005 0.12358572 0.61500001
-0.060328577 0.12358572 0.61500001
-0.059157148 0.12358572 0.61500001
-0.058080003 0.12378667 0.61600006
-0.05690667 0.12378667 0.61600006
-0.055733338 0.12378667 0.61600006
-0.054560002 0.12378667 0.61600006
-0.05338667 0.12378667 0.61600006
-0.052128576 0.12358572 0.61500001
-0.050957147 0.12358572 0.61500001
-0.049785718 0.12358572 0.61500001
-0.04861429 0.12358572 0.61500001
-0.047442861 0.12358572 0.61500001
-0.046271432 0.12358572 0.61500001
-0.045173336 0.12378667 0.61600006
-0.044000003 0.12378667 0.61600006
-0.042826671 0.12378667 0.61600006
-0.041653335 0.12378667 0.61600006
-0.040545717 0.12398763 0.61700004
-0.039370477 0.12398763 0.61700004
-0.038195241 0.12398763 0.61700004
-0.036960002 0.12378667 0.61600006
-0.03578667 0.12378667 0.61600006
-0.034613337 0.12378667 0.61600006
-0.033440001 0.12378667 0.61600006
-0.032266669 0.12378667 0.61600006
-0.031143812 0.12398763 0.61700004
-0.029968573 0.12398763 0.61700004
-0.028793335 0.12398763 0.61700004
-0.027618097 0.12398763 0.61700004
-0.026442859 0.12398763 0.61700004
-0.025267622 0.12398763 0.61700004
-0.024092382 0.12398763 0.61700004
-0.022954287 0.12418858 0.61800003
-0.021777144 0.12418858 0.61800003
-0.020633334 0.12438953 0.61900002
-0.019454287 0.12438953 0.61900002
-0.018275239 0.12438953 0.61900002
-0.017096192 0.12438953 0.61900002
-0.015917145 0.12438953 0.61900002
-0.014738096 0.12438953 0.61900002
-0.013559048 0.12438953 0.61900002
-0.012380001 0.12438953 0.61900002
-0.011200953 0.12438953 0.61900002
-0.010021905 0.12438953 0.61900002
-0.0088428576 0.12438953 0.61900002
-0.0076761912 0.12459049 0.62
-0.0064952387 0.12459049 0.62
-0.0053142859 0.12459049 0.62
-0.0041333335 0.12459049 0.62
-0.002961905 0.12499239 0.62200004
-0.001777143 0.12499239 0.62200004
-0.00059333339 0.12519334 0.62300003
0.00059238099 0.12499239 0.62200004
0.001777143 0.12499239 0.62200004
0.0029666668 0.12519334 0.62300003
0.0041466667 0.12499239 0.62200004
0.0053400001 0.12519334 0.62300003
0.0065266672 0.12519334 0.62300003
0.0077133337 0.12519334 0.62300003
0.0089142863 0.1253943 0.62400001
0.010119048 0.12559524 0.625
0.011291429 0.1253943 0.62400001
0.012500001 0.12559524 0.625
0.013690477 0.12559524 0.625
0.014880953 0.12559524 0.625
0.016071429 0.12559524 0.625
0.017289525 0.1257962 0.62600005
0.018452382 0.12559524 0.625
0.019674286 0.1257962 0.62600005
0.020866668 0.1257962 0.62600005
0.022094287 0.12599716 0.62700003
0.023288572 0.12599716 0.62700003
0.024482859 0.12599716 0.62700003
0.025677145 0.12599716 0.62700003
0.02687143 0.12599716 0.62700003
0.028110478 0.1261981 0.62800002
0.029306669 0.1261981 0.62800002
0.03055143 0.12639906 0.62900001
0.031749524 0.12639906 0.62900001
0.033052385 0.12680095 0.63100004
0.034254286 0.12680095 0.63100004
0.035512384 0.12700191 0.63200003
0.036658097 0.12680095 0.63100004
0.037860002 0.12680095 0.63100004
0.039061908 0.12680095 0.63100004
0.040327623 0.12700191 0.63200003
0.041531432 0.12700191 0.63200003
0.042735241 0.12700191 0.63200003
0.044008575 0.12720287 0.63300002
0.045285717 0.12740381 0.634
0.046493337 0.12740381 0.634
0.047776192 0.12760477 0.63500005
0.048985716 0.12760477 0.63500005
0.050195243 0.12760477 0.63500005
0.051485717 0.12780572 0.63600004
0.052697148 0.12780572 0.63600004
0.054078098 0.12820762 0.63800001
0.055380005 0.12840858 0.63900006
0.05668572 0.12860954 0.64000005
0.058085717 0.12901144 0.64200002
0.059308574 0.12901144 0.64200002
0.060720004 0.12941334 0.64400005
0.061946671 0.12941334 0.64400005
0.063173339 0.12941334 0.64400005
0.064400002 0.12941334 0.64400005
0.065422863 0.12901144 0.64200002
0.06654191 0.12881048 0.64100003
0.067762859 0.12881048 0.64100003
-0.10818096 0.12455429 0.61400002
-0.10701144 0.12455429 0.61400002
-0.10584191 0.12455429 0.61400002
-0.10467239 0.12455429 0.61400002
-0.10367144 0.12475715 0.61500001
-0.10250001 0.12475715 0.61500001
-0.10132858 0.12475715 0.61500001
-0.10015715 0.12475715 0.61500001
-0.098985724 0.12475715 0.61500001
-0.097814292 0.12475715 0.61500001
-0.096642867 0.12475715 0.61500001
-0.095471434 0.12475715 0.61500001
-0.094146676 0.12455429 0.61400002
-0.092977151 0.12455429 0.61400002
-0.091807626 0.12455429 0.61400002
-0.090638101 0.12455429 0.61400002
-0.089468576 0.12455429 0.61400002
-0.088299051 0.12455429 0.61400002
-0.087129526 0.12455429 0.61400002
-0.085960008 0.12455429 0.61400002
-0.08492858 0.12475715 0.61500001
-0.083620958 0.12455429 0.61400002
-0.082451433 0.12455429 0.61400002
-0.081281908 0.12455429 0.61400002
-0.079981908 0.12435143 0.61300004
-0.078685716 0.12414858 0.61200005
-0.077520005 0.12414858 0.61200005
-0.076354288 0.12414858 0.61200005
-0.075188577 0.12414858 0.61200005
-0.074022859 0.12414858 0.61200005
-0.072857149 0.12414858 0.61200005
-0.071691431 0.12414858 0.61200005
-0.070525721 0.12414858 0.61200005
-0.069473341 0.12435143 0.61300004
-0.068417147 0.12455429 0.61400002
-0.067138098 0.12435143 0.61300004
-0.06597048 0.12435143 0.61300004
-0.064908579 0.12455429 0.61400002
-0.063635245 0.12435143 0.61300004
-0.062569529 0.12455429 0.61400002
-0.061400004 0.12455429 0.61400002
-0.060230479 0.12455429 0.61400002
-0.059157148 0.12475715 0.61500001
-0.057985719 0.12475715 0.61500001
-0.056814291 0.12475715 0.61500001
-0.055642862 0.12475715 0.61500001
-0.054471433 0.12475715 0.61500001
-0.053300004 0.12475715 0.61500001
-0.052128576 0.12475715 0.61500001
-0.050874289 0.12455429 0.61400002
-0.049704764 0.12455429 0.61400002
-0.048535243 0.12455429 0.61400002
-0.047365718 0.12455429 0.61400002
-0.046271432 0.12475715 0.61500001
-0.045100003 0.12475715 0.61500001
-0.043928575 0.12475715 0.61500001
-0.042826671 0.12496001 0.61600006
-0.041653335 0.12496001 0.61600006
-0.040480003 0.12496001 0.61600006
-0.03930667 0.12496001 0.61600006
-0.038133334 0.12496001 0.61600006
-0.036900003 0.12475715 0.61500001
-0.035728574 0.12475715 0.61500001
-0.034557145 0.12475715 0.61500001
-0.033440001 0.12496001 0.61600006
-0.032266669 0.12496001 0.61600006
-0.031093335 0.12496001 0.61600006
-0.029920002 0.12496001 0.61600006
-0.028746668 0.12496001 0.61600006
-0.027573336 0.12496001 0.61600006
-0.026400002 0.12496001 0.61600006
-0.025226668 0.12496001 0.61600006
-0.024053335 0.12496001 0.61600006
-0.022880001 0.12496001 0.61600006
-0.021741906 0.12516287 0.61700004
-0.020566668 0.12516287 0.61700004
-0.019422859 0.12536572 0.61800003
-0.018245716 0.12536572 0.61800003
-0.017068572 0.12536572 0.61800003
-0.015891429 0.12536572 0.61800003
-0.014714287 0.12536572 0.61800003
-0.013537143 0.12536572 0.61800003
-0.012360001 0.12536572 0.61800003
-0.011182858 0.12536572 0.61800003
-0.010005715 0.12536572 0.61800003
-0.0088428576 0.12556858 0.61900002
-0.0076638102 0.12556858 0.61900002
-0.0064847623 0.12556858 0.61900002
-0.0053057144 0.12556858 0.61900002
-0.004126667 0.12556858 0.61900002
-0.0029476192 0.12556858 0.61900002
-0.0017714287 0.12577143 0.62
-0.00059047621 0.12577143 0.62
0.00059047621 0.12577143 0.62
0.0017714287 0.12577143 0.62
0.002961905 0.12617715 0.62200004
0.0041466667 0.12617715 0.62200004
0.0053314287 0.12617715 0.62200004
0.0065161907 0.12617715 0.62200004
0.0077009527 0.12617715 0.62200004
0.0089000007 0.12638001 0.62300003
0.010086668 0.12638001 0.62300003
0.011273334 0.12638001 0.62300003
0.012460001 0.12638001 0.62300003
0.013646668 0.12638001 0.62300003
0.014833334 0.12638001 0.62300003
0.016020002 0.12638001 0.62300003
0.017261906 0.12678573 0.625
0.018452382 0.12678573 0.625
0.019611429 0.12658286 0.62400001
0.020833334 0.12678573 0.625
0.02202381 0.12678573 0.625
0.023251429 0.12698857 0.62600005
0.024443811 0.12698857 0.62600005
0.025677145 0.12719144 0.62700003
0.02687143 0.12719144 0.62700003
0.028065717 0.12719144 0.62700003
0.029260002 0.12719144 0.62700003
0.03050286 0.12739429 0.62800002
0.03169905 0.12739429 0.62800002
0.032947622 0.12759715 0.62900001
0.034145717 0.12759715 0.62900001
0.035343811 0.12759715 0.62900001
0.036541909 0.12759715 0.62900001
0.037740003 0.12759715 0.62900001
0.039061908 0.12800287 0.63100004
0.040263813 0.12800287 0.63100004
0.041465718 0.12800287 0.63100004
0.042735241 0.12820572 0.63200003
0.04393905 0.12820572 0.63200003
0.045142859 0.12820572 0.63200003
0.046420004 0.12840858 0.63300002
0.047700956 0.12861143 0.634
0.048908576 0.12861143 0.634
0.050195243 0.12881429 0.63500005
0.051404767 0.12881429 0.63500005
0.05261429 0.12881429 0.63500005
0.053908575 0.12901714 0.63600004
0.055293337 0.12942286 0.63800001
0.056597147 0.12962572 0.63900006
0.057904765 0.12982859 0.64000005
0.059216194 0.13003144 0.64100003
0.060531434 0.1302343 0.64200002
0.06175429 0.1302343 0.64200002
0.063173339 0.13064002 0.64400005
0.064400002 0.13064002 0.64400005
0.065422863 0.1302343 0.64200002
0.06654191 0.13003144 0.64100003
0.067762859 0.13003144 0.64100003
-0.10818096 0.12572382 0.61400002
-0.10683715 0.12551905 0.61300004
-0.10584191 0.12572382 0.61400002
-0.10467239 0.12572382 0.61400002
-0.10350286 0.12572382 0.61400002
-0.10233334 0.12572382 0.61400002
-0.10116382 0.12572382 0.61400002
-0.099994294 0.12572382 0.61400002
-0.098824769 0.12572382 0.61400002
-0.097655244 0.12572382 0.61400002
-0.096485719 0.12572382 0.61400002
-0.095316194 0.12572382 0.61400002
-0.094146676 0.12572382 0.61400002
-0.092825718 0.12551905 0.61300004
-0.0916581 0.12551905 0.61300004
-0.090490483 0.12551905 0.61300004
-0.089468576 0.12572382 0.61400002
-0.088155247 0.12551905 0.61300004
-0.087129526 0.12572382 0.61400002
-0.085960008 0.12572382 0.61400002
-0.084790483 0.12572382 0.61400002
-0.083620958 0.12572382 0.61400002
-0.082451433 0.12572382 0.61400002
-0.081281908 0.12572382 0.61400002
-0.079981908 0.12551905 0.61300004
-0.07881429 0.12551905 0.61300004
-0.077520005 0.1253143 0.61200005
-0.076354288 0.1253143 0.61200005
-0.075188577 0.1253143 0.61200005
-0.074022859 0.1253143 0.61200005
-0.072857149 0.1253143 0.61200005
-0.071691431 0.1253143 0.61200005
-0.070525721 0.1253143 0.61200005
-0.069473341 0.12551905 0.61300004
-0.068417147 0.12572382 0.61400002
-0.067138098 0.12551905 0.61300004
-0.06597048 0.12551905 0.61300004
-0.064802863 0.12551905 0.61300004
-0.063635245 0.12551905 0.61300004
-0.062467624 0.12551905 0.61300004
-0.061400004 0.12572382 0.61400002
-0.060230479 0.12572382 0.61400002
-0.059060957 0.12572382 0.61400002
-0.057891432 0.12572382 0.61400002
-0.056721907 0.12572382 0.61400002
-0.055642862 0.12592858 0.61500001
-0.054382861 0.12572382 0.61400002
-0.053213336 0.12572382 0.61400002
-0.052043814 0.12572382 0.61400002
-0.050874289 0.12572382 0.61400002
-0.049704764 0.12572382 0.61400002
-0.048535243 0.12572382 0.61400002
-0.047365718 0.12572382 0.61400002
-0.046271432 0.12592858 0.61500001
-0.045100003 0.12592858 0.61500001
-0.043928575 0.12592858 0.61500001
-0.042757146 0.12592858 0.61500001
-0.041585717 0.12592858 0.61500001
-0.040414289 0.12592858 0.61500001
-0.03924286 0.12592858 0.61500001
-0.038071431 0.12592858 0.61500001
-0.036840003 0.12572382 0.61400002
-0.035728574 0.12592858 0.61500001
-0.034500953 0.12572382 0.61400002
-0.033385716 0.12592858 0.61500001
-0.032214288 0.12592858 0.61500001
-0.031093335 0.12613334 0.61600006
-0.029920002 0.12613334 0.61600006
-0.028746668 0.12613334 0.61600006
-0.027528573 0.12592858 0.61500001
-0.026357144 0.12592858 0.61500001
-0.025185715 0.12592858 0.61500001
-0.024014287 0.12592858 0.61500001
-0.022842858 0.12592858 0.61500001
-0.021706669 0.12613334 0.61600006
-0.020566668 0.12633811 0.61700004
-0.019391431 0.12633811 0.61700004
-0.018216191 0.12633811 0.61700004
-0.017040953 0.12633811 0.61700004
-0.015865715 0.12633811 0.61700004
-0.014690477 0.12633811 0.61700004
-0.013515239 0.12633811 0.61700004
-0.012340001 0.12633811 0.61700004
-0.011164763 0.12633811 0.61700004
-0.0099895243 0.12633811 0.61700004
-0.008828572 0.12654287 0.61800003
-0.0076514292 0.12654287 0.61800003
-0.0064742863 0.12654287 0.61800003
-0.005297143 0.12654287 0.61800003
-0.0041200002 0.12654287 0.61800003
-0.0029428573 0.12654287 0.61800003
-0.0017685716 0.12674762 0.61900002
-0.00058952387 0.12674762 0.61900002
0.00058952387 0.12674762 0.61900002
0.0017714287 0.12695239 0.62
0.002952381 0.12695239 0.62
0.0041333335 0.12695239 0.62
0.0053142859 0.12695239 0.62
0.0064952387 0.12695239 0.62
0.0077009527 0.12736191 0.62200004
0.0088857152 0.12736191 0.62200004
0.010070477 0.12736191 0.62200004
0.011255239 0.12736191 0.62200004
0.012440001 0.12736191 0.62200004
0.013624763 0.12736191 0.62200004
0.014809525 0.12736191 0.62200004
0.015994286 0.12736191 0.62200004
0.01717905 0.12736191 0.62200004
0.018393334 0.12756668 0.62300003
0.019580001 0.12756668 0.62300003
0.020800002 0.12777144 0.62400001
0.02202381 0.12797619 0.625
0.023214288 0.12797619 0.625
0.024404764 0.12797619 0.625
0.025636192 0.12818097 0.62600005
0.026785716 0.12797619 0.625
0.028020954 0.12818097 0.62600005
0.029213335 0.12818097 0.62600005
0.030405717 0.12818097 0.62600005
0.031648573 0.12838572 0.62700003
0.03284286 0.12838572 0.62700003
0.034091432 0.12859048 0.62800002
0.035287622 0.12859048 0.62800002
0.036483813 0.12859048 0.62800002
0.037740003 0.12879525 0.62900001
0.038938098 0.12879525 0.62900001
0.040263813 0.12920476 0.63100004
0.041465718 0.12920476 0.63100004
0.042667624 0.12920476 0.63100004
0.04393905 0.12940954 0.63200003
0.045142859 0.12940954 0.63200003
0.046346668 0.12940954 0.63200003
0.047700956 0.12981905 0.634
0.048908576 0.12981905 0.634
0.050116193 0.12981905 0.634
0.051323812 0.12981905 0.634
0.05261429 0.13002382 0.63500005
0.053823814 0.13002382 0.63500005
0.055120002 0.13022858 0.63600004
0.056331433 0.13022858 0.63600004
0.057814289 0.13084286 0.63900006
0.059123814 0.13104762 0.64000005
0.060437147 0.13125239 0.64100003
0.06175429 0.13145715 0.64200002
0.06297715 0.13145715 0.64200002
0.064200006 0.13145715 0.64200002
0.065422863 0.13145715 0.64200002
0.06654191 0.13125239 0.64100003
0.06765715 0.13104762 0.64000005
-0.10835715 0.12710001 0.61500001
-0.10683715 0.12668668 0.61300004
-0.10584191 0.12689334 0.61400002
-0.10450191 0.12668668 0.61300004
-0.10333429 0.12668668 0.61300004
-0.10216668 0.12668668 0.61300004
-0.10116382 0.12689334 0.61400002
-0.099994294 0.12689334 0.61400002
-0.098824769 0.12689334 0.61400002
-0.097655244 0.12689334 0.61400002
-0.096328579 0.12668668 0.61300004
-0.095160961 0.12668668 0.61300004
-0.093993336 0.12668668 0.61300004
-0.092825718 0.12668668 0.61300004
-0.0916581 0.12668668 0.61300004
-0.090342864 0.12648001 0.61200005
-0.089322865 0.12668668 0.61300004
-0.088155247 0.12668668 0.61300004
-0.086987622 0.12668668 0.61300004
-0.085820004 0.12668668 0.61300004
-0.084652387 0.12668668 0.61300004
-0.083484769 0.12668668 0.61300004
-0.082317151 0.12668668 0.61300004
-0.081149526 0.12668668 0.61300004
-0.079851434 0.12648001 0.61200005
-0.078685716 0.12648001 0.61200005
-0.077393338 0.12627335 0.611
-0.076229528 0.12627335 0.611
-0.075065717 0.12627335 0.611
-0.073901907 0.12627335 0.611
-0.072738104 0.12627335 0.611
-0.071574293 0.12627335 0.611
-0.070410483 0.12627335 0.611
-0.069246672 0.12627335 0.611
-0.068305716 0.12668668 0.61300004
-0.067028575 0.12648001 0.61200005
-0.065862864 0.12648001 0.61200005
-0.064697146 0.12648001 0.61200005
