# .PCD v0.7 - Point Cloud Data file format
VERSION 0.7
FIELDS x y z
SIZE 4 4 4
TYPE F F F
COUNT 1 1 1
WIDTH 1360
HEIGHT 1
VIEWPOINT 0 0 0 1 0 0 0
POINTS 1360
DATA ascii
-0.028348573 0.075365722 0.72600001
-0.026965717 0.075365722 0.72600001
-0.013028572 0.074742861 0.72000003
-0.011640953 0.074639052 0.71900004
-0.010285715 0.074742861 0.72000003
-0.0089390483 0.074950479 0.72200006
-0.0075638099 0.074950479 0.72200006
-0.0062142862 0.075261913 0.72500002
-0.0048333337 0.075261913 0.72500002
-0.0034714288 0.075677149 0.72900003
-0.0020800002 0.07557334 0.72800004
-0.00069142861 0.075365722 0.72600001
0.00069047621 0.075261913 0.72500002
0.0020742859 0.075365722 0.72600001
0.003457143 0.075365722 0.72600001
0.0048200004 0.075054288 0.72300005
0.0062228576 0.075365722 0.72600001
0.0076057147 0.075365722 0.72600001
0.0089885723 0.075365722 0.72600001
-0.046620004 0.082140006 0.77700001
-0.045256194 0.082351431 0.77900004
-0.043772385 0.082351431 0.77900004
-0.039682861 0.077277146 0.73100001
-0.038185716 0.077065721 0.72900003
-0.03674667 0.076960005 0.72800004
-0.035408575 0.077065721 0.72900003
-0.033880003 0.07674858 0.72600001
-0.032586668 0.076960005 0.72800004
-0.031114288 0.07674858 0.72600001
-0.02973143 0.07674858 0.72600001
-0.028309526 0.076642863 0.72500002
-0.026854288 0.076431431 0.72300005
-0.013010477 0.076008573 0.71900004
-0.011640953 0.076008573 0.71900004
-0.010271429 0.076008573 0.71900004
-0.0089142863 0.076114289 0.72000003
-0.0075428574 0.076114289 0.72000003
-0.0061971433 0.076431431 0.72300005
-0.0048200004 0.076431431 0.72300005
-0.0034714288 0.077065721 0.72900003
-0.0020800002 0.076960005 0.72800004
-0.00069047621 0.076642863 0.72500002
0.00068857148 0.076431431 0.72300005
0.0020714288 0.076642863 0.72500002
0.0034428574 0.076431431 0.72300005
0.0048200004 0.076431431 0.72300005
0.0062142862 0.076642863 0.72500002
0.0076057147 0.07674858 0.72600001
-0.043680001 0.07834667 0.72800004
-0.042293336 0.07834667 0.72800004
-0.040906668 0.07834667 0.72800004
-0.039520003 0.07834667 0.72800004
-0.038028575 0.078131437 0.72600001
-0.036494289 0.077808574 0.72300005
-0.034971431 0.077485718 0.72000003
-0.033553336 0.077378102 0.71900004
-0.032183811 0.077378102 0.71900004
-0.030728573 0.077162862 0.71700001
-0.029321907 0.077055246 0.71600002
-0.027958097 0.077055246 0.71600002
-0.026594287 0.077055246 0.71600002
-0.025230478 0.077055246 0.71600002
-0.023800002 0.076840006 0.71400005
-0.022440001 0.076840006 0.71400005
-0.021080002 0.076840006 0.71400005
-0.019720001 0.076840006 0.71400005
-0.018360002 0.076840006 0.71400005
-0.017000001 0.076840006 0.71400005
-0.015683811 0.077055246 0.71600002
-0.014320001 0.077055246 0.71600002
-0.012956192 0.077055246 0.71600002
-0.011592382 0.077055246 0.71600002
-0.010157144 0.07651715 0.71100003
-0.0088400003 0.076840006 0.71400005
-0.0074171433 0.076194294 0.708
-0.0061200005 0.076840006 0.71400005
-0.0047600004 0.076840006 0.71400005
-0.0034000003 0.076840006 0.71400005
-0.0020485716 0.077162862 0.71700001
-0.00068476197 0.077378102 0.71900004
0.00068285718 0.077162862 0.71700001
0.0020485716 0.077162862 0.71700001
0.003409524 0.077055246 0.71600002
0.0047733337 0.077055246 0.71600002
0.0061457148 0.077162862 0.71700001
0.0075952387 0.078023814 0.72500002
-0.042119049 0.079404764 0.72500002
-0.040738098 0.079404764 0.72500002
-0.03919429 0.079076193 0.72200006
-0.03781905 0.079076193 0.72200006
-0.036342859 0.078857146 0.72000003
-0.034922861 0.078747623 0.71900004
-0.033553336 0.078747623 0.71900004
-0.032094289 0.078528576 0.71700001
-0.030728573 0.078528576 0.71700001
-0.029321907 0.078419052 0.71600002
-0.027958097 0.078419052 0.71600002
-0.026594287 0.078419052 0.71600002
-0.025230478 0.078419052 0.71600002
-0.023800002 0.078200005 0.71400005
-0.022440001 0.078200005 0.71400005
-0.021080002 0.078200005 0.71400005
-0.019720001 0.078200005 0.71400005
-0.018360002 0.078200005 0.71400005
-0.017000001 0.078200005 0.71400005
-0.015683811 0.078419052 0.71600002
-0.014280001 0.078200005 0.71400005
-0.012920001 0.078200005 0.71400005
-0.01156 0.078200005 0.71400005
-0.010142858 0.077761911 0.71000004
-0.0087904772 0.077761911 0.71000004
-0.0074171433 0.077542864 0.708
-0.0060685719 0.077542864 0.708
-0.0047333338 0.077761911 0.71000004
-0.0033857145 0.077871434 0.71100003
-0.0020371431 0.078090481 0.71300006
-0.00068000006 0.078200005 0.71400005
0.00067904766 0.078090481 0.71300006
0.0020371431 0.078090481 0.71300006
0.0034000003 0.078200005 0.71400005
0.0047600004 0.078200005 0.71400005
0.0061371434 0.078419052 0.71600002
0.0074800006 0.078200005 0.71400005
0.0088647623 0.078419052 0.71600002
-0.04200286 0.08056286 0.72300005
-0.040625717 0.08056286 0.72300005
-0.03919429 0.080451436 0.72200006
-0.037714288 0.080228575 0.72000003
-0.036292382 0.080117151 0.71900004
-0.034922861 0.080117151 0.71900004
-0.033460002 0.079894289 0.71700001
-0.032094289 0.079894289 0.71700001
-0.030685715 0.079782866 0.71600002
-0.029240001 0.079560004 0.71400005
-0.027880002 0.079560004 0.71400005
-0.026520003 0.079560004 0.71400005
-0.025160002 0.079560004 0.71400005
-0.023766669 0.079448573 0.71300006
-0.022408573 0.079448573 0.71300006
-0.021050477 0.079448573 0.71300006
-0.019720001 0.079560004 0.71400005
-0.018360002 0.079560004 0.71400005
-0.017000001 0.079560004 0.71400005
-0.015640002 0.079560004 0.71400005
-0.014280001 0.079560004 0.71400005
-0.012901906 0.079448573 0.71300006
-0.011495239 0.079114288 0.71000004
-0.010114286 0.078891434 0.708
-0.0087657152 0.078891434 0.708
-0.0074171433 0.078891434 0.708
-0.0060685719 0.078891434 0.708
-0.0047200001 0.078891434 0.708
-0.0033809526 0.079114288 0.71000004
-0.0020314287 0.079225719 0.71100003
-0.00067619054 0.079114288 0.71000004
0.00067619054 0.079114288 0.71000004
0.0020285717 0.079114288 0.71000004
0.0033857145 0.079225719 0.71100003
0.0047533335 0.079448573 0.71300006
0.0061114291 0.079448573 0.71300006
0.0074485717 0.079225719 0.71100003
0.0088028582 0.079225719 0.71100003
-0.040457144 0.081600003 0.72000003
-0.039085716 0.081600003 0.72000003
-0.037714288 0.081600003 0.72000003
-0.03619143 0.081260003 0.71700001
-0.034825716 0.081260003 0.71700001
-0.033413336 0.081146672 0.71600002
-0.032049526 0.081146672 0.71600002
-0.030600002 0.080920003 0.71400005
-0.029199049 0.080806673 0.71300006
-0.027840953 0.080806673 0.71300006
-0.026408574 0.080580004 0.71100003
-0.025054287 0.080580004 0.71100003
-0.023700001 0.080580004 0.71100003
-0.022345716 0.080580004 0.71100003
-0.02099143 0.080580004 0.71100003
-0.019637143 0.080580004 0.71100003
-0.018334286 0.080806673 0.71300006
-0.016976191 0.080806673 0.71300006
-0.015618096 0.080806673 0.71300006
-0.014260001 0.080806673 0.71300006
-0.012865715 0.080580004 0.71100003
-0.011462858 0.080240004 0.708
-0.010100001 0.080126673 0.70700002
-0.0087533342 0.080126673 0.70700002
-0.0074066673 0.080126673 0.70700002
-0.0060600005 0.080126673 0.70700002
-0.0047133337 0.080126673 0.70700002
-0.0033666668 0.080126673 0.70700002
-0.0020200002 0.080126673 0.70700002
-0.00067333336 0.080126673 0.70700002
0.00067428575 0.080240004 0.708
0.0020200002 0.080126673 0.70700002
0.0033666668 0.080126673 0.70700002
0.0047133337 0.080126673 0.70700002
0.0060600005 0.080126673 0.70700002
0.0074066673 0.080126673 0.70700002
0.0087533342 0.080126673 0.70700002
-0.039031431 0.082856193 0.71900004
-0.037661906 0.082856193 0.71900004
-0.036140956 0.082510479 0.71600002
-0.034777146 0.082510479 0.71600002
-0.033320002 0.082280003 0.71400005
-0.031960003 0.082280003 0.71400005
-0.030557144 0.082164764 0.71300006
-0.029199049 0.082164764 0.71300006
-0.027762858 0.081934288 0.71100003
-0.026371431 0.08181905 0.71000004
-0.024948573 0.081588574 0.708
-0.023600001 0.081588574 0.708
-0.022314288 0.08181905 0.71000004
-0.020902859 0.081588574 0.708
-0.019554287 0.081588574 0.708
-0.018257145 0.08181905 0.71000004
-0.016857143 0.081588574 0.708
-0.015508573 0.081588574 0.708
-0.014100001 0.081242859 0.70500004
-0.012757144 0.081242859 0.70500004
-0.011414287 0.081242859 0.70500004
-0.010057144 0.081127621 0.70400006
-0.0087285722 0.081242859 0.70500004
-0.0073857149 0.081242859 0.70500004
-0.0060428577 0.081242859 0.70500004
-0.0047000004 0.081242859 0.70500004
-0.0033666668 0.081473336 0.70700002
-0.0020142859 0.081242859 0.70500004
-0.00067142863 0.081242859 0.70500004
0.00067047623 0.081127621 0.70400006
0.0020142859 0.081242859 0.70500004
0.0033523813 0.081127621 0.70400006
0.0046933335 0.081127621 0.70400006
0.0060342862 0.081127621 0.70400006
0.0073752385 0.081127621 0.70400006
0.0087161912 0.081127621 0.70400006
0.010042857 0.081012383 0.70300001
0.011381906 0.081012383 0.70300001
-0.036040001 0.083640009 0.71400005
-0.034680001 0.083640009 0.71400005
-0.033273336 0.083522864 0.71300006
-0.03191524 0.083522864 0.71300006
-0.030557144 0.083522864 0.71300006
-0.029117145 0.08328858 0.71100003
-0.027723812 0.083171435 0.71000004
-0.026297145 0.082937151 0.708
-0.024913335 0.082820006 0.70700002
-0.023500001 0.082585722 0.70500004
-0.022157144 0.082585722 0.70500004
-0.020814287 0.082585722 0.70500004
-0.019471429 0.082585722 0.70500004
-0.018128572 0.082585722 0.70500004
-0.016785715 0.082585722 0.70500004
-0.015420954 0.082468577 0.70400006
-0.014020001 0.082117148 0.70100003
-0.012666668 0.082000002 0.70000005
-0.011284763 0.081648573 0.69700003
-0.0099714296 0.081765719 0.69800001
-0.0086666672 0.082000002 0.70000005
-0.0073857149 0.082585722 0.70500004
-0.0060428577 0.082585722 0.70500004
-0.0047000004 0.082585722 0.70500004
-0.0033571431 0.082585722 0.70500004
-0.0020142859 0.082585722 0.70500004
-0.00067142863 0.082585722 0.70500004
0.00066952384 0.082351431 0.70300001
0.0020085715 0.082351431 0.70300001
0.0033476192 0.082351431 0.70300001
0.0046866671 0.082351431 0.70300001
0.0060257148 0.082351431 0.70300001
0.0073647625 0.082351431 0.70300001
0.0087038102 0.082351431 0.70300001
0.010014286 0.082117148 0.70100003
0.011284763 0.081648573 0.69700003
-0.037347622 0.084880956 0.71300006
-0.035989527 0.084880956 0.71300006
-0.034631431 0.084880956 0.71300006
-0.033180002 0.084642865 0.71100003
-0.031825718 0.084642865 0.71100003
-0.030471431 0.084642865 0.71100003
-0.029076193 0.084523812 0.71000004
-0.027645716 0.084285721 0.708
-0.026260002 0.084166676 0.70700002
-0.024842858 0.083928578 0.70500004
-0.023466669 0.083809532 0.70400006
-0.022125715 0.083809532 0.70400006
-0.020755239 0.083690479 0.70300001
-0.019416193 0.083690479 0.70300001
-0.018077144 0.083690479 0.70300001
-0.016690478 0.083452389 0.70100003
-0.015289525 0.083095245 0.69800001
-0.013940001 0.082976192 0.69700003
-0.012612382 0.082976192 0.69700003
-0.011252382 0.082738101 0.69500005
-0.009928572 0.082738101 0.69500005
-0.0086047621 0.082738101 0.69500005
-0.0073019052 0.082976192 0.69700003
-0.0059828577 0.083095245 0.69800001
-0.0046466668 0.082976192 0.69700003
-0.0033190479 0.082976192 0.69700003
-0.0019914287 0.082976192 0.69700003
-0.00066666672 0.083333336 0.70000005
0.00066761911 0.083452389 0.70100003
0.0020028572 0.083452389 0.70100003
0.0033380955 0.083452389 0.70100003
0.0046733338 0.083452389 0.70100003
0.0060085719 0.083452389 0.70100003
0.0073438101 0.083452389 0.70100003
0.0086666672 0.083333336 0.70000005
0.010000001 0.083333336 0.70000005
0.011284763 0.082976192 0.69700003
-0.034631431 0.086239055 0.71300006
-0.033133335 0.085876197 0.71000004
-0.031780954 0.085876197 0.71000004
-0.030342858 0.085634291 0.708
-0.028953334 0.085513338 0.70700002
-0.027489526 0.08515048 0.70400006
-0.026185716 0.085271433 0.70500004
-0.024807621 0.08515048 0.70400006
-0.023433335 0.085029528 0.70300001
-0.022094287 0.085029528 0.70300001
-0.020696191 0.084787622 0.70100003
-0.019333335 0.084666669 0.70000005
-0.017948573 0.084424764 0.69800001
-0.016619049 0.084424764 0.69800001
-0.01526762 0.084303819 0.69700003
-0.013900001 0.084061913 0.69500005
-0.012576192 0.084061913 0.69500005
-0.011236191 0.08394096 0.69400001
-0.0099142864 0.08394096 0.69400001
-0.0085923811 0.08394096 0.69400001
-0.0072600003 0.083820008 0.69300002
-0.0059400005 0.083820008 0.69300002
-0.0046200003 0.083820008 0.69300002
-0.0033000002 0.083820008 0.69300002
-0.0019828572 0.08394096 0.69400001
-0.00065809529 0.083578102 0.69100004
0.00066666672 0.084666669 0.70000005
0.0020028572 0.084787622 0.70100003
0.0033333336 0.084666669 0.70000005
0.004666667 0.084666669 0.70000005
0.0060000005 0.084666669 0.70000005
0.0073333336 0.084666669 0.70000005
0.0086419052 0.084424764 0.69800001
0.0099714296 0.084424764 0.69800001
0.011252382 0.084061913 0.69500005
0.012576192 0.084061913 0.69500005
0.013900001 0.084061913 0.69500005
-0.033040002 0.086982861 0.708
-0.031691432 0.086982861 0.708
-0.030300003 0.086860009 0.70700002
-0.028953334 0.086860009 0.70700002
-0.027489526 0.086491436 0.70400006
-0.026148573 0.086491436 0.70400006
-0.024772383 0.086368576 0.70300001
-0.023366667 0.086122863 0.70100003
-0.02203143 0.086122863 0.70100003
-0.020666668 0.086000003 0.70000005
-0.019278096 0.08575429 0.69800001
-0.017922858 0.085631438 0.69700003
-0.016595239 0.085631438 0.69700003
-0.01522381 0.085385717 0.69500005
-0.013900001 0.085385717 0.69500005
-0.012558096 0.085262865 0.69400001
-0.011220001 0.085140005 0.69300002
-0.0098714288 0.084894292 0.69100004
-0.0085552391 0.084894292 0.69100004
-0.0072390479 0.084894292 0.69100004
-0.0059228577 0.084894292 0.69100004
-0.004606667 0.084894292 0.69100004
-0.0032904765 0.084894292 0.69100004
-0.0019742858 0.084894292 0.69100004
-0.00065809529 0.084894292 0.69100004
0.00065809529 0.084894292 0.69100004
0.0019742858 0.084894292 0.69100004
0.0033095239 0.085385717 0.69500005
0.0046466668 0.085631438 0.69700003
0.0059742862 0.085631438 0.69700003
0.0073019052 0.085631438 0.69700003
0.0086295241 0.085631438 0.69700003
0.0099571431 0.085631438 0.69700003
0.011252382 0.085385717 0.69500005
0.012558096 0.085262865 0.69400001
0.01388 0.085262865 0.69400001
0.015201906 0.085262865 0.69400001
-0.034388572 0.088331431 0.708
-0.033040002 0.088331431 0.708
-0.031691432 0.088331431 0.708
-0.030300003 0.088206671 0.70700002
-0.02887143 0.087957151 0.70500004
-0.027489526 0.087832384 0.70400006
-0.02611143 0.087707624 0.70300001
-0.024701906 0.087458104 0.70100003
-0.023333335 0.087333336 0.70000005
-0.022000002 0.087333336 0.70000005
-0.02060762 0.087083817 0.69800001
-0.019250477 0.086959057 0.69700003
-0.01787143 0.086709529 0.69500005
-0.01654762 0.086709529 0.69500005
-0.01522381 0.086709529 0.69500005
-0.01388 0.086584769 0.69400001
-0.01254 0.086460009 0.69300002
-0.01118762 0.086210482 0.69100004
-0.0098714288 0.086210482 0.69100004
-0.0085552391 0.086210482 0.69100004
-0.0072285719 0.086085722 0.69000006
-0.0059142862 0.086085722 0.69000006
-0.0045933337 0.085960954 0.68900001
-0.0032809526 0.085960954 0.68900001
-0.0019685715 0.085960954 0.68900001
-0.0006561905 0.085960954 0.68900001
0.0006571429 0.086085722 0.69000006
0.0019714287 0.086085722 0.69000006
0.0032857144 0.086085722 0.69000006
0.0046266671 0.086584769 0.69400001
0.005948572 0.086584769 0.69400001
0.0072704768 0.086584769 0.69400001
0.0086047621 0.086709529 0.69500005
0.009928572 0.086709529 0.69500005
0.011236191 0.086584769 0.69400001
0.012558096 0.086584769 0.69400001
0.013860001 0.086460009 0.69300002
0.015201906 0.086584769 0.69400001
0.01652381 0.086584769 0.69400001
-0.034388572 0.089680009 0.708
-0.033040002 0.089680009 0.708
-0.031691432 0.089680009 0.708
-0.030300003 0.089553341 0.70700002
-0.028953334 0.089553341 0.70700002
-0.027489526 0.089173339 0.70400006
-0.02611143 0.089046672 0.70300001
-0.024701906 0.088793337 0.70100003
-0.023333335 0.08866667 0.70000005
-0.021937145 0.088413343 0.69800001
-0.020578096 0.088286676 0.69700003
-0.01919524 0.088033341 0.69500005
-0.017820001 0.087780006 0.69300002
-0.016500002 0.087780006 0.69300002
-0.015180001 0.087780006 0.69300002
-0.013860001 0.087780006 0.69300002
-0.01250381 0.087526672 0.69100004
-0.011171429 0.087400004 0.69000006
-0.0098571433 0.087400004 0.69000006
-0.0085428581 0.087400004 0.69000006
-0.0072180959 0.087273337 0.68900001
-0.005888572 0.087020002 0.68700004
-0.0045800004 0.087020002 0.68700004
-0.0032714289 0.087020002 0.68700004
-0.0019628573 0.087020002 0.68700004
-0.00065333338 0.086893342 0.68600005
0.00065428577 0.087020002 0.68700004
0.0019628573 0.087020002 0.68700004
0.0032714289 0.087020002 0.68700004
0.0045933337 0.087273337 0.68900001
0.0059400005 0.087780006 0.69300002
0.0072600003 0.087780006 0.69300002
0.0085923811 0.087906674 0.69400001
0.009928572 0.088033341 0.69500005
0.011236191 0.087906674 0.69400001
0.01254 0.087780006 0.69300002
0.013820001 0.087526672 0.69100004
0.015180001 0.087780006 0.69300002
0.01652381 0.087906674 0.69400001
0.017845716 0.087906674 0.69400001
-0.034340002 0.090900004 0.70700002
-0.032993335 0.090900004 0.70700002
-0.031646669 0.090900004 0.70700002
-0.030300003 0.090900004 0.70700002
-0.028830478 0.090514295 0.70400006
-0.027372383 0.090128578 0.70100003
-0.025925716 0.089742862 0.69800001
-0.024560954 0.089614294 0.69700003
-0.023133336 0.089228578 0.69400001
-0.021811429 0.089228578 0.69400001
-0.020460002 0.089100003 0.69300002
-0.019057143 0.088714294 0.69000006
-0.017742859 0.088714294 0.69000006
-0.016428573 0.088714294 0.69000006
-0.015114287 0.088714294 0.69000006
-0.013740001 0.088328578 0.68700004
-0.01243143 0.088328578 0.68700004
-0.011122858 0.088328578 0.68700004
-0.009800001 0.088200003 0.68600005
-0.0084933341 0.088200003 0.68600005
-0.0071657146 0.087942861 0.68400002
-0.0058628577 0.087942861 0.68400002
-0.0045600003 0.087942861 0.68400002
-0.0032571431 0.087942861 0.68400002
-0.0019514287 0.087814294 0.68300003
-0.00065047626 0.087814294 0.68300003
0.00065047626 0.087814294 0.68300003
0.0019514287 0.087814294 0.68300003
0.0032476194 0.087685719 0.68200004
0.004546667 0.087685719 0.68200004
0.0058457148 0.087685719 0.68200004
0.0071552387 0.087814294 0.68300003
0.0084933341 0.088200003 0.68600005
0.009800001 0.088200003 0.68600005
0.011155238 0.088585719 0.68900001
0.01246762 0.088585719 0.68900001
0.013740001 0.088328578 0.68700004
0.014982858 0.087942861 0.68400002
0.016285716 0.087942861 0.68400002
0.017588573 0.087942861 0.68400002
0.01889143 0.087942861 0.68400002
-0.030300003 0.092246674 0.70700002
-0.028830478 0.091855243 0.70400006
-0.027372383 0.091463819 0.70100003
-0.025814287 0.090680957 0.69500005
-0.02445524 0.090550482 0.69400001
-0.023100002 0.090420008 0.69300002
-0.021780001 0.090420008 0.69300002
-0.020460002 0.090420008 0.69300002
-0.019057143 0.090028577 0.69000006
-0.017717144 0.089898102 0.68900001
-0.016404763 0.089898102 0.68900001
-0.015048573 0.089637145 0.68700004
-0.013720001 0.089506671 0.68600005
-0.012413334 0.089506671 0.68600005
-0.011074287 0.089245722 0.68400002
-0.0097571434 0.089115247 0.68300003
-0.00844381 0.088984765 0.68200004
-0.0071238098 0.088723816 0.68000001
-0.0058457148 0.088984765 0.68200004
-0.0045333337 0.088723816 0.68000001
-0.0032476194 0.088984765 0.68200004
-0.0019485715 0.088984765 0.68200004
-0.00064761908 0.088723816 0.68000001
0.00064761908 0.088723816 0.68000001
0.0019428573 0.088723816 0.68000001
0.0032380954 0.088723816 0.68000001
0.0045333337 0.088723816 0.68000001
0.005828572 0.088723816 0.68000001
0.0071238098 0.088723816 0.68000001
0.008419048 0.088723816 0.68000001
0.0097142868 0.088723816 0.68000001
0.011009525 0.088723816 0.68000001
0.012340954 0.088984765 0.68200004
0.013660001 0.089115247 0.68300003
0.014939048 0.088984765 0.68200004
0.016190477 0.088723816 0.68000001
0.017460002 0.088593341 0.67900002
-0.028543811 0.092269532 0.69700003
-0.027216192 0.092269532 0.69700003
-0.025814287 0.092004769 0.69500005
-0.02445524 0.091872387 0.69400001
-0.023133336 0.091872387 0.69400001
-0.021780001 0.091740005 0.69300002
-0.020400954 0.091475241 0.69100004
-0.019029524 0.091210485 0.68900001
-0.017665716 0.090945721 0.68700004
-0.016333334 0.090813339 0.68600005
-0.015026668 0.090813339 0.68600005
-0.013680001 0.090548575 0.68400002
-0.012359048 0.090416193 0.68300003
-0.011058096 0.090416193 0.68300003
-0.0097428579 0.090283819 0.68200004
-0.008419048 0.090019055 0.68000001
-0.0071238098 0.090019055 0.68000001
-0.005828572 0.090019055 0.68000001
-0.0045266668 0.089886673 0.67900002
-0.0032333336 0.089886673 0.67900002
-0.0019400001 0.089886673 0.67900002
-0.00064666668 0.089886673 0.67900002
0.00064666668 0.089886673 0.67900002
0.0019400001 0.089886673 0.67900002
0.0032333336 0.089886673 0.67900002
0.0045266668 0.089886673 0.67900002
0.0058200005 0.089886673 0.67900002
0.0071133338 0.089886673 0.67900002
0.008406667 0.089886673 0.67900002
0.0097000003 0.089886673 0.67900002
0.010993334 0.089886673 0.67900002
0.012304762 0.090019055 0.68000001
0.013600001 0.090019055 0.68000001
0.014895239 0.090019055 0.68000001
0.016166668 0.089886673 0.67900002
0.017460002 0.089886673 0.67900002
0.018780954 0.090019055 0.68000001
-0.028461907 0.09332858 0.69500005
-0.027138097 0.09332858 0.69500005
-0.025814287 0.09332858 0.69500005
-0.02445524 0.093194291 0.69400001
-0.023133336 0.093194291 0.69400001
-0.021780001 0.093060009 0.69300002
-0.020400954 0.092791438 0.69100004
-0.018974287 0.092254288 0.68700004
-0.017640002 0.092120007 0.68600005
-0.016333334 0.092120007 0.68600005
-0.014982858 0.091851436 0.68400002
-0.013680001 0.091851436 0.68400002
-0.012359048 0.091717146 0.68300003
-0.011041906 0.091582865 0.68200004
-0.0097000003 0.091180004 0.67900002
-0.008406667 0.091180004 0.67900002
-0.0071028578 0.091045722 0.67800003
-0.0057942863 0.090777151 0.67600006
-0.0045000003 0.090642862 0.67500001
-0.0032190478 0.090777151 0.67600006
-0.0019314287 0.090777151 0.67600006
-0.00064380956 0.090777151 0.67600006
0.00064571435 0.091045722 0.67800003
0.001937143 0.091045722 0.67800003
0.0032285717 0.091045722 0.67800003
0.0045200004 0.091045722 0.67800003
0.0058114291 0.091045722 0.67800003
0.0071028578 0.091045722 0.67800003
0.008394286 0.091045722 0.67800003
0.0096428581 0.090642862 0.67500001
0.010912382 0.09050858 0.67400002
0.012268572 0.091045722 0.67800003
0.013560001 0.091045722 0.67800003
0.014851429 0.091045722 0.67800003
0.01609524 0.090777151 0.67600006
0.017434286 0.091045722 0.67800003
0.018780954 0.091314293 0.68000001
-0.027216192 0.09492477 0.69700003
-0.025888573 0.09492477 0.69700003
-0.024490478 0.094652385 0.69500005
-0.023133336 0.094516195 0.69400001
-0.021780001 0.094380006 0.69300002
-0.020282859 0.093562864 0.68700004
-0.018946668 0.093426675 0.68600005
-0.017640002 0.093426675 0.68600005
-0.016285716 0.093154289 0.68400002
-0.014982858 0.093154289 0.68400002
-0.013660001 0.0930181 0.68300003
-0.012340954 0.092881911 0.68200004
-0.011009525 0.092609532 0.68000001
-0.0096571436 0.092064768 0.67600006
-0.008369524 0.092064768 0.67600006
-0.0070714289 0.091928579 0.67500001
-0.0057857148 0.091928579 0.67500001
-0.0045000003 0.091928579 0.67500001
-0.0032142859 0.091928579 0.67500001
-0.0019257144 0.09179239 0.67400002
-0.00064190483 0.09179239 0.67400002
0.00064285717 0.091928579 0.67500001
0.0019285716 0.091928579 0.67500001
0.0032190478 0.092064768 0.67600006
0.0045000003 0.091928579 0.67500001
0.0057428577 0.091247626 0.67000002
0.007060953 0.09179239 0.67400002
0.008344762 0.09179239 0.67400002
0.0095857149 0.091383815 0.671
0.01084762 0.091247626 0.67000002
0.01212381 0.091247626 0.67000002
0.013400001 0.091247626 0.67000002
0.014763811 0.09179239 0.67400002
0.015952382 0.091247626 0.67000002
0.017228572 0.091247626 0.67000002
0.018753335 0.092473343 0.67900002
-0.027255239 0.096390486 0.69800001
-0.025925716 0.096390486 0.69800001
-0.02445524 0.0958381 0.69400001
-0.023100002 0.095700003 0.69300002
-0.021717144 0.095423818 0.69100004
-0.020253334 0.094733343 0.68600005
-0.01889143 0.09445715 0.68400002
-0.017562859 0.094319053 0.68300003
-0.016261905 0.094319053 0.68300003
-0.014939048 0.094180956 0.68200004
-0.013600001 0.093904771 0.68000001
-0.012286668 0.093766674 0.67900002
-0.010944762 0.093352385 0.67600006
-0.0096428581 0.093214288 0.67500001
-0.008357143 0.093214288 0.67500001
-0.007060953 0.093076199 0.67400002
-0.0057771434 0.093076199 0.67400002
-0.0044800001 0.092800006 0.67200005
-0.0032000002 0.092800006 0.67200005
-0.0019200002 0.092800006 0.67200005
-0.00064000004 0.092800006 0.67200005
0.00064000004 0.092800006 0.67200005
0.0019257144 0.093076199 0.67400002
0.0032095241 0.093076199 0.67400002
0.0044733337 0.09266191 0.671
0.0057428577 0.092523813 0.67000002
0.0070190481 0.092523813 0.67000002
0.0082952389 0.092523813 0.67000002
0.0095714293 0.092523813 0.67000002
0.01083143 0.092385717 0.66900003
0.012105715 0.092385717 0.66900003
0.013400001 0.092523813 0.67000002
0.014698097 0.09266191 0.671
0.015976192 0.09266191 0.671
0.017434286 0.093628578 0.67800003
0.018753335 0.093766674 0.67900002
0.020046668 0.093766674 0.67900002
0.021340001 0.093766674 0.67900002
-0.021497143 0.095760003 0.68400002
-0.020194286 0.095760003 0.68400002
-0.01886381 0.095620006 0.68300003
-0.017537143 0.09548001 0.68200004
-0.016238097 0.09548001 0.68200004
-0.014895239 0.09520001 0.68000001
-0.013580001 0.095060006 0.67900002
-0.012286668 0.095060006 0.67900002
-0.010928572 0.094500005 0.67500001
-0.0096285725 0.094360009 0.67400002
-0.008344762 0.094360009 0.67400002
-0.0070400005 0.094080009 0.67200005
-0.0057514291 0.093940005 0.671
-0.0044733337 0.093940005 0.671
-0.0031952383 0.093940005 0.671
-0.001917143 0.093940005 0.671
-0.00063904765 0.093940005 0.671
0.00063809525 0.093800008 0.67000002
0.0019142858 0.093800008 0.67000002
0.0031904764 0.093800008 0.67000002
0.0044600004 0.093660004 0.66900003
0.0057171434 0.093380004 0.66700006
0.0069771432 0.093240008 0.66600001
0.0082580959 0.093380004 0.66700006
0.0095285717 0.093380004 0.66700006
0.01083143 0.093660004 0.66900003
0.012069524 0.093380004 0.66700006
0.013380001 0.093660004 0.66900003
0.014676192 0.093800008 0.67000002
0.015952382 0.093800008 0.67000002
0.017228572 0.093800008 0.67000002
-0.023800002 0.10132001 0.71400005
-0.020076191 0.096495241 0.68000001
-0.018836191 0.096779056 0.68200004
-0.017485715 0.096495241 0.68000001
-0.016190477 0.096495241 0.68000001
-0.014873334 0.096353337 0.67900002
-0.013560001 0.096211433 0.67800003
-0.012232382 0.095927626 0.67600006
-0.010928572 0.095785722 0.67500001
-0.0096285725 0.095643818 0.67400002
-0.008344762 0.095643818 0.67400002
-0.0070400005 0.095360003 0.67200005
-0.0057514291 0.0952181 0.671
-0.0044733337 0.0952181 0.671
-0.0031952383 0.0952181 0.671
-0.0019142858 0.095076196 0.67000002
-0.00063809525 0.095076196 0.67000002
0.00063714292 0.094934292 0.66900003
0.0019057144 0.094650485 0.66700006
0.0031714288 0.094508581 0.66600001
0.0044400003 0.094508581 0.66600001
0.005708572 0.094508581 0.66600001
0.0069666672 0.09436667 0.66500002
0.0082333339 0.09436667 0.66500002
0.0095142862 0.094508581 0.66600001
0.010782857 0.094508581 0.66600001
0.012069524 0.094650485 0.66700006
0.013340001 0.094650485 0.66700006
0.014654287 0.094934292 0.66900003
0.015928572 0.094934292 0.66900003
0.01715143 0.094650485 0.66700006
-0.020046668 0.097646676 0.67900002
-0.018780954 0.09779048 0.68000001
-0.017460002 0.097646676 0.67900002
-0.016166668 0.097646676 0.67900002
-0.014851429 0.097502865 0.67800003
-0.013520001 0.097215243 0.67600006
-0.012214286 0.097071432 0.67500001
-0.010912382 0.096927628 0.67400002
-0.0096000005 0.096640006 0.67200005
-0.008320001 0.096640006 0.67200005
-0.0070295241 0.096496195 0.671
-0.0057428577 0.096352391 0.67000002
-0.0044666668 0.096352391 0.67000002
-0.0031904764 0.096352391 0.67000002
-0.0019114286 0.09620858 0.66900003
-0.00063523813 0.095920958 0.66700006
0.00063428574 0.095777147 0.66600001
0.0019028572 0.095777147 0.66600001
0.003166667 0.095633343 0.66500002
0.0044200001 0.095345721 0.66300005
0.0056828577 0.095345721 0.66300005
0.0069457148 0.095345721 0.66300005
0.0082085719 0.095345721 0.66300005
0.0094714295 0.095345721 0.66300005
0.010766667 0.095633343 0.66500002
0.01205143 0.095777147 0.66600001
0.013300001 0.095633343 0.66500002
0.014588572 0.095777147 0.66600001
0.015857143 0.095777147 0.66600001
0.017100001 0.095633343 0.66500002
-0.02137143 0.099085718 0.68000001
-0.020076191 0.099085718 0.68000001
-0.018780954 0.099085718 0.68000001
-0.017460002 0.098940007 0.67900002
-0.016166668 0.098940007 0.67900002
-0.01480762 0.098502867 0.67600006
-0.013500001 0.098357148 0.67500001
-0.012196192 0.098211437 0.67400002
-0.010880001 0.097920008 0.67200005
-0.0095857149 0.09777429 0.671
-0.0082952389 0.097628579 0.67000002
-0.0070190481 0.097628579 0.67000002
-0.0057342863 0.09748286 0.66900003
-0.0044600004 0.09748286 0.66900003
-0.0031857146 0.09748286 0.66900003
-0.0019028572 0.09704572 0.66600001
-0.0006333334 0.096900009 0.66500002
0.00063142861 0.096608579 0.66300005
0.0018942858 0.096608579 0.66300005
0.0031523812 0.096462861 0.66200006
0.0044066668 0.09631715 0.66100001
0.0056657149 0.09631715 0.66100001
0.0069352384 0.096462861 0.66200006
0.0081838099 0.09631715 0.66100001
0.0094428575 0.09631715 0.66100001
0.010734286 0.096608579 0.66300005
0.012033334 0.096900009 0.66500002
0.013260001 0.096608579 0.66300005
0.014566667 0.096900009 0.66500002
0.015833335 0.096900009 0.66500002
0.017048573 0.096608579 0.66300005
0.01828381 0.096462861 0.66200006
0.020742858 0.096171431 0.66000003
-0.022666669 0.10038096 0.68000001
-0.02137143 0.10038096 0.68000001
-0.020046668 0.10023334 0.67900002
-0.018753335 0.10023334 0.67900002
-0.017382858 0.099790484 0.67600006
-0.01609524 0.099790484 0.67600006
-0.014785715 0.099642865 0.67500001
-0.013480001 0.099495247 0.67400002
-0.01216 0.099200003 0.67200005
-0.01086381 0.099052384 0.671
-0.0095714293 0.098904766 0.67000002
-0.0082828579 0.098757148 0.66900003
-0.0070085721 0.098757148 0.66900003
-0.0057171434 0.098461911 0.66700006
-0.0044400003 0.098314293 0.66600001
-0.003157143 0.097871438 0.66300005
-0.0018942858 0.097871438 0.66300005
-0.00063047622 0.097723819 0.66200006
0.00062952383 0.097576194 0.66100001
0.0018857144 0.097428575 0.66000003
0.0031428575 0.097428575 0.66000003
0.0043866672 0.097133338 0.65800005
0.0056400006 0.097133338 0.65800005
0.006893334 0.097133338 0.65800005
0.0081342859 0.09698572 0.65700001
0.0093714288 0.096838102 0.65600002
0.010620954 0.096838102 0.65600002
0.011852382 0.096690483 0.65500003
0.013120001 0.096838102 0.65600002
0.014369525 0.096838102 0.65600002
0.015642859 0.09698572 0.65700001
0.01692 0.097133338 0.65800005
0.018145716 0.09698572 0.65700001
0.019397143 0.09698572 0.65700001
0.020648573 0.09698572 0.65700001
0.021900002 0.09698572 0.65700001
-0.022666669 0.1016762 0.68000001
-0.02137143 0.1016762 0.68000001
-0.020046668 0.10152667 0.67900002
-0.018642858 0.10092857 0.67500001
-0.017382858 0.1010781 0.67600006
-0.016071429 0.10092857 0.67500001
-0.014785715 0.10092857 0.67500001
-0.013480001 0.10077906 0.67400002
-0.012141906 0.10033048 0.671
-0.01084762 0.10018096 0.67000002
-0.0095571438 0.10003144 0.66900003
-0.0082828579 0.10003144 0.66900003
-0.0069771432 0.099582866 0.66600001
-0.0057000006 0.09943334 0.66500002
-0.0044333334 0.09943334 0.66500002
-0.003157143 0.099134289 0.66300005
-0.0018914287 0.09898477 0.66200006
-0.00062952383 0.098835245 0.66100001
0.00062857149 0.098685719 0.66000003
0.0018857144 0.098685719 0.66000003
0.0031333335 0.098386675 0.65800005
0.0043800003 0.098237149 0.65700001
0.0056228577 0.098087624 0.65600002
0.0068723815 0.098087624 0.65600002
0.0081219049 0.098087624 0.65600002
0.0093571432 0.097938098 0.65500003
0.010604762 0.097938098 0.65500003
0.011852382 0.097938098 0.65500003
0.013100001 0.097938098 0.65500003
0.01434762 0.097938098 0.65500003
0.015595239 0.097938098 0.65500003
0.016868573 0.098087624 0.65600002
0.018090477 0.097938098 0.65500003
0.019338097 0.097938098 0.65500003
0.020617144 0.098087624 0.65600002
0.021833334 0.097938098 0.65500003
0.023116192 0.098087624 0.65600002
0.024365716 0.098087624 0.65600002
0.025498098 0.097639054 0.65300006
-0.022157144 0.10675715 0.70500004
-0.019958096 0.10236572 0.67600006
-0.018670477 0.10236572 0.67600006
-0.017357145 0.10221429 0.67500001
-0.016071429 0.10221429 0.67500001
-0.014763811 0.10206287 0.67400002
-0.013440001 0.10176001 0.67200005
-0.01212381 0.10145715 0.67000002
-0.01084762 0.10145715 0.67000002
-0.0095571438 0.10130572 0.66900003
-0.0082580959 0.10100286 0.66700006
-0.0069666672 0.10070001 0.66500002
-0.0057000006 0.10070001 0.66500002
-0.0044200001 0.10039715 0.66300005
-0.0031476193 0.10009429 0.66100001
-0.0018857144 0.099942863 0.66000003
-0.00062857149 0.099942863 0.66000003
0.0006266667 0.099640004 0.65800005
0.0018800001 0.099640004 0.65800005
0.0031285717 0.099488579 0.65700001
0.0043733334 0.099337146 0.65600002
0.0056142863 0.09918572 0.65500003
0.0068619051 0.09918572 0.65500003
0.0081095239 0.09918572 0.65500003
0.0093285721 0.098882861 0.65300006
0.010572381 0.098882861 0.65300006
0.011816191 0.098882861 0.65300006
0.013060001 0.098882861 0.65300006
0.014303811 0.098882861 0.65300006
0.01554762 0.098882861 0.65300006
0.016842859 0.09918572 0.65500003
0.018090477 0.09918572 0.65500003
0.019338097 0.09918572 0.65500003
0.020617144 0.099337146 0.65600002
0.021833334 0.09918572 0.65500003
0.023116192 0.099337146 0.65600002
0.024328573 0.09918572 0.65500003
0.025459049 0.098731436 0.65200001
-0.01861524 0.10334668 0.67400002
-0.017331429 0.10334668 0.67400002
-0.016047619 0.10334668 0.67400002
-0.014720001 0.10304001 0.67200005
-0.013400001 0.10273334 0.67000002
-0.01212381 0.10273334 0.67000002
-0.01083143 0.10258 0.66900003
-0.0095285717 0.10227334 0.66700006
-0.0082457149 0.10212 0.66600001
-0.0069666672 0.10196667 0.66500002
-0.0056828577 0.10166001 0.66300005
-0.0044133337 0.10150667 0.66200006
-0.0031428575 0.10120001 0.66000003
-0.0018857144 0.10120001 0.66000003
-0.0006266667 0.10089334 0.65800005
0.0006266667 0.10089334 0.65800005
0.0018714287 0.10043334 0.65500003
0.0031190477 0.10043334 0.65500003
0.004366667 0.10043334 0.65500003
0.0055971434 0.10012668 0.65300006
0.0068409527 0.10012668 0.65300006
0.0080847628 0.10012668 0.65300006
0.0093142865 0.099973343 0.65200001
0.010556191 0.099973343 0.65200001
0.011798096 0.099973343 0.65200001
0.01302 0.099820003 0.65100002
0.014238096 0.09966667 0.65000004
0.015500001 0.099820003 0.65100002
0.016765716 0.099973343 0.65200001
0.018007619 0.099973343 0.65200001
0.01927905 0.10012668 0.65300006
0.020522859 0.10012668 0.65300006
0.021766668 0.10012668 0.65300006
0.023010477 0.10012668 0.65300006
0.024254287 0.10012668 0.65300006
0.025459049 0.099973343 0.65200001
0.026700955 0.099973343 0.65200001
-0.015976192 0.10416477 0.671
-0.014698097 0.10416477 0.671
-0.013400001 0.10400953 0.67000002
-0.012105715 0.10385429 0.66900003
-0.01083143 0.10385429 0.66900003
-0.0095285717 0.10354382 0.66700006
-0.0082457149 0.10338858 0.66600001
-0.0069457148 0.10292286 0.66300005
-0.0056742863 0.10276762 0.66200006
-0.0044000004 0.10245715 0.66000003
-0.0031333335 0.10214667 0.65800005
-0.0018800001 0.10214667 0.65800005
-0.00062571431 0.10199144 0.65700001
0.00062380958 0.10168096 0.65500003
0.0018657144 0.10137048 0.65300006
0.003109524 0.10137048 0.65300006
0.0043533337 0.10137048 0.65300006
0.005588572 0.10121524 0.65200001
0.0068200002 0.10106 0.65100002
0.0080600008 0.10106 0.65100002
0.009300001 0.10106 0.65100002
0.01052381 0.10090477 0.65000004
0.011761906 0.10090477 0.65000004
0.013000001 0.10090477 0.65000004
0.014238096 0.10090477 0.65000004
0.015428573 0.10059429 0.648
0.016714286 0.10090477 0.65000004
0.017952383 0.10090477 0.65000004
0.019190477 0.10090477 0.65000004
0.020460002 0.10106 0.65100002
0.021733334 0.10121524 0.65200001
0.022940002 0.10106 0.65100002
0.024254287 0.10137048 0.65300006
0.025498098 0.10137048 0.65300006
0.026741907 0.10137048 0.65300006
-0.014676192 0.10528572 0.67000002
-0.013380001 0.10512858 0.66900003
-0.012105715 0.10512858 0.66900003
-0.010799048 0.10481429 0.66700006
-0.0095285717 0.10481429 0.66700006
-0.0082333339 0.1045 0.66500002
-0.0069457148 0.10418572 0.66300005
-0.0056657149 0.10387143 0.66100001
-0.0043866672 0.10340001 0.65800005
-0.0031333335 0.10340001 0.65800005
-0.0018771429 0.10324287 0.65700001
-0.00062380958 0.10292858 0.65500003
0.00062190479 0.10261429 0.65300006
0.0018657144 0.10261429 0.65300006
0.0031047622 0.10245715 0.65200001
0.0043400005 0.1023 0.65100002
0.0055800006 0.1023 0.65100002
0.0068095243 0.10214286 0.65000004
0.0080476198 0.10214286 0.65000004
0.0092857145 0.10214286 0.65000004
0.010491429 0.10182858 0.648
0.011725715 0.10182858 0.648
0.012960001 0.10182858 0.648
0.014172382 0.10167143 0.64700001
0.015404763 0.10167143 0.64700001
0.016611429 0.10151429 0.64600003
0.017841905 0.10151429 0.64600003
0.019042859 0.10135715 0.64500004
0.020365715 0.10182858 0.648
0.021600001 0.10182858 0.648
0.022834288 0.10182858 0.648
0.024217144 0.10245715 0.65200001
0.025459049 0.10245715 0.65200001
-0.014654287 0.10640287 0.66900003
-0.013340001 0.10608477 0.66700006
-0.012069524 0.10608477 0.66700006
-0.010782857 0.10592572 0.66600001
-0.0095142862 0.10592572 0.66600001
-0.0082333339 0.10576668 0.66500002
-0.0069352384 0.10528953 0.66200006
-0.0056657149 0.10513049 0.66100001
-0.0043866672 0.10465334 0.65800005
-0.0031285717 0.1044943 0.65700001
-0.0018742859 0.10433525 0.65600002
-0.00062476192 0.10433525 0.65600002
0.00062190479 0.1038581 0.65300006
0.0018657144 0.1038581 0.65300006
0.0031000001 0.10354 0.65100002
0.0043333336 0.10338096 0.65000004
0.0055542863 0.10306286 0.648
0.0067885718 0.10306286 0.648
0.0080228578 0.10306286 0.648
0.0092571434 0.10306286 0.648
0.010475239 0.10290381 0.64700001
0.011689524 0.10274477 0.64600003
0.012920001 0.10274477 0.64600003
0.014150477 0.10274477 0.64600003
0.015380953 0.10274477 0.64600003
0.016585715 0.10258572 0.64500004
0.017814286 0.10258572 0.64500004
0.019013334 0.10242667 0.64400005
0.02027143 0.10258572 0.64500004
0.021533335 0.10274477 0.64600003
0.022763811 0.10274477 0.64600003
0.023808572 0.10194953 0.64100003
0.025029525 0.10194953 0.64100003
-0.014610477 0.10735524 0.66700006
-0.013320001 0.10719429 0.66600001
-0.01205143 0.10719429 0.66600001
-0.010782857 0.10719429 0.66600001
-0.0095000006 0.10703334 0.66500002
-0.0082085719 0.10671143 0.66300005
-0.0069247624 0.10638953 0.66100001
-0.0056571434 0.10622858 0.66000003
-0.0043800003 0.10574572 0.65700001
-0.0031238098 0.10558477 0.65600002
-0.0018714287 0.10542382 0.65500003
-0.00062380958 0.10542382 0.65500003
0.00062190479 0.10510191 0.65300006
0.0018600001 0.10478 0.65100002
0.0030952382 0.10461906 0.65000004
0.0043200003 0.10429715 0.648
0.0055457149 0.1041362 0.64700001
0.0067885718 0.10429715 0.648
0.0080104768 0.1041362 0.64700001
0.0092428578 0.1041362 0.64700001
0.010459049 0.10397524 0.64600003
0.011671429 0.10381429 0.64500004
0.0129 0.10381429 0.64500004
0.014106668 0.10365334 0.64400005
0.015333334 0.10365334 0.64400005
0.016560001 0.10365334 0.64400005
0.01773143 0.10333143 0.64200002
0.018954286 0.10333143 0.64200002
0.020177145 0.10333143 0.64200002
0.021400001 0.10333143 0.64200002
0.02258762 0.10317048 0.64100003
0.023808572 0.10317048 0.64100003
0.025029525 0.10317048 0.64100003
-0.014588572 0.10846286 0.66600001
-0.013300001 0.10830001 0.66500002
-0.012033334 0.10830001 0.66500002
-0.010766667 0.10830001 0.66500002
-0.0094714295 0.10797429 0.66300005
-0.0081961909 0.10781144 0.66200006
-0.0069247624 0.10764858 0.66100001
-0.0056314291 0.10699715 0.65700001
-0.0043733334 0.10683429 0.65600002
-0.0031238098 0.10683429 0.65600002
-0.0018657144 0.10634572 0.65300006
-0.00062190479 0.10634572 0.65300006
0.00062190479 0.10634572 0.65300006
0.001857143 0.10585715 0.65000004
0.0030857145 0.10553144 0.648
0.0043200003 0.10553144 0.648
0.0055371434 0.10520572 0.64600003
0.0067676194 0.10520572 0.64600003
0.0079980958 0.10520572 0.64600003
0.0092142867 0.10504287 0.64500004
0.010426668 0.10488001 0.64400005
0.011653334 0.10488001 0.64400005
0.012880001 0.10488001 0.64400005
0.014062858 0.1045543 0.64200002
0.015285715 0.1045543 0.64200002
0.016508572 0.1045543 0.64200002
0.017703811 0.10439143 0.64100003
0.018924763 0.10439143 0.64100003
0.020145716 0.10439143 0.64100003
0.021366669 0.10439143 0.64100003
0.022552382 0.10422858 0.64000005
0.023771429 0.10422858 0.64000005
0.024990479 0.10422858 0.64000005
0.026209526 0.10422858 0.64000005
-0.013300001 0.10956667 0.66500002
-0.012033334 0.10956667 0.66500002
-0.010734286 0.10923715 0.66300005
-0.0094714295 0.10923715 0.66300005
-0.0081838099 0.10890763 0.66100001
-0.0069142859 0.10874286 0.66000003
-0.0056314291 0.10824858 0.65700001
-0.004366667 0.10791905 0.65500003
-0.0031190477 0.10791905 0.65500003
-0.0018657144 0.10758953 0.65300006
-0.0006209524 0.10742477 0.65200001
0.00061904767 0.10709524 0.65000004
0.0018514286 0.10676572 0.648
0.0030809527 0.10660096 0.64700001
0.0043133334 0.10660096 0.64700001
0.005528572 0.10627144 0.64500004
0.0067571434 0.10627144 0.64500004
0.0079733338 0.10610668 0.64400005
0.0092000002 0.10610668 0.64400005
0.010394286 0.10577715 0.64200002
0.011617144 0.10577715 0.64200002
0.012840001 0.10577715 0.64200002
0.014040953 0.10561239 0.64100003
0.015261906 0.10561239 0.64100003
0.016482858 0.10561239 0.64100003
0.017676191 0.10544763 0.64000005
0.018895239 0.10544763 0.64000005
0.020082859 0.10528287 0.63900006
0.021300001 0.10528287 0.63900006
0.022517145 0.10528287 0.63900006
0.023734286 0.10528287 0.63900006
0.02495143 0.10528287 0.63900006
0.032993335 0.11648668 0.70700002
0.034340002 0.11648668 0.70700002
0.035686668 0.11648668 0.70700002
0.037085716 0.11665144 0.708
0.038380001 0.11648668 0.70700002
0.039726671 0.11648668 0.70700002
-0.0094000008 0.10966668 0.65800005
-0.0081219049 0.10933334 0.65600002
-0.0068723815 0.10933334 0.65600002
-0.0056142863 0.10916667 0.65500003
-0.0043533337 0.10883334 0.65300006
-0.0031047622 0.10866667 0.65200001
-0.0018600001 0.1085 0.65100002
-0.00061714288 0.10800001 0.648
0.00061619049 0.10783334 0.64700001
0.0018457144 0.10766667 0.64600003
0.0030714287 0.10750001 0.64500004
0.0042933337 0.10733334 0.64400005
0.0055200006 0.10733334 0.64400005
0.0067257145 0.10700001 0.64200002
0.0079361908 0.10683334 0.64100003
0.0091571435 0.10683334 0.64100003
0.010361905 0.10666668 0.64000005
0.011580953 0.10666668 0.64000005
0.01278 0.10650001 0.63900006
0.013997144 0.10650001 0.63900006
0.015190477 0.10633334 0.63800001
0.016405715 0.10633334 0.63800001
0.017620953 0.10633334 0.63800001
0.018836191 0.10633334 0.63800001
0.019988572 0.10600001 0.63600004
0.021166667 0.10583334 0.63500005
0.022376193 0.10583334 0.63500005
0.023585716 0.10583334 0.63500005
0.02463905 0.10516667 0.63100004
0.025840955 0.10516667 0.63100004
0.028289525 0.10533334 0.63200003
0.029493336 0.10533334 0.63200003
0.030648574 0.10516667 0.63100004
0.03185048 0.10516667 0.63100004
0.037085716 0.11800001 0.708
0.038434289 0.11800001 0.708
-0.0056142863 0.1104143 0.65500003
-0.0043466669 0.10990858 0.65200001
-0.0031000001 0.10974 0.65100002
-0.001857143 0.10957143 0.65000004
-0.00061714288 0.1092343 0.648
0.00061523815 0.10889715 0.64600003
0.0018428572 0.10872858 0.64500004
0.0030666669 0.10856001 0.64400005
0.0042800005 0.10822286 0.64200002
0.0055028577 0.10822286 0.64200002
0.0067152386 0.1080543 0.64100003
0.0079238098 0.10788572 0.64000005
0.009142858 0.10788572 0.64000005
0.010345715 0.10771715 0.63900006
0.011562858 0.10771715 0.63900006
0.012760001 0.10754858 0.63800001
0.01393143 0.10721143 0.63600004
0.015142858 0.10721143 0.63600004
0.016328573 0.10704286 0.63500005
0.017538097 0.10704286 0.63500005
0.01874762 0.10704286 0.63500005
0.019925715 0.10687429 0.634
0.021166667 0.10704286 0.63500005
0.022376193 0.10704286 0.63500005
0.023325715 0.10586286 0.62800002
0.02463905 0.10636858 0.63100004
0.025840955 0.10636858 0.63100004
0.027042858 0.10636858 0.63100004
0.028289525 0.10653715 0.63200003
0.029493336 0.10653715 0.63200003
0.030648574 0.10636858 0.63100004
0.03185048 0.10636858 0.63100004
0.033052385 0.10636858 0.63100004
-0.0043400005 0.11098 0.65100002
-0.0030952382 0.11080953 0.65000004
-0.0018514286 0.11046858 0.648
-0.00061619049 0.1102981 0.64700001
0.00061523815 0.11012763 0.64600003
0.0018400002 0.10978667 0.64400005
0.0030523811 0.10927524 0.64100003
0.0042733336 0.10927524 0.64100003
0.0054942863 0.10927524 0.64100003
0.0067047626 0.10910477 0.64000005
0.0079114288 0.10893429 0.63900006
0.0091285724 0.10893429 0.63900006
0.010297144 0.10842287 0.63600004
0.011508572 0.10842287 0.63600004
0.012680001 0.10808191 0.634
0.013865715 0.10791144 0.63300002
0.015071429 0.10791144 0.63300002
0.01625143 0.10774096 0.63200003
0.017482858 0.10791144 0.63300002
0.018688573 0.10791144 0.63300002
0.019894287 0.10791144 0.63300002
0.021100001 0.10791144 0.63300002
0.022305716 0.10791144 0.63300002
0.023325715 0.10705905 0.62800002
0.024521906 0.10705905 0.62800002
0.025718097 0.10705905 0.62800002
0.026957145 0.10722953 0.62900001
0.028155239 0.10722953 0.62900001
0.029446669 0.10757048 0.63100004
0.030648574 0.10757048 0.63100004
0.03185048 0.10757048 0.63100004
0.033052385 0.10757048 0.63100004
0.034308575 0.10774096 0.63200003
-0.0043333336 0.11204763 0.65000004
-0.0030857145 0.11170287 0.648
-0.0018514286 0.11170287 0.648
-0.00061619049 0.11153048 0.64700001
0.00061523815 0.11135811 0.64600003
0.0018400002 0.11101334 0.64400005
0.0030523811 0.1104962 0.64100003
0.0042666672 0.11032382 0.64000005
0.0054857144 0.11032382 0.64000005
0.0066942861 0.11015143 0.63900006
0.0079114288 0.11015143 0.63900006
0.0090857148 0.1096343 0.63600004
0.010280953 0.10946191 0.63500005
0.011472382 0.10928953 0.634
0.01266 0.10911715 0.63300002
0.01384381 0.10894477 0.63200003
0.01504762 0.10894477 0.63200003
0.01625143 0.10894477 0.63200003
0.01742762 0.10877239 0.63100004
0.018629525 0.10877239 0.63100004
0.01983143 0.10877239 0.63100004
0.020966668 0.10842763 0.62900001
0.022164764 0.10842763 0.62900001
0.023288572 0.10808286 0.62700003
0.024482859 0.10808286 0.62700003
0.025677145 0.10808286 0.62700003
0.026914287 0.10825524 0.62800002
0.028110478 0.10825524 0.62800002
0.029306669 0.10825524 0.62800002
0.03055143 0.10842763 0.62900001
0.031749524 0.10842763 0.62900001
0.032947622 0.10842763 0.62900001
0.034308575 0.10894477 0.63200003
-0.0043200003 0.11293715 0.648
-0.0030857145 0.11293715 0.648
-0.0018514286 0.11293715 0.648
-0.00061619049 0.11276286 0.64700001
0.00061523815 0.11258858 0.64600003
0.0018342858 0.11189143 0.64200002
0.0030476192 0.11154287 0.64000005
0.0042666672 0.11154287 0.64000005
0.005477143 0.11136858 0.63900006
0.0066838101 0.11119429 0.63800001
0.0078742858 0.11084572 0.63600004
0.0090714293 0.11067144 0.63500005
0.010248573 0.11032286 0.63300002
0.011436191 0.11014858 0.63200003
0.012640001 0.11014858 0.63200003
0.013821905 0.10997429 0.63100004
0.015023811 0.10997429 0.63100004
0.016225716 0.10997429 0.63100004
0.01742762 0.10997429 0.63100004
0.018570477 0.10962572 0.62900001
0.019768573 0.10962572 0.62900001
0.020966668 0.10962572 0.62900001
0.022059049 0.10910287 0.62600005
0.023251429 0.10910287 0.62600005
0.024443811 0.10910287 0.62600005
0.025636192 0.10910287 0.62600005
0.02687143 0.10927715 0.62700003
0.028065717 0.10927715 0.62700003
0.029260002 0.10927715 0.62700003
0.030454287 0.10927715 0.62700003
0.03169905 0.10945144 0.62800002
0.032947622 0.10962572 0.62900001
0.034254286 0.10997429 0.63100004
0.035456192 0.10997429 0.63100004
-0.0043200003 0.11417144 0.648
-0.0030857145 0.11417144 0.648
-0.0018514286 0.11417144 0.648
-0.00061619049 0.11399525 0.64700001
0.00061523815 0.11381906 0.64600003
0.0018342858 0.11311429 0.64200002
0.0030476192 0.11276191 0.64000005
0.0042600003 0.11258572 0.63900006
0.0054685716 0.11240953 0.63800001
0.0066628577 0.11205715 0.63600004
0.0078619057 0.11188096 0.63500005
0.0090428581 0.11152858 0.63300002
0.010232382 0.11135239 0.63200003
0.011436191 0.11135239 0.63200003
0.012620001 0.1111762 0.63100004
0.013821905 0.1111762 0.63100004
0.015023811 0.1111762 0.63100004
0.016225716 0.1111762 0.63100004
0.017372383 0.11082382 0.62900001
0.018540954 0.11064763 0.62800002
0.019737145 0.11064763 0.62800002
