# .PCD v0.7 - Point Cloud Data file format
VERSION 0.7
FIELDS x y z
SIZE 4 4 4
TYPE F F F
COUNT 1 1 1
WIDTH 1344
HEIGHT 1
VIEWPOINT 0 0 0 1 0 0 0
POINTS 1344
DATA ascii
-0.023622859 0.024834286 0.63600004
-0.022517145 0.02495143 0.63900006
-0.021366669 0.025029525 0.64100003
-0.068080008 0.026373334 0.64400005
-0.066853337 0.026373334 0.64400005
-0.065626673 0.026373334 0.64400005
-0.064200006 0.02629143 0.64200002
-0.06268286 0.026168574 0.63900006
-0.061465718 0.026168574 0.63900006
-0.060154289 0.026127622 0.63800001
-0.058939051 0.026127622 0.63800001
-0.057452384 0.026004763 0.63500005
-0.056242861 0.026004763 0.63500005
-0.055033337 0.026004763 0.63500005
-0.053823814 0.026004763 0.63500005
-0.05261429 0.026004763 0.63500005
-0.051323812 0.025963811 0.634
-0.050116193 0.025963811 0.634
-0.048908576 0.025963811 0.634
-0.047700956 0.025963811 0.634
-0.046566669 0.026004763 0.63500005
-0.045285717 0.025963811 0.634
-0.044078097 0.025963811 0.634
-0.042938098 0.026004763 0.63500005
-0.041728575 0.026004763 0.63500005
-0.040455241 0.025963811 0.634
-0.039247621 0.025963811 0.634
-0.038040001 0.025963811 0.634
-0.036890477 0.026004763 0.63500005
-0.035624765 0.025963811 0.634
-0.034417145 0.025963811 0.634
-0.033209525 0.025963811 0.634
-0.032001905 0.025963811 0.634
-0.030842859 0.026004763 0.63500005
-0.029633336 0.026004763 0.63500005
-0.028423812 0.026004763 0.63500005
-0.027171431 0.025963811 0.634
-0.026045715 0.026045715 0.63600004
-0.024912383 0.026127622 0.63800001
-0.023734286 0.026168574 0.63900006
-0.022552382 0.026209526 0.64000005
-0.021400001 0.02629143 0.64200002
-0.066957146 0.027642859 0.64500004
-0.065626673 0.027600002 0.64400005
-0.064200006 0.027514288 0.64200002
-0.06297715 0.027514288 0.64200002
-0.06175429 0.027514288 0.64200002
-0.060248576 0.027385715 0.63900006
-0.059031431 0.027385715 0.63900006
-0.057814289 0.027385715 0.63900006
-0.056242861 0.027214287 0.63500005
-0.055033337 0.027214287 0.63500005
-0.053908575 0.027257144 0.63600004
-0.05261429 0.027214287 0.63500005
-0.051404767 0.027214287 0.63500005
-0.050195243 0.027214287 0.63500005
-0.048985716 0.027214287 0.63500005
-0.047776192 0.027214287 0.63500005
-0.046566669 0.027214287 0.63500005
-0.045357145 0.027214287 0.63500005
-0.044147622 0.027214287 0.63500005
-0.042938098 0.027214287 0.63500005
-0.041728575 0.027214287 0.63500005
-0.040455241 0.027171431 0.634
-0.039309528 0.027214287 0.63500005
-0.038040001 0.027171431 0.634
-0.036890477 0.027214287 0.63500005
-0.035624765 0.027171431 0.634
-0.034417145 0.027171431 0.634
-0.033209525 0.027171431 0.634
-0.032052383 0.027214287 0.63500005
-0.030842859 0.027214287 0.63500005
-0.029633336 0.027214287 0.63500005
-0.028468573 0.027257144 0.63600004
-0.027214287 0.027214287 0.63500005
-0.026127622 0.02734286 0.63800001
-0.02495143 0.027385715 0.63900006
-0.023771429 0.027428573 0.64000005
-0.02258762 0.027471431 0.64100003
-0.021400001 0.027514288 0.64200002
-0.065728575 0.02887143 0.64500004
-0.064400002 0.028826669 0.64400005
-0.063173339 0.028826669 0.64400005
-0.06175429 0.028737145 0.64200002
-0.060531434 0.028737145 0.64200002
-0.059123814 0.02864762 0.64000005
-0.057814289 0.028602859 0.63900006
-0.056597147 0.028602859 0.63900006
-0.055293337 0.028558098 0.63800001
-0.054078098 0.028558098 0.63800001
-0.05286286 0.028558098 0.63800001
-0.051485717 0.028468573 0.63600004
-0.05027429 0.028468573 0.63600004
-0.049217146 0.028558098 0.63800001
-0.047851432 0.028468573 0.63600004
-0.046640001 0.028468573 0.63600004
-0.045357145 0.028423812 0.63500005
-0.044147622 0.028423812 0.63500005
-0.042938098 0.028423812 0.63500005
-0.041728575 0.028423812 0.63500005
-0.040519051 0.028423812 0.63500005
-0.039309528 0.028423812 0.63500005
-0.038100004 0.028423812 0.63500005
-0.036890477 0.028423812 0.63500005
-0.035680953 0.028423812 0.63500005
-0.03447143 0.028423812 0.63500005
-0.033261906 0.028423812 0.63500005
-0.032102861 0.028468573 0.63600004
-0.030891431 0.028468573 0.63600004
-0.029773336 0.028558098 0.63800001
-0.028558098 0.028558098 0.63800001
-0.02734286 0.028558098 0.63800001
-0.026127622 0.028558098 0.63800001
-0.02495143 0.028602859 0.63900006
-0.023771429 0.02864762 0.64000005
-0.022622859 0.028737145 0.64200002
-0.021466669 0.028826669 0.64400005
-0.065728575 0.030100003 0.64500004
-0.064500004 0.030100003 0.64500004
-0.063173339 0.030053336 0.64400005
-0.061946671 0.030053336 0.64400005
-0.060531434 0.029960003 0.64200002
-0.059216194 0.029913336 0.64100003
-0.057904765 0.029866669 0.64000005
-0.05668572 0.029866669 0.64000005
-0.055380005 0.029820003 0.63900006
-0.05416286 0.029820003 0.63900006
-0.052945718 0.029820003 0.63900006
-0.051728576 0.029820003 0.63900006
-0.050432384 0.029773336 0.63800001
-0.049217146 0.029773336 0.63800001
-0.047851432 0.029680002 0.63600004
-0.046640001 0.029680002 0.63600004
-0.045357145 0.029633336 0.63500005
-0.044147622 0.029633336 0.63500005
-0.042938098 0.029633336 0.63500005
-0.041728575 0.029633336 0.63500005
-0.040519051 0.029633336 0.63500005
-0.039309528 0.029633336 0.63500005
-0.038100004 0.029633336 0.63500005
-0.036890477 0.029633336 0.63500005
-0.035680953 0.029633336 0.63500005
-0.03447143 0.029633336 0.63500005
-0.033314288 0.029680002 0.63600004
-0.032203812 0.029773336 0.63800001
-0.030988574 0.029773336 0.63800001
-0.029773336 0.029773336 0.63800001
-0.028602859 0.029820003 0.63900006
-0.027385715 0.029820003 0.63900006
-0.026168574 0.029820003 0.63900006
-0.02495143 0.029820003 0.63900006
-0.023808572 0.029913336 0.64100003
-0.02258762 0.029913336 0.64100003
-0.021400001 0.029960003 0.64200002
-0.065728575 0.031328574 0.64500004
-0.064500004 0.031328574 0.64500004
-0.063271433 0.031328574 0.64500004
-0.061946671 0.031280003 0.64400005
-0.060720004 0.031280003 0.64400005
-0.059308574 0.031182859 0.64200002
-0.057814289 0.031037144 0.63900006
-0.056597147 0.031037144 0.63900006
-0.055466671 0.031085717 0.64000005
-0.054247621 0.031085717 0.64000005
-0.053028576 0.031085717 0.64000005
-0.051728576 0.031037144 0.63900006
-0.050511431 0.031037144 0.63900006
-0.049217146 0.030988574 0.63800001
-0.048001908 0.030988574 0.63800001
-0.046640001 0.030891431 0.63600004
-0.045428574 0.030891431 0.63600004
-0.044217147 0.030891431 0.63600004
-0.042938098 0.030842859 0.63500005
-0.041728575 0.030842859 0.63500005
-0.040519051 0.030842859 0.63500005
-0.039309528 0.030842859 0.63500005
-0.038100004 0.030842859 0.63500005
-0.036890477 0.030842859 0.63500005
-0.035680953 0.030842859 0.63500005
-0.034525715 0.030891431 0.63600004
-0.033314288 0.030891431 0.63600004
-0.032203812 0.030988574 0.63800001
-0.030988574 0.030988574 0.63800001
-0.029773336 0.030988574 0.63800001
-0.028602859 0.031037144 0.63900006
-0.027385715 0.031037144 0.63900006
-0.026168574 0.031037144 0.63900006
-0.024990479 0.031085717 0.64000005
-0.023808572 0.031134287 0.64100003
-0.02258762 0.031134287 0.64100003
-0.021400001 0.031182859 0.64200002
-0.064600006 0.032607622 0.64600003
-0.063369527 0.032607622 0.64600003
-0.062042862 0.032557145 0.64500004
-0.060814291 0.032557145 0.64500004
-0.059493337 0.032506667 0.64400005
-0.058085717 0.032405715 0.64200002
-0.056774288 0.032355241 0.64100003
-0.055466671 0.032304764 0.64000005
-0.054247621 0.032304764 0.64000005
-0.053028576 0.032304764 0.64000005
-0.051809527 0.032304764 0.64000005
-0.050511431 0.032254286 0.63900006
-0.049294289 0.032254286 0.63900006
-0.048077147 0.032254286 0.63900006
-0.04678667 0.032203812 0.63800001
-0.045571432 0.032203812 0.63800001
-0.044356193 0.032203812 0.63800001
-0.043005716 0.032102861 0.63600004
-0.041728575 0.032052383 0.63500005
-0.040519051 0.032052383 0.63500005
-0.039309528 0.032052383 0.63500005
-0.038100004 0.032052383 0.63500005
-0.036948573 0.032102861 0.63600004
-0.035737146 0.032102861 0.63600004
-0.034634288 0.032203812 0.63800001
-0.03341905 0.032203812 0.63800001
-0.032254286 0.032254286 0.63900006
-0.031037144 0.032254286 0.63900006
-0.029820003 0.032254286 0.63900006
-0.02864762 0.032304764 0.64000005
-0.027428573 0.032304764 0.64000005
-0.026209526 0.032304764 0.64000005
-0.025029525 0.032355241 0.64100003
-0.023845715 0.032405715 0.64200002
-0.022693334 0.032506667 0.64400005
-0.021500001 0.032557145 0.64500004
-0.064700007 0.033890478 0.64700001
-0.063467622 0.033890478 0.64700001
-0.062139053 0.033838097 0.64600003
-0.060814291 0.033785716 0.64500004
-0.059493337 0.033733334 0.64400005
-0.058085717 0.033628572 0.64200002
-0.056774288 0.033576194 0.64100003
-0.055466671 0.033523813 0.64000005
-0.054247621 0.033523813 0.64000005
-0.053028576 0.033523813 0.64000005
-0.051809527 0.033523813 0.64000005
-0.050511431 0.033471432 0.63900006
-0.049294289 0.033471432 0.63900006
-0.048077147 0.033471432 0.63900006
-0.046860002 0.033471432 0.63900006
-0.045571432 0.03341905 0.63800001
-0.044356193 0.03341905 0.63800001
-0.043005716 0.033314288 0.63600004
-0.041794289 0.033314288 0.63600004
-0.040582858 0.033314288 0.63600004
-0.039309528 0.033261906 0.63500005
-0.038100004 0.033261906 0.63500005
-0.036948573 0.033314288 0.63600004
-0.035737146 0.033314288 0.63600004
-0.034634288 0.03341905 0.63800001
-0.03341905 0.03341905 0.63800001
-0.032254286 0.033471432 0.63900006
-0.031037144 0.033471432 0.63900006
-0.029820003 0.033471432 0.63900006
-0.02864762 0.033523813 0.64000005
-0.027428573 0.033523813 0.64000005
-0.026209526 0.033523813 0.64000005
-0.025029525 0.033576194 0.64100003
-0.023845715 0.033628572 0.64200002
-0.022693334 0.033733334 0.64400005
-0.021500001 0.033785716 0.64500004
-0.064700007 0.03512286 0.64700001
-0.063467622 0.03512286 0.64700001
-0.062139053 0.035068575 0.64600003
-0.060814291 0.035014287 0.64500004
-0.059493337 0.034960002 0.64400005
-0.05826667 0.034960002 0.64400005
-0.056862861 0.034851432 0.64200002
-0.055553336 0.034797147 0.64100003
-0.054247621 0.034742858 0.64000005
-0.053028576 0.034742858 0.64000005
-0.051809527 0.034742858 0.64000005
-0.050590478 0.034742858 0.64000005
-0.049294289 0.034688573 0.63900006
-0.048077147 0.034688573 0.63900006
-0.046860002 0.034688573 0.63900006
-0.04564286 0.034688573 0.63900006
-0.044425718 0.034688573 0.63900006
-0.043140955 0.034634288 0.63800001
-0.041925717 0.034634288 0.63800001
-0.040582858 0.034525715 0.63600004
-0.039309528 0.03447143 0.63500005
-0.038160004 0.034525715 0.63600004
-0.037064765 0.034634288 0.63800001
-0.035849527 0.034634288 0.63800001
-0.034688573 0.034688573 0.63900006
-0.033471432 0.034688573 0.63900006
-0.032254286 0.034688573 0.63900006
-0.031037144 0.034688573 0.63900006
-0.029866669 0.034742858 0.64000005
-0.02864762 0.034742858 0.64000005
-0.027428573 0.034742858 0.64000005
-0.026250478 0.034797147 0.64100003
-0.025029525 0.034797147 0.64100003
-0.023845715 0.034851432 0.64200002
-0.022693334 0.034960002 0.64400005
-0.021500001 0.035014287 0.64500004
-0.066034287 0.036411431 0.648
-0.064800002 0.036411431 0.648
-0.063467622 0.036355242 0.64700001
-0.062139053 0.03629905 0.64600003
-0.060814291 0.036242861 0.64500004
-0.059493337 0.036186669 0.64400005
-0.05826667 0.036186669 0.64400005
-0.056862861 0.036074288 0.64200002
-0.055553336 0.036018096 0.64100003
-0.054332383 0.036018096 0.64100003
-0.05311143 0.036018096 0.64100003
-0.051890481 0.036018096 0.64100003
-0.050590478 0.035961907 0.64000005
-0.049371433 0.035961907 0.64000005
-0.048077147 0.035905715 0.63900006
-0.046860002 0.035905715 0.63900006
-0.04564286 0.035905715 0.63900006
-0.044425718 0.035905715 0.63900006
-0.043140955 0.035849527 0.63800001
-0.041925717 0.035849527 0.63800001
-0.040710479 0.035849527 0.63800001
-0.039371431 0.035737146 0.63600004
-0.038160004 0.035737146 0.63600004
-0.037064765 0.035849527 0.63800001
-0.035849527 0.035849527 0.63800001
-0.034688573 0.035905715 0.63900006
-0.033471432 0.035905715 0.63900006
-0.032254286 0.035905715 0.63900006
-0.031037144 0.035905715 0.63900006
-0.029866669 0.035961907 0.64000005
-0.02864762 0.035961907 0.64000005
-0.027428573 0.035961907 0.64000005
-0.026250478 0.036018096 0.64100003
-0.025068574 0.036074288 0.64200002
-0.023920001 0.036186669 0.64400005
-0.022693334 0.036186669 0.64400005
-0.021500001 0.036242861 0.64500004
-0.064700007 0.03758762 0.64700001
-0.063467622 0.03758762 0.64700001
-0.062139053 0.037529524 0.64600003
-0.060814291 0.037471432 0.64500004
-0.059493337 0.037413336 0.64400005
-0.05826667 0.037413336 0.64400005
-0.057040002 0.037413336 0.64400005
-0.055640005 0.037297145 0.64200002
-0.054417148 0.037297145 0.64200002
-0.05311143 0.037239049 0.64100003
-0.051890481 0.037239049 0.64100003
-0.050590478 0.037180956 0.64000005
-0.049371433 0.037180956 0.64000005
-0.048152383 0.037180956 0.64000005
-0.046860002 0.037122861 0.63900006
-0.04564286 0.037122861 0.63900006
-0.044425718 0.037122861 0.63900006
-0.043140955 0.037064765 0.63800001
-0.041991431 0.037122861 0.63900006
-0.040710479 0.037064765 0.63800001
-0.039495241 0.037064765 0.63800001
-0.038280003 0.037064765 0.63800001
-0.037122861 0.037122861 0.63900006
-0.035905715 0.037122861 0.63900006
-0.034688573 0.037122861 0.63900006
-0.033471432 0.037122861 0.63900006
-0.032254286 0.037122861 0.63900006
-0.031085717 0.037180956 0.64000005
-0.029866669 0.037180956 0.64000005
-0.02864762 0.037180956 0.64000005
-0.027471431 0.037239049 0.64100003
-0.02629143 0.037297145 0.64200002
-0.025068574 0.037297145 0.64200002
-0.023920001 0.037413336 0.64400005
-0.022728574 0.037471432 0.64500004
-0.021500001 0.037471432 0.64500004
-0.064800002 0.038880002 0.648
-0.063467622 0.038820002 0.64700001
-0.062235244 0.038820002 0.64700001
-0.060814291 0.038700003 0.64500004
-0.059493337 0.038640004 0.64400005
-0.05826667 0.038640004 0.64400005
-0.057040002 0.038640004 0.64400005
-0.055813339 0.038640004 0.64400005
-0.054417148 0.038520001 0.64200002
-0.053194288 0.038520001 0.64200002
-0.051971432 0.038520001 0.64200002
-0.050590478 0.038400002 0.64000005
-0.049371433 0.038400002 0.64000005
-0.048152383 0.038400002 0.64000005
-0.046933338 0.038400002 0.64000005
-0.045714289 0.038400002 0.64000005
-0.044425718 0.038340002 0.63900006
-0.043208573 0.038340002 0.63900006
-0.041991431 0.038340002 0.63900006
-0.04077429 0.038340002 0.63900006
-0.039557144 0.038340002 0.63900006
-0.038340002 0.038340002 0.63900006
-0.037122861 0.038340002 0.63900006
-0.035905715 0.038340002 0.63900006
-0.034688573 0.038340002 0.63900006
-0.033471432 0.038340002 0.63900006
-0.032254286 0.038340002 0.63900006
-0.031085717 0.038400002 0.64000005
-0.029866669 0.038400002 0.64000005
-0.028692383 0.038460001 0.64100003
-0.027471431 0.038460001 0.64100003
-0.02629143 0.038520001 0.64200002
-0.025146669 0.038640004 0.64400005
-0.023920001 0.038640004 0.64400005
-0.022728574 0.038700003 0.64500004
-0.021500001 0.038700003 0.64500004
-0.063565716 0.040114287 0.648
-0.062235244 0.040052384 0.64700001
-0.060814291 0.039928574 0.64500004
-0.059493337 0.039866671 0.64400005
-0.05826667 0.039866671 0.64400005
-0.057040002 0.039866671 0.64400005
-0.055640005 0.039742861 0.64200002
-0.054417148 0.039742861 0.64200002
-0.053194288 0.039742861 0.64200002
-0.051971432 0.039742861 0.64200002
-0.050748575 0.039742861 0.64200002
-0.049448576 0.039680954 0.64100003
-0.048152383 0.039619051 0.64000005
-0.046933338 0.039619051 0.64000005
-0.045714289 0.039619051 0.64000005
-0.04449524 0.039619051 0.64000005
-0.043208573 0.039557144 0.63900006
-0.041991431 0.039557144 0.63900006
-0.04077429 0.039557144 0.63900006
-0.039557144 0.039557144 0.63900006
-0.038340002 0.039557144 0.63900006
-0.037122861 0.039557144 0.63900006
-0.035905715 0.039557144 0.63900006
-0.034688573 0.039557144 0.63900006
-0.033523813 0.039619051 0.64000005
-0.032304764 0.039619051 0.64000005
-0.031085717 0.039619051 0.64000005
-0.029913336 0.039680954 0.64100003
-0.028692383 0.039680954 0.64100003
-0.027514288 0.039742861 0.64200002
-0.026373334 0.039866671 0.64400005
-0.025146669 0.039866671 0.64400005
-0.023920001 0.039866671 0.64400005
-0.022728574 0.039928574 0.64500004
-0.021500001 0.039928574 0.64500004
-0.02027143 0.039928574 0.64500004
-0.063565716 0.041348573 0.648
-0.062235244 0.041284766 0.64700001
-0.060814291 0.041157145 0.64500004
-0.059493337 0.041093335 0.64400005
-0.05826667 0.041093335 0.64400005
-0.057040002 0.041093335 0.64400005
-0.055813339 0.041093335 0.64400005
-0.054586671 0.041093335 0.64400005
-0.053360004 0.041093335 0.64400005
-0.052133337 0.041093335 0.64400005
-0.050748575 0.040965717 0.64200002
-0.049448576 0.040901907 0.64100003
-0.048227623 0.040901907 0.64100003
-0.046933338 0.040838096 0.64000005
-0.045714289 0.040838096 0.64000005
-0.04449524 0.040838096 0.64000005
-0.043208573 0.04077429 0.63900006
-0.041991431 0.04077429 0.63900006
-0.04077429 0.04077429 0.63900006
-0.039557144 0.04077429 0.63900006
-0.038340002 0.04077429 0.63900006
-0.037180956 0.040838096 0.64000005
-0.035961907 0.040838096 0.64000005
-0.034742858 0.040838096 0.64000005
-0.033523813 0.040838096 0.64000005
-0.032304764 0.040838096 0.64000005
-0.031134287 0.040901907 0.64100003
-0.029913336 0.040901907 0.64100003
-0.028737145 0.040965717 0.64200002
-0.027514288 0.040965717 0.64200002
-0.026373334 0.041093335 0.64400005
-0.025146669 0.041093335 0.64400005
-0.023957144 0.041157145 0.64500004
-0.022728574 0.041157145 0.64500004
-0.021500001 0.041157145 0.64500004
-0.063565716 0.042582858 0.648
-0.062235244 0.042517144 0.64700001
-0.060814291 0.042385716 0.64500004
-0.059493337 0.042320002 0.64400005
-0.058357146 0.042385716 0.64500004
-0.057040002 0.042320002 0.64400005
-0.055813339 0.042320002 0.64400005
-0.054586671 0.042320002 0.64400005
-0.053360004 0.042320002 0.64400005
-0.052133337 0.042320002 0.64400005
-0.050906669 0.042320002 0.64400005
-0.049448576 0.04212286 0.64100003
-0.048227623 0.04212286 0.64100003
-0.046933338 0.042057145 0.64000005
-0.045714289 0.042057145 0.64000005
-0.04449524 0.042057145 0.64000005
-0.043276194 0.042057145 0.64000005
-0.042057145 0.042057145 0.64000005
-0.040838096 0.042057145 0.64000005
-0.039619051 0.042057145 0.64000005
-0.038400002 0.042057145 0.64000005
-0.037180956 0.042057145 0.64000005
-0.035961907 0.042057145 0.64000005
-0.034797147 0.04212286 0.64100003
-0.033523813 0.042057145 0.64000005
-0.032355241 0.04212286 0.64100003
-0.031134287 0.04212286 0.64100003
-0.029960003 0.042188574 0.64200002
-0.028737145 0.042188574 0.64200002
-0.027600002 0.042320002 0.64400005
-0.026373334 0.042320002 0.64400005
-0.025185715 0.042385716 0.64500004
-0.023957144 0.042385716 0.64500004
-0.022728574 0.042385716 0.64500004
-0.021533335 0.04245143 0.64600003
-0.060814291 0.043614287 0.64500004
-0.059585717 0.043614287 0.64500004
-0.058357146 0.043614287 0.64500004
-0.057128575 0.043614287 0.64500004
-0.055813339 0.043546669 0.64400005
-0.054586671 0.043546669 0.64400005
-0.053360004 0.043546669 0.64400005
-0.052133337 0.043546669 0.64400005
-0.050906669 0.043546669 0.64400005
-0.049525719 0.04341143 0.64200002
-0.048227623 0.043343812 0.64100003
-0.046933338 0.043276194 0.64000005
-0.045714289 0.043276194 0.64000005
-0.04449524 0.043276194 0.64000005
-0.043276194 0.043276194 0.64000005
-0.042057145 0.043276194 0.64000005
-0.040838096 0.043276194 0.64000005
-0.039619051 0.043276194 0.64000005
-0.038400002 0.043276194 0.64000005
-0.037239049 0.043343812 0.64100003
-0.036018096 0.043343812 0.64100003
-0.034797147 0.043343812 0.64100003
-0.033576194 0.043343812 0.64100003
-0.032355241 0.043343812 0.64100003
-0.031182859 0.04341143 0.64200002
-0.029960003 0.04341143 0.64200002
-0.028826669 0.043546669 0.64400005
-0.027600002 0.043546669 0.64400005
-0.026414288 0.043614287 0.64500004
-0.025185715 0.043614287 0.64500004
-0.023957144 0.043614287 0.64500004
-0.022728574 0.043614287 0.64500004
-0.060814291 0.044842862 0.64500004
-0.059585717 0.044842862 0.64500004
-0.058357146 0.044842862 0.64500004
-0.057128575 0.044842862 0.64500004
-0.055813339 0.044773336 0.64400005
-0.054586671 0.044773336 0.64400005
-0.053360004 0.044773336 0.64400005
-0.052133337 0.044773336 0.64400005
-0.050906669 0.044773336 0.64400005
-0.049525719 0.04463429 0.64200002
-0.048227623 0.044564765 0.64100003
-0.04700667 0.044564765 0.64100003
-0.045785718 0.044564765 0.64100003
-0.04449524 0.04449524 0.64000005
-0.043276194 0.04449524 0.64000005
-0.042057145 0.04449524 0.64000005
-0.040838096 0.04449524 0.64000005
-0.039619051 0.04449524 0.64000005
-0.038460001 0.044564765 0.64100003
-0.037239049 0.044564765 0.64100003
-0.036018096 0.044564765 0.64100003
-0.034851432 0.04463429 0.64200002
-0.033628572 0.04463429 0.64200002
-0.032405715 0.04463429 0.64200002
-0.031182859 0.04463429 0.64200002
-0.030053336 0.044773336 0.64400005
-0.028826669 0.044773336 0.64400005
-0.027642859 0.044842862 0.64500004
-0.026414288 0.044842862 0.64500004
-0.025185715 0.044842862 0.64500004
-0.023994287 0.044912383 0.64600003
-0.022763811 0.044912383 0.64600003
-0.021566669 0.044981908 0.64700001
-0.05977048 0.04621429 0.64700001
-0.058538098 0.04621429 0.64700001
-0.057217147 0.046142861 0.64600003
-0.055900004 0.046071433 0.64500004
-0.054671433 0.046071433 0.64500004
-0.053442862 0.046071433 0.64500004
-0.052214291 0.046071433 0.64500004
-0.050985716 0.046071433 0.64500004
-0.049680002 0.046000004 0.64400005
-0.048453335 0.046000004 0.64400005
-0.047226671 0.046000004 0.64400005
-0.045857146 0.045857146 0.64200002
-0.04463429 0.045857146 0.64200002
-0.043343812 0.045785718 0.64100003
-0.04212286 0.045785718 0.64100003
-0.040901907 0.045785718 0.64100003
-0.039680954 0.045785718 0.64100003
-0.038460001 0.045785718 0.64100003
-0.037239049 0.045785718 0.64100003
-0.036074288 0.045857146 0.64200002
-0.034960002 0.046000004 0.64400005
-0.033628572 0.045857146 0.64200002
-0.032506667 0.046000004 0.64400005
-0.031280003 0.046000004 0.64400005
-0.030053336 0.046000004 0.64400005
-0.02887143 0.046071433 0.64500004
-0.027642859 0.046071433 0.64500004
-0.026414288 0.046071433 0.64500004
-0.025224764 0.046142861 0.64600003
-0.024068573 0.046285719 0.648
-0.022834288 0.046285719 0.648
-0.021600001 0.046285719 0.648
-0.020428572 0.046428576 0.65000004
-0.05986286 0.047520004 0.648
-0.058628574 0.047520004 0.648
-0.057217147 0.047373336 0.64600003
-0.055986669 0.047373336 0.64600003
-0.054671433 0.047300003 0.64500004
-0.053442862 0.047300003 0.64500004
-0.052214291 0.047300003 0.64500004
-0.050985716 0.047300003 0.64500004
-0.049757145 0.047300003 0.64500004
-0.048528574 0.047300003 0.64500004
-0.047226671 0.047226671 0.64400005
-0.046000004 0.047226671 0.64400005
-0.044773336 0.047226671 0.64400005
-0.04341143 0.047080003 0.64200002
-0.042188574 0.047080003 0.64200002
-0.040965717 0.047080003 0.64200002
-0.039742861 0.047080003 0.64200002
-0.038520001 0.047080003 0.64200002
-0.037297145 0.047080003 0.64200002
-0.036186669 0.047226671 0.64400005
-0.034960002 0.047226671 0.64400005
-0.033733334 0.047226671 0.64400005
-0.032506667 0.047226671 0.64400005
-0.031280003 0.047226671 0.64400005
-0.030100003 0.047300003 0.64500004
-0.02887143 0.047300003 0.64500004
-0.027642859 0.047300003 0.64500004
-0.02645524 0.047373336 0.64600003
-0.025302859 0.047520004 0.648
-0.02414286 0.047666669 0.65000004
-0.022940002 0.047740005 0.65100002
-0.021666668 0.047666669 0.65000004
-0.060047623 0.048904765 0.65000004
-0.058628574 0.04875429 0.648
-0.05730572 0.04867905 0.64700001
-0.055986669 0.048603814 0.64600003
-0.054671433 0.048528574 0.64500004
-0.053442862 0.048528574 0.64500004
-0.052214291 0.048528574 0.64500004
-0.050985716 0.048528574 0.64500004
-0.049757145 0.048528574 0.64500004
-0.048453335 0.048453335 0.64400005
-0.047300003 0.048528574 0.64500004
-0.046071433 0.048528574 0.64500004
-0.044773336 0.048453335 0.64400005
-0.043546669 0.048453335 0.64400005
-0.042320002 0.048453335 0.64400005
-0.041093335 0.048453335 0.64400005
-0.039866671 0.048453335 0.64400005
-0.038640004 0.048453335 0.64400005
-0.037413336 0.048453335 0.64400005
-0.036186669 0.048453335 0.64400005
-0.035014287 0.048528574 0.64500004
-0.033785716 0.048528574 0.64500004
-0.032557145 0.048528574 0.64500004
-0.031328574 0.048528574 0.64500004
-0.030100003 0.048528574 0.64500004
-0.028916193 0.048603814 0.64600003
-0.027685717 0.048603814 0.64600003
-0.026537145 0.04875429 0.648
-0.025420001 0.048980001 0.65100002
-0.024217144 0.049055241 0.65200001
-0.023010477 0.049130481 0.65300006
-0.021700002 0.048980001 0.65100002
-0.020522859 0.049130481 0.65300006
-0.01927905 0.049130481 0.65300006
-0.06147429 0.050297145 0.65200001
-0.060047623 0.050142862 0.65000004
-0.058628574 0.049988575 0.648
-0.05730572 0.049911432 0.64700001
-0.056073338 0.049911432 0.64700001
-0.054756194 0.049834289 0.64600003
-0.053442862 0.049757145 0.64500004
-0.052214291 0.049757145 0.64500004
-0.050985716 0.049757145 0.64500004
-0.049757145 0.049757145 0.64500004
-0.048453335 0.049680002 0.64400005
-0.047300003 0.049757145 0.64500004
-0.046071433 0.049757145 0.64500004
-0.044842862 0.049757145 0.64500004
-0.043614287 0.049757145 0.64500004
-0.042385716 0.049757145 0.64500004
-0.041157145 0.049757145 0.64500004
-0.039928574 0.049757145 0.64500004
-0.038700003 0.049757145 0.64500004
-0.037471432 0.049757145 0.64500004
-0.036242861 0.049757145 0.64500004
-0.035014287 0.049757145 0.64500004
-0.033785716 0.049757145 0.64500004
-0.032557145 0.049757145 0.64500004
-0.031328574 0.049757145 0.64500004
-0.030100003 0.049757145 0.64500004
-0.028916193 0.049834289 0.64600003
-0.027685717 0.049834289 0.64600003
-0.026619049 0.050142862 0.65000004
-0.025459049 0.050297145 0.65200001
-0.024254287 0.050374288 0.65300006
-0.023010477 0.050374288 0.65300006
-0.021733334 0.050297145 0.65200001
-0.01927905 0.050374288 0.65300006
-0.063004769 0.051776193 0.65500003
-0.061568577 0.051618099 0.65300006
-0.060232386 0.051539052 0.65200001
-0.058809526 0.051380955 0.65000004
-0.057394288 0.051222861 0.648
-0.056073338 0.051143814 0.64700001
-0.054756194 0.051064767 0.64600003
-0.053442862 0.050985716 0.64500004
-0.052214291 0.050985716 0.64500004
-0.050985716 0.050985716 0.64500004
-0.049757145 0.050985716 0.64500004
-0.048528574 0.050985716 0.64500004
-0.047300003 0.050985716 0.64500004
-0.046071433 0.050985716 0.64500004
-0.044842862 0.050985716 0.64500004
-0.043614287 0.050985716 0.64500004
-0.042385716 0.050985716 0.64500004
-0.041157145 0.050985716 0.64500004
-0.039928574 0.050985716 0.64500004
-0.038700003 0.050985716 0.64500004
-0.037471432 0.050985716 0.64500004
-0.036242861 0.050985716 0.64500004
-0.035068575 0.051064767 0.64600003
-0.033785716 0.050985716 0.64500004
-0.032557145 0.050985716 0.64500004
-0.031328574 0.050985716 0.64500004
-0.030100003 0.050985716 0.64500004
-0.028916193 0.051064767 0.64600003
-0.027685717 0.051064767 0.64600003
-0.026741907 0.051618099 0.65300006
-0.025498098 0.051618099 0.65300006
-0.024328573 0.051776193 0.65500003
-0.023080954 0.051776193 0.65500003
-0.021766668 0.051618099 0.65300006
-0.01927905 0.051618099 0.65300006
-0.063004769 0.053023811 0.65500003
-0.061757147 0.053023811 0.65500003
-0.060324766 0.052861907 0.65300006
-0.058900002 0.052700002 0.65100002
-0.057571433 0.052619051 0.65000004
-0.056160003 0.052457146 0.648
-0.054840956 0.052376192 0.64700001
-0.053525716 0.052295242 0.64600003
-0.052214291 0.052214291 0.64500004
-0.050985716 0.052214291 0.64500004
-0.049757145 0.052214291 0.64500004
-0.048528574 0.052214291 0.64500004
-0.047300003 0.052214291 0.64500004
-0.046142861 0.052295242 0.64600003
-0.044842862 0.052214291 0.64500004
-0.043614287 0.052214291 0.64500004
-0.042385716 0.052214291 0.64500004
-0.041220956 0.052295242 0.64600003
-0.039928574 0.052214291 0.64500004
-0.038700003 0.052214291 0.64500004
-0.037471432 0.052214291 0.64500004
-0.036242861 0.052214291 0.64500004
-0.035068575 0.052295242 0.64600003
-0.033838097 0.052295242 0.64600003
-0.032607622 0.052295242 0.64600003
-0.031425714 0.052376192 0.64700001
-0.030240001 0.052457146 0.648
-0.02909524 0.052619051 0.65000004
-0.027900001 0.052700002 0.65100002
-0.026741907 0.052861907 0.65300006
-0.025498098 0.052861907 0.65300006
-0.024328573 0.053023811 0.65500003
-0.023080954 0.053023811 0.65500003
-0.063004769 0.054271434 0.65500003
-0.061757147 0.054271434 0.65500003
-0.060324766 0.054105718 0.65300006
-0.058990479 0.05402286 0.65200001
-0.057571433 0.053857148 0.65000004
-0.056160003 0.053691432 0.648
-0.054925717 0.053691432 0.648
-0.053608574 0.053608574 0.64700001
-0.052295242 0.053525716 0.64600003
-0.051064767 0.053525716 0.64600003
-0.049834289 0.053525716 0.64600003
-0.048603814 0.053525716 0.64600003
-0.047373336 0.053525716 0.64600003
-0.046142861 0.053525716 0.64600003
-0.044912383 0.053525716 0.64600003
-0.043681908 0.053525716 0.64600003
-0.04245143 0.053525716 0.64600003
-0.041220956 0.053525716 0.64600003
-0.039990477 0.053525716 0.64600003
-0.038760003 0.053525716 0.64600003
-0.037471432 0.053442862 0.64500004
-0.03629905 0.053525716 0.64600003
-0.03512286 0.053608574 0.64700001
-0.033890478 0.053608574 0.64700001
-0.032607622 0.053525716 0.64600003
-0.031474289 0.053691432 0.648
-0.030333335 0.053857148 0.65000004
-0.029140001 0.053940002 0.65100002
-0.027900001 0.053940002 0.65100002
-0.026741907 0.054105718 0.65300006
-0.025498098 0.054105718 0.65300006
-0.023116192 0.054354288 0.65600002
-0.063100956 0.055603813 0.65600002
-0.061757147 0.055519052 0.65500003
-0.060324766 0.055349529 0.65300006
-0.058990479 0.055264767 0.65200001
-0.057660002 0.055180002 0.65100002
-0.056333337 0.05509524 0.65000004
-0.054925717 0.054925717 0.648
-0.053691432 0.054925717 0.648
-0.052376192 0.054840956 0.64700001
-0.051143814 0.054840956 0.64700001
-0.049911432 0.054840956 0.64700001
-0.048603814 0.054756194 0.64600003
-0.047373336 0.054756194 0.64600003
-0.046142861 0.054756194 0.64600003
-0.044912383 0.054756194 0.64600003
-0.043681908 0.054756194 0.64600003
-0.04245143 0.054756194 0.64600003
-0.041284766 0.054840956 0.64700001
-0.040052384 0.054840956 0.64700001
-0.038760003 0.054756194 0.64600003
-0.037529524 0.054756194 0.64600003
-0.036355242 0.054840956 0.64700001
-0.035177145 0.054925717 0.648
-0.03394286 0.054925717 0.648
-0.032708574 0.054925717 0.648
-0.031571429 0.05509524 0.65000004
-0.030380001 0.055180002 0.65100002
-0.029140001 0.055180002 0.65100002
-0.027942859 0.055264767 0.65200001
-0.026823811 0.055519052 0.65500003
-0.025576193 0.055519052 0.65500003
-0.023116192 0.055603813 0.65600002
-0.063100956 0.056853335 0.65600002
-0.061757147 0.05676667 0.65500003
-0.060324766 0.056593336 0.65300006
-0.058990479 0.056506671 0.65200001
-0.057660002 0.056420002 0.65100002
-0.056333337 0.056333337 0.65000004
-0.054925717 0.056160003 0.648
-0.053691432 0.056160003 0.648
-0.052376192 0.056073338 0.64700001
-0.051143814 0.056073338 0.64700001
-0.049911432 0.056073338 0.64700001
-0.04867905 0.056073338 0.64700001
-0.047373336 0.055986669 0.64600003
-0.046142861 0.055986669 0.64600003
-0.044912383 0.055986669 0.64600003
-0.043749526 0.056073338 0.64700001
-0.042517144 0.056073338 0.64700001
-0.041284766 0.056073338 0.64700001
-0.040052384 0.056073338 0.64700001
-0.038760003 0.055986669 0.64600003
-0.037529524 0.055986669 0.64600003
-0.036355242 0.056073338 0.64700001
-0.035177145 0.056160003 0.648
-0.034047622 0.056333337 0.65000004
-0.032708574 0.056160003 0.648
-0.031571429 0.056333337 0.65000004
-0.030380001 0.056420002 0.65100002
-0.029184764 0.056506671 0.65200001
-0.027985716 0.056593336 0.65300006
-0.026823811 0.05676667 0.65500003
-0.025576193 0.05676667 0.65500003
-0.023151429 0.056940004 0.65700001
-0.025048573 0.069073334 0.79700005
-0.063004769 0.058014289 0.65500003
-0.061757147 0.058014289 0.65500003
-0.060509529 0.058014289 0.65500003
-0.058990479 0.057748575 0.65200001
-0.057748575 0.057748575 0.65200001
-0.056333337 0.057571433 0.65000004
-0.05509524 0.057571433 0.65000004
-0.053691432 0.057394288 0.648
-0.052457146 0.057394288 0.648
-0.051222861 0.057394288 0.648
-0.049911432 0.05730572 0.64700001
-0.04867905 0.05730572 0.64700001
-0.047446668 0.05730572 0.64700001
-0.04621429 0.05730572 0.64700001
-0.044912383 0.057217147 0.64600003
-0.043749526 0.05730572 0.64700001
-0.042517144 0.05730572 0.64700001
-0.041284766 0.05730572 0.64700001
-0.040052384 0.05730572 0.64700001
-0.038820002 0.05730572 0.64700001
-0.03758762 0.05730572 0.64700001
-0.036355242 0.05730572 0.64700001
-0.035177145 0.057394288 0.648
-0.034047622 0.057571433 0.65000004
-0.032708574 0.057394288 0.648
-0.031571429 0.057571433 0.65000004
-0.030333335 0.057571433 0.65000004
-0.029140001 0.057660002 0.65100002
-0.027942859 0.057748575 0.65200001
-0.026823811 0.058014289 0.65500003
-0.025576193 0.058014289 0.65500003
-0.024328573 0.058014289 0.65500003
-0.023116192 0.058102861 0.65600002
-0.060509529 0.059261907 0.65500003
-0.059261907 0.059261907 0.65500003
-0.057837147 0.059080955 0.65300006
-0.056506671 0.058990479 0.65200001
-0.055180002 0.058900002 0.65100002
-0.053857148 0.058809526 0.65000004
-0.052619051 0.058809526 0.65000004
-0.051380955 0.058809526 0.65000004
-0.049988575 0.058628574 0.648
-0.04875429 0.058628574 0.648
-0.047520004 0.058628574 0.648
-0.046285719 0.058628574 0.648
-0.045051433 0.058628574 0.648
-0.043817144 0.058628574 0.648
-0.042582858 0.058628574 0.648
-0.041348573 0.058628574 0.648
-0.040114287 0.058628574 0.648
-0.038880002 0.058628574 0.648
-0.037645716 0.058628574 0.648
-0.036411431 0.058628574 0.648
-0.035285715 0.058809526 0.65000004
-0.034047622 0.058809526 0.65000004
-0.032809526 0.058809526 0.65000004
-0.031620003 0.058900002 0.65100002
-0.030426668 0.058990479 0.65200001
-0.029184764 0.058990479 0.65200001
-0.027985716 0.059080955 0.65300006
-0.026823811 0.059261907 0.65500003
-0.025576193 0.059261907 0.65500003
-0.024328573 0.059261907 0.65500003
-0.059261907 0.060509529 0.65500003
-0.057837147 0.060324766 0.65300006
-0.056506671 0.060232386 0.65200001
-0.055180002 0.060140003 0.65100002
-0.053940002 0.060140003 0.65100002
-0.052619051 0.060047623 0.65000004
-0.051380955 0.060047623 0.65000004
-0.050142862 0.060047623 0.65000004
-0.048904765 0.060047623 0.65000004
-0.047520004 0.05986286 0.648
-0.046285719 0.05986286 0.648
-0.045051433 0.05986286 0.648
-0.043817144 0.05986286 0.648
-0.042582858 0.05986286 0.648
-0.041348573 0.05986286 0.648
-0.040238097 0.060047623 0.65000004
-0.039000001 0.060047623 0.65000004
-0.037761908 0.060047623 0.65000004
-0.036523812 0.060047623 0.65000004
-0.035285715 0.060047623 0.65000004
-0.034100004 0.060140003 0.65100002
-0.032860003 0.060140003 0.65100002
-0.031668574 0.060232386 0.65200001
-0.030426668 0.060232386 0.65200001
-0.029184764 0.060232386 0.65200001
-0.027985716 0.060324766 0.65300006
-0.026823811 0.060509529 0.65500003
-0.025576193 0.060509529 0.65500003
-0.024365716 0.060601909 0.65600002
-0.059261907 0.061757147 0.65500003
-0.057837147 0.061568577 0.65300006
-0.056593336 0.061568577 0.65300006
-0.055264767 0.06147429 0.65200001
-0.053940002 0.061380003 0.65100002
-0.052700002 0.061380003 0.65100002
-0.051460002 0.061380003 0.65100002
-0.050142862 0.061285719 0.65000004
-0.048904765 0.061285719 0.65000004
-0.047666669 0.061285719 0.65000004
-0.046428576 0.061285719 0.65000004
-0.04519048 0.061285719 0.65000004
-0.043952383 0.061285719 0.65000004
-0.04271429 0.061285719 0.65000004
-0.041476194 0.061285719 0.65000004
-0.040238097 0.061285719 0.65000004
-0.039000001 0.061285719 0.65000004
-0.037761908 0.061285719 0.65000004
-0.036580004 0.061380003 0.65100002
-0.035340004 0.061380003 0.65100002
-0.034100004 0.061380003 0.65100002
-0.032860003 0.061380003 0.65100002
-0.031668574 0.06147429 0.65200001
-0.030426668 0.06147429 0.65200001
-0.029229525 0.061568577 0.65300006
-0.027985716 0.061568577 0.65300006
-0.026823811 0.061757147 0.65500003
-0.025576193 0.061757147 0.65500003
-0.024365716 0.061851434 0.65600002
-0.062040005 0.063293338 0.65800005
-0.060786672 0.063293338 0.65800005
-0.059442863 0.063197143 0.65700001
-0.058014289 0.063004769 0.65500003
-0.05676667 0.063004769 0.65500003
-0.055349529 0.062812388 0.65300006
-0.054105718 0.062812388 0.65300006
-0.052780956 0.062716193 0.65200001
-0.051539052 0.062716193 0.65200001
-0.050220001 0.062620007 0.65100002
-0.048904765 0.062523812 0.65000004
-0.047666669 0.062523812 0.65000004
-0.046428576 0.062523812 0.65000004
-0.04519048 0.062523812 0.65000004
-0.043952383 0.062523812 0.65000004
-0.04271429 0.062523812 0.65000004
-0.041476194 0.062523812 0.65000004
-0.040238097 0.062523812 0.65000004
-0.039000001 0.062523812 0.65000004
-0.037820004 0.062620007 0.65100002
-0.036580004 0.062620007 0.65100002
-0.035340004 0.062620007 0.65100002
-0.034100004 0.062620007 0.65100002
-0.032910477 0.062716193 0.65200001
-0.031668574 0.062716193 0.65200001
-0.030426668 0.062716193 0.65200001
-0.029229525 0.062812388 0.65300006
-0.02807143 0.063004769 0.65500003
-0.026823811 0.063004769 0.65500003
-0.02561524 0.063100956 0.65600002
-0.024365716 0.063100956 0.65600002
-0.063485719 0.064742863 0.66000003
-0.062228575 0.064742863 0.66000003
-0.060971431 0.064742863 0.66000003
-0.059533339 0.064546674 0.65800005
-0.058191434 0.064448573 0.65700001
-0.05676667 0.064252384 0.65500003
-0.055519052 0.064252384 0.65500003
-0.054105718 0.064056195 0.65300006
-0.052861907 0.064056195 0.65300006
-0.051618099 0.064056195 0.65300006
-0.050297145 0.063958101 0.65200001
-0.048980001 0.063860007 0.65100002
-0.047740005 0.063860007 0.65100002
-0.046500005 0.063860007 0.65100002
-0.045260005 0.063860007 0.65100002
-0.044020005 0.063860007 0.65100002
-0.042780004 0.063860007 0.65100002
-0.041476194 0.063761912 0.65000004
-0.040300004 0.063860007 0.65100002
-0.039060004 0.063860007 0.65100002
-0.037820004 0.063860007 0.65100002
-0.036636192 0.063958101 0.65200001
-0.035394289 0.063958101 0.65200001
-0.034152385 0.063958101 0.65200001
-0.032910477 0.063958101 0.65200001
-0.031717144 0.064056195 0.65300006
-0.030473335 0.064056195 0.65300006
-0.029229525 0.064056195 0.65300006
-0.02807143 0.064252384 0.65500003
-0.026823811 0.064252384 0.65500003
-0.02561524 0.064350478 0.65600002
-0.024402859 0.064448573 0.65700001
-0.063485719 0.066000007 0.66000003
-0.062228575 0.066000007 0.66000003
-0.060971431 0.066000007 0.66000003
-0.059533339 0.065800004 0.65800005
-0.058191434 0.065700002 0.65700001
-0.056853335 0.065600008 0.65600002
-0.055519052 0.065500006 0.65500003
-0.054271434 0.065500006 0.65500003
-0.052861907 0.065300003 0.65300006
-0.051618099 0.065300003 0.65300006
-0.050297145 0.065200001 0.65200001
-0.049055241 0.065200001 0.65200001
-0.047740005 0.065100007 0.65100002
-0.046500005 0.065100007 0.65100002
-0.045260005 0.065100007 0.65100002
-0.044020005 0.065100007 0.65100002
-0.042780004 0.065100007 0.65100002
-0.041540004 0.065100007 0.65100002
-0.040300004 0.065100007 0.65100002
-0.039060004 0.065100007 0.65100002
-0.037820004 0.065100007 0.65100002
-0.036636192 0.065200001 0.65200001
-0.035394289 0.065200001 0.65200001
-0.034152385 0.065200001 0.65200001
-0.032910477 0.065200001 0.65200001
-0.031717144 0.065300003 0.65300006
-0.030473335 0.065300003 0.65300006
-0.029229525 0.065300003 0.65300006
-0.02807143 0.065500006 0.65500003
-0.026864763 0.065600008 0.65600002
-0.025654288 0.065700002 0.65700001
-0.024402859 0.065700002 0.65700001
-0.065037146 0.067562863 0.66300005
-0.063678101 0.067460954 0.66200006
-0.062322862 0.067359053 0.66100001
-0.060971431 0.067257144 0.66000003
-0.059714291 0.067257144 0.66000003
-0.058280002 0.06705334 0.65800005
-0.056853335 0.06684953 0.65600002
-0.055603813 0.06684953 0.65600002
-0.054271434 0.066747621 0.65500003
-0.053023811 0.066747621 0.65500003
-0.051618099 0.066543818 0.65300006
-0.050374288 0.066543818 0.65300006
-0.049055241 0.066441908 0.65200001
-0.047813337 0.066441908 0.65200001
-0.04657143 0.066441908 0.65200001
-0.045329526 0.066441908 0.65200001
-0.044087622 0.066441908 0.65200001
-0.042780004 0.066340007 0.65100002
-0.041540004 0.066340007 0.65100002
-0.040300004 0.066340007 0.65100002
-0.039060004 0.066340007 0.65100002
-0.037878096 0.066441908 0.65200001
-0.036636192 0.066441908 0.65200001
-0.035394289 0.066441908 0.65200001
-0.034152385 0.066441908 0.65200001
-0.032960955 0.066543818 0.65300006
-0.031717144 0.066543818 0.65300006
-0.030566668 0.066747621 0.65500003
-0.02931905 0.066747621 0.65500003
-0.028114287 0.06684953 0.65600002
-0.026864763 0.06684953 0.65600002
-0.025654288 0.066951431 0.65700001
-0.064939052 0.068721913 0.66200006
-0.063678101 0.068721913 0.66200006
-0.062322862 0.068618096 0.66100001
-0.061063815 0.068618096 0.66100001
-0.059714291 0.068514287 0.66000003
-0.058457147 0.068514287 0.66000003
-0.056940004 0.068202861 0.65700001
-0.055603813 0.068099052 0.65600002
-0.054271434 0.067995243 0.65500003
-0.053023811 0.067995243 0.65500003
-0.051776193 0.067995243 0.65500003
-0.050374288 0.067787625 0.65300006
-0.049130481 0.067787625 0.65300006
-0.047813337 0.067683816 0.65200001
-0.04657143 0.067683816 0.65200001
-0.045329526 0.067683816 0.65200001
-0.044087622 0.067683816 0.65200001
-0.042845719 0.067683816 0.65200001
-0.041603811 0.067683816 0.65200001
-0.040361907 0.067683816 0.65200001
-0.039120004 0.067683816 0.65200001
-0.037936192 0.067787625 0.65300006
-0.036692385 0.067787625 0.65300006
-0.035448574 0.067787625 0.65300006
-0.034204762 0.067787625 0.65300006
-0.032960955 0.067787625 0.65300006
-0.031814288 0.067995243 0.65500003
-0.030613335 0.068099052 0.65600002
-0.029363811 0.068099052 0.65600002
-0.028114287 0.068099052 0.65600002
-0.026905715 0.068202861 0.65700001
-0.025654288 0.068202861 0.65700001
-0.065037146 0.070088573 0.66300005
-0.063678101 0.069982864 0.66200006
-0.062417146 0.069982864 0.66200006
-0.061063815 0.069877148 0.66100001
-0.059804767 0.069877148 0.66100001
-0.058457147 0.069771431 0.66000003
-0.056940004 0.06945429 0.65700001
-0.055688575 0.06945429 0.65700001
-0.054354288 0.069348574 0.65600002
-0.053023811 0.069242865 0.65500003
-0.051776193 0.069242865 0.65500003
-0.050374288 0.069031432 0.65300006
-0.049130481 0.069031432 0.65300006
-0.04788667 0.069031432 0.65300006
-0.046642859 0.069031432 0.65300006
-0.045329526 0.068925716 0.65200001
-0.044087622 0.068925716 0.65200001
-0.042845719 0.068925716 0.65200001
-0.041603811 0.068925716 0.65200001
-0.04042381 0.069031432 0.65300006
-0.039120004 0.068925716 0.65200001
-0.037936192 0.069031432 0.65300006
-0.036692385 0.069031432 0.65300006
-0.035448574 0.069031432 0.65300006
-0.034309525 0.069242865 0.65500003
-0.033061907 0.069242865 0.65500003
-0.031814288 0.069242865 0.65500003
-0.030613335 0.069348574 0.65600002
-0.029363811 0.069348574 0.65600002
-0.028114287 0.069348574 0.65600002
-0.026905715 0.06945429 0.65700001
-0.025654288 0.06945429 0.65700001
-0.065037146 0.071351431 0.66300005
-0.063774288 0.071351431 0.66300005
-0.062417146 0.071243815 0.66200006
-0.061063815 0.071136191 0.66100001
-0.059804767 0.071136191 0.66100001
-0.058457147 0.071028575 0.66000003
-0.057026669 0.070813335 0.65800005
-0.055688575 0.070705719 0.65700001
-0.054354288 0.070598103 0.65600002
-0.053104766 0.070598103 0.65600002
-0.051776193 0.070490479 0.65500003
-0.050374288 0.07027524 0.65300006
-0.049130481 0.07027524 0.65300006
-0.04788667 0.07027524 0.65300006
-0.046642859 0.07027524 0.65300006
-0.045399051 0.07027524 0.65300006
-0.044087622 0.070167623 0.65200001
-0.042845719 0.070167623 0.65200001
-0.041667622 0.07027524 0.65300006
-0.04042381 0.07027524 0.65300006
-0.039180003 0.07027524 0.65300006
-0.037936192 0.07027524 0.65300006
-0.036804765 0.070490479 0.65500003
-0.035557143 0.070490479 0.65500003
-0.034309525 0.070490479 0.65500003
-0.033061907 0.070490479 0.65500003
-0.031814288 0.070490479 0.65500003
-0.030660002 0.070705719 0.65700001
-0.029363811 0.070598103 0.65600002
-0.028157145 0.070705719 0.65700001
-0.026905715 0.070705719 0.65700001
-0.025693335 0.070813335 0.65800005
-0.024514288 0.071028575 0.66000003
-0.023257144 0.071028575 0.66000003
-0.063966669 0.072833337 0.66500002
-0.062511429 0.07261429 0.66300005
-0.061156195 0.072504766 0.66200006
-0.059804767 0.072395243 0.66100001
-0.05854572 0.072395243 0.66100001
-0.057026669 0.072066672 0.65800005
-0.055773336 0.072066672 0.65800005
-0.054437146 0.071957149 0.65700001
-0.053104766 0.071847625 0.65600002
-0.051776193 0.071738102 0.65500003
-0.050528575 0.071738102 0.65500003
-0.049280956 0.071738102 0.65500003
-0.048033338 0.071738102 0.65500003
-0.046785716 0.071738102 0.65500003
-0.045399051 0.071519054 0.65300006
-0.04415524 0.071519054 0.65300006
-0.042911433 0.071519054 0.65300006
-0.041795243 0.071738102 0.65500003
-0.040547621 0.071738102 0.65500003
-0.039300002 0.071738102 0.65500003
-0.038052384 0.071738102 0.65500003
-0.036860954 0.071847625 0.65600002
-0.035611432 0.071847625 0.65600002
-0.034361906 0.071847625 0.65600002
-0.033162858 0.071957149 0.65700001
-0.031911429 0.071957149 0.65700001
-0.030660002 0.071957149 0.65700001
-0.029453335 0.072066672 0.65800005
-0.028200002 0.072066672 0.65800005
-0.027028574 0.072285719 0.66000003
-0.025810478 0.072395243 0.66100001
-0.024588574 0.072504766 0.66200006
-0.023292383 0.072395243 0.66100001
-0.022033336 0.072395243 0.66100001
-0.064159051 0.074322864 0.66700006
-0.062511429 0.073877148 0.66300005
-0.061248574 0.073877148 0.66300005
-0.059895243 0.073765717 0.66200006
-0.058634289 0.073765717 0.66200006
-0.057286669 0.073654294 0.66100001
-0.055773336 0.073320001 0.65800005
-0.054437146 0.073208578 0.65700001
-0.053185716 0.073208578 0.65700001
-0.05185524 0.073097147 0.65600002
-0.050528575 0.072985716 0.65500003
-0.049280956 0.072985716 0.65500003
-0.048033338 0.072985716 0.65500003
-0.046785716 0.072985716 0.65500003
-0.045538098 0.072985716 0.65500003
-0.044290479 0.072985716 0.65500003
-0.042911433 0.072762862 0.65300006
-0.041795243 0.072985716 0.65500003
-0.040547621 0.072985716 0.65500003
-0.039300002 0.072985716 0.65500003
-0.03811048 0.073097147 0.65600002
-0.036917146 0.073208578 0.65700001
-0.035665717 0.073208578 0.65700001
-0.034414288 0.073208578 0.65700001
-0.033213336 0.073320001 0.65800005
-0.031960003 0.073320001 0.65800005
-0.030706668 0.073320001 0.65800005
-0.029453335 0.073320001 0.65800005
-0.028285716 0.073542863 0.66000003
-0.027028574 0.073542863 0.66000003
-0.025810478 0.073654294 0.66100001
-0.024625717 0.073877148 0.66300005
-0.023327621 0.073765717 0.66200006
-0.022066668 0.073765717 0.66200006
-0.073073335 0.076953337 0.67900002
-0.064351432 0.075820006 0.66900003
-0.062888578 0.075593337 0.66700006
-0.061433338 0.075366668 0.66500002
-0.05998572 0.075140007 0.66300005
-0.058634289 0.075026669 0.66200006
-0.057286669 0.074913338 0.66100001
-0.05594286 0.074800007 0.66000003
-0.054520003 0.074573338 0.65800005
-0.053185716 0.074460007 0.65700001
-0.05185524 0.074346669 0.65600002
-0.050605718 0.074346669 0.65600002
-0.049356192 0.074346669 0.65600002
-0.04810667 0.074346669 0.65600002
-0.046857145 0.074346669 0.65600002
-0.045538098 0.074233338 0.65500003
-0.044290479 0.074233338 0.65500003
-0.043042861 0.074233338 0.65500003
-0.041859049 0.074346669 0.65600002
-0.040609527 0.074346669 0.65600002
-0.039360002 0.074346669 0.65600002
-0.038168576 0.074460007 0.65700001
-0.036917146 0.074460007 0.65700001
-0.035665717 0.074460007 0.65700001
-0.034466669 0.074573338 0.65800005
-0.033213336 0.074573338 0.65800005
-0.031960003 0.074573338 0.65800005
-0.030706668 0.074573338 0.65800005
-0.02954286 0.074800007 0.66000003
-0.028285716 0.074800007 0.66000003
-0.027069526 0.074913338 0.66100001
-0.025849525 0.075026669 0.66200006
-0.024625717 0.075140007 0.66300005
-0.023327621 0.075026669 0.66200006
-0.022066668 0.075026669 0.66200006
-0.073073335 0.078246675 0.67900002
-0.064447626 0.077209532 0.67000002
-0.063077144 0.077094294 0.66900003
-0.061525717 0.07674858 0.66600001
-0.05998572 0.076402865 0.66300005
-0.058722861 0.076402865 0.66300005
-0.057286669 0.076172389 0.66100001
-0.05594286 0.076057151 0.66000003
-0.054520003 0.075826675 0.65800005
-0.053266671 0.075826675 0.65800005
-0.051934291 0.075711437 0.65700001
-0.050605718 0.075596198 0.65600002
-0.049431432 0.075711437 0.65700001
-0.048180003 0.075711437 0.65700001
-0.046857145 0.075596198 0.65600002
-0.045607623 0.075596198 0.65600002
-0.044425718 0.075711437 0.65700001
-0.043174289 0.075711437 0.65700001
