# .PCD v0.7 - Point Cloud Data file format
VERSION 0.7
FIELDS x y z
SIZE 4 4 4
TYPE F F F
COUNT 1 1 1
WIDTH 1346
HEIGHT 1
VIEWPOINT 0 0 0 1 0 0 0
POINTS 1346
DATA ascii
0.0048733335 0.081454292 0.73100001
0.0062657148 0.081454292 0.73100001
0.0076371431 0.081231438 0.72900003
0.0090257153 0.081231438 0.72900003
0.010414287 0.081231438 0.72900003
-0.067429528 0.079446673 0.70100003
-0.066094287 0.079446673 0.70100003
-0.064759053 0.079446673 0.70100003
-0.063423812 0.079446673 0.70100003
-0.062088575 0.079446673 0.70100003
-0.060753338 0.079446673 0.70100003
-0.059418101 0.079446673 0.70100003
-0.058248576 0.079673335 0.70300001
-0.056909528 0.079673335 0.70300001
-0.055412386 0.079446673 0.70100003
-0.054077145 0.079446673 0.70100003
-0.052741908 0.079446673 0.70100003
-0.051333338 0.079333335 0.70000005
-0.050000004 0.079333335 0.70000005
-0.048666671 0.079333335 0.70000005
-0.047333337 0.079333335 0.70000005
-0.045868576 0.079106674 0.69800001
-0.044539049 0.079106674 0.69800001
-0.04401429 0.080580004 0.71100003
-0.042660002 0.080580004 0.71100003
-0.041305717 0.080580004 0.71100003
-0.039951432 0.080580004 0.71100003
-0.038542859 0.080466673 0.71000004
-0.037190478 0.080466673 0.71000004
-0.035838097 0.080466673 0.71000004
-0.034388572 0.080240004 0.708
-0.033040002 0.080240004 0.708
-0.031691432 0.080240004 0.708
-0.030428573 0.080466673 0.71000004
-0.029076193 0.080466673 0.71000004
-0.027723812 0.080466673 0.71000004
-0.026408574 0.080580004 0.71100003
-0.025054287 0.080580004 0.71100003
-0.023766669 0.080806673 0.71300006
-0.022502858 0.081146672 0.71600002
-0.02113905 0.081146672 0.71600002
-0.019802859 0.081260003 0.71700001
-0.018437143 0.081260003 0.71700001
-0.01707143 0.081260003 0.71700001
-0.015705716 0.081260003 0.71700001
-0.014340001 0.081260003 0.71700001
-0.012974286 0.081260003 0.71700001
-0.011608572 0.081260003 0.71700001
-0.010271429 0.081486672 0.71900004
-0.0089019053 0.081486672 0.71900004
-0.0075323815 0.081486672 0.71900004
-0.0061714291 0.081600003 0.72000003
-0.0048000002 0.081600003 0.72000003
-0.0034380956 0.081826672 0.72200006
-0.0020657144 0.081940003 0.72300005
-0.00069047621 0.082166672 0.72500002
0.00069142861 0.082280003 0.72600001
0.0020800002 0.082506672 0.72800004
0.0034714288 0.082620002 0.72900003
0.0048733335 0.082846671 0.73100001
0.0062657148 0.082846671 0.73100001
0.0076371431 0.082620002 0.72900003
0.0090504764 0.082846671 0.73100001
0.010442858 0.082846671 0.73100001
0.012013334 0.08409334 0.74200004
-0.082117148 0.080781907 0.70100003
-0.080666669 0.080666669 0.70000005
-0.079333335 0.080666669 0.70000005
-0.078000002 0.080666669 0.70000005
-0.076666668 0.080666669 0.70000005
-0.068176195 0.080090478 0.69500005
-0.067333341 0.080666669 0.70000005
-0.066000007 0.080666669 0.70000005
-0.064666674 0.080666669 0.70000005
-0.06333334 0.080666669 0.70000005
-0.062000003 0.080666669 0.70000005
-0.060666669 0.080666669 0.70000005
-0.059418101 0.080781907 0.70100003
-0.05808286 0.080781907 0.70100003
-0.056747623 0.080781907 0.70100003
-0.055333339 0.080666669 0.70000005
-0.054000005 0.080666669 0.70000005
-0.052666672 0.080666669 0.70000005
-0.051333338 0.080666669 0.70000005
-0.049857147 0.080436192 0.69800001
-0.048527621 0.080436192 0.69800001
-0.047198098 0.080436192 0.69800001
-0.045868576 0.080436192 0.69800001
-0.044539049 0.080436192 0.69800001
-0.043209527 0.080436192 0.69800001
-0.041880004 0.080436192 0.69800001
-0.039726671 0.081473336 0.70700002
-0.038380001 0.081473336 0.70700002
-0.037085716 0.081588574 0.708
-0.035686668 0.081473336 0.70700002
-0.034340002 0.081473336 0.70700002
-0.032993335 0.081473336 0.70700002
-0.031646669 0.081473336 0.70700002
-0.030300003 0.081473336 0.70700002
-0.028994288 0.081588574 0.708
-0.027645716 0.081588574 0.708
-0.026297145 0.081588574 0.708
-0.02501905 0.08181905 0.71000004
-0.023700001 0.081934288 0.71100003
-0.022408573 0.082164764 0.71300006
-0.021080002 0.082280003 0.71400005
-0.01977524 0.082510479 0.71600002
-0.01841143 0.082510479 0.71600002
-0.017047619 0.082510479 0.71600002
-0.015683811 0.082510479 0.71600002
-0.014320001 0.082510479 0.71600002
-0.012956192 0.082510479 0.71600002
-0.011592382 0.082510479 0.71600002
-0.010242858 0.082625717 0.71700001
-0.0088771433 0.082625717 0.71700001
-0.007511429 0.082625717 0.71700001
-0.0061628576 0.082856193 0.71900004
-0.0048000002 0.082971431 0.72000003
-0.0034285716 0.082971431 0.72000003
-0.0020657144 0.083317146 0.72300005
-0.00069047621 0.083547622 0.72500002
0.00069142861 0.08366286 0.72600001
0.0020800002 0.083893336 0.72800004
0.0034714288 0.084008574 0.72900003
0.0048733335 0.084239051 0.73100001
0.0062742862 0.084354289 0.73200005
0.007668572 0.084354289 0.73200005
0.0091247624 0.08493048 0.73700005
0.01057143 0.085276194 0.74000001
0.012013334 0.08550667 0.74200004
-0.082117148 0.082117148 0.70100003
-0.080781907 0.082117148 0.70100003
-0.079333335 0.082000002 0.70000005
-0.078000002 0.082000002 0.70000005
-0.076009527 0.081297152 0.69400001
-0.07425715 0.080828577 0.69000006
-0.07294286 0.080828577 0.69000006
-0.066852383 0.08141429 0.69500005
-0.065528579 0.08141429 0.69500005
-0.064389527 0.081648573 0.69700003
-0.062880956 0.08141429 0.69500005
-0.061822861 0.081765719 0.69800001
-0.060493339 0.081765719 0.69800001
-0.059163813 0.081765719 0.69800001
-0.05783429 0.081765719 0.69800001
-0.056666672 0.082000002 0.70000005
-0.055175241 0.081765719 0.69800001
-0.053845719 0.081765719 0.69800001
-0.052440956 0.081648573 0.69700003
-0.051113337 0.081648573 0.69700003
-0.049785718 0.081648573 0.69700003
-0.048527621 0.081765719 0.69800001
-0.04713048 0.081648573 0.69700003
-0.045868576 0.081765719 0.69800001
-0.044539049 0.081765719 0.69800001
-0.043209527 0.081765719 0.69800001
-0.041880004 0.081765719 0.69800001
-0.04066667 0.082000002 0.70000005
-0.039333336 0.082000002 0.70000005
-0.038271431 0.082585722 0.70500004
-0.036928575 0.082585722 0.70500004
-0.035585716 0.082585722 0.70500004
-0.034242861 0.082585722 0.70500004
-0.032900002 0.082585722 0.70500004
-0.031557146 0.082585722 0.70500004
-0.030300003 0.082820006 0.70700002
-0.028953334 0.082820006 0.70700002
-0.027606668 0.082820006 0.70700002
-0.026260002 0.082820006 0.70700002
-0.024948573 0.082937151 0.708
-0.023666669 0.083171435 0.71000004
-0.022345716 0.08328858 0.71100003
-0.021050477 0.083522864 0.71300006
-0.019720001 0.083640009 0.71400005
-0.018360002 0.083640009 0.71400005
-0.016976191 0.083522864 0.71300006
-0.015640002 0.083640009 0.71400005
-0.014280001 0.083640009 0.71400005
-0.012920001 0.083640009 0.71400005
-0.011592382 0.083874293 0.71600002
-0.010228572 0.083874293 0.71600002
-0.0088771433 0.083991431 0.71700001
-0.007511429 0.083991431 0.71700001
-0.0061628576 0.084225722 0.71900004
-0.0048000002 0.08434286 0.72000003
-0.0034285716 0.08434286 0.72000003
-0.0020628574 0.084577151 0.72200006
-0.00068857148 0.084694289 0.72300005
0.00069047621 0.08492858 0.72500002
0.0020742859 0.085045718 0.72600001
0.0034666669 0.085280009 0.72800004
0.0048800004 0.085748576 0.73200005
0.006291429 0.085982859 0.73400003
0.0077419053 0.086568579 0.73900002
0.0091619054 0.086685717 0.74000001
0.01057143 0.086685717 0.74000001
0.011980954 0.086685717 0.74000001
-0.082731433 0.08142858 0.68400002
-0.08142858 0.08142858 0.68400002
-0.081648573 0.082976192 0.69700003
-0.080320954 0.082976192 0.69700003
-0.078993335 0.082976192 0.69700003
-0.077442862 0.082738101 0.69500005
-0.076009527 0.082619056 0.69400001
-0.07425715 0.08214286 0.69000006
-0.07294286 0.08214286 0.69000006
-0.071524769 0.082023814 0.68900001
-0.066756196 0.082619056 0.69400001
-0.065434292 0.082619056 0.69400001
-0.064204767 0.082738101 0.69500005
-0.062790483 0.082619056 0.69400001
-0.061557148 0.082738101 0.69500005
-0.06040667 0.082976192 0.69700003
-0.059079051 0.082976192 0.69700003
-0.057751432 0.082976192 0.69700003
-0.056423813 0.082976192 0.69700003
-0.0549381 0.082738101 0.69500005
-0.053614289 0.082738101 0.69500005
-0.052290481 0.082738101 0.69500005
-0.050966669 0.082738101 0.69500005
-0.049642861 0.082738101 0.69500005
-0.048458099 0.082976192 0.69700003
-0.04713048 0.082976192 0.69700003
-0.045802861 0.082976192 0.69700003
-0.044475242 0.082976192 0.69700003
-0.043209527 0.083095245 0.69800001
-0.041880004 0.083095245 0.69800001
-0.04066667 0.083333336 0.70000005
-0.039333336 0.083333336 0.70000005
-0.038000003 0.083333336 0.70000005
-0.036876194 0.083809532 0.70400006
-0.035535239 0.083809532 0.70400006
-0.034194287 0.083809532 0.70400006
-0.032853335 0.083809532 0.70400006
-0.031512383 0.083809532 0.70400006
-0.030214287 0.083928578 0.70500004
-0.02887143 0.083928578 0.70500004
-0.027528573 0.083928578 0.70500004
-0.026260002 0.084166676 0.70700002
-0.024948573 0.084285721 0.708
-0.023600001 0.084285721 0.708
-0.022314288 0.084523812 0.71000004
-0.02099143 0.084642865 0.71100003
-0.019692382 0.084880956 0.71300006
-0.018334286 0.084880956 0.71300006
-0.016976191 0.084880956 0.71300006
-0.015618096 0.084880956 0.71300006
-0.014260001 0.084880956 0.71300006
-0.012920001 0.085000008 0.71400005
-0.01156 0.085000008 0.71400005
-0.010228572 0.085238099 0.71600002
-0.0088771433 0.085357152 0.71700001
-0.007511429 0.085357152 0.71700001
-0.0061628576 0.085595243 0.71900004
-0.0047933338 0.085595243 0.71900004
-0.0034285716 0.085714288 0.72000003
-0.0020628574 0.085952386 0.72200006
-0.00068857148 0.086071432 0.72300005
0.00069047621 0.08630953 0.72500002
0.0020742859 0.086428575 0.72600001
0.0034857146 0.087142862 0.73200005
0.0048933337 0.087380961 0.73400003
0.0063171433 0.087738104 0.73700005
-0.082731433 0.082731433 0.68400002
-0.08142858 0.082731433 0.68400002
-0.080125719 0.082731433 0.68400002
-0.07997524 0.08394096 0.69400001
-0.078653336 0.08394096 0.69400001
-0.077331431 0.08394096 0.69400001
-0.075571433 0.08345715 0.69000006
-0.074149527 0.083336197 0.68900001
-0.072837144 0.083336197 0.68900001
-0.071524769 0.083336197 0.68900001
-0.070314288 0.08345715 0.69000006
-0.069000006 0.08345715 0.69000006
-0.067783818 0.083578102 0.69100004
-0.06646762 0.083578102 0.69100004
-0.065151431 0.083578102 0.69100004
-0.064020008 0.083820008 0.69300002
-0.062519051 0.083578102 0.69100004
-0.061202861 0.083578102 0.69100004
-0.060146671 0.08394096 0.69400001
-0.058824766 0.08394096 0.69400001
-0.057502862 0.08394096 0.69400001
-0.056180958 0.08394096 0.69400001
-0.05485905 0.08394096 0.69400001
-0.053614289 0.084061913 0.69500005
-0.052290481 0.084061913 0.69500005
-0.050893337 0.08394096 0.69400001
-0.049642861 0.084061913 0.69500005
-0.048319049 0.084061913 0.69500005
-0.04713048 0.084303819 0.69700003
-0.045802861 0.084303819 0.69700003
-0.044347622 0.084061913 0.69500005
-0.043147624 0.084303819 0.69700003
-0.041880004 0.084424764 0.69800001
-0.040550478 0.084424764 0.69800001
-0.039333336 0.084666669 0.70000005
-0.038000003 0.084666669 0.70000005
-0.036666669 0.084666669 0.70000005
-0.035383813 0.084787622 0.70100003
-0.034048572 0.084787622 0.70100003
-0.032806668 0.085029528 0.70300001
-0.03146762 0.085029528 0.70300001
-0.030128574 0.085029528 0.70300001
-0.028830478 0.08515048 0.70400006
-0.027528573 0.085271433 0.70500004
-0.026185716 0.085271433 0.70500004
-0.024913335 0.085513338 0.70700002
-0.023600001 0.085634291 0.708
-0.022314288 0.085876197 0.71000004
-0.020961907 0.085876197 0.71000004
-0.019637143 0.085997149 0.71100003
-0.018282859 0.085997149 0.71100003
-0.016928572 0.085997149 0.71100003
-0.015574287 0.085997149 0.71100003
-0.014260001 0.086239055 0.71300006
-0.012901906 0.086239055 0.71300006
-0.01154381 0.086239055 0.71300006
-0.0102 0.086360008 0.71400005
-0.0088647623 0.086601913 0.71600002
-0.007511429 0.086722866 0.71700001
-0.0061628576 0.086964771 0.71900004
-0.0047933338 0.086964771 0.71900004
-0.0034285716 0.087085716 0.72000003
-0.0020628574 0.087327622 0.72200006
-0.00068857148 0.087448575 0.72300005
0.00069047621 0.08769048 0.72500002
0.0020800002 0.088053338 0.72800004
-0.082731433 0.084034294 0.68400002
-0.08142858 0.084034294 0.68400002
-0.080125719 0.084034294 0.68400002
-0.078822859 0.084034294 0.68400002
-0.077520005 0.084034294 0.68400002
-0.076885723 0.084771432 0.69000006
-0.075571433 0.084771432 0.69000006
-0.073934294 0.084402859 0.68700004
-0.072837144 0.084648579 0.68900001
-0.071524769 0.084648579 0.68900001
-0.070212387 0.084648579 0.68900001
-0.068900004 0.084648579 0.68900001
-0.067685716 0.084771432 0.69000006
-0.066371433 0.084771432 0.69000006
-0.065151431 0.084894292 0.69100004
-0.063835241 0.084894292 0.69100004
-0.062428575 0.084771432 0.69000006
-0.061202861 0.084894292 0.69100004
-0.059886672 0.084894292 0.69100004
-0.058570482 0.084894292 0.69100004
-0.057254288 0.084894292 0.69100004
-0.056100003 0.085140005 0.69300002
-0.054780003 0.085140005 0.69300002
-0.053460002 0.085140005 0.69300002
-0.052215241 0.085262865 0.69400001
-0.050893337 0.085262865 0.69400001
-0.049571432 0.085262865 0.69400001
-0.048249528 0.085262865 0.69400001
-0.046995241 0.085385717 0.69500005
-0.045671433 0.085385717 0.69500005
-0.044283811 0.085262865 0.69400001
-0.042961907 0.085262865 0.69400001
-0.041700002 0.085385717 0.69500005
-0.040376194 0.085385717 0.69500005
-0.039164763 0.085631438 0.69700003
-0.037837144 0.085631438 0.69700003
-0.036561906 0.08575429 0.69800001
-0.035333335 0.086000003 0.70000005
-0.034000002 0.086000003 0.70000005
-0.032713335 0.086122863 0.70100003
-0.031378098 0.086122863 0.70100003
-0.030042859 0.086122863 0.70100003
-0.028789526 0.086368576 0.70300001
-0.027489526 0.086491436 0.70400006
-0.026185716 0.086614288 0.70500004
-0.024913335 0.086860009 0.70700002
-0.023566669 0.086860009 0.70700002
-0.022251431 0.086982861 0.708
-0.020902859 0.086982861 0.708
-0.019609526 0.087228574 0.71000004
-0.018282859 0.087351434 0.71100003
-0.016928572 0.087351434 0.71100003
-0.015574287 0.087351434 0.71100003
-0.014220001 0.087351434 0.71100003
-0.012901906 0.087597147 0.71300006
-0.01154381 0.087597147 0.71300006
-0.0102 0.087720007 0.71400005
-0.0088647623 0.087965719 0.71600002
-0.007511429 0.088088579 0.71700001
-0.0061628576 0.088334292 0.71900004
-0.0047933338 0.088334292 0.71900004
-0.0034285716 0.088457152 0.72000003
-0.0020657144 0.088825718 0.72300005
-0.00069047621 0.089071438 0.72500002
0.00069904764 0.090177149 0.73400003
-0.084034294 0.085337147 0.68400002
-0.082731433 0.085337147 0.68400002
-0.08142858 0.085337147 0.68400002
-0.080008574 0.085212387 0.68300003
-0.078707621 0.085212387 0.68300003
-0.077406675 0.085212387 0.68300003
-0.076217145 0.085337147 0.68400002
-0.074914292 0.085337147 0.68400002
-0.073826671 0.085586675 0.68600005
-0.072625719 0.085711434 0.68700004
-0.071213335 0.085586675 0.68600005
-0.070008576 0.085711434 0.68700004
-0.068900004 0.085960954 0.68900001
-0.067587622 0.085960954 0.68900001
-0.066275239 0.085960954 0.68900001
-0.064962864 0.085960954 0.68900001
-0.063742861 0.086085722 0.69000006
-0.062338099 0.085960954 0.68900001
-0.061114289 0.086085722 0.69000006
-0.059800003 0.086085722 0.69000006
-0.058485717 0.086085722 0.69000006
-0.057171434 0.086085722 0.69000006
-0.055857148 0.086085722 0.69000006
-0.054621909 0.086210482 0.69100004
-0.053305719 0.086210482 0.69100004
-0.052140005 0.086460009 0.69300002
-0.050820004 0.086460009 0.69300002
-0.049500003 0.086460009 0.69300002
-0.048249528 0.086584769 0.69400001
-0.046927623 0.086584769 0.69400001
-0.045605719 0.086584769 0.69400001
-0.044283811 0.086584769 0.69400001
-0.042961907 0.086584769 0.69400001
-0.041640002 0.086584769 0.69400001
-0.040318098 0.086584769 0.69400001
-0.039052382 0.086709529 0.69500005
-0.037728574 0.086709529 0.69500005
-0.036561906 0.087083817 0.69800001
-0.035333335 0.087333336 0.70000005
-0.034000002 0.087333336 0.70000005
-0.032713335 0.087458104 0.70100003
-0.031378098 0.087458104 0.70100003
-0.030042859 0.087458104 0.70100003
-0.028789526 0.087707624 0.70300001
-0.027489526 0.087832384 0.70400006
-0.026185716 0.087957151 0.70500004
-0.024842858 0.087957151 0.70500004
-0.023566669 0.088206671 0.70700002
-0.022220001 0.088206671 0.70700002
-0.020902859 0.088331431 0.708
-0.019554287 0.088331431 0.708
-0.018257145 0.088580959 0.71000004
-0.016904764 0.088580959 0.71000004
-0.015552382 0.088580959 0.71000004
-0.014220001 0.088705719 0.71100003
-0.012865715 0.088705719 0.71100003
-0.01154381 0.088955246 0.71300006
-0.0102 0.089080006 0.71400005
-0.0088647623 0.089329533 0.71600002
-0.007511429 0.089454293 0.71700001
-0.0061628576 0.089703813 0.71900004
-0.0047933338 0.089703813 0.71900004
-0.083788574 0.086386673 0.68200004
-0.08261048 0.08651334 0.68300003
-0.081309527 0.08651334 0.68300003
-0.080008574 0.08651334 0.68300003
-0.07859239 0.086386673 0.68200004
-0.077293336 0.086386673 0.68200004
-0.07599429 0.086386673 0.68200004
-0.074804768 0.08651334 0.68300003
-0.073611431 0.086640008 0.68400002
-0.072520003 0.086893342 0.68600005
-0.071213335 0.086893342 0.68600005
-0.070008576 0.087020002 0.68700004
-0.068700008 0.087020002 0.68700004
-0.067391433 0.087020002 0.68700004
-0.066082865 0.087020002 0.68700004
-0.064962864 0.087273337 0.68900001
-0.063650481 0.087273337 0.68900001
-0.062338099 0.087273337 0.68900001
-0.06102572 0.087273337 0.68900001
-0.059713338 0.087273337 0.68900001
-0.058485717 0.087400004 0.69000006
-0.057171434 0.087400004 0.69000006
-0.055857148 0.087400004 0.69000006
-0.054542862 0.087400004 0.69000006
-0.053305719 0.087526672 0.69100004
-0.051989526 0.087526672 0.69100004
-0.050673336 0.087526672 0.69100004
-0.049357146 0.087526672 0.69100004
-0.048040956 0.087526672 0.69100004
-0.046860002 0.087780006 0.69300002
-0.045408573 0.087526672 0.69100004
-0.044092383 0.087526672 0.69100004
-0.042776193 0.087526672 0.69100004
-0.041460004 0.087526672 0.69100004
-0.040260002 0.087780006 0.69300002
-0.038996194 0.087906674 0.69400001
-0.037674289 0.087906674 0.69400001
-0.036509525 0.088286676 0.69700003
-0.035232384 0.088413343 0.69800001
-0.034000002 0.08866667 0.70000005
-0.032666668 0.08866667 0.70000005
-0.031378098 0.088793337 0.70100003
-0.030042859 0.088793337 0.70100003
-0.028789526 0.089046672 0.70300001
-0.027489526 0.089173339 0.70400006
-0.026185716 0.089300007 0.70500004
-0.024842858 0.089300007 0.70500004
-0.023566669 0.089553341 0.70700002
-0.022220001 0.089553341 0.70700002
-0.020873334 0.089553341 0.70700002
-0.019554287 0.089680009 0.708
-0.018257145 0.089933336 0.71000004
-0.016904764 0.089933336 0.71000004
-0.015552382 0.089933336 0.71000004
-0.014220001 0.090060003 0.71100003
-0.012865715 0.090060003 0.71100003
-0.01154381 0.090313338 0.71300006
-0.0102 0.090440005 0.71400005
-0.0088400003 0.090440005 0.71400005
-0.007511429 0.090820007 0.71700001
-0.0061714291 0.091200009 0.72000003
-0.0034714288 0.092340007 0.72900003
-0.083420008 0.087300003 0.67900002
-0.082005717 0.087171435 0.67800003
-0.080833338 0.087300003 0.67900002
-0.079540007 0.087300003 0.67900002
-0.078246675 0.087300003 0.67900002
-0.076953337 0.087300003 0.67900002
-0.075660005 0.087300003 0.67900002
-0.074476197 0.087428577 0.68000001
-0.073180959 0.087428577 0.68000001
-0.07188572 0.087428577 0.68000001
-0.070798099 0.087685719 0.68200004
-0.069499053 0.087685719 0.68200004
-0.068200007 0.087685719 0.68200004
-0.066999055 0.087814294 0.68300003
-0.065698102 0.087814294 0.68300003
-0.064491436 0.087942861 0.68400002
-0.063373335 0.088200003 0.68600005
-0.061885718 0.087942861 0.68400002
-0.060760003 0.088200003 0.68600005
-0.059540004 0.088328578 0.68700004
-0.058400955 0.088585719 0.68900001
-0.05692286 0.088328578 0.68700004
-0.055776194 0.088585719 0.68900001
-0.054463815 0.088585719 0.68900001
-0.053228576 0.088714294 0.69000006
-0.05191429 0.088714294 0.69000006
-0.050600003 0.088714294 0.69000006
-0.049285717 0.088714294 0.69000006
-0.047971431 0.088714294 0.69000006
-0.046657145 0.088714294 0.69000006
-0.045342859 0.088714294 0.69000006
-0.044028573 0.088714294 0.69000006
-0.04271429 0.088714294 0.69000006
-0.041460004 0.088842861 0.69100004
-0.040143814 0.088842861 0.69100004
-0.038940001 0.089100003 0.69300002
-0.037674289 0.089228578 0.69400001
-0.036352385 0.089228578 0.69400001
-0.035080954 0.089357145 0.69500005
-0.033854287 0.089614294 0.69700003
-0.032573335 0.089742862 0.69800001
-0.031333335 0.090000004 0.70000005
-0.030000001 0.090000004 0.70000005
-0.028707622 0.090128578 0.70100003
-0.027450478 0.09038572 0.70300001
-0.026148573 0.090514295 0.70400006
-0.024842858 0.090642862 0.70500004
-0.023500001 0.090642862 0.70500004
-0.022220001 0.090900004 0.70700002
-0.020873334 0.090900004 0.70700002
-0.019554287 0.091028579 0.708
-0.018205715 0.091028579 0.708
-0.016857143 0.091028579 0.708
-0.015508573 0.091028579 0.708
-0.014220001 0.091414295 0.71100003
-0.012865715 0.091414295 0.71100003
-0.01154381 0.091671437 0.71300006
-0.0102 0.091800004 0.71400005
-0.0088647623 0.092057146 0.71600002
-0.0075323815 0.092442863 0.71900004
-0.0062400005 0.093600005 0.72800004
-0.091111436 0.087288581 0.66900003
-0.089837149 0.087288581 0.66900003
-0.084214292 0.088071436 0.67500001
-0.082928576 0.088071436 0.67500001
-0.081642866 0.088071436 0.67500001
-0.080476195 0.08820191 0.67600006
-0.079188578 0.08820191 0.67600006
-0.078131437 0.088462859 0.67800003
-0.076840006 0.088462859 0.67800003
-0.075548574 0.088462859 0.67800003
-0.074366674 0.088593341 0.67900002
-0.073073335 0.088593341 0.67900002
-0.071780004 0.088593341 0.67900002
-0.070486672 0.088593341 0.67900002
-0.069193341 0.088593341 0.67900002
-0.068000004 0.088723816 0.68000001
-0.066900954 0.088984765 0.68200004
-0.065601908 0.088984765 0.68200004
-0.064397149 0.089115247 0.68300003
-0.063096195 0.089115247 0.68300003
-0.061885718 0.089245722 0.68400002
-0.060582861 0.089245722 0.68400002
-0.059453338 0.089506671 0.68600005
-0.058231432 0.089637145 0.68700004
-0.056840003 0.089506671 0.68600005
-0.055533338 0.089506671 0.68600005
-0.054305717 0.089637145 0.68700004
-0.053151432 0.089898102 0.68900001
-0.05183905 0.089898102 0.68900001
-0.050526671 0.089898102 0.68900001
-0.049214289 0.089898102 0.68900001
-0.047901906 0.089898102 0.68900001
-0.046657145 0.090028577 0.69000006
-0.045342859 0.090028577 0.69000006
-0.044028573 0.090028577 0.69000006
-0.04271429 0.090028577 0.69000006
-0.041400004 0.090028577 0.69000006
-0.040085718 0.090028577 0.69000006
-0.03882762 0.090159051 0.69100004
-0.037620004 0.090420008 0.69300002
-0.036352385 0.090550482 0.69400001
-0.035080954 0.090680957 0.69500005
-0.033854287 0.090941913 0.69700003
-0.032573335 0.091072388 0.69800001
-0.031333335 0.091333337 0.70000005
-0.030000001 0.091333337 0.70000005
-0.028707622 0.091463819 0.70100003
-0.027450478 0.091724768 0.70300001
-0.026148573 0.091855243 0.70400006
-0.024842858 0.091985717 0.70500004
-0.023500001 0.091985717 0.70500004
-0.022220001 0.092246674 0.70700002
-0.020873334 0.092246674 0.70700002
-0.019554287 0.092377149 0.708
-0.018205715 0.092377149 0.708
-0.016857143 0.092377149 0.708
-0.015552382 0.092638098 0.71000004
-0.014220001 0.09276858 0.71100003
-0.012901906 0.093029529 0.71300006
-0.011738096 0.094595246 0.72500002
-0.010357143 0.094595246 0.72500002
-0.0089885723 0.094725721 0.72600001
-0.092109531 0.088298105 0.66700006
-0.091247626 0.088695243 0.67000002
-0.089971438 0.088695243 0.67000002
-0.088827625 0.088827625 0.671
-0.087419055 0.088695243 0.67000002
-0.085120007 0.088960007 0.67200005
-0.084089532 0.089224771 0.67400002
-0.082805723 0.089224771 0.67400002
-0.081521913 0.089224771 0.67400002
-0.080357149 0.089357145 0.67500001
-0.079071432 0.089357145 0.67500001
-0.077900961 0.089489527 0.67600006
-0.076613337 0.089489527 0.67600006
-0.075548574 0.089754291 0.67800003
-0.07425715 0.089754291 0.67800003
-0.072965719 0.089754291 0.67800003
-0.071674287 0.089754291 0.67800003
-0.070382863 0.089754291 0.67800003
-0.069091432 0.089754291 0.67800003
-0.067800008 0.089754291 0.67800003
-0.066606671 0.089886673 0.67900002
-0.065313339 0.089886673 0.67900002
-0.064114287 0.090019055 0.68000001
-0.063003816 0.090283819 0.68200004
-0.061795242 0.090416193 0.68300003
-0.060582861 0.090548575 0.68400002
-0.059280004 0.090548575 0.68400002
-0.05814667 0.090813339 0.68600005
-0.05667429 0.090548575 0.68400002
-0.055533338 0.090813339 0.68600005
-0.05422667 0.090813339 0.68600005
-0.052997146 0.090945721 0.68700004
-0.05183905 0.091210485 0.68900001
-0.050526671 0.091210485 0.68900001
-0.049214289 0.091210485 0.68900001
-0.047901906 0.091210485 0.68900001
-0.046589527 0.091210485 0.68900001
-0.045277145 0.091210485 0.68900001
-0.044028573 0.091342866 0.69000006
-0.04271429 0.091342866 0.69000006
-0.041400004 0.091342866 0.69000006
-0.040085718 0.091342866 0.69000006
-0.03882762 0.091475241 0.69100004
-0.037620004 0.091740005 0.69300002
-0.036300004 0.091740005 0.69300002
-0.035030477 0.091872387 0.69400001
-0.033757146 0.092004769 0.69500005
-0.032573335 0.092401914 0.69800001
-0.031243812 0.092401914 0.69800001
-0.030000001 0.092666671 0.70000005
-0.028666668 0.092666671 0.70000005
-0.027372383 0.092799053 0.70100003
-0.02611143 0.093063816 0.70300001
-0.024807621 0.093196198 0.70400006
-0.023500001 0.09332858 0.70500004
-0.022220001 0.093593337 0.70700002
-0.020873334 0.093593337 0.70700002
-0.019554287 0.093725719 0.708
-0.018205715 0.093725719 0.708
-0.016857143 0.093725719 0.708
-0.015508573 0.093725719 0.708
-0.014220001 0.094122864 0.71100003
-0.092385717 0.089837149 0.66900003
-0.091247626 0.089971438 0.67000002
-0.089971438 0.089971438 0.67000002
-0.088827625 0.09010572 0.671
-0.087419055 0.089971438 0.67000002
-0.08614286 0.089971438 0.67000002
-0.084866673 0.089971438 0.67000002
-0.083840005 0.090240009 0.67200005
-0.082560003 0.090240009 0.67200005
-0.081280008 0.090240009 0.67200005
-0.080238104 0.09050858 0.67400002
-0.078954294 0.09050858 0.67400002
-0.077670485 0.09050858 0.67400002
-0.076500006 0.090642862 0.67500001
-0.07532572 0.090777151 0.67600006
-0.074038103 0.090777151 0.67600006
-0.072750479 0.090777151 0.67600006
-0.071462862 0.090777151 0.67600006
-0.070175245 0.090777151 0.67600006
-0.069091432 0.091045722 0.67800003
-0.067800008 0.091045722 0.67800003
-0.066508576 0.091045722 0.67800003
-0.065217145 0.091045722 0.67800003
-0.064020008 0.091180004 0.67900002
-0.062726669 0.091180004 0.67900002
-0.061523814 0.091314293 0.68000001
-0.06040572 0.091582865 0.68200004
-0.059193335 0.091717146 0.68300003
-0.057977147 0.091851436 0.68400002
-0.05667429 0.091851436 0.68400002
-0.055371433 0.091851436 0.68400002
-0.05422667 0.092120007 0.68600005
-0.052997146 0.092254288 0.68700004
-0.051688574 0.092254288 0.68700004
-0.050380003 0.092254288 0.68700004
-0.049071431 0.092254288 0.68700004
-0.04776286 0.092254288 0.68700004
-0.046589527 0.09252286 0.68900001
-0.045277145 0.09252286 0.68900001
-0.043964766 0.09252286 0.68900001
-0.04271429 0.092657149 0.69000006
-0.041400004 0.092657149 0.69000006
-0.040085718 0.092657149 0.69000006
-0.03882762 0.092791438 0.69100004
-0.037511431 0.092791438 0.69100004
-0.036300004 0.093060009 0.69300002
-0.035030477 0.093194291 0.69400001
-0.033708572 0.093194291 0.69400001
-0.032526668 0.093597151 0.69700003
-0.031243812 0.093731433 0.69800001
-0.030000001 0.094000004 0.70000005
-0.028666668 0.094000004 0.70000005
-0.027372383 0.094134293 0.70100003
-0.02611143 0.094402865 0.70300001
-0.024807621 0.094537146 0.70400006
-0.023466669 0.094537146 0.70400006
-0.022220001 0.094940007 0.70700002
-0.020873334 0.094940007 0.70700002
-0.019554287 0.095074289 0.708
-0.018205715 0.095074289 0.708
-0.016857143 0.095074289 0.708
-0.015508573 0.095074289 0.708
-0.092385717 0.091111436 0.66900003
-0.091247626 0.091247626 0.67000002
-0.089971438 0.091247626 0.67000002
-0.088695243 0.091247626 0.67000002
-0.087288581 0.091111436 0.66900003
-0.086014293 0.091111436 0.66900003
-0.084866673 0.091247626 0.67000002
-0.083590485 0.091247626 0.67000002
-0.08243715 0.091383815 0.671
-0.081159055 0.091383815 0.671
-0.07988096 0.091383815 0.671
-0.078720003 0.091520004 0.67200005
-0.077440009 0.091520004 0.67200005
-0.076386675 0.09179239 0.67400002
-0.075102866 0.09179239 0.67400002
-0.073819056 0.09179239 0.67400002
-0.072642863 0.091928579 0.67500001
-0.071357146 0.091928579 0.67500001
-0.070071436 0.091928579 0.67500001
-0.068887621 0.092064768 0.67600006
-0.067600004 0.092064768 0.67600006
-0.066508576 0.092337146 0.67800003
-0.065217145 0.092337146 0.67800003
-0.063925721 0.092337146 0.67800003
-0.062726669 0.092473343 0.67900002
-0.061433338 0.092473343 0.67900002
-0.060140003 0.092473343 0.67900002
-0.05910667 0.092881911 0.68200004
-0.057892386 0.0930181 0.68300003
-0.056591433 0.0930181 0.68300003
-0.055290479 0.0930181 0.68300003
-0.054068577 0.093154289 0.68400002
-0.052920002 0.093426675 0.68600005
-0.051688574 0.093562864 0.68700004
-0.05030667 0.093426675 0.68600005
-0.049071431 0.093562864 0.68700004
-0.04776286 0.093562864 0.68700004
-0.046589527 0.093835242 0.68900001
-0.045277145 0.093835242 0.68900001
-0.043964766 0.093835242 0.68900001
-0.042652383 0.093835242 0.68900001
-0.041400004 0.093971431 0.69000006
-0.040085718 0.093971431 0.69000006
-0.038771432 0.093971431 0.69000006
-0.037511431 0.094107628 0.69100004
-0.036195241 0.094107628 0.69100004
-0.034980003 0.094380006 0.69300002
-0.033708572 0.094516195 0.69400001
-0.032526668 0.09492477 0.69700003
-0.031243812 0.095060959 0.69800001
-0.030000001 0.095333338 0.70000005
-0.028666668 0.095333338 0.70000005
-0.027372383 0.095469527 0.70100003
-0.02611143 0.095741913 0.70300001
-0.024807621 0.095878102 0.70400006
-0.023500001 0.096014291 0.70500004
-0.022220001 0.096286669 0.70700002
-0.020902859 0.096422866 0.708
-0.019637143 0.096831433 0.71100003
-0.018257145 0.096695244 0.71000004
-0.017047619 0.097512387 0.71600002
-0.092385717 0.092385717 0.66900003
-0.091111436 0.092385717 0.66900003
-0.089837149 0.092385717 0.66900003
-0.088562861 0.092385717 0.66900003
-0.087288581 0.092385717 0.66900003
-0.086014293 0.092385717 0.66900003
-0.084740005 0.092385717 0.66900003
-0.083590485 0.092523813 0.67000002
-0.08231429 0.092523813 0.67000002
-0.081038103 0.092523813 0.67000002
-0.07988096 0.09266191 0.671
-0.078602865 0.09266191 0.671
-0.077440009 0.092800006 0.67200005
-0.076160006 0.092800006 0.67200005
-0.074880004 0.092800006 0.67200005
-0.073600002 0.092800006 0.67200005
-0.072535239 0.093076199 0.67400002
-0.07125143 0.093076199 0.67400002
-0.070071436 0.093214288 0.67500001
-0.06878572 0.093214288 0.67500001
-0.067500003 0.093214288 0.67500001
-0.066312388 0.093352385 0.67600006
-0.065024763 0.093352385 0.67600006
-0.063737147 0.093352385 0.67600006
-0.062634289 0.093628578 0.67800003
-0.061433338 0.093766674 0.67900002
-0.060140003 0.093766674 0.67900002
-0.058846671 0.093766674 0.67900002
-0.057638098 0.093904771 0.68000001
-0.056508575 0.094180956 0.68200004
-0.055209529 0.094180956 0.68200004
-0.054068577 0.09445715 0.68400002
-0.052920002 0.094733343 0.68600005
-0.051613338 0.094733343 0.68600005
-0.05030667 0.094733343 0.68600005
-0.049000002 0.094733343 0.68600005
-0.047693338 0.094733343 0.68600005
-0.046454288 0.094871432 0.68700004
-0.045277145 0.095147625 0.68900001
-0.043964766 0.095147625 0.68900001
-0.042652383 0.095147625 0.68900001
-0.041400004 0.095285721 0.69000006
-0.040085718 0.095285721 0.69000006
-0.038771432 0.095285721 0.69000006
-0.037511431 0.095423818 0.69100004
-0.036195241 0.095423818 0.69100004
-0.034980003 0.095700003 0.69300002
-0.033708572 0.0958381 0.69400001
-0.032526668 0.096252389 0.69700003
-0.031243812 0.096390486 0.69800001
-0.030000001 0.096666671 0.70000005
-0.028666668 0.096666671 0.70000005
-0.027372383 0.096804768 0.70100003
-0.026148573 0.097219057 0.70400006
-0.024842858 0.097357146 0.70500004
-0.023500001 0.097357146 0.70500004
-0.022345716 0.098185718 0.71100003
-0.02113905 0.098876201 0.71600002
-0.01977524 0.098876201 0.71600002
-0.018437143 0.09901429 0.71700001
-0.092109531 0.093380004 0.66700006
-0.090839051 0.093380004 0.66700006
-0.089568578 0.093380004 0.66700006
-0.088298105 0.093380004 0.66700006
-0.087027624 0.093380004 0.66700006
-0.085757151 0.093380004 0.66700006
-0.084740005 0.093660004 0.66900003
-0.083465718 0.093660004 0.66900003
-0.082191437 0.093660004 0.66900003
-0.081038103 0.093800008 0.67000002
-0.079761907 0.093800008 0.67000002
-0.07848572 0.093800008 0.67000002
-0.07732477 0.093940005 0.671
-0.076046668 0.093940005 0.671
-0.07465715 0.093800008 0.67000002
-0.073490478 0.093940005 0.671
-0.072320007 0.094080009 0.67200005
-0.07125143 0.094360009 0.67400002
-0.06996762 0.094360009 0.67400002
-0.068683811 0.094360009 0.67400002
-0.067500003 0.094500005 0.67500001
-0.066214293 0.094500005 0.67500001
-0.064928576 0.094500005 0.67500001
-0.063737147 0.094640009 0.67600006
-0.06244953 0.094640009 0.67600006
-0.061342862 0.094920009 0.67800003
-0.060051434 0.094920009 0.67800003
-0.058760002 0.094920009 0.67800003
-0.057553336 0.095060006 0.67900002
-0.056260005 0.095060006 0.67900002
-0.055047624 0.09520001 0.68000001
-0.053989526 0.095620006 0.68300003
-0.05276572 0.095760003 0.68400002
-0.051462859 0.095760003 0.68400002
-0.050160002 0.095760003 0.68400002
-0.049000002 0.096040003 0.68600005
-0.047693338 0.096040003 0.68600005
-0.046454288 0.096180007 0.68700004
-0.045145717 0.096180007 0.68700004
-0.043964766 0.096460007 0.68900001
-0.042652383 0.096460007 0.68900001
-0.041400004 0.096600004 0.69000006
-0.040085718 0.096600004 0.69000006
-0.038771432 0.096600004 0.69000006
-0.037457146 0.096600004 0.69000006
-0.036195241 0.096740007 0.69100004
-0.034980003 0.097020008 0.69300002
-0.033757146 0.097300008 0.69500005
-0.032526668 0.097580008 0.69700003
-0.031243812 0.097720005 0.69800001
-0.030000001 0.098000005 0.70000005
-0.028666668 0.098000005 0.70000005
-0.027372383 0.098140009 0.70100003
-0.026037145 0.098140009 0.70100003
-0.024913335 0.09898001 0.70700002
-0.093380004 0.094650485 0.66700006
-0.092109531 0.094650485 0.66700006
-0.090702862 0.094508581 0.66600001
-0.089434288 0.094508581 0.66600001
-0.088165723 0.094508581 0.66600001
-0.08689715 0.094508581 0.66600001
-0.085628577 0.094508581 0.66600001
-0.084486671 0.094650485 0.66700006
-0.083216198 0.094650485 0.66700006
-0.081945717 0.094650485 0.66700006
-0.08091715 0.094934292 0.66900003
-0.079642862 0.094934292 0.66900003
-0.07848572 0.095076196 0.67000002
-0.077209532 0.095076196 0.67000002
-0.075933337 0.095076196 0.67000002
-0.07465715 0.095076196 0.67000002
-0.073380955 0.095076196 0.67000002
-0.072212383 0.0952181 0.671
-0.071040004 0.095360003 0.67200005
-0.06996762 0.095643818 0.67400002
-0.068683811 0.095643818 0.67400002
-0.067400001 0.095643818 0.67400002
-0.066116191 0.095643818 0.67400002
-0.064928576 0.095785722 0.67500001
-0.063642859 0.095785722 0.67500001
-0.062357146 0.095785722 0.67500001
-0.061161909 0.095927626 0.67600006
-0.059874289 0.095927626 0.67600006
-0.058760002 0.096211433 0.67800003
-0.057468574 0.096211433 0.67800003
-0.056177147 0.096211433 0.67800003
-0.05496667 0.096353337 0.67900002
-0.053910479 0.096779056 0.68200004
-0.05276572 0.097062863 0.68400002
-0.051462859 0.097062863 0.68400002
-0.050160002 0.097062863 0.68400002
-0.048857145 0.097062863 0.68400002
-0.047554288 0.097062863 0.68400002
-0.046454288 0.097488575 0.68700004
-0.045145717 0.097488575 0.68700004
-0.043964766 0.09777239 0.68900001
-0.04271429 0.097914293 0.69000006
-0.041400004 0.097914293 0.69000006
-0.040085718 0.097914293 0.69000006
-0.038771432 0.097914293 0.69000006
-0.037457146 0.097914293 0.69000006
-0.036195241 0.098056197 0.69100004
-0.035030477 0.098481908 0.69400001
-0.033902861 0.099049531 0.69800001
-0.032666668 0.099333338 0.70000005
-0.031378098 0.099475242 0.70100003
-0.030042859 0.099475242 0.70100003
-0.028707622 0.099475242 0.70100003
-0.027450478 0.099759057 0.70300001
-0.026297145 0.10046858 0.708
-0.025124764 0.1011781 0.71300006
-0.023800002 0.10132001 0.71400005
-0.093940958 0.09520191 0.66200006
-0.092820004 0.095345721 0.66300005
-0.091557153 0.095345721 0.66300005
-0.090294294 0.095345721 0.66300005
-0.089031436 0.095345721 0.66300005
-0.088033341 0.095633343 0.66500002
-0.086766675 0.095633343 0.66500002
-0.085500002 0.095633343 0.66500002
-0.084360003 0.095777147 0.66600001
-0.08309143 0.095777147 0.66600001
-0.081822865 0.095777147 0.66600001
-0.080675244 0.095920958 0.66700006
-0.079404764 0.095920958 0.66700006
-0.078368574 0.09620858 0.66900003
-0.077094294 0.09620858 0.66900003
-0.075820006 0.09620858 0.66900003
-0.074545719 0.09620858 0.66900003
-0.073380955 0.096352391 0.67000002
-0.072104767 0.096352391 0.67000002
-0.070934288 0.096496195 0.671
-0.069760002 0.096640006 0.67200005
-0.068480007 0.096640006 0.67200005
-0.067400001 0.096927628 0.67400002
-0.066116191 0.096927628 0.67400002
-0.064832382 0.096927628 0.67400002
-0.063548572 0.096927628 0.67400002
-0.062357146 0.097071432 0.67500001
-0.061071433 0.097071432 0.67500001
-0.059874289 0.097215243 0.67600006
-0.058760002 0.097502865 0.67800003
-0.057468574 0.097502865 0.67800003
-0.056011431 0.097215243 0.67600006
-0.054885719 0.097502865 0.67800003
-0.053752385 0.09779048 0.68000001
-0.052688576 0.098221913 0.68300003
-0.051387623 0.098221913 0.68300003
-0.050160002 0.098365724 0.68400002
-0.048857145 0.098365724 0.68400002
-0.047554288 0.098365724 0.68400002
-0.04638667 0.098653339 0.68600005
-0.045145717 0.09879715 0.68700004
-0.043964766 0.099084765 0.68900001
-0.04271429 0.099228576 0.69000006
-0.041400004 0.099228576 0.69000006
-0.040085718 0.099228576 0.69000006
-0.038771432 0.099228576 0.69000006
-0.037457146 0.099228576 0.69000006
-0.03614286 0.099228576 0.69000006
-0.034828573 0.099228576 0.69000006
-0.033514287 0.099228576 0.69000006
-0.032993335 0.10167334 0.70700002
-0.031646669 0.10167334 0.70700002
-0.030214287 0.10138572 0.70500004
-0.028953334 0.10167334 0.70700002
-0.027723812 0.10210477 0.71000004
-0.026408574 0.10224858 0.71100003
-0.11593334 0.095880009 0.65800005
-0.11468001 0.095880009 0.65800005
-0.11342667 0.095880009 0.65800005
-0.11217334 0.095880009 0.65800005
-0.11075144 0.095734291 0.65700001
-0.10950001 0.095734291 0.65700001
-0.099488579 0.095734291 0.65700001
-0.098237149 0.095734291 0.65700001
-0.09698572 0.095734291 0.65700001
-0.095442861 0.095442861 0.65500003
-0.094914295 0.096171431 0.66000003
-0.093799055 0.09631715 0.66100001
-0.092680007 0.096462861 0.66200006
-0.091419056 0.096462861 0.66200006
-0.090158097 0.096462861 0.66200006
-0.088897146 0.096462861 0.66200006
-0.087768577 0.096608579 0.66300005
-0.086375244 0.096462861 0.66200006
-0.08524286 0.096608579 0.66300005
-0.083980009 0.096608579 0.66300005
-0.08296667 0.096900009 0.66500002
-0.081700005 0.096900009 0.66500002
-0.080554292 0.09704572 0.66600001
-0.079285719 0.09704572 0.66600001
-0.078134291 0.097191438 0.66700006
-0.076863818 0.097191438 0.66700006
-0.075593337 0.097191438 0.66700006
-0.074545719 0.09748286 0.66900003
-0.073271431 0.09748286 0.66900003
-0.071997151 0.09748286 0.66900003
-0.070828579 0.097628579 0.67000002
-0.069656193 0.09777429 0.671
-0.068480007 0.097920008 0.67200005
-0.067200005 0.097920008 0.67200005
-0.065920003 0.097920008 0.67200005
-0.064832382 0.098211437 0.67400002
-0.063548572 0.098211437 0.67400002
-0.062264767 0.098211437 0.67400002
-0.061071433 0.098357148 0.67500001
-0.05978572 0.098357148 0.67500001
-0.058586672 0.098502867 0.67600006
-0.057299051 0.098502867 0.67600006
-0.056011431 0.098502867 0.67600006
-0.054723814 0.098502867 0.67600006
-0.053673338 0.098940007 0.67900002
-0.052611433 0.099377148 0.68200004
-0.051387623 0.099522866 0.68300003
-0.050160002 0.099668577 0.68400002
-0.048857145 0.099668577 0.68400002
-0.047554288 0.099668577 0.68400002
-0.04638667 0.099960007 0.68600005
-0.045145717 0.10010572 0.68700004
-0.043964766 0.10039715 0.68900001
-0.04271429 0.10054287 0.69000006
-0.041400004 0.10054287 0.69000006
-0.040085718 0.10054287 0.69000006
-0.038771432 0.10054287 0.69000006
-0.037457146 0.10054287 0.69000006
-0.036090478 0.10039715 0.68900001
-0.034778096 0.10039715 0.68900001
-0.034534287 0.10360286 0.71100003
-0.033180002 0.10360286 0.71100003
-0.031780954 0.10345715 0.71000004
-0.030428573 0.10345715 0.71000004
-0.029117145 0.10360286 0.71100003
-0.1222 0.097133338 0.65800005
-0.12094668 0.097133338 0.65800005
-0.11969334 0.097133338 0.65800005
-0.11880001 0.097428575 0.66000003
-0.11718667 0.097133338 0.65800005
-0.11593334 0.097133338 0.65800005
-0.11468001 0.097133338 0.65800005
-0.11342667 0.097133338 0.65800005
-0.11200286 0.09698572 0.65700001
-0.11058287 0.096838102 0.65600002
-0.10883334 0.096395247 0.65300006
-0.10758953 0.096395247 0.65300006
-0.10634572 0.096395247 0.65300006
-0.10494096 0.096247628 0.65200001
-0.10261429 0.096395247 0.65300006
-0.10137048 0.096395247 0.65300006
-0.10043334 0.096690483 0.65500003
-0.09918572 0.096690483 0.65500003
-0.097938098 0.096690483 0.65500003
-0.096395247 0.096395247 0.65300006
-0.095151432 0.096395247 0.65300006
-0.093907624 0.096395247 0.65300006
-0.092663817 0.096395247 0.65300006
-0.091420002 0.096395247 0.65300006
-0.090590484 0.096838102 0.65600002
-0.089613341 0.097133338 0.65800005
-0.088628575 0.097428575 0.66000003
-0.087371431 0.097428575 0.66000003
-0.086114295 0.097428575 0.66000003
-0.084857151 0.097428575 0.66000003
-0.083600007 0.097428575 0.66000003
-0.082467623 0.097576194 0.66100001
-0.081331432 0.097723819 0.66200006
-0.080191433 0.097871438 0.66300005
-0.079166673 0.098166674 0.66500002
-0.078017145 0.098314293 0.66600001
-0.07674858 0.098314293 0.66600001
-0.075480007 0.098314293 0.66600001
-0.074322864 0.098461911 0.66700006
-0.073052384 0.098461911 0.66700006
-0.071781911 0.098461911 0.66700006
-0.070722863 0.098757148 0.66900003
-0.069552384 0.098904766 0.67000002
-0.068276197 0.098904766 0.67000002
-0.067100003 0.099052384 0.671
-0.065920003 0.099200003 0.67200005
-0.064640008 0.099200003 0.67200005
-0.063548572 0.099495247 0.67400002
-0.062264767 0.099495247 0.67400002
-0.061071433 0.099642865 0.67500001
-0.05978572 0.099642865 0.67500001
-0.058586672 0.099790484 0.67600006
-0.057299051 0.099790484 0.67600006
-0.056011431 0.099790484 0.67600006
-0.054723814 0.099790484 0.67600006
-0.053673338 0.10023334 0.67900002
-0.052457146 0.10038096 0.68000001
-0.051312383 0.10067619 0.68200004
-0.05008667 0.10082382 0.68300003
-0.048857145 0.10097144 0.68400002
-0.047554288 0.10097144 0.68400002
-0.04638667 0.10126667 0.68600005
-0.045145717 0.10141429 0.68700004
-0.043964766 0.10170953 0.68900001
-0.04271429 0.10185715 0.69000006
-0.041400004 0.10185715 0.69000006
-0.040085718 0.10185715 0.69000006
-0.038771432 0.10185715 0.69000006
-0.037402861 0.10170953 0.68900001
-0.12326572 0.098237149 0.65700001
-0.12201429 0.098237149 0.65700001
-0.12094668 0.098386675 0.65800005
-0.11951143 0.098237149 0.65700001
-0.11826001 0.098237149 0.65700001
-0.11718667 0.098386675 0.65800005
-0.11575715 0.098237149 0.65700001
-0.11450572 0.098237149 0.65700001
-0.11342667 0.098386675 0.65800005
-0.11200286 0.098237149 0.65700001
-0.11058287 0.098087624 0.65600002
-0.10883334 0.097639054 0.65300006
-0.10758953 0.097639054 0.65300006
-0.10618287 0.097489528 0.65200001
-0.10494096 0.097489528 0.65200001
-0.10369905 0.097489528 0.65200001
-0.10245715 0.097489528 0.65200001
-0.10121524 0.097489528 0.65200001
-0.10012668 0.097639054 0.65300006
-0.098882861 0.097639054 0.65300006
-0.097639054 0.097639054 0.65300006
-0.096395247 0.097639054 0.65300006
-0.095005721 0.097489528 0.65200001
-0.093763813 0.097489528 0.65200001
-0.092663817 0.097639054 0.65300006
-0.091420002 0.097639054 0.65300006
-0.090452388 0.097938098 0.65500003
-0.089477152 0.098237149 0.65700001
-0.088360004 0.098386675 0.65800005
-0.087106675 0.098386675 0.65800005
-0.085853338 0.098386675 0.65800005
-0.084600009 0.098386675 0.65800005
-0.083600007 0.098685719 0.66000003
-0.082342863 0.098685719 0.66000003
-0.081208579 0.098835245 0.66100001
-0.080070481 0.09898477 0.66200006
-0.078928575 0.099134289 0.66300005
-0.077665716 0.099134289 0.66300005
-0.076633342 0.09943334 0.66500002
-0.075480007 0.099582866 0.66600001
-0.074211434 0.099582866 0.66600001
-0.073052384 0.099732384 0.66700006
-0.071781911 0.099732384 0.66700006
-0.070722863 0.10003144 0.66900003
-0.069448575 0.10003144 0.66900003
-0.068276197 0.10018096 0.67000002
-0.067100003 0.10033048 0.671
-0.065821908 0.10033048 0.671
-0.064640008 0.10048001 0.67200005
-0.063548572 0.10077906 0.67400002
-0.062264767 0.10077906 0.67400002
-0.060980957 0.10077906 0.67400002
-0.05978572 0.10092857 0.67500001
-0.058586672 0.1010781 0.67600006
-0.057299051 0.1010781 0.67600006
-0.056011431 0.1010781 0.67600006
-0.054885719 0.10137715 0.67800003
-0.053752385 0.1016762 0.68000001
-0.052611433 0.10197525 0.68200004
-0.051312383 0.10197525 0.68200004
-0.05008667 0.10212477 0.68300003
-0.048857145 0.10227429 0.68400002
-0.047693338 0.10257334 0.68600005
-0.046454288 0.10272286 0.68700004
-0.045342859 0.10317144 0.69000006
-0.044220004 0.10362001 0.69300002
-0.042900003 0.10362001 0.69300002
-0.041460004 0.10332096 0.69100004
-0.1230781 0.099337146 0.65600002
-0.12182858 0.099337146 0.65600002
-0.12057906 0.099337146 0.65600002
-0.11932953 0.099337146 0.65600002
-0.11808001 0.099337146 0.65600002
-0.11683048 0.099337146 0.65600002
-0.11575715 0.099488579 0.65700001
-0.11468001 0.099640004 0.65800005
-0.11325429 0.099488579 0.65700001
-0.11183239 0.099337146 0.65600002
-0.1104143 0.09918572 0.65500003
-0.10883334 0.098882861 0.65300006
-0.10742477 0.098731436 0.65200001
-0.10618287 0.098731436 0.65200001
-0.10478 0.098580003 0.65100002
-0.10354 0.098580003 0.65100002
-0.10245715 0.098731436 0.65200001
-0.10121524 0.098731436 0.65200001
-0.099973343 0.098731436 0.65200001
-0.098731436 0.098731436 0.65200001
-0.097489528 0.098731436 0.65200001
-0.096395247 0.098882861 0.65300006
-0.095005721 0.098731436 0.65200001
-0.093763813 0.098731436 0.65200001
-0.092521913 0.098731436 0.65200001
-0.091420002 0.098882861 0.65300006
-0.090590484 0.099337146 0.65600002
-0.089477152 0.099488579 0.65700001
-0.088225722 0.099488579 0.65700001
-0.087106675 0.099640004 0.65800005
-0.085853338 0.099640004 0.65800005
-0.084600009 0.099640004 0.65800005
-0.083346672 0.099640004 0.65800005
-0.082342863 0.099942863 0.66000003
-0.081208579 0.10009429 0.66100001
-0.080070481 0.10024572 0.66200006
-0.07880953 0.10024572 0.66200006
-0.077665716 0.10039715 0.66300005
-0.076633342 0.10070001 0.66500002
-0.075480007 0.10085143 0.66600001
-0.074211434 0.10085143 0.66600001
-0.073052384 0.10100286 0.66700006
-0.071781911 0.10100286 0.66700006
-0.070511431 0.10100286 0.66700006
-0.069448575 0.10130572 0.66900003
-0.068276197 0.10145715 0.67000002
-0.067000002 0.10145715 0.67000002
-0.065821908 0.10160857 0.671
-0.064640008 0.10176001 0.67200005
-0.063360006 0.10176001 0.67200005
-0.062264767 0.10206287 0.67400002
-0.060980957 0.10206287 0.67400002
-0.05978572 0.10221429 0.67500001
-0.058586672 0.10236572 0.67600006
-0.057299051 0.10236572 0.67600006
-0.056011431 0.10236572 0.67600006
-0.054885719 0.10266858 0.67800003
-0.053752385 0.10297143 0.68000001
-0.052457146 0.10297143 0.68000001
-0.051312383 0.10327429 0.68200004
-0.050013337 0.10327429 0.68200004
-0.048857145 0.10357715 0.68400002
-0.047554288 0.10357715 0.68400002
-0.046860002 0.10494 0.69300002
-0.045342859 0.10448572 0.69000006
-0.044347622 0.10524286 0.69500005
-0.043023814 0.10524286 0.69500005
-0.041580003 0.10494 0.69300002
-0.12251525 0.10012668 0.65300006
-0.12164287 0.10043334 0.65500003
-0.12002762 0.10012668 0.65300006
-0.11860191 0.099973343 0.65200001
-0.11754001 0.10012668 0.65300006
-0.11629619 0.10012668 0.65300006
-0.11505239 0.10012668 0.65300006
-0.11276286 0.099206671 0.64700001
-0.11170287 0.099360004 0.648
-0.11007715 0.10012668 0.65300006
-0.10883334 0.10012668 0.65300006
-0.10742477 0.099973343 0.65200001
-0.10602 0.099820003 0.65100002
-0.10478 0.099820003 0.65100002
-0.10338096 0.09966667 0.65000004
-0.1023 0.099820003 0.65100002
-0.10106 0.099820003 0.65100002
-0.099973343 0.099973343 0.65200001
-0.098731436 0.099973343 0.65200001
-0.097489528 0.099973343 0.65200001
-0.096247628 0.099973343 0.65200001
-0.095005721 0.099973343 0.65200001
