# .PCD v0.7 - Point Cloud Data file format
VERSION 0.7
FIELDS x y z
SIZE 4 4 4
TYPE F F F
COUNT 1 1 1
WIDTH 1395
HEIGHT 1
VIEWPOINT 0 0 0 1 0 0 0
POINTS 1395
DATA ascii
-0.00048380956 0.080796197 0.50800002
0.00048380956 0.080796197 0.50800002
0.0014485716 0.08063715 0.50700003
0.0024142859 0.08063715 0.50700003
0.0033800001 0.08063715 0.50700003
0.0043457146 0.08063715 0.50700003
0.005311429 0.08063715 0.50700003
0.0062771435 0.08063715 0.50700003
0.0072285719 0.080478102 0.50600004
0.0081923818 0.080478102 0.50600004
0.0091561908 0.080478102 0.50600004
0.010100001 0.080319054 0.505
0.011061906 0.080319054 0.505
0.01202381 0.080319054 0.505
0.012985715 0.080319054 0.505
0.013920001 0.080160007 0.50400001
0.014880001 0.080160007 0.50400001
0.015840001 0.080160007 0.50400001
0.016800001 0.080160007 0.50400001
0.017760001 0.080160007 0.50400001
0.018720001 0.080160007 0.50400001
0.019640954 0.080000959 0.50300002
0.020640001 0.080160007 0.50400001
0.021600001 0.080160007 0.50400001
0.022515239 0.080000959 0.50300002
0.023520002 0.080160007 0.50400001
0.024480002 0.080160007 0.50400001
0.025440002 0.080160007 0.50400001
0.026400002 0.080160007 0.50400001
0.027414288 0.080319054 0.505
0.028376192 0.080319054 0.505
0.029396193 0.080478102 0.50600004
0.030420002 0.08063715 0.50700003
0.031385716 0.08063715 0.50700003
0.032351431 0.08063715 0.50700003
0.033317145 0.08063715 0.50700003
0.034282859 0.08063715 0.50700003
-0.01422381 0.082890481 0.51500005
-0.013268572 0.083051436 0.51600003
-0.012261906 0.082890481 0.51500005
-0.011280953 0.082890481 0.51500005
-0.010280001 0.082729526 0.514
-0.0093009528 0.082729526 0.514
-0.0083057145 0.082568578 0.51300001
-0.0073285718 0.082568578 0.51300001
-0.006326667 0.082246669 0.51100004
-0.0053428574 0.082085721 0.51000005
-0.0043714289 0.082085721 0.51000005
-0.0034000003 0.082085721 0.51000005
-0.0024238096 0.081924766 0.509
-0.0014542858 0.081924766 0.509
-0.00048380956 0.081763811 0.50800002
0.00048476193 0.081924766 0.509
0.0014514286 0.081763811 0.50800002
0.0024190478 0.081763811 0.50800002
0.0033800001 0.081602864 0.50700003
0.0043457146 0.081602864 0.50700003
0.005311429 0.081602864 0.50700003
0.0062771435 0.081602864 0.50700003
0.0072428575 0.081602864 0.50700003
0.0082085719 0.081602864 0.50700003
0.0091561908 0.081441909 0.50600004
0.010120001 0.081441909 0.50600004
0.011083811 0.081441909 0.50600004
0.01202381 0.081280954 0.505
0.012985715 0.081280954 0.505
0.01394762 0.081280954 0.505
0.014880001 0.081120007 0.50400001
0.015840001 0.081120007 0.50400001
0.016800001 0.081120007 0.50400001
0.017760001 0.081120007 0.50400001
0.018720001 0.081120007 0.50400001
0.019680001 0.081120007 0.50400001
0.020640001 0.081120007 0.50400001
0.021600001 0.081120007 0.50400001
0.022560002 0.081120007 0.50400001
0.023520002 0.081120007 0.50400001
0.024480002 0.081120007 0.50400001
0.025490478 0.081280954 0.505
0.026452383 0.081280954 0.505
0.027468573 0.081441909 0.50600004
0.028488573 0.081602864 0.50700003
0.029454287 0.081602864 0.50700003
0.030420002 0.081602864 0.50700003
0.031385716 0.081602864 0.50700003
0.032351431 0.081602864 0.50700003
0.033317145 0.081602864 0.50700003
-0.013268572 0.084034294 0.51600003
-0.012285715 0.084034294 0.51600003
-0.011302858 0.084034294 0.51600003
-0.010300001 0.083871432 0.51500005
-0.0093009528 0.083708577 0.514
-0.0083057145 0.083545722 0.51300001
-0.0073285718 0.083545722 0.51300001
-0.006326667 0.083220005 0.51100004
-0.0053428574 0.08305715 0.51000005
-0.0043714289 0.08305715 0.51000005
-0.0034000003 0.08305715 0.51000005
-0.0024285717 0.08305715 0.51000005
-0.001457143 0.08305715 0.51000005
-0.00048476193 0.082894288 0.509
0.00048476193 0.082894288 0.509
0.0014514286 0.082731433 0.50800002
0.0024190478 0.082731433 0.50800002
0.003386667 0.082731433 0.50800002
0.0043457146 0.082568578 0.50700003
0.005311429 0.082568578 0.50700003
0.0062771435 0.082568578 0.50700003
0.0072428575 0.082568578 0.50700003
0.0082085719 0.082568578 0.50700003
0.0091742864 0.082568578 0.50700003
0.010140001 0.082568578 0.50700003
0.011083811 0.082405716 0.50600004
0.01204762 0.082405716 0.50600004
0.013011429 0.082405716 0.50600004
0.013975239 0.082405716 0.50600004
0.014909524 0.082242861 0.505
0.01587143 0.082242861 0.505
0.016800001 0.082080007 0.50400001
0.017760001 0.082080007 0.50400001
0.018720001 0.082080007 0.50400001
0.019680001 0.082080007 0.50400001
0.020640001 0.082080007 0.50400001
0.021600001 0.082080007 0.50400001
0.022560002 0.082080007 0.50400001
0.023566669 0.082242861 0.505
0.024528572 0.082242861 0.505
0.025490478 0.082242861 0.505
0.026504764 0.082405716 0.50600004
0.027522858 0.082568578 0.50700003
0.028488573 0.082568578 0.50700003
0.029454287 0.082568578 0.50700003
0.030420002 0.082568578 0.50700003
0.031385716 0.082568578 0.50700003
0.032351431 0.082568578 0.50700003
0.033317145 0.082568578 0.50700003
-0.013294287 0.085181907 0.51700002
-0.012309524 0.085181907 0.51700002
-0.011302858 0.085017152 0.51600003
-0.01032 0.085017152 0.51600003
-0.0093190484 0.08485239 0.51500005
-0.0083219055 0.084687628 0.514
-0.0073285718 0.084522866 0.51300001
-0.006339048 0.084358104 0.51200002
-0.0053533339 0.084193341 0.51100004
-0.0043800003 0.084193341 0.51100004
-0.0034066669 0.084193341 0.51100004
-0.0024285717 0.084028579 0.51000005
-0.001457143 0.084028579 0.51000005
-0.00048571432 0.084028579 0.51000005
0.00048476193 0.083863817 0.509
0.0014514286 0.083699055 0.50800002
0.0024190478 0.083699055 0.50800002
0.003386667 0.083699055 0.50800002
0.004354286 0.083699055 0.50800002
0.005311429 0.083534293 0.50700003
0.0062771435 0.083534293 0.50700003
0.0072428575 0.083534293 0.50700003
0.0082085719 0.083534293 0.50700003
0.0091742864 0.083534293 0.50700003
0.010140001 0.083534293 0.50700003
0.011105715 0.083534293 0.50700003
0.01207143 0.083534293 0.50700003
0.013037143 0.083534293 0.50700003
0.014002858 0.083534293 0.50700003
0.014939048 0.083369531 0.50600004
0.015902858 0.083369531 0.50600004
0.016833335 0.083204769 0.505
0.017795239 0.083204769 0.505
0.018757144 0.083204769 0.505
0.019680001 0.083040006 0.50400001
0.020640001 0.083040006 0.50400001
0.021600001 0.083040006 0.50400001
0.022604764 0.083204769 0.505
0.023566669 0.083204769 0.505
0.024528572 0.083204769 0.505
0.025540954 0.083369531 0.50600004
0.026504764 0.083369531 0.50600004
0.027522858 0.083534293 0.50700003
0.028488573 0.083534293 0.50700003
0.029454287 0.083534293 0.50700003
0.030420002 0.083534293 0.50700003
0.031447623 0.083699055 0.50800002
0.032415241 0.083699055 0.50800002
0.033382859 0.083699055 0.50800002
-0.013294287 0.086166672 0.51700002
-0.012333334 0.086333342 0.51800001
-0.011324762 0.086166672 0.51700002
-0.01032 0.086000003 0.51600003
-0.009337143 0.086000003 0.51600003
-0.0083380956 0.085833341 0.51500005
-0.0073428578 0.085666671 0.514
-0.006351429 0.085500002 0.51300001
-0.0053638099 0.08533334 0.51200002
-0.0043800003 0.08516667 0.51100004
-0.0034066669 0.08516667 0.51100004
-0.0024333335 0.08516667 0.51100004
-0.001457143 0.085000008 0.51000005
-0.00048571432 0.085000008 0.51000005
0.00048571432 0.085000008 0.51000005
0.0014542858 0.084833339 0.509
0.0024238096 0.084833339 0.509
0.003386667 0.084666669 0.50800002
0.004354286 0.084666669 0.50800002
0.005321905 0.084666669 0.50800002
0.006289524 0.084666669 0.50800002
0.0072428575 0.084500007 0.50700003
0.0082085719 0.084500007 0.50700003
0.0091742864 0.084500007 0.50700003
0.010140001 0.084500007 0.50700003
0.011105715 0.084500007 0.50700003
0.01207143 0.084500007 0.50700003
0.013037143 0.084500007 0.50700003
0.014002858 0.084500007 0.50700003
0.014968572 0.084500007 0.50700003
0.015902858 0.084333338 0.50600004
0.016866667 0.084333338 0.50600004
0.017795239 0.084166676 0.505
0.018757144 0.084166676 0.505
0.019719049 0.084166676 0.505
0.020640001 0.084000006 0.50400001
0.021642858 0.084166676 0.505
0.022604764 0.084166676 0.505
0.023566669 0.084166676 0.505
0.024528572 0.084166676 0.505
0.025540954 0.084333338 0.50600004
0.026557144 0.084500007 0.50700003
0.027522858 0.084500007 0.50700003
0.028488573 0.084500007 0.50700003
0.029454287 0.084500007 0.50700003
0.030480001 0.084666669 0.50800002
0.031447623 0.084666669 0.50800002
0.032415241 0.084666669 0.50800002
0.033382859 0.084666669 0.50800002
-0.014334287 0.087488577 0.51900005
-0.013345716 0.087488577 0.51900005
-0.012357144 0.087488577 0.51900005
-0.011368572 0.087488577 0.51900005
-0.010360001 0.087320007 0.51800001
-0.0093552386 0.087151438 0.51700002
-0.0083542867 0.086982861 0.51600003
-0.0073571433 0.086814292 0.51500005
-0.00636381 0.086645722 0.514
-0.0053742859 0.086477146 0.51300001
-0.0043885717 0.086308576 0.51200002
-0.0034133336 0.086308576 0.51200002
-0.0024333335 0.086140007 0.51100004
-0.0014600001 0.086140007 0.51100004
-0.00048571432 0.085971437 0.51000005
0.00048571432 0.085971437 0.51000005
0.001457143 0.085971437 0.51000005
0.0024285717 0.085971437 0.51000005
0.0034000003 0.085971437 0.51000005
0.0043628574 0.085802861 0.509
0.0053323815 0.085802861 0.509
0.006289524 0.085634291 0.50800002
0.0072571435 0.085634291 0.50800002
0.008224762 0.085634291 0.50800002
0.009192382 0.085634291 0.50800002
0.010160001 0.085634291 0.50800002
0.011105715 0.085465722 0.50700003
0.01207143 0.085465722 0.50700003
0.013037143 0.085465722 0.50700003
0.014002858 0.085465722 0.50700003
0.014968572 0.085465722 0.50700003
0.015934287 0.085465722 0.50700003
0.016900001 0.085465722 0.50700003
0.017865716 0.085465722 0.50700003
0.018794287 0.085297145 0.50600004
0.019719049 0.085128576 0.505
0.020680953 0.085128576 0.505
0.021642858 0.085128576 0.505
0.022649525 0.085297145 0.50600004
0.023613336 0.085297145 0.50600004
0.024577145 0.085297145 0.50600004
0.025591429 0.085465722 0.50700003
0.026557144 0.085465722 0.50700003
0.027522858 0.085465722 0.50700003
0.028544763 0.085634291 0.50800002
0.029512383 0.085634291 0.50800002
0.030480001 0.085634291 0.50800002
0.031509526 0.085802861 0.509
0.032479052 0.085802861 0.509
0.033514287 0.085971437 0.51000005
-0.013345716 0.08847715 0.51900005
-0.012357144 0.08847715 0.51900005
-0.011368572 0.08847715 0.51900005
-0.010360001 0.088306673 0.51800001
-0.0093733342 0.088306673 0.51800001
-0.0083542867 0.087965719 0.51600003
-0.0073714289 0.087965719 0.51600003
-0.006376191 0.087795243 0.51500005
-0.0053742859 0.087454289 0.51300001
-0.0043971431 0.087454289 0.51300001
-0.0034133336 0.087283812 0.51200002
-0.0024380954 0.087283812 0.51200002
-0.0014600001 0.087113336 0.51100004
-0.00048666669 0.087113336 0.51100004
0.00048666669 0.087113336 0.51100004
0.001457143 0.086942866 0.51000005
0.0024285717 0.086942866 0.51000005
0.0034000003 0.086942866 0.51000005
0.0043714289 0.086942866 0.51000005
0.0053323815 0.08677239 0.509
0.006301905 0.08677239 0.509
0.0072714291 0.08677239 0.509
0.008224762 0.086601913 0.50800002
0.009192382 0.086601913 0.50800002
0.010160001 0.086601913 0.50800002
0.01112762 0.086601913 0.50800002
0.012095239 0.086601913 0.50800002
0.013037143 0.086431436 0.50700003
0.014002858 0.086431436 0.50700003
0.014968572 0.086431436 0.50700003
0.015934287 0.086431436 0.50700003
0.016900001 0.086431436 0.50700003
0.017865716 0.086431436 0.50700003
0.01883143 0.086431436 0.50700003
0.019758096 0.08626096 0.50600004
0.020680953 0.086090483 0.505
0.021685716 0.08626096 0.50600004
0.022649525 0.08626096 0.50600004
0.023660002 0.086431436 0.50700003
0.024625717 0.086431436 0.50700003
0.025591429 0.086431436 0.50700003
0.026557144 0.086431436 0.50700003
0.027522858 0.086431436 0.50700003
0.028544763 0.086601913 0.50800002
0.029570479 0.08677239 0.509
0.030540003 0.08677239 0.509
0.031509526 0.08677239 0.509
0.032542858 0.086942866 0.51000005
0.033580001 0.087113336 0.51100004
-0.013345716 0.089465722 0.51900005
-0.012357144 0.089465722 0.51900005
-0.011368572 0.089465722 0.51900005
-0.010380001 0.089465722 0.51900005
-0.0093733342 0.089293338 0.51800001
-0.0083542867 0.088948578 0.51600003
-0.0073714289 0.088948578 0.51600003
-0.006376191 0.088776194 0.51500005
-0.0053742859 0.088431433 0.51300001
-0.0043971431 0.088431433 0.51300001
-0.0034200002 0.088431433 0.51300001
-0.0024380954 0.088259056 0.51200002
-0.0014628572 0.088259056 0.51200002
-0.00048666669 0.088086672 0.51100004
0.00048666669 0.088086672 0.51100004
0.0014600001 0.088086672 0.51100004
0.0024333335 0.088086672 0.51100004
0.0034000003 0.087914288 0.51000005
0.0043714289 0.087914288 0.51000005
0.0053428574 0.087914288 0.51000005
0.006314286 0.087914288 0.51000005
0.0072857146 0.087914288 0.51000005
0.0082409531 0.087741911 0.509
0.0092104767 0.087741911 0.509
0.01018 0.087741911 0.509
0.01112762 0.087569527 0.50800002
0.012095239 0.087569527 0.50800002
0.013062858 0.087569527 0.50800002
0.014030477 0.087569527 0.50800002
0.014968572 0.087397151 0.50700003
0.015934287 0.087397151 0.50700003
0.016900001 0.087397151 0.50700003
0.017865716 0.087397151 0.50700003
0.01883143 0.087397151 0.50700003
0.019797144 0.087397151 0.50700003
0.020721907 0.087224767 0.50600004
0.021685716 0.087224767 0.50600004
0.022649525 0.087224767 0.50600004
0.023660002 0.087397151 0.50700003
0.024625717 0.087397151 0.50700003
0.025591429 0.087397151 0.50700003
0.026557144 0.087397151 0.50700003
0.027577145 0.087569527 0.50800002
0.028600954 0.087741911 0.509
0.029570479 0.087741911 0.509
0.030600002 0.087914288 0.51000005
0.031571429 0.087914288 0.51000005
0.032542858 0.087914288 0.51000005
0.033514287 0.087914288 0.51000005
-0.012357144 0.090454295 0.51900005
-0.011368572 0.090454295 0.51900005
-0.010380001 0.090454295 0.51900005
-0.0093733342 0.090280004 0.51800001
-0.0083704768 0.09010572 0.51700002
-0.0073714289 0.089931436 0.51600003
-0.006388572 0.089931436 0.51600003
-0.0053847623 0.08958286 0.514
-0.0044057146 0.08958286 0.514
-0.0034200002 0.089408576 0.51300001
-0.0024428573 0.089408576 0.51300001
-0.0014628572 0.089234293 0.51200002
-0.00048761908 0.089234293 0.51200002
0.00048666669 0.089060009 0.51100004
0.0014600001 0.089060009 0.51100004
0.0024333335 0.089060009 0.51100004
0.0034066669 0.089060009 0.51100004
0.0043714289 0.088885717 0.51000005
0.0053428574 0.088885717 0.51000005
0.006314286 0.088885717 0.51000005
0.0072857146 0.088885717 0.51000005
0.0082571432 0.088885717 0.51000005
0.0092104767 0.088711433 0.509
0.01018 0.088711433 0.509
0.011149525 0.088711433 0.509
0.012119048 0.088711433 0.509
0.013062858 0.088537149 0.50800002
0.014030477 0.088537149 0.50800002
0.014998096 0.088537149 0.50800002
0.015934287 0.088362865 0.50700003
0.016900001 0.088362865 0.50700003
0.017865716 0.088362865 0.50700003
0.01883143 0.088362865 0.50700003
0.019797144 0.088362865 0.50700003
0.020762859 0.088362865 0.50700003
0.021728573 0.088362865 0.50700003
0.022694288 0.088362865 0.50700003
0.023660002 0.088362865 0.50700003
0.024625717 0.088362865 0.50700003
0.025591429 0.088362865 0.50700003
0.026609525 0.088537149 0.50800002
0.02763143 0.088711433 0.509
0.028657144 0.088885717 0.51000005
0.029628573 0.088885717 0.51000005
0.030600002 0.088885717 0.51000005
0.031633336 0.089060009 0.51100004
0.032670479 0.089234293 0.51200002
0.03371143 0.089408576 0.51300001
0.034756191 0.08958286 0.514
0.035735242 0.08958286 0.514
-0.012357144 0.091442861 0.51900005
-0.011368572 0.091442861 0.51900005
-0.010380001 0.091442861 0.51900005
-0.0093914289 0.091442861 0.51900005
-0.0083704768 0.091090485 0.51700002
-0.0073857149 0.091090485 0.51700002
-0.006388572 0.090914294 0.51600003
-0.0054057147 0.090914294 0.51600003
-0.004414286 0.090738103 0.51500005
-0.0034266668 0.090561911 0.514
-0.0024428573 0.09038572 0.51300001
-0.0014657144 0.09038572 0.51300001
-0.00048857147 0.09038572 0.51300001
0.00048761908 0.090209529 0.51200002
0.0014628572 0.090209529 0.51200002
0.0024380954 0.090209529 0.51200002
0.0034133336 0.090209529 0.51200002
0.0043800003 0.090033337 0.51100004
0.0053533339 0.090033337 0.51100004
0.006314286 0.089857146 0.51000005
0.0072857146 0.089857146 0.51000005
0.0082571432 0.089857146 0.51000005
0.0092285722 0.089857146 0.51000005
0.0102 0.089857146 0.51000005
0.011149525 0.089680955 0.509
0.012119048 0.089680955 0.509
0.013088572 0.089680955 0.509
0.014030477 0.089504771 0.50800002
0.014998096 0.089504771 0.50800002
0.015965715 0.089504771 0.50800002
0.016900001 0.08932858 0.50700003
0.017865716 0.08932858 0.50700003
0.01883143 0.08932858 0.50700003
0.019797144 0.08932858 0.50700003
0.020762859 0.08932858 0.50700003
0.021728573 0.08932858 0.50700003
0.022694288 0.08932858 0.50700003
0.023660002 0.08932858 0.50700003
0.024625717 0.08932858 0.50700003
0.025591429 0.08932858 0.50700003
0.026609525 0.089504771 0.50800002
0.02763143 0.089680955 0.509
0.028657144 0.089857146 0.51000005
0.029686669 0.090033337 0.51100004
0.030720003 0.090209529 0.51200002
0.031757146 0.09038572 0.51300001
0.032798097 0.090561911 0.514
0.033777144 0.090561911 0.514
0.034823813 0.090738103 0.51500005
0.035874289 0.090914294 0.51600003
-0.012357144 0.092431433 0.51900005
-0.011368572 0.092431433 0.51900005
-0.010380001 0.092431433 0.51900005
-0.0093914289 0.092431433 0.51900005
-0.0083866669 0.092253342 0.51800001
-0.0073857149 0.092075244 0.51700002
-0.0064009526 0.092075244 0.51700002
-0.0054057147 0.091897152 0.51600003
-0.0044228574 0.091897152 0.51600003
-0.0034333335 0.091719054 0.51500005
-0.0024476191 0.091540955 0.514
-0.0014685715 0.091540955 0.514
-0.00048857147 0.091362864 0.51300001
0.00048857147 0.091362864 0.51300001
0.0014657144 0.091362864 0.51300001
0.0024428573 0.091362864 0.51300001
0.0034133336 0.091184765 0.51200002
0.0043800003 0.091006674 0.51100004
0.0053533339 0.091006674 0.51100004
0.006326667 0.091006674 0.51100004
0.0072857146 0.090828575 0.51000005
0.0082571432 0.090828575 0.51000005
0.0092285722 0.090828575 0.51000005
0.0102 0.090828575 0.51000005
0.011171429 0.090828575 0.51000005
0.012119048 0.090650484 0.509
0.013088572 0.090650484 0.509
0.014030477 0.090472385 0.50800002
0.014998096 0.090472385 0.50800002
0.015965715 0.090472385 0.50800002
0.016933335 0.090472385 0.50800002
0.017900953 0.090472385 0.50800002
0.018868573 0.090472385 0.50800002
0.019797144 0.090294294 0.50700003
0.020762859 0.090294294 0.50700003
0.021728573 0.090294294 0.50700003
0.022694288 0.090294294 0.50700003
0.023660002 0.090294294 0.50700003
0.024674287 0.090472385 0.50800002
0.025641907 0.090472385 0.50800002
0.026661906 0.090650484 0.509
0.027685717 0.090828575 0.51000005
0.028713334 0.091006674 0.51100004
0.029686669 0.091006674 0.51100004
0.030780002 0.091362864 0.51300001
0.031819049 0.091540955 0.514
0.032861907 0.091719054 0.51500005
0.033842858 0.091719054 0.51500005
0.03489143 0.091897152 0.51600003
-0.012380953 0.093600005 0.52000004
-0.011390476 0.093600005 0.52000004
-0.010400001 0.093600005 0.52000004
-0.0093914289 0.093420006 0.51900005
-0.0083866669 0.093240008 0.51800001
-0.0074000005 0.093240008 0.51800001
-0.0064009526 0.093060009 0.51700002
-0.0054057147 0.092880003 0.51600003
-0.0044228574 0.092880003 0.51600003
-0.0034400001 0.092880003 0.51600003
-0.0024523812 0.092700005 0.51500005
-0.0014685715 0.092520006 0.514
-0.00048952387 0.092520006 0.514
0.00048952387 0.092520006 0.514
0.0014657144 0.092340007 0.51300001
0.0024428573 0.092340007 0.51300001
0.0034200002 0.092340007 0.51300001
0.0043971431 0.092340007 0.51300001
0.0053638099 0.092160009 0.51200002
0.006339048 0.092160009 0.51200002
0.0073000006 0.091980003 0.51100004
0.0082733342 0.091980003 0.51100004
0.0092466669 0.091980003 0.51100004
0.0102 0.091800004 0.51000005
0.011171429 0.091800004 0.51000005
0.012142858 0.091800004 0.51000005
0.013114287 0.091800004 0.51000005
0.014058096 0.091620006 0.509
0.01502762 0.091620006 0.509
0.015997143 0.091620006 0.509
0.016966667 0.091620006 0.509
0.017900953 0.091440007 0.50800002
0.018868573 0.091440007 0.50800002
0.019836191 0.091440007 0.50800002
0.020762859 0.091260009 0.50700003
0.021771429 0.091440007 0.50800002
0.022739049 0.091440007 0.50800002
0.023706669 0.091440007 0.50800002
0.024674287 0.091440007 0.50800002
0.025641907 0.091440007 0.50800002
0.026714288 0.091800004 0.51000005
0.027685717 0.091800004 0.51000005
0.028769527 0.092160009 0.51200002
0.029744763 0.092160009 0.51200002
0.030780002 0.092340007 0.51300001
0.031880956 0.092700005 0.51500005
0.032861907 0.092700005 0.51500005
0.033908572 0.092880003 0.51600003
0.03489143 0.092880003 0.51600003
-0.011390476 0.094590485 0.52000004
-0.010400001 0.094590485 0.52000004
-0.0093914289 0.094408579 0.51900005
-0.0084028579 0.094408579 0.51900005
-0.0074000005 0.094226673 0.51800001
-0.0064009526 0.094044767 0.51700002
-0.0054161907 0.094044767 0.51700002
-0.0044228574 0.093862861 0.51600003
-0.0034400001 0.093862861 0.51600003
-0.0024523812 0.093680955 0.51500005
-0.0014714287 0.093680955 0.51500005
-0.00048952387 0.093499057 0.514
0.00048952387 0.093499057 0.514
0.0014657144 0.093317151 0.51300001
0.0024428573 0.093317151 0.51300001
0.0034200002 0.093317151 0.51300001
0.0043971431 0.093317151 0.51300001
0.0053742859 0.093317151 0.51300001
0.006339048 0.093135245 0.51200002
0.0073142862 0.093135245 0.51200002
0.0082733342 0.092953339 0.51100004
0.0092466669 0.092953339 0.51100004
0.010220001 0.092953339 0.51100004
0.011193334 0.092953339 0.51100004
0.012142858 0.092771433 0.51000005
0.013114287 0.092771433 0.51000005
0.014085716 0.092771433 0.51000005
0.015057144 0.092771433 0.51000005
0.015997143 0.092589527 0.509
0.017000001 0.092771433 0.51000005
0.017936192 0.092589527 0.509
0.018905716 0.092589527 0.509
0.01987524 0.092589527 0.509
0.020803811 0.092407621 0.50800002
0.021771429 0.092407621 0.50800002
0.022739049 0.092407621 0.50800002
0.023706669 0.092407621 0.50800002
0.024722859 0.092589527 0.509
0.025692383 0.092589527 0.509
0.026714288 0.092771433 0.51000005
0.027685717 0.092771433 0.51000005
0.028769527 0.093135245 0.51200002
0.029802859 0.093317151 0.51300001
0.030840002 0.093499057 0.514
0.031880956 0.093680955 0.51500005
0.032925718 0.093862861 0.51600003
0.033908572 0.093862861 0.51600003
0.03489143 0.093862861 0.51600003
-0.011434287 0.095948577 0.52200001
-0.01044 0.095948577 0.52200001
-0.0094095245 0.095580958 0.52000004
-0.0084028579 0.095397152 0.51900005
-0.0074000005 0.095213339 0.51800001
-0.0064133336 0.095213339 0.51800001
-0.0054161907 0.095029533 0.51700002
-0.0044228574 0.09484572 0.51600003
-0.0034400001 0.09484572 0.51600003
-0.002457143 0.09484572 0.51600003
-0.0014714287 0.094661914 0.51500005
-0.00048952387 0.094478101 0.514
0.00048952387 0.094478101 0.514
0.0014685715 0.094478101 0.514
0.0024428573 0.094294295 0.51300001
0.0034200002 0.094294295 0.51300001
0.0043971431 0.094294295 0.51300001
0.0053742859 0.094294295 0.51300001
0.006351429 0.094294295 0.51300001
0.0073142862 0.094110481 0.51200002
0.0082895244 0.094110481 0.51200002
0.0092466669 0.093926676 0.51100004
0.010220001 0.093926676 0.51100004
0.011193334 0.093926676 0.51100004
0.012142858 0.093742862 0.51000005
0.013114287 0.093742862 0.51000005
0.014085716 0.093742862 0.51000005
0.015057144 0.093742862 0.51000005
0.016028572 0.093742862 0.51000005
0.017000001 0.093742862 0.51000005
0.017936192 0.093559057 0.509
0.018942859 0.093742862 0.51000005
0.01987524 0.093559057 0.509
0.020844763 0.093559057 0.509
0.021814287 0.093559057 0.509
0.02278381 0.093559057 0.509
0.023753336 0.093559057 0.509
0.02477143 0.093742862 0.51000005
0.025742859 0.093742862 0.51000005
0.026714288 0.093742862 0.51000005
0.027740002 0.093926676 0.51100004
0.028769527 0.094110481 0.51200002
0.029802859 0.094294295 0.51300001
0.030840002 0.094478101 0.514
0.031942859 0.09484572 0.51600003
0.032925718 0.09484572 0.51600003
0.033908572 0.09484572 0.51600003
0.03489143 0.09484572 0.51600003
-0.011456192 0.097128578 0.523
-0.01046 0.097128578 0.523
-0.0094095245 0.096571438 0.52000004
-0.0084028579 0.096385717 0.51900005
-0.0074000005 0.096200004 0.51800001
-0.0064133336 0.096200004 0.51800001
-0.0054161907 0.096014291 0.51700002
-0.0044228574 0.095828578 0.51600003
-0.0034400001 0.095828578 0.51600003
-0.002457143 0.095828578 0.51600003
-0.0014714287 0.095642865 0.51500005
-0.0004904762 0.095642865 0.51500005
0.0004904762 0.095642865 0.51500005
0.0014685715 0.095457152 0.514
0.0024476191 0.095457152 0.514
0.0034266668 0.095457152 0.514
0.0043971431 0.095271438 0.51300001
0.0053742859 0.095271438 0.51300001
0.006351429 0.095271438 0.51300001
0.0073285718 0.095271438 0.51300001
0.0083057145 0.095271438 0.51300001
0.0092647625 0.095085718 0.51200002
0.010240001 0.095085718 0.51200002
0.011193334 0.094900005 0.51100004
0.012166668 0.094900005 0.51100004
0.01314 0.094900005 0.51100004
0.014113334 0.094900005 0.51100004
0.015057144 0.094714291 0.51000005
0.016028572 0.094714291 0.51000005
0.017000001 0.094714291 0.51000005
0.01797143 0.094714291 0.51000005
0.018942859 0.094714291 0.51000005
0.019914286 0.094714291 0.51000005
0.020885715 0.094714291 0.51000005
0.021857144 0.094714291 0.51000005
0.022828573 0.094714291 0.51000005
0.023800002 0.094714291 0.51000005
0.02477143 0.094714291 0.51000005
0.025742859 0.094714291 0.51000005
0.026714288 0.094714291 0.51000005
0.027740002 0.094900005 0.51100004
0.028825717 0.095271438 0.51300001
0.029802859 0.095271438 0.51300001
0.030960003 0.095828578 0.51600003
0.031942859 0.095828578 0.51600003
0.032925718 0.095828578 0.51600003
0.033908572 0.095828578 0.51600003
-0.011456192 0.098124765 0.523
-0.01046 0.098124765 0.523
-0.0094457148 0.097937152 0.52200001
-0.0084028579 0.09737429 0.51900005
-0.007414286 0.09737429 0.51900005
-0.0064133336 0.09718667 0.51800001
-0.0054266672 0.09718667 0.51800001
-0.0044314289 0.096999057 0.51700002
-0.0034400001 0.096811436 0.51600003
-0.002457143 0.096811436 0.51600003
-0.0014742858 0.096811436 0.51600003
-0.0004904762 0.096623816 0.51500005
0.00048952387 0.096436195 0.514
0.0014685715 0.096436195 0.514
0.0024476191 0.096436195 0.514
0.0034266668 0.096436195 0.514
0.0044057146 0.096436195 0.514
0.0053742859 0.096248575 0.51300001
0.006351429 0.096248575 0.51300001
0.0073285718 0.096248575 0.51300001
0.0083057145 0.096248575 0.51300001
0.0092828581 0.096248575 0.51300001
0.010240001 0.096060961 0.51200002
0.011215239 0.096060961 0.51200002
0.012190477 0.096060961 0.51200002
0.013165715 0.096060961 0.51200002
0.014113334 0.095873341 0.51100004
0.015086668 0.095873341 0.51100004
0.01606 0.095873341 0.51100004
0.017033335 0.095873341 0.51100004
0.01797143 0.09568572 0.51000005
0.018942859 0.09568572 0.51000005
0.019914286 0.09568572 0.51000005
0.020885715 0.09568572 0.51000005
0.021857144 0.09568572 0.51000005
0.022828573 0.09568572 0.51000005
0.023800002 0.09568572 0.51000005
0.02477143 0.09568572 0.51000005
0.025742859 0.09568572 0.51000005
0.026766669 0.095873341 0.51100004
0.027740002 0.095873341 0.51100004
0.028825717 0.096248575 0.51300001
0.029860955 0.096436195 0.514
0.030960003 0.096811436 0.51600003
0.031942859 0.096811436 0.51600003
0.032925718 0.096811436 0.51600003
0.033908572 0.096811436 0.51600003
-0.01046 0.09912096 0.523
-0.0094457148 0.098931432 0.52200001
-0.0084514292 0.098931432 0.52200001
-0.007428572 0.098552391 0.52000004
-0.0064380956 0.098552391 0.52000004
-0.0054371431 0.098362863 0.51900005
-0.0044485717 0.098362863 0.51900005
-0.003446667 0.097983815 0.51700002
-0.0024619049 0.097983815 0.51700002
-0.0014742858 0.097794294 0.51600003
-0.0004914286 0.097794294 0.51600003
0.0004914286 0.097794294 0.51600003
0.0014742858 0.097794294 0.51600003
0.0024523812 0.097604766 0.51500005
0.0034266668 0.097415246 0.514
0.0044057146 0.097415246 0.514
0.0053847623 0.097415246 0.514
0.006351429 0.097225718 0.51300001
0.0073285718 0.097225718 0.51300001
0.0083057145 0.097225718 0.51300001
0.0092828581 0.097225718 0.51300001
0.010260001 0.097225718 0.51300001
0.011237144 0.097225718 0.51300001
0.012214286 0.097225718 0.51300001
0.01319143 0.097225718 0.51300001
0.014168573 0.097225718 0.51300001
0.015116191 0.097036198 0.51200002
0.016091429 0.097036198 0.51200002
0.017066669 0.097036198 0.51200002
0.018041905 0.097036198 0.51200002
0.018980002 0.09684667 0.51100004
0.019953335 0.09684667 0.51100004
0.020926667 0.09684667 0.51100004
0.021900002 0.09684667 0.51100004
0.022873335 0.09684667 0.51100004
0.023846669 0.09684667 0.51100004
0.024868574 0.097036198 0.51200002
0.02584381 0.097036198 0.51200002
0.02687143 0.097225718 0.51300001
0.027957145 0.097604766 0.51500005
0.028994288 0.097794294 0.51600003
0.029977145 0.097794294 0.51600003
0.030960003 0.097794294 0.51600003
0.032004762 0.097983815 0.51700002
0.032989524 0.097983815 0.51700002
-0.01046 0.10011715 0.523
-0.0094638104 0.10011715 0.523
-0.0084514292 0.099925719 0.52200001
-0.0074428576 0.099734291 0.52100003
-0.0064380956 0.099542864 0.52000004
-0.0054371431 0.099351436 0.51900005
-0.0044485717 0.099351436 0.51900005
-0.0034600003 0.099351436 0.51900005
-0.0024619049 0.09896858 0.51700002
-0.0014771429 0.09896858 0.51700002
-0.0004914286 0.098777153 0.51600003
0.0004914286 0.098777153 0.51600003
0.0014742858 0.098777153 0.51600003
0.002457143 0.098777153 0.51600003
0.0034333335 0.098585717 0.51500005
0.004414286 0.098585717 0.51500005
0.0053847623 0.09839429 0.514
0.00636381 0.09839429 0.514
0.0073428578 0.09839429 0.514
0.0083219055 0.09839429 0.514
0.0092828581 0.098202862 0.51300001
0.010280001 0.09839429 0.514
0.011237144 0.098202862 0.51300001
0.012214286 0.098202862 0.51300001
0.01319143 0.098202862 0.51300001
0.014168573 0.098202862 0.51300001
0.015145715 0.098202862 0.51300001
0.016091429 0.098011434 0.51200002
0.017066669 0.098011434 0.51200002
0.018041905 0.098011434 0.51200002
0.019017145 0.098011434 0.51200002
0.019953335 0.097820006 0.51100004
0.020926667 0.097820006 0.51100004
0.021900002 0.097820006 0.51100004
0.022873335 0.097820006 0.51100004
0.023893334 0.098011434 0.51200002
0.024868574 0.098011434 0.51200002
0.025894288 0.098202862 0.51300001
0.026923811 0.09839429 0.514
0.02801143 0.098777153 0.51600003
0.028994288 0.098777153 0.51600003
0.029977145 0.098777153 0.51600003
0.031020002 0.09896858 0.51700002
0.032004762 0.09896858 0.51700002
0.032989524 0.09896858 0.51700002
-0.01046 0.10111334 0.523
-0.0094457148 0.10092001 0.52200001
-0.0084676193 0.10111334 0.523
-0.0074571432 0.10092001 0.52200001
-0.0064380956 0.10053334 0.52000004
-0.0054476196 0.10053334 0.52000004
-0.0044485717 0.10034001 0.51900005
-0.0034600003 0.10034001 0.51900005
-0.0024666667 0.10014667 0.51800001
-0.0014771429 0.099953339 0.51700002
-0.00049238099 0.099953339 0.51700002
0.00049238099 0.099953339 0.51700002
0.0014742858 0.099760003 0.51600003
0.002457143 0.099760003 0.51600003
0.0034400001 0.099760003 0.51600003
0.0044228574 0.099760003 0.51600003
0.0053952383 0.099566676 0.51500005
0.006376191 0.099566676 0.51500005
0.0073428578 0.099373341 0.514
0.0083219055 0.099373341 0.514
0.0093009528 0.099373341 0.514
0.010280001 0.099373341 0.514
0.011259048 0.099373341 0.514
0.012214286 0.099180005 0.51300001
0.01319143 0.099180005 0.51300001
0.014168573 0.099180005 0.51300001
0.015145715 0.099180005 0.51300001
0.016122859 0.099180005 0.51300001
0.017100001 0.099180005 0.51300001
0.018077144 0.099180005 0.51300001
0.019017145 0.09898667 0.51200002
0.019992381 0.09898667 0.51200002
0.020967621 0.09898667 0.51200002
0.021942858 0.09898667 0.51200002
0.022918098 0.09898667 0.51200002
0.023940001 0.099180005 0.51300001
0.024917144 0.099180005 0.51300001
0.025894288 0.099180005 0.51300001
0.027028574 0.099760003 0.51600003
0.02801143 0.099760003 0.51600003
0.028994288 0.099760003 0.51600003
0.030035241 0.099953339 0.51700002
0.031020002 0.099953339 0.51700002
0.032004762 0.099953339 0.51700002
0.033053335 0.10014667 0.51800001
-0.01046 0.10210953 0.523
-0.0094638104 0.10210953 0.523
-0.0084514292 0.10191429 0.52200001
-0.0074714292 0.10210953 0.523
-0.0064628576 0.10191429 0.52200001
-0.0054580956 0.10171905 0.52100003
-0.0044571431 0.10152382 0.52000004
-0.0034600003 0.10132858 0.51900005
-0.0024714288 0.10132858 0.51900005
-0.0014800001 0.10113334 0.51800001
-0.00049333338 0.10113334 0.51800001
0.00049333338 0.10113334 0.51800001
0.0014771429 0.1009381 0.51700002
0.0024619049 0.1009381 0.51700002
0.0034400001 0.10074286 0.51600003
0.0044228574 0.10074286 0.51600003
0.0054057147 0.10074286 0.51600003
0.006388572 0.10074286 0.51600003
0.0073571433 0.10054763 0.51500005
0.0083380956 0.10054763 0.51500005
0.0093190484 0.10054763 0.51500005
0.010300001 0.10054763 0.51500005
0.011259048 0.10035238 0.514
0.012238096 0.10035238 0.514
0.013217144 0.10035238 0.514
0.014196191 0.10035238 0.514
0.015145715 0.10015715 0.51300001
0.016122859 0.10015715 0.51300001
0.017100001 0.10015715 0.51300001
0.018077144 0.10015715 0.51300001
0.019054286 0.10015715 0.51300001
0.02003143 0.10015715 0.51300001
0.020967621 0.099961914 0.51200002
0.021942858 0.099961914 0.51200002
0.022962859 0.10015715 0.51300001
0.023940001 0.10015715 0.51300001
0.024917144 0.10015715 0.51300001
0.026045715 0.10074286 0.51600003
0.027028574 0.10074286 0.51600003
0.02801143 0.10074286 0.51600003
0.029050479 0.1009381 0.51700002
0.030035241 0.1009381 0.51700002
0.031020002 0.1009381 0.51700002
0.032066669 0.10113334 0.51800001
0.033053335 0.10113334 0.51800001
-0.0095180962 0.10369715 0.52600002
-0.0085000005 0.10350001 0.52500004
-0.0074857147 0.10330287 0.52400005
-0.0064752386 0.10310572 0.523
-0.005479048 0.10310572 0.523
-0.0044657146 0.10271143 0.52100003
-0.0034666669 0.10251429 0.52000004
-0.0024714288 0.10231715 0.51900005
-0.0014828573 0.10231715 0.51900005
-0.00049428572 0.10231715 0.51900005
0.00049333338 0.10212 0.51800001
0.0014800001 0.10212 0.51800001
0.0024619049 0.10192286 0.51700002
0.003446667 0.10192286 0.51700002
0.0044314289 0.10192286 0.51700002
0.0054057147 0.10172572 0.51600003
0.006388572 0.10172572 0.51600003
0.0073714289 0.10172572 0.51600003
0.0083542867 0.10172572 0.51600003
0.009337143 0.10172572 0.51600003
0.010300001 0.10152858 0.51500005
0.011280953 0.10152858 0.51500005
0.012238096 0.10133144 0.514
0.013217144 0.10133144 0.514
0.014196191 0.10133144 0.514
0.015175239 0.10133144 0.514
0.016122859 0.10113429 0.51300001
0.017100001 0.10113429 0.51300001
0.018077144 0.10113429 0.51300001
0.019054286 0.10113429 0.51300001
0.02003143 0.10113429 0.51300001
0.021008573 0.10113429 0.51300001
0.021985715 0.10113429 0.51300001
0.022962859 0.10113429 0.51300001
0.023986667 0.10133144 0.514
0.024965717 0.10133144 0.514
0.026045715 0.10172572 0.51600003
0.027028574 0.10172572 0.51600003
0.02801143 0.10172572 0.51600003
0.029050479 0.10192286 0.51700002
0.030035241 0.10192286 0.51700002
0.031020002 0.10192286 0.51700002
0.032066669 0.10212 0.51800001
0.033053335 0.10212 0.51800001
-0.0095180962 0.10469905 0.52600002
-0.0085000005 0.1045 0.52500004
-0.0074857147 0.10430096 0.52400005
-0.0064752386 0.10410191 0.523
-0.005479048 0.10410191 0.523
-0.004474286 0.10390286 0.52200001
-0.0034733335 0.10370382 0.52100003
-0.0024714288 0.10330572 0.51900005
-0.0014828573 0.10330572 0.51900005
-0.00049428572 0.10330572 0.51900005
0.00049428572 0.10330572 0.51900005
0.0014800001 0.10310667 0.51800001
0.0024666667 0.10310667 0.51800001
0.003446667 0.10290763 0.51700002
0.0044314289 0.10290763 0.51700002
0.0054161907 0.10290763 0.51700002
0.006388572 0.10270858 0.51600003
0.0073714289 0.10270858 0.51600003
0.0083542867 0.10270858 0.51600003
0.009337143 0.10270858 0.51600003
0.01032 0.10270858 0.51600003
0.011280953 0.10250953 0.51500005
0.012261906 0.10250953 0.51500005
0.013242858 0.10250953 0.51500005
0.014196191 0.10231049 0.514
0.015175239 0.10231049 0.514
0.016154287 0.10231049 0.514
0.017133335 0.10231049 0.514
0.018112382 0.10231049 0.514
0.019091429 0.10231049 0.514
0.02003143 0.10211144 0.51300001
0.021008573 0.10211144 0.51300001
0.021985715 0.10211144 0.51300001
0.02300762 0.10231049 0.514
0.024033334 0.10250953 0.51500005
0.025062859 0.10270858 0.51600003
0.026045715 0.10270858 0.51600003
0.027028574 0.10270858 0.51600003
0.028065717 0.10290763 0.51700002
0.029050479 0.10290763 0.51700002
0.030035241 0.10290763 0.51700002
0.031020002 0.10290763 0.51700002
0.032066669 0.10310667 0.51800001
0.033053335 0.10310667 0.51800001
-0.0085000005 0.10550001 0.52500004
-0.0074857147 0.10529906 0.52400005
-0.0064752386 0.1050981 0.523
-0.005479048 0.1050981 0.523
-0.004474286 0.10489715 0.52200001
-0.0034800002 0.10489715 0.52200001
-0.0024809525 0.1046962 0.52100003
-0.0014828573 0.10429429 0.51900005
-0.00049428572 0.10429429 0.51900005
0.00049428572 0.10429429 0.51900005
0.0014828573 0.10429429 0.51900005
0.0024666667 0.10409334 0.51800001
0.0034533336 0.10409334 0.51800001
0.0044400003 0.10409334 0.51800001
0.0054161907 0.10389239 0.51700002
0.0064009526 0.10389239 0.51700002
0.0073714289 0.10369144 0.51600003
0.0083542867 0.10369144 0.51600003
0.009337143 0.10369144 0.51600003
0.01032 0.10369144 0.51600003
0.011302858 0.10369144 0.51600003
0.012261906 0.10349048 0.51500005
0.013242858 0.10349048 0.51500005
0.01422381 0.10349048 0.51500005
0.015204763 0.10349048 0.51500005
0.016154287 0.10328953 0.514
0.017133335 0.10328953 0.514
0.018112382 0.10328953 0.514
0.019091429 0.10328953 0.514
0.020070478 0.10328953 0.514
0.021049526 0.10328953 0.514
0.022028573 0.10328953 0.514
0.023052383 0.10349048 0.51500005
0.024080001 0.10369144 0.51600003
0.025062859 0.10369144 0.51600003
0.026045715 0.10369144 0.51600003
0.027080955 0.10389239 0.51700002
0.028065717 0.10389239 0.51700002
0.029050479 0.10389239 0.51700002
0.030093335 0.10409334 0.51800001
0.031080002 0.10409334 0.51800001
0.032066669 0.10409334 0.51800001
0.033053335 0.10409334 0.51800001
-0.0085000005 0.10650001 0.52500004
-0.0074857147 0.10629715 0.52400005
-0.0064752386 0.10609429 0.523
-0.005479048 0.10609429 0.523
-0.0044828574 0.10609429 0.523
-0.0034800002 0.10589144 0.52200001
-0.0024761907 0.10548572 0.52000004
-0.0014857143 0.10548572 0.52000004
-0.00049428572 0.10528287 0.51900005
0.00049428572 0.10528287 0.51900005
0.0014828573 0.10528287 0.51900005
0.0024714288 0.10528287 0.51900005
0.0034533336 0.10508001 0.51800001
0.0044485717 0.10528287 0.51900005
0.0054266672 0.10508001 0.51800001
0.0064009526 0.10487715 0.51700002
0.0073857149 0.10487715 0.51700002
0.0083542867 0.10467429 0.51600003
0.009337143 0.10467429 0.51600003
0.01032 0.10467429 0.51600003
0.011302858 0.10467429 0.51600003
0.012285715 0.10467429 0.51600003
0.013268572 0.10467429 0.51600003
0.01425143 0.10467429 0.51600003
0.015204763 0.10447144 0.51500005
0.016154287 0.10426858 0.514
0.017166669 0.10447144 0.51500005
0.018112382 0.10426858 0.514
0.019091429 0.10426858 0.514
0.020070478 0.10426858 0.514
0.021090478 0.10447144 0.51500005
0.02207143 0.10447144 0.51500005
0.023097144 0.10467429 0.51600003
0.024080001 0.10467429 0.51600003
0.025062859 0.10467429 0.51600003
0.026096193 0.10487715 0.51700002
0.027080955 0.10487715 0.51700002
0.028120002 0.10508001 0.51800001
0.029106669 0.10508001 0.51800001
0.030151431 0.10528287 0.51900005
0.031140001 0.10528287 0.51900005
0.032128572 0.10528287 0.51900005
-0.0095361909 0.10790953 0.52700001
-0.0085161906 0.10770477 0.52600002
-0.0075000003 0.10750001 0.52500004
-0.0064752386 0.10709048 0.523
-0.005489524 0.10729524 0.52400005
-0.0044828574 0.10709048 0.523
-0.0034866668 0.10709048 0.523
-0.0024857144 0.10688572 0.52200001
-0.0014857143 0.1064762 0.52000004
-0.00049523811 0.1064762 0.52000004
0.00049523811 0.1064762 0.52000004
0.0014828573 0.10627144 0.51900005
0.0024714288 0.10627144 0.51900005
0.0034600003 0.10627144 0.51900005
0.0044485717 0.10627144 0.51900005
0.0054371431 0.10627144 0.51900005
0.0064133336 0.10606667 0.51800001
0.0073857149 0.10586191 0.51700002
0.0083704768 0.10586191 0.51700002
0.0093552386 0.10586191 0.51700002
0.01032 0.10565715 0.51600003
0.011302858 0.10565715 0.51600003
0.012285715 0.10565715 0.51600003
0.013268572 0.10565715 0.51600003
0.01425143 0.10565715 0.51600003
0.015234287 0.10565715 0.51600003
0.016185716 0.10545239 0.51500005
0.017166669 0.10545239 0.51500005
0.018147619 0.10545239 0.51500005
0.019128572 0.10545239 0.51500005
0.020109525 0.10545239 0.51500005
0.02113143 0.10565715 0.51600003
0.022114288 0.10565715 0.51600003
0.023097144 0.10565715 0.51600003
0.024080001 0.10565715 0.51600003
0.025062859 0.10565715 0.51600003
0.026096193 0.10586191 0.51700002
0.027080955 0.10586191 0.51700002
0.028120002 0.10606667 0.51800001
0.02916286 0.10627144 0.51900005
0.030151431 0.10627144 0.51900005
0.031140001 0.10627144 0.51900005
0.032128572 0.10627144 0.51900005
0.033117145 0.10627144 0.51900005
-0.0095361909 0.10891334 0.52700001
-0.0085161906 0.10870668 0.52600002
-0.0075142863 0.10870668 0.52600002
-0.0064876196 0.10829334 0.52400005
-0.005489524 0.10829334 0.52400005
-0.0044828574 0.10808668 0.523
-0.0034866668 0.10808668 0.523
-0.0024904762 0.10808668 0.523
-0.0014885715 0.10767334 0.52100003
-0.00049523811 0.10746668 0.52000004
0.00049523811 0.10746668 0.52000004
0.0014857143 0.10746668 0.52000004
0.0024714288 0.10726 0.51900005
0.0034600003 0.10726 0.51900005
0.0044485717 0.10726 0.51900005
0.0054371431 0.10726 0.51900005
0.0064257146 0.10726 0.51900005
0.0074000005 0.10705334 0.51800001
0.0083866669 0.10705334 0.51800001
0.0093552386 0.10684668 0.51700002
0.010340001 0.10684668 0.51700002
0.011302858 0.10664 0.51600003
0.012285715 0.10664 0.51600003
0.013268572 0.10664 0.51600003
0.01425143 0.10664 0.51600003
0.015234287 0.10664 0.51600003
0.016217144 0.10664 0.51600003
0.017200001 0.10664 0.51600003
0.018182859 0.10664 0.51600003
0.019165715 0.10664 0.51600003
0.020148573 0.10664 0.51600003
0.02113143 0.10664 0.51600003
0.022114288 0.10664 0.51600003
0.023097144 0.10664 0.51600003
0.024126668 0.10684668 0.51700002
0.025111429 0.10684668 0.51700002
0.026146669 0.10705334 0.51800001
0.027133334 0.10705334 0.51800001
0.028174287 0.10726 0.51900005
0.02916286 0.10726 0.51900005
0.030151431 0.10726 0.51900005
0.031200003 0.10746668 0.52000004
0.032190479 0.10746668 0.52000004
-0.0085161906 0.10970858 0.52600002
-0.0075142863 0.10970858 0.52600002
-0.0064876196 0.10929143 0.52400005
-0.0055000004 0.10950001 0.52500004
-0.0044914288 0.10929143 0.52400005
-0.0034866668 0.10908286 0.523
-0.0024904762 0.10908286 0.523
-0.0014942858 0.10908286 0.523
-0.0004971429 0.10887429 0.52200001
0.00049619051 0.10866572 0.52100003
0.0014857143 0.10845715 0.52000004
0.0024761907 0.10845715 0.52000004
0.0034600003 0.10824858 0.51900005
0.0044485717 0.10824858 0.51900005
0.0054371431 0.10824858 0.51900005
0.0064257146 0.10824858 0.51900005
0.007414286 0.10824858 0.51900005
0.0084028579 0.10824858 0.51900005
0.0093733342 0.10804 0.51800001
0.010360001 0.10804 0.51800001
0.011324762 0.10783143 0.51700002
0.012309524 0.10783143 0.51700002
0.013294287 0.10783143 0.51700002
0.014279049 0.10783143 0.51700002
0.015263811 0.10783143 0.51700002
0.016217144 0.10762286 0.51600003
0.017233334 0.10783143 0.51700002
0.018182859 0.10762286 0.51600003
0.019202858 0.10783143 0.51700002
0.02018762 0.10783143 0.51700002
0.021172382 0.10783143 0.51700002
0.022200001 0.10804 0.51800001
0.023186669 0.10804 0.51800001
0.024173334 0.10804 0.51800001
0.025208574 0.10824858 0.51900005
0.026197145 0.10824858 0.51900005
0.027185716 0.10824858 0.51900005
0.028228574 0.10845715 0.52000004
0.02927524 0.10866572 0.52100003
0.03026762 0.10866572 0.52100003
0.031260002 0.10866572 0.52100003
-0.0085323816 0.11092096 0.52700001
-0.0075285719 0.11092096 0.52700001
-0.0065000006 0.11050001 0.52500004
-0.0055000004 0.11050001 0.52500004
-0.0045000003 0.11050001 0.52500004
-0.0034866668 0.11007906 0.523
-0.0024904762 0.11007906 0.523
-0.0014942858 0.11007906 0.523
-0.0004971429 0.10986858 0.52200001
0.0004971429 0.10986858 0.52200001
0.0014885715 0.1096581 0.52100003
0.0024761907 0.10944763 0.52000004
0.0034666669 0.10944763 0.52000004
0.0044571431 0.10944763 0.52000004
0.0054371431 0.10923715 0.51900005
0.0064257146 0.10923715 0.51900005
0.007414286 0.10923715 0.51900005
0.0084028579 0.10923715 0.51900005
0.0093914289 0.10923715 0.51900005
0.010380001 0.10923715 0.51900005
0.011346667 0.10902667 0.51800001
0.012333334 0.10902667 0.51800001
0.013320001 0.10902667 0.51800001
0.014306667 0.10902667 0.51800001
0.015263811 0.1088162 0.51700002
0.016248573 0.1088162 0.51700002
0.017233334 0.1088162 0.51700002
0.018218096 0.1088162 0.51700002
0.019202858 0.1088162 0.51700002
0.02018762 0.1088162 0.51700002
0.021213334 0.10902667 0.51800001
0.022242859 0.10923715 0.51900005
0.02323143 0.10923715 0.51900005
0.024220001 0.10923715 0.51900005
0.025208574 0.10923715 0.51900005
0.026197145 0.10923715 0.51900005
0.027185716 0.10923715 0.51900005
0.028282858 0.1096581 0.52100003
0.02927524 0.1096581 0.52100003
0.03026762 0.1096581 0.52100003
0.031380001 0.11007906 0.523
-0.0085323816 0.11192477 0.52700001
-0.0075285719 0.11192477 0.52700001
-0.0065123816 0.11171239 0.52600002
-0.0055104764 0.11171239 0.52600002
-0.0045000003 0.11150001 0.52500004
-0.0034933335 0.11128762 0.52400005
-0.0024904762 0.11107524 0.523
-0.0014942858 0.11107524 0.523
-0.00049809529 0.11107524 0.523
0.00049809529 0.11107524 0.523
0.0014914287 0.11086287 0.52200001
0.0024809525 0.11065048 0.52100003
0.0034733335 0.11065048 0.52100003
0.0044571431 0.1104381 0.52000004
0.0054476196 0.1104381 0.52000004
0.0064380956 0.1104381 0.52000004
0.007414286 0.11022572 0.51900005
0.0084028579 0.11022572 0.51900005
0.0093914289 0.11022572 0.51900005
0.010380001 0.11022572 0.51900005
0.011368572 0.11022572 0.51900005
0.012357144 0.11022572 0.51900005
0.013345716 0.11022572 0.51900005
0.014334287 0.11022572 0.51900005
0.015293335 0.11001334 0.51800001
0.016280001 0.11001334 0.51800001
0.017266668 0.11001334 0.51800001
0.018253334 0.11001334 0.51800001
0.019240001 0.11001334 0.51800001
0.020226669 0.11001334 0.51800001
0.021213334 0.11001334 0.51800001
0.022242859 0.11022572 0.51900005
0.02323143 0.11022572 0.51900005
0.024220001 0.11022572 0.51900005
0.025208574 0.11022572 0.51900005
0.026197145 0.11022572 0.51900005
0.027185716 0.11022572 0.51900005
0.028228574 0.1104381 0.52000004
0.029331431 0.11086287 0.52200001
0.030325716 0.11086287 0.52200001
0.031380001 0.11107524 0.523
0.032376193 0.11107524 0.523
-0.0095723812 0.11335715 0.52900004
-0.0085647628 0.11335715 0.52900004
-0.0075428574 0.11314286 0.528
-0.0065247621 0.11292858 0.52700001
-0.0055209529 0.11292858 0.52700001
-0.0045085717 0.11271429 0.52600002
-0.0034933335 0.11228572 0.52400005
-0.0024952383 0.11228572 0.52400005
-0.0014942858 0.11207144 0.523
-0.00049809529 0.11207144 0.523
0.00049809529 0.11207144 0.523
0.0014914287 0.11185715 0.52200001
0.0024809525 0.11164287 0.52100003
0.0034733335 0.11164287 0.52100003
0.0044657146 0.11164287 0.52100003
0.0054476196 0.11142858 0.52000004
0.0064380956 0.11142858 0.52000004
0.007414286 0.1112143 0.51900005
0.0084028579 0.1112143 0.51900005
0.0093914289 0.1112143 0.51900005
0.010380001 0.1112143 0.51900005
0.011368572 0.1112143 0.51900005
0.012357144 0.1112143 0.51900005
0.013345716 0.1112143 0.51900005
0.014334287 0.1112143 0.51900005
0.015322858 0.1112143 0.51900005
0.016280001 0.11100001 0.51800001
0.017266668 0.11100001 0.51800001
0.018253334 0.11100001 0.51800001
0.019277144 0.1112143 0.51900005
0.020265715 0.1112143 0.51900005
0.021254288 0.1112143 0.51900005
0.022242859 0.1112143 0.51900005
0.02323143 0.1112143 0.51900005
0.024220001 0.1112143 0.51900005
0.025208574 0.1112143 0.51900005
0.026197145 0.1112143 0.51900005
0.027238097 0.11142858 0.52000004
0.028282858 0.11164287 0.52100003
0.029387621 0.11207144 0.523
0.030383812 0.11207144 0.523
0.031440001 0.11228572 0.52400005
-0.0095904768 0.11458096 0.53000003
-0.0085809529 0.11458096 0.53000003
-0.0075571435 0.11436477 0.52900004
-0.0065371431 0.11414858 0.528
-0.0055209529 0.11393239 0.52700001
-0.0045171431 0.11393239 0.52700001
-0.0035000003 0.11350001 0.52500004
-0.0024952383 0.11328382 0.52400005
-0.0014971429 0.11328382 0.52400005
-0.00049809529 0.11306763 0.523
0.00049809529 0.11306763 0.523
0.0014942858 0.11306763 0.523
0.0024857144 0.11285143 0.52200001
0.0034800002 0.11285143 0.52200001
0.0044657146 0.11263525 0.52100003
0.0054580956 0.11263525 0.52100003
0.0064380956 0.11241905 0.52000004
0.007428572 0.11241905 0.52000004
0.008419048 0.11241905 0.52000004
