# .PCD v0.7 - Point Cloud Data file format
VERSION 0.7
FIELDS x y z
SIZE 4 4 4
TYPE F F F
COUNT 1 1 1
WIDTH 1338
HEIGHT 1
VIEWPOINT 0 0 0 1 0 0 0
POINTS 1338
DATA ascii
-0.061562862 0.050240956 0.74300003
-0.06006667 0.050173335 0.74200004
-0.058416195 0.049970478 0.73900002
-0.057008576 0.049970478 0.73900002
-0.055600956 0.049970478 0.73900002
-0.054046672 0.049835242 0.73700005
-0.05264286 0.049835242 0.73700005
-0.051239051 0.049835242 0.73700005
-0.049970478 0.049970478 0.73900002
-0.04843143 0.049835242 0.73700005
-0.047027621 0.049835242 0.73700005
-0.045623813 0.049835242 0.73700005
-0.044220004 0.049835242 0.73700005
-0.042816192 0.049835242 0.73700005
-0.041412383 0.049835242 0.73700005
-0.040008575 0.049835242 0.73700005
-0.038709525 0.049970478 0.73900002
-0.037200954 0.049835242 0.73700005
-0.081360005 0.052560002 0.75600004
-0.079920009 0.052560002 0.75600004
-0.078480005 0.052560002 0.75600004
-0.0769381 0.05249048 0.75500005
-0.075300008 0.052351434 0.75300002
-0.073767625 0.052281909 0.75200003
-0.072142862 0.052142862 0.75000006
-0.070431434 0.051934291 0.74700004
-0.069008574 0.051934291 0.74700004
-0.067404769 0.05179524 0.74500006
-0.065808579 0.051656194 0.74300003
-0.064393334 0.051656194 0.74300003
-0.062723815 0.051447622 0.74000001
-0.061231434 0.051378097 0.73900002
-0.05966191 0.051239051 0.73700005
-0.058179051 0.051169526 0.73600006
-0.056777146 0.051169526 0.73600006
-0.055375241 0.051169526 0.73600006
-0.053826671 0.051030479 0.73400003
-0.052428573 0.051030479 0.73400003
-0.051030479 0.051030479 0.73400003
-0.049632385 0.051030479 0.73400003
-0.048102859 0.050891433 0.73200005
-0.046836194 0.051030479 0.73400003
-0.0454381 0.051030479 0.73400003
-0.044160005 0.051169526 0.73600006
-0.0427581 0.051169526 0.73600006
-0.041356195 0.051169526 0.73600006
-0.03995429 0.051169526 0.73600006
-0.038552385 0.051169526 0.73600006
-0.037200954 0.051239051 0.73700005
-0.035748575 0.051169526 0.73600006
-0.034160003 0.050891433 0.73200005
-0.032720953 0.050821908 0.73100001
-0.081575245 0.054142863 0.75800002
-0.080131434 0.054142863 0.75800002
-0.078480005 0.054000005 0.75600004
-0.0769381 0.053928576 0.75500005
-0.075300008 0.053785719 0.75300002
-0.073767625 0.05371429 0.75200003
-0.072142862 0.053571433 0.75000006
-0.070431434 0.053357147 0.74700004
-0.068823814 0.053214289 0.74500006
-0.067223817 0.053071432 0.74300003
-0.065808579 0.053071432 0.74300003
-0.064306669 0.053000003 0.74200004
-0.062723815 0.052857146 0.74000001
-0.061231434 0.052785717 0.73900002
-0.05966191 0.05264286 0.73700005
-0.058179051 0.052571431 0.73600006
-0.056777146 0.052571431 0.73600006
-0.055224765 0.052428573 0.73400003
-0.053826671 0.052428573 0.73400003
-0.052428573 0.052428573 0.73400003
-0.051030479 0.052428573 0.73400003
-0.049497146 0.052285716 0.73200005
-0.048102859 0.052285716 0.73200005
-0.046708573 0.052285716 0.73200005
-0.04531429 0.052285716 0.73200005
-0.044040002 0.052428573 0.73400003
-0.042641908 0.052428573 0.73400003
-0.041243814 0.052428573 0.73400003
-0.039845716 0.052428573 0.73400003
-0.038552385 0.052571431 0.73600006
-0.03715048 0.052571431 0.73600006
-0.03565143 0.052428573 0.73400003
-0.034160003 0.052285716 0.73200005
-0.032720953 0.052214291 0.73100001
-0.081360005 0.055440005 0.75600004
-0.079920009 0.055440005 0.75600004
-0.078480005 0.055440005 0.75600004
-0.0769381 0.055366669 0.75500005
-0.075200006 0.055146672 0.75200003
-0.073571436 0.055000003 0.75000006
-0.072142862 0.055000003 0.75000006
-0.070242859 0.054633338 0.74500006
-0.068823814 0.054633338 0.74500006
-0.067223817 0.05448667 0.74300003
-0.065720007 0.054413337 0.74200004
-0.064133339 0.054266669 0.74000001
-0.06263905 0.054193337 0.73900002
-0.061065719 0.054046672 0.73700005
-0.059580956 0.053973336 0.73600006
-0.058020957 0.053826671 0.73400003
-0.056622859 0.053826671 0.73400003
-0.055224765 0.053826671 0.73400003
-0.053680003 0.053680003 0.73200005
-0.052285716 0.053680003 0.73200005
-0.050891433 0.053680003 0.73200005
-0.049429528 0.05360667 0.73100001
-0.048037145 0.05360667 0.73100001
-0.046644766 0.05360667 0.73100001
-0.04531429 0.053680003 0.73200005
-0.043920003 0.053680003 0.73200005
-0.042525716 0.053680003 0.73200005
-0.041131433 0.053680003 0.73200005
-0.039737146 0.053680003 0.73200005
-0.038447622 0.053826671 0.73400003
-0.037049524 0.053826671 0.73400003
-0.03555429 0.053680003 0.73200005
-0.034113336 0.05360667 0.73100001
-0.032720953 0.05360667 0.73100001
-0.031328574 0.05360667 0.73100001
-0.079920009 0.056880005 0.75600004
-0.078480005 0.056880005 0.75600004
-0.07673429 0.056654289 0.75300002
-0.075200006 0.05657905 0.75200003
-0.073571436 0.056428574 0.75000006
-0.07195048 0.056278098 0.74800003
-0.070242859 0.056052383 0.74500006
-0.068639055 0.055901907 0.74300003
-0.067223817 0.055901907 0.74300003
-0.065542862 0.055676196 0.74000001
-0.064046673 0.055600956 0.73900002
-0.062469527 0.05545048 0.73700005
-0.060982861 0.055375241 0.73600006
-0.059419051 0.055224765 0.73400003
-0.057862859 0.055074289 0.73200005
-0.056468576 0.055074289 0.73200005
-0.055074289 0.055074289 0.73200005
-0.05360667 0.05499905 0.73100001
-0.052214291 0.05499905 0.73100001
-0.050821908 0.05499905 0.73100001
-0.049294289 0.054848574 0.72900003
-0.047905717 0.054848574 0.72900003
-0.046644766 0.05499905 0.73100001
-0.045252383 0.05499905 0.73100001
-0.043860003 0.05499905 0.73100001
-0.04246762 0.05499905 0.73100001
-0.04096286 0.054848574 0.72900003
-0.039682861 0.05499905 0.73100001
-0.038290478 0.05499905 0.73100001
-0.036948573 0.055074289 0.73200005
-0.035505716 0.05499905 0.73100001
-0.034113336 0.05499905 0.73100001
-0.032720953 0.05499905 0.73100001
-0.031328574 0.05499905 0.73100001
-0.079814292 0.058242861 0.75500005
-0.078376196 0.058242861 0.75500005
-0.0769381 0.058242861 0.75500005
-0.075000003 0.057857148 0.75000006
-0.073571436 0.057857148 0.75000006
-0.07195048 0.057702862 0.74800003
-0.070242859 0.057471432 0.74500006
-0.068639055 0.057317145 0.74300003
-0.067133337 0.057240006 0.74200004
-0.065542862 0.057085719 0.74000001
-0.063873336 0.056854289 0.73700005
-0.062469527 0.056854289 0.73700005
-0.060982861 0.056777146 0.73600006
-0.059419051 0.056622859 0.73400003
-0.057862859 0.056468576 0.73200005
-0.056468576 0.056468576 0.73200005
-0.05499905 0.056391433 0.73100001
-0.05360667 0.056391433 0.73100001
-0.052071434 0.056237146 0.72900003
-0.050682861 0.056237146 0.72900003
-0.049226671 0.056160003 0.72800004
-0.047840003 0.056160003 0.72800004
-0.046453338 0.056160003 0.72800004
-0.04506667 0.056160003 0.72800004
-0.043740004 0.056237146 0.72900003
-0.042351432 0.056237146 0.72900003
-0.040906668 0.056160003 0.72800004
-0.039520003 0.056160003 0.72800004
-0.038133334 0.056160003 0.72800004
-0.03674667 0.056160003 0.72800004
-0.035408575 0.056237146 0.72900003
-0.034020003 0.056237146 0.72900003
-0.032586668 0.056160003 0.72800004
-0.031242859 0.056237146 0.72900003
-0.077649526 0.059127621 0.74800003
-0.076224767 0.059127621 0.74800003
-0.074800007 0.059127621 0.74800003
-0.073277146 0.059048574 0.74700004
-0.071854293 0.059048574 0.74700004
-0.070054293 0.058732383 0.74300003
-0.068546668 0.058653336 0.74200004
-0.066952385 0.058495242 0.74000001
-0.065454289 0.058416195 0.73900002
-0.063873336 0.058258098 0.73700005
-0.062384766 0.058179051 0.73600006
-0.060982861 0.058179051 0.73600006
-0.059419051 0.058020957 0.73400003
-0.057783812 0.057783812 0.73100001
-0.056391433 0.057783812 0.73100001
-0.05499905 0.057783812 0.73100001
-0.053460002 0.057625718 0.72900003
-0.052071434 0.057625718 0.72900003
-0.050613336 0.057546671 0.72800004
-0.049226671 0.057546671 0.72800004
-0.047708575 0.057388574 0.72600001
-0.046325717 0.057388574 0.72600001
-0.04494286 0.057388574 0.72600001
-0.043560002 0.057388574 0.72600001
-0.042177144 0.057388574 0.72600001
-0.040794287 0.057388574 0.72600001
-0.039411429 0.057388574 0.72600001
-0.038028575 0.057388574 0.72600001
-0.036645718 0.057388574 0.72600001
-0.03526286 0.057388574 0.72600001
-0.033880003 0.057388574 0.72600001
-0.032497145 0.057388574 0.72600001
-0.031114288 0.057388574 0.72600001
-0.02973143 0.057388574 0.72600001
-0.028426668 0.057546671 0.72800004
-0.076122865 0.060471434 0.74700004
-0.074700005 0.060471434 0.74700004
-0.073277146 0.060471434 0.74700004
-0.071661912 0.060309529 0.74500006
-0.070054293 0.060147624 0.74300003
-0.068546668 0.06006667 0.74200004
-0.066952385 0.059904765 0.74000001
-0.065454289 0.059823815 0.73900002
-0.063873336 0.05966191 0.73700005
-0.062384766 0.059580956 0.73600006
-0.060982861 0.059580956 0.73600006
-0.059257146 0.059257146 0.73200005
-0.057783812 0.059176195 0.73100001
-0.056391433 0.059176195 0.73100001
-0.054848574 0.059014291 0.72900003
-0.053460002 0.059014291 0.72900003
-0.052000005 0.058933336 0.72800004
-0.05047429 0.058771431 0.72600001
-0.049091432 0.058771431 0.72600001
-0.047642861 0.058690481 0.72500002
-0.046261907 0.058690481 0.72500002
-0.044880956 0.058690481 0.72500002
-0.043500002 0.058690481 0.72500002
-0.042119049 0.058690481 0.72500002
-0.040738098 0.058690481 0.72500002
-0.039357144 0.058690481 0.72500002
-0.037976194 0.058690481 0.72500002
-0.03659524 0.058690481 0.72500002
-0.035214286 0.058690481 0.72500002
-0.033833336 0.058690481 0.72500002
-0.032452382 0.058690481 0.72500002
-0.03107143 0.058690481 0.72500002
-0.029690478 0.058690481 0.72500002
-0.028348573 0.058771431 0.72600001
-0.026965717 0.058771431 0.72600001
-0.075715244 0.061562862 0.74300003
-0.074300006 0.061562862 0.74300003
-0.072884768 0.061562862 0.74300003
-0.07146953 0.061562862 0.74300003
-0.069960006 0.061480004 0.74200004
-0.068546668 0.061480004 0.74200004
-0.066952385 0.061314289 0.74000001
-0.065454289 0.061231434 0.73900002
-0.063873336 0.061065719 0.73700005
-0.062384766 0.060982861 0.73600006
-0.060651433 0.060651433 0.73200005
-0.059257146 0.060651433 0.73200005
-0.057783812 0.060568575 0.73100001
-0.056391433 0.060568575 0.73100001
-0.054848574 0.060402863 0.72900003
-0.05338667 0.060320005 0.72800004
-0.052000005 0.060320005 0.72800004
-0.05047429 0.060154289 0.72600001
-0.049023814 0.060071431 0.72500002
-0.047642861 0.060071431 0.72500002
-0.046261907 0.060071431 0.72500002
-0.044880956 0.060071431 0.72500002
-0.043500002 0.060071431 0.72500002
-0.042119049 0.060071431 0.72500002
-0.040625717 0.059905719 0.72300005
-0.039248575 0.059905719 0.72300005
-0.037871432 0.059905719 0.72300005
-0.036494289 0.059905719 0.72300005
-0.035117146 0.059905719 0.72300005
-0.033740003 0.059905719 0.72300005
-0.03236286 0.059905719 0.72300005
-0.030985717 0.059905719 0.72300005
-0.029608574 0.059905719 0.72300005
-0.028309526 0.060071431 0.72500002
-0.026928574 0.060071431 0.72500002
-0.074300006 0.062978096 0.74300003
-0.072884768 0.062978096 0.74300003
-0.07146953 0.062978096 0.74300003
-0.069960006 0.062893339 0.74200004
-0.068361908 0.062723815 0.74000001
-0.066861913 0.06263905 0.73900002
-0.065277144 0.062469527 0.73700005
-0.063786671 0.062384766 0.73600006
-0.062384766 0.062384766 0.73600006
-0.060651433 0.062045719 0.73200005
-0.059176195 0.061960958 0.73100001
-0.057783812 0.061960958 0.73100001
-0.056237146 0.061791431 0.72900003
-0.054773338 0.06170667 0.72800004
-0.053240005 0.061537147 0.72600001
-0.051857147 0.061537147 0.72600001
-0.050404765 0.061452385 0.72500002
-0.049023814 0.061452385 0.72500002
-0.047511432 0.061282862 0.72300005
-0.046134289 0.061282862 0.72300005
-0.044757146 0.061282862 0.72300005
-0.043380003 0.061282862 0.72300005
-0.04200286 0.061282862 0.72300005
-0.040625717 0.061282862 0.72300005
-0.039248575 0.061282862 0.72300005
-0.03781905 0.0611981 0.72200006
-0.036443811 0.0611981 0.72200006
-0.035068575 0.0611981 0.72200006
-0.033693336 0.0611981 0.72200006
-0.032318097 0.0611981 0.72200006
-0.030942859 0.0611981 0.72200006
-0.029567622 0.0611981 0.72200006
-0.028231431 0.061282862 0.72300005
-0.026854288 0.061282862 0.72300005
-0.025477145 0.061282862 0.72300005
0.14274001 0.067216195 0.79300004
0.14425048 0.067216195 0.79300004
0.14576097 0.067216195 0.79300004
-0.074300006 0.064393334 0.74300003
-0.072884768 0.064393334 0.74300003
-0.071373336 0.064306669 0.74200004
-0.069960006 0.064306669 0.74200004
-0.068269528 0.064046673 0.73900002
-0.066861913 0.064046673 0.73900002
-0.065277144 0.063873336 0.73700005
-0.063786671 0.063786671 0.73600006
-0.062215243 0.06361334 0.73400003
-0.060568575 0.063353337 0.73100001
-0.059176195 0.063353337 0.73100001
-0.057625718 0.063180007 0.72900003
-0.056237146 0.063180007 0.72900003
-0.054773338 0.063093334 0.72800004
-0.053240005 0.062920004 0.72600001
-0.051785719 0.062833339 0.72500002
-0.050404765 0.062833339 0.72500002
-0.048888575 0.062660001 0.72300005
-0.047511432 0.062660001 0.72300005
-0.046134289 0.062660001 0.72300005
-0.044757146 0.062660001 0.72300005
-0.043320004 0.062573336 0.72200006
-0.041944765 0.062573336 0.72200006
-0.040569525 0.062573336 0.72200006
-0.03919429 0.062573336 0.72200006
-0.03781905 0.062573336 0.72200006
-0.036443811 0.062573336 0.72200006
-0.034971431 0.062400006 0.72000003
-0.033600003 0.062400006 0.72000003
-0.032228574 0.062400006 0.72000003
-0.030857146 0.062400006 0.72000003
-0.029485716 0.062400006 0.72000003
-0.028192382 0.062573336 0.72200006
-0.026817145 0.062573336 0.72200006
-0.025441907 0.062573336 0.72200006
-0.024066668 0.062573336 0.72200006
0.13786002 0.068553336 0.79100001
0.13936667 0.068553336 0.79100001
0.14087334 0.068553336 0.79100001
0.14238001 0.068553336 0.79100001
0.14352287 0.068380006 0.78900003
0.14539334 0.068553336 0.79100001
0.14652859 0.068380006 0.78900003
0.14803144 0.068380006 0.78900003
0.17185906 0.068293341 0.78800005
0.17358001 0.068380006 0.78900003
0.17486097 0.068293341 0.78800005
0.17636192 0.068293341 0.78800005
0.17936382 0.068293341 0.78800005
-0.072590478 0.065542862 0.74000001
-0.071084768 0.065454289 0.73900002
-0.069677144 0.065454289 0.73900002
-0.068084769 0.065277144 0.73700005
-0.06668096 0.065277144 0.73700005
-0.065188579 0.065188579 0.73600006
-0.063786671 0.065188579 0.73600006
-0.062215243 0.065011434 0.73400003
-0.060568575 0.064745717 0.73100001
-0.059014291 0.064568579 0.72900003
-0.057546671 0.064480007 0.72800004
-0.056005716 0.064302862 0.72600001
-0.054622862 0.064302862 0.72600001
-0.053166669 0.064214289 0.72500002
-0.051642861 0.064037144 0.72300005
-0.050265718 0.064037144 0.72300005
-0.048820954 0.063948579 0.72200006
-0.047445718 0.063948579 0.72200006
-0.046070479 0.063948579 0.72200006
-0.044571433 0.063771434 0.72000003
-0.043200001 0.063771434 0.72000003
-0.041828573 0.063771434 0.72000003
-0.040457144 0.063771434 0.72000003
-0.039085716 0.063771434 0.72000003
-0.037661906 0.063682862 0.71900004
-0.036292382 0.063682862 0.71900004
-0.034922861 0.063682862 0.71900004
-0.033553336 0.063682862 0.71900004
-0.032183811 0.063682862 0.71900004
-0.030814288 0.063682862 0.71900004
-0.029444763 0.063682862 0.71900004
-0.028075241 0.063682862 0.71900004
-0.026705716 0.063682862 0.71900004
-0.025336193 0.063682862 0.71900004
-0.023966668 0.063682862 0.71900004
-0.022597143 0.063682862 0.71900004
-0.072786674 0.067133337 0.74200004
-0.071084768 0.066861913 0.73900002
-0.069677144 0.066861913 0.73900002
-0.068084769 0.06668096 0.73700005
-0.06668096 0.06668096 0.73700005
-0.065188579 0.066590481 0.73600006
-0.06361334 0.066409528 0.73400003
-0.062215243 0.066409528 0.73400003
-0.060568575 0.066138096 0.73100001
-0.059014291 0.065957144 0.72900003
-0.057546671 0.065866672 0.72800004
-0.056005716 0.065685719 0.72600001
-0.054547623 0.065595239 0.72500002
-0.053166669 0.065595239 0.72500002
-0.051642861 0.065414287 0.72300005
-0.050196193 0.065323815 0.72200006
-0.048685718 0.065142862 0.72000003
-0.04731429 0.065142862 0.72000003
-0.045942862 0.065142862 0.72000003
-0.044509526 0.065052383 0.71900004
-0.043140002 0.065052383 0.71900004
-0.041770481 0.065052383 0.71900004
-0.040400956 0.065052383 0.71900004
-0.039031431 0.065052383 0.71900004
-0.037557144 0.06487143 0.71700001
-0.03619143 0.06487143 0.71700001
-0.034825716 0.06487143 0.71700001
-0.033413336 0.064780958 0.71600002
-0.032094289 0.06487143 0.71700001
-0.030728573 0.06487143 0.71700001
-0.029362859 0.06487143 0.71700001
-0.027997145 0.06487143 0.71700001
-0.02663143 0.06487143 0.71700001
-0.025265716 0.06487143 0.71700001
-0.023966668 0.065052383 0.71900004
-0.022597143 0.065052383 0.71900004
-0.02113905 0.064780958 0.71600002
-0.06939429 0.067992382 0.73600006
-0.067992382 0.067992382 0.73600006
-0.066590481 0.067992382 0.73600006
-0.065188579 0.067992382 0.73600006
-0.063786671 0.067992382 0.73600006
-0.062045719 0.067622863 0.73200005
-0.060568575 0.067530483 0.73100001
-0.059014291 0.067345716 0.72900003
-0.057546671 0.067253336 0.72800004
-0.056005716 0.067068577 0.72600001
-0.054547623 0.066976197 0.72500002
-0.053166669 0.066976197 0.72500002
-0.051642861 0.06679143 0.72300005
-0.050057147 0.066514291 0.72000003
-0.048685718 0.066514291 0.72000003
-0.047248576 0.066421911 0.71900004
-0.045879051 0.066421911 0.71900004
-0.044385716 0.066237144 0.71700001
-0.043020003 0.066237144 0.71700001
-0.041654289 0.066237144 0.71700001
-0.040288575 0.066237144 0.71700001
-0.038868573 0.066144764 0.71600002
-0.037504766 0.066144764 0.71600002
-0.036040001 0.065960005 0.71400005
-0.034680001 0.065960005 0.71400005
-0.033320002 0.065960005 0.71400005
-0.031960003 0.065960005 0.71400005
-0.030685715 0.066144764 0.71600002
-0.029240001 0.065960005 0.71400005
-0.027958097 0.066144764 0.71600002
-0.026594287 0.066144764 0.71600002
-0.025265716 0.066237144 0.71700001
-0.023900002 0.066237144 0.71700001
-0.022534287 0.066237144 0.71700001
-0.02113905 0.066144764 0.71600002
-0.01977524 0.066144764 0.71600002
-0.062045719 0.06901715 0.73200005
-0.060402863 0.068734288 0.72900003
-0.058933336 0.068640001 0.72800004
-0.057388574 0.068451434 0.72600001
-0.056005716 0.068451434 0.72600001
-0.054547623 0.068357147 0.72500002
-0.053020004 0.068168573 0.72300005
-0.051571433 0.068074293 0.72200006
-0.050057147 0.067885719 0.72000003
-0.048618097 0.067791432 0.71900004
-0.047248576 0.067791432 0.71900004
-0.04575143 0.067602858 0.71700001
-0.044385716 0.067602858 0.71700001
-0.042960003 0.067508578 0.71600002
-0.041596193 0.067508578 0.71600002
-0.040120002 0.067320004 0.71400005
-0.038760003 0.067320004 0.71400005
-0.037400004 0.067320004 0.71400005
-0.035989527 0.067225717 0.71300006
-0.034631431 0.067225717 0.71300006
-0.033273336 0.067225717 0.71300006
-0.03191524 0.067225717 0.71300006
-0.030557144 0.067225717 0.71300006
-0.029199049 0.067225717 0.71300006
-0.027840953 0.067225717 0.71300006
-0.026520003 0.067320004 0.71400005
-0.025160002 0.067320004 0.71400005
-0.023866668 0.067508578 0.71600002
-0.022502858 0.067508578 0.71600002
-0.021080002 0.067320004 0.71400005
-0.019692382 0.067225717 0.71300006
-0.018282859 0.06703715 0.71100003
-0.061960958 0.070315242 0.73100001
-0.060402863 0.07012286 0.72900003
-0.058933336 0.070026673 0.72800004
-0.057388574 0.069834292 0.72600001
-0.055928577 0.069738097 0.72500002
-0.054547623 0.069738097 0.72500002
-0.053020004 0.069545716 0.72300005
-0.051571433 0.069449529 0.72200006
-0.049987622 0.069160961 0.71900004
-0.048618097 0.069160961 0.71900004
-0.047117148 0.068968579 0.71700001
-0.04575143 0.068968579 0.71700001
-0.044323813 0.068872385 0.71600002
-0.042960003 0.068872385 0.71600002
-0.041480001 0.068680003 0.71400005
-0.040120002 0.068680003 0.71400005
-0.038705718 0.068583816 0.71300006
-0.037347622 0.068583816 0.71300006
-0.035989527 0.068583816 0.71300006
-0.034534287 0.068391435 0.71100003
-0.033180002 0.068391435 0.71100003
-0.031825718 0.068391435 0.71100003
-0.030471431 0.068391435 0.71100003
-0.029117145 0.068391435 0.71100003
-0.027762858 0.068391435 0.71100003
-0.026408574 0.068391435 0.71100003
-0.025124764 0.068583816 0.71300006
-0.023766669 0.068583816 0.71300006
-0.022408573 0.068583816 0.71300006
-0.021050477 0.068583816 0.71300006
-0.019692382 0.068583816 0.71300006
-0.018334286 0.068583816 0.71300006
-0.016928572 0.068391435 0.71100003
-0.015574287 0.068391435 0.71100003
-0.014220001 0.068391435 0.71100003
-0.061791431 0.071511433 0.72900003
-0.060320005 0.071413338 0.72800004
-0.058771431 0.071217149 0.72600001
-0.057309527 0.071119055 0.72500002
-0.055928577 0.071119055 0.72500002
-0.054397147 0.070922859 0.72300005
-0.053020004 0.070922859 0.72300005
-0.051428575 0.070628576 0.72000003
-0.049987622 0.070530482 0.71900004
-0.048618097 0.070530482 0.71900004
-0.047117148 0.070334293 0.71700001
-0.045687623 0.070236199 0.71600002
-0.044323813 0.070236199 0.71600002
-0.042840004 0.070040002 0.71400005
-0.041421909 0.069941908 0.71300006
-0.040063813 0.069941908 0.71300006
-0.038597144 0.069745719 0.71100003
-0.03724286 0.069745719 0.71100003
-0.035888575 0.069745719 0.71100003
-0.034534287 0.069745719 0.71100003
-0.033133335 0.069647625 0.71000004
-0.031780954 0.069647625 0.71000004
-0.030428573 0.069647625 0.71000004
-0.029076193 0.069647625 0.71000004
-0.027723812 0.069647625 0.71000004
-0.026371431 0.069647625 0.71000004
-0.02501905 0.069647625 0.71000004
-0.023666669 0.069647625 0.71000004
-0.022345716 0.069745719 0.71100003
-0.02099143 0.069745719 0.71100003
-0.019637143 0.069745719 0.71100003
-0.018282859 0.069745719 0.71100003
-0.016928572 0.069745719 0.71100003
-0.015574287 0.069745719 0.71100003
-0.014220001 0.069745719 0.71100003
-0.01281143 0.069451436 0.708
-0.011446668 0.069353335 0.70700002
0.14392859 0.076023817 0.77500004
0.14540477 0.076023817 0.77500004
-0.060154289 0.072600007 0.72600001
-0.058771431 0.072600007 0.72600001
-0.057309527 0.072500005 0.72500002
-0.055928577 0.072500005 0.72500002
-0.054397147 0.072300002 0.72300005
-0.052946672 0.072200008 0.72200006
-0.051357146 0.071900003 0.71900004
-0.049987622 0.071900003 0.71900004
-0.048482861 0.071700007 0.71700001
-0.047117148 0.071700007 0.71700001
-0.045687623 0.071600005 0.71600002
-0.044200003 0.071400002 0.71400005
-0.042840004 0.071400002 0.71400005
-0.041421909 0.071300007 0.71300006
-0.040063813 0.071300007 0.71300006
-0.038597144 0.071100004 0.71100003
-0.03724286 0.071100004 0.71100003
-0.035838097 0.071000002 0.71000004
-0.034485716 0.071000002 0.71000004
-0.033040002 0.070800006 0.708
-0.031691432 0.070800006 0.708
-0.030342858 0.070800006 0.708
-0.028994288 0.070800006 0.708
-0.027606668 0.070700005 0.70700002
-0.026297145 0.070800006 0.708
-0.024948573 0.070800006 0.708
-0.023600001 0.070800006 0.708
-0.022251431 0.070800006 0.708
-0.020961907 0.071000002 0.71000004
-0.019609526 0.071000002 0.71000004
-0.018282859 0.071100004 0.71100003
-0.016928572 0.071100004 0.71100003
-0.015574287 0.071100004 0.71100003
-0.014220001 0.071100004 0.71100003
-0.012865715 0.071100004 0.71100003
-0.011446668 0.070700005 0.70700002
-0.060154289 0.073982865 0.72600001
-0.058771431 0.073982865 0.72600001
-0.057309527 0.073880956 0.72500002
-0.05577429 0.073677145 0.72300005
-0.054171432 0.073371433 0.72000003
-0.052800003 0.073371433 0.72000003
-0.051357146 0.073269531 0.71900004
-0.049987622 0.073269531 0.71900004
-0.048482861 0.07306572 0.71700001
-0.047117148 0.07306572 0.71700001
-0.045560002 0.072760008 0.71400005
-0.044200003 0.072760008 0.71400005
-0.042780004 0.072658099 0.71300006
-0.041421909 0.072658099 0.71300006
-0.039951432 0.072454289 0.71100003
-0.038597144 0.072454289 0.71100003
-0.037190478 0.072352387 0.71000004
-0.035838097 0.072352387 0.71000004
-0.034388572 0.072148576 0.708
-0.032993335 0.072046675 0.70700002
-0.031646669 0.072046675 0.70700002
-0.030300003 0.072046675 0.70700002
-0.028953334 0.072046675 0.70700002
-0.027606668 0.072046675 0.70700002
-0.026260002 0.072046675 0.70700002
-0.024913335 0.072046675 0.70700002
-0.023566669 0.072046675 0.70700002
-0.022220001 0.072046675 0.70700002
-0.020902859 0.072148576 0.708
-0.019554287 0.072148576 0.708
-0.018257145 0.072352387 0.71000004
-0.016904764 0.072352387 0.71000004
-0.015552382 0.072352387 0.71000004
-0.014220001 0.072454289 0.71100003
-0.012865715 0.072454289 0.71100003
-0.011511429 0.072454289 0.71100003
-0.059905719 0.075054288 0.72300005
-0.058528576 0.075054288 0.72300005
-0.057151433 0.075054288 0.72300005
-0.055697147 0.074950479 0.72200006
-0.054171432 0.074742861 0.72000003
-0.052800003 0.074742861 0.72000003
-0.051357146 0.074639052 0.71900004
-0.049987622 0.074639052 0.71900004
-0.048482861 0.074431434 0.71700001
-0.047051433 0.074327625 0.71600002
-0.045496192 0.074016199 0.71300006
-0.0441381 0.074016199 0.71300006
-0.042780004 0.074016199 0.71300006
-0.041305717 0.073808573 0.71100003
-0.039951432 0.073808573 0.71100003
-0.038542859 0.073704764 0.71000004
-0.037190478 0.073704764 0.71000004
-0.035737146 0.073497146 0.708
-0.034340002 0.073393337 0.70700002
-0.032993335 0.073393337 0.70700002
-0.031557146 0.07318572 0.70500004
-0.030214287 0.07318572 0.70500004
-0.02887143 0.07318572 0.70500004
-0.027528573 0.07318572 0.70500004
-0.026185716 0.07318572 0.70500004
-0.024842858 0.07318572 0.70500004
-0.023500001 0.07318572 0.70500004
-0.022157144 0.07318572 0.70500004
-0.020814287 0.07318572 0.70500004
-0.019526668 0.073393337 0.70700002
-0.018180002 0.073393337 0.70700002
-0.016857143 0.073497146 0.708
-0.015508573 0.073497146 0.708
-0.014200001 0.073704764 0.71000004
-0.01284762 0.073704764 0.71000004
-0.011511429 0.073808573 0.71100003
-0.010157144 0.073808573 0.71100003
-0.058447622 0.076325722 0.72200006
-0.057072386 0.076325722 0.72200006
-0.055697147 0.076325722 0.72200006
-0.054171432 0.076114289 0.72000003
-0.052800003 0.076114289 0.72000003
-0.051357146 0.076008573 0.71900004
-0.049848575 0.075797148 0.71700001
-0.04841524 0.075691432 0.71600002
-0.046920002 0.075480007 0.71400005
-0.045496192 0.07537429 0.71300006
-0.04401429 0.075162865 0.71100003
-0.042660002 0.075162865 0.71100003
-0.041305717 0.075162865 0.71100003
-0.039951432 0.075162865 0.71100003
-0.038542859 0.075057149 0.71000004
-0.037085716 0.074845716 0.708
-0.035686668 0.074740008 0.70700002
-0.034340002 0.074740008 0.70700002
-0.032900002 0.074528575 0.70500004
-0.031557146 0.074528575 0.70500004
-0.030214287 0.074528575 0.70500004
-0.02887143 0.074528575 0.70500004
-0.027489526 0.074422859 0.70400006
-0.026148573 0.074422859 0.70400006
-0.024807621 0.074422859 0.70400006
-0.023466669 0.074422859 0.70400006
-0.022125715 0.074422859 0.70400006
-0.020784764 0.074422859 0.70400006
-0.019471429 0.074528575 0.70500004
-0.018128572 0.074528575 0.70500004
-0.016833335 0.074740008 0.70700002
-0.015486668 0.074740008 0.70700002
-0.014160001 0.074845716 0.708
-0.01284762 0.075057149 0.71000004
-0.011462858 0.074845716 0.708
-0.010100001 0.074740008 0.70700002
-0.056914289 0.077485718 0.72000003
-0.05554286 0.077485718 0.72000003
-0.054096196 0.077378102 0.71900004
-0.052580003 0.077162862 0.71700001
-0.05114286 0.077055246 0.71600002
-0.04977905 0.077055246 0.71600002
-0.048280004 0.076840006 0.71400005
-0.046854287 0.07673239 0.71300006
-0.045368575 0.07651715 0.71100003
-0.04401429 0.07651715 0.71100003
-0.042600002 0.076409526 0.71000004
-0.041247621 0.076409526 0.71000004
-0.039782859 0.076194294 0.708
-0.038380001 0.07608667 0.70700002
-0.036928575 0.07587143 0.70500004
-0.035585716 0.07587143 0.70500004
-0.034194287 0.075763814 0.70400006
-0.032853335 0.075763814 0.70400006
-0.03146762 0.075656198 0.70300001
-0.030128574 0.075656198 0.70300001
-0.028707622 0.075440958 0.70100003
-0.027372383 0.075440958 0.70100003
-0.026037145 0.075440958 0.70100003
-0.024701906 0.075440958 0.70100003
-0.023366667 0.075440958 0.70100003
-0.02203143 0.075440958 0.70100003
-0.020696191 0.075440958 0.70100003
-0.019360954 0.075440958 0.70100003
-0.018077144 0.075656198 0.70300001
-0.016738096 0.075656198 0.70300001
-0.015420954 0.075763814 0.70400006
-0.014100001 0.07587143 0.70500004
-0.012757144 0.07587143 0.70500004
-0.011414287 0.07587143 0.70500004
-0.010057144 0.075763814 0.70400006
-0.0087161912 0.075763814 0.70400006
-0.0073752385 0.075763814 0.70400006
-0.05250667 0.078419052 0.71600002
-0.051000003 0.078200005 0.71400005
-0.049640004 0.078200005 0.71400005
-0.048212383 0.078090481 0.71300006
-0.046854287 0.078090481 0.71300006
-0.045368575 0.077871434 0.71100003
-0.04401429 0.077871434 0.71100003
-0.042600002 0.077761911 0.71000004
-0.041247621 0.077761911 0.71000004
-0.039726671 0.07743334 0.70700002
-0.038380001 0.07743334 0.70700002
-0.036928575 0.077214293 0.70500004
-0.035535239 0.07710477 0.70400006
-0.034145717 0.076995246 0.70300001
-0.032806668 0.076995246 0.70300001
-0.031378098 0.076776199 0.70100003
-0.030042859 0.076776199 0.70100003
-0.028666668 0.076666668 0.70000005
-0.027333336 0.076666668 0.70000005
-0.026000002 0.076666668 0.70000005
-0.024666669 0.076666668 0.70000005
-0.023333335 0.076666668 0.70000005
-0.022000002 0.076666668 0.70000005
-0.020666668 0.076666668 0.70000005
-0.019333335 0.076666668 0.70000005
-0.018025715 0.076776199 0.70100003
-0.016690478 0.076776199 0.70100003
-0.015355239 0.076776199 0.70100003
-0.014060001 0.076995246 0.70300001
-0.012739048 0.07710477 0.70400006
-0.011398096 0.07710477 0.70400006
-0.010042857 0.076995246 0.70300001
-0.0086790482 0.076776199 0.70100003
-0.0073438101 0.076776199 0.70100003
-0.0059828577 0.076447621 0.69800001
-0.05228667 0.079448573 0.71300006
-0.050928574 0.079448573 0.71300006
-0.049570478 0.079448573 0.71300006
-0.048212383 0.079448573 0.71300006
-0.046722859 0.079225719 0.71100003
-0.045368575 0.079225719 0.71100003
-0.043952383 0.079114288 0.71000004
-0.042480003 0.078891434 0.708
-0.041131433 0.078891434 0.708
-0.03961429 0.078557149 0.70500004
-0.038271431 0.078557149 0.70500004
-0.036876194 0.078445718 0.70400006
-0.035484765 0.078334294 0.70300001
-0.034048572 0.078111432 0.70100003
-0.032713335 0.078111432 0.70100003
-0.031333335 0.078000002 0.70000005
-0.030000001 0.078000002 0.70000005
-0.028666668 0.078000002 0.70000005
-0.027255239 0.077777147 0.69800001
-0.025925716 0.077777147 0.69800001
-0.024596192 0.077777147 0.69800001
-0.023266668 0.077777147 0.69800001
-0.021937145 0.077777147 0.69800001
-0.02060762 0.077777147 0.69800001
-0.019278096 0.077777147 0.69800001
-0.018000001 0.078000002 0.70000005
-0.016666668 0.078000002 0.70000005
-0.015289525 0.077777147 0.69800001
-0.014020001 0.078111432 0.70100003
-0.012684762 0.078111432 0.70100003
-0.011333334 0.078000002 0.70000005
-0.010000001 0.078000002 0.70000005
-0.0086419052 0.077777147 0.69800001
-0.0073123816 0.077777147 0.69800001
-0.0059828577 0.077777147 0.69800001
-0.0046466668 0.077665716 0.69700003
-0.0033190479 0.077665716 0.69700003
-0.053644765 0.080806673 0.71300006
-0.052140005 0.080580004 0.71100003
-0.050785717 0.080580004 0.71100003
-0.049431432 0.080580004 0.71100003
-0.048077147 0.080580004 0.71100003
-0.046722859 0.080580004 0.71100003
-0.045304764 0.080466673 0.71000004
-0.043828573 0.080240004 0.708
-0.042480003 0.080240004 0.708
-0.040957145 0.079900004 0.70500004
-0.03961429 0.079900004 0.70500004
-0.038217146 0.079786673 0.70400006
-0.036823813 0.079673335 0.70300001
-0.035383813 0.079446673 0.70100003
-0.034000002 0.079333335 0.70000005
-0.032666668 0.079333335 0.70000005
-0.031333335 0.079333335 0.70000005
-0.029914288 0.079106674 0.69800001
-0.028584763 0.079106674 0.69800001
-0.027216192 0.078993335 0.69700003
-0.025888573 0.078993335 0.69700003
-0.024560954 0.078993335 0.69700003
-0.023233335 0.078993335 0.69700003
-0.021905717 0.078993335 0.69700003
-0.020578096 0.078993335 0.69700003
-0.019250477 0.078993335 0.69700003
-0.017922858 0.078993335 0.69700003
-0.016595239 0.078993335 0.69700003
-0.01526762 0.078993335 0.69700003
-0.014000001 0.079333335 0.70000005
-0.012630477 0.079106674 0.69800001
-0.011300953 0.079106674 0.69800001
-0.0099714296 0.079106674 0.69800001
-0.0086295241 0.078993335 0.69700003
-0.0073019052 0.078993335 0.69700003
-0.0059742862 0.078993335 0.69700003
-0.0046466668 0.078993335 0.69700003
-0.0033047621 0.078653336 0.69400001
-0.052066669 0.08181905 0.71000004
-0.050714288 0.08181905 0.71000004
-0.049361907 0.08181905 0.71000004
-0.048009526 0.08181905 0.71000004
-0.046657145 0.08181905 0.71000004
-0.045177147 0.081588574 0.708
-0.043828573 0.081588574 0.708
-0.042420004 0.081473336 0.70700002
-0.040957145 0.081242859 0.70500004
-0.03961429 0.081242859 0.70500004
-0.038217146 0.081127621 0.70400006
-0.036823813 0.081012383 0.70300001
-0.035383813 0.080781907 0.70100003
-0.034000002 0.080666669 0.70000005
-0.032666668 0.080666669 0.70000005
-0.031243812 0.080436192 0.69800001
-0.029914288 0.080436192 0.69800001
-0.028543811 0.080320954 0.69700003
-0.027216192 0.080320954 0.69700003
-0.025888573 0.080320954 0.69700003
-0.024490478 0.080090478 0.69500005
-0.023166668 0.080090478 0.69500005
-0.021842858 0.080090478 0.69500005
-0.020578096 0.080320954 0.69700003
-0.01919524 0.080090478 0.69500005
-0.017922858 0.080320954 0.69700003
-0.01654762 0.080090478 0.69500005
-0.01526762 0.080320954 0.69700003
-0.013940001 0.080320954 0.69700003
-0.012612382 0.080320954 0.69700003
-0.011284763 0.080320954 0.69700003
-0.009928572 0.080090478 0.69500005
-0.0086047621 0.080090478 0.69500005
-0.0072704768 0.07997524 0.69400001
-0.005948572 0.07997524 0.69400001
-0.0046266671 0.07997524 0.69400001
-0.0033047621 0.07997524 0.69400001
-0.0019800002 0.079860002 0.69300002
-0.05341905 0.083171435 0.71000004
-0.052066669 0.083171435 0.71000004
-0.050714288 0.083171435 0.71000004
-0.04922286 0.082937151 0.708
-0.048009526 0.083171435 0.71000004
-0.046657145 0.083171435 0.71000004
-0.045177147 0.082937151 0.708
-0.04376667 0.082820006 0.70700002
-0.042420004 0.082820006 0.70700002
-0.040957145 0.082585722 0.70500004
-0.039558098 0.082468577 0.70400006
-0.038217146 0.082468577 0.70400006
-0.036823813 0.082351431 0.70300001
-0.035383813 0.082117148 0.70100003
-0.034000002 0.082000002 0.70000005
-0.032573335 0.081765719 0.69800001
-0.031243812 0.081765719 0.69800001
-0.02987143 0.081648573 0.69700003
-0.028543811 0.081648573 0.69700003
-0.027138097 0.08141429 0.69500005
-0.025814287 0.08141429 0.69500005
-0.024490478 0.08141429 0.69500005
-0.023166668 0.08141429 0.69500005
-0.021842858 0.08141429 0.69500005
-0.02051905 0.08141429 0.69500005
-0.01919524 0.08141429 0.69500005
-0.01787143 0.08141429 0.69500005
-0.01654762 0.08141429 0.69500005
-0.01526762 0.081648573 0.69700003
-0.013940001 0.081648573 0.69700003
-0.012612382 0.081648573 0.69700003
-0.011252382 0.08141429 0.69500005
-0.0099142864 0.081297152 0.69400001
-0.0085923811 0.081297152 0.69400001
-0.0072704768 0.081297152 0.69400001
-0.0059400005 0.081180006 0.69300002
-0.0046200003 0.081180006 0.69300002
-0.0033000002 0.081180006 0.69300002
-0.0019800002 0.081180006 0.69300002
-0.00066095241 0.081297152 0.69400001
0.00066000002 0.081180006 0.69300002
0.17116953 0.088091433 0.75200003
-0.051920004 0.084285721 0.708
-0.05057143 0.084285721 0.708
-0.049153335 0.084166676 0.70700002
-0.04787429 0.084285721 0.708
-0.046525717 0.084285721 0.708
-0.045113336 0.084166676 0.70700002
-0.04376667 0.084166676 0.70700002
-0.042300005 0.083928578 0.70500004
-0.040899049 0.083809532 0.70400006
-0.039501909 0.083690479 0.70300001
-0.038162861 0.083690479 0.70300001
-0.03671905 0.083452389 0.70100003
-0.035333335 0.083333336 0.70000005
-0.033902861 0.083095245 0.69800001
-0.032526668 0.082976192 0.69700003
-0.031199049 0.082976192 0.69700003
-0.029785717 0.082738101 0.69500005
-0.028461907 0.082738101 0.69500005
-0.027138097 0.082738101 0.69500005
-0.025814287 0.082738101 0.69500005
-0.02445524 0.082619056 0.69400001
-0.023133336 0.082619056 0.69400001
-0.021811429 0.082619056 0.69400001
-0.02051905 0.082738101 0.69500005
-0.01919524 0.082738101 0.69500005
-0.01787143 0.082738101 0.69500005
-0.01652381 0.082619056 0.69400001
-0.01522381 0.082738101 0.69500005
-0.013900001 0.082738101 0.69500005
-0.012576192 0.082738101 0.69500005
-0.011252382 0.082738101 0.69500005
-0.0099000009 0.082500003 0.69300002
-0.0085923811 0.082619056 0.69400001
-0.0072704768 0.082619056 0.69400001
-0.005948572 0.082619056 0.69400001
-0.0046200003 0.082500003 0.69300002
-0.0033000002 0.082500003 0.69300002
-0.0019828572 0.082619056 0.69400001
-0.00066095241 0.082619056 0.69400001
0.00066095241 0.082619056 0.69400001
0.0019857143 0.082738101 0.69500005
0.0033190479 0.082976192 0.69700003
-0.051846672 0.085513338 0.70700002
-0.050500002 0.085513338 0.70700002
-0.049153335 0.085513338 0.70700002
-0.047806669 0.085513338 0.70700002
-0.046460003 0.085513338 0.70700002
-0.045113336 0.085513338 0.70700002
-0.04364286 0.085271433 0.70500004
-0.042300005 0.085271433 0.70500004
-0.040899049 0.08515048 0.70400006
-0.039501909 0.085029528 0.70300001
-0.038054287 0.084787622 0.70100003
-0.036666669 0.084666669 0.70000005
-0.035232384 0.084424764 0.69800001
-0.033854287 0.084303819 0.69700003
-0.032526668 0.084303819 0.69700003
-0.031109527 0.084061913 0.69500005
-0.029785717 0.084061913 0.69500005
-0.028420955 0.08394096 0.69400001
-0.027099049 0.08394096 0.69400001
-0.025777144 0.08394096 0.69400001
-0.024420002 0.083820008 0.69300002
-0.023133336 0.08394096 0.69400001
-0.021811429 0.08394096 0.69400001
-0.020489525 0.08394096 0.69400001
-0.019167621 0.08394096 0.69400001
-0.017820001 0.083820008 0.69300002
-0.016500002 0.083820008 0.69300002
-0.015201906 0.08394096 0.69400001
-0.01388 0.08394096 0.69400001
-0.012558096 0.08394096 0.69400001
-0.011236191 0.08394096 0.69400001
-0.0099000009 0.083820008 0.69300002
-0.0085800001 0.083820008 0.69300002
-0.0072600003 0.083820008 0.69300002
-0.005948572 0.08394096 0.69400001
-0.0046200003 0.083820008 0.69300002
-0.0033000002 0.083820008 0.69300002
-0.0019828572 0.08394096 0.69400001
-0.00066095241 0.08394096 0.69400001
0.00066095241 0.08394096 0.69400001
0.0019857143 0.084061913 0.69500005
0.0033190479 0.084303819 0.69700003
0.0046466668 0.084303819 0.69700003
-0.048944764 0.086491436 0.70400006
-0.047671434 0.086614288 0.70500004
-0.046328574 0.086614288 0.70500004
-0.044985719 0.086614288 0.70500004
-0.04364286 0.086614288 0.70500004
-0.042240001 0.086491436 0.70400006
-0.040840954 0.086368576 0.70300001
-0.039501909 0.086368576 0.70300001
-0.038000003 0.086000003 0.70000005
-0.036561906 0.08575429 0.69800001
-0.035181906 0.085631438 0.69700003
-0.033854287 0.085631438 0.69700003
-0.032433335 0.085385717 0.69500005
-0.031109527 0.085385717 0.69500005
-0.029742859 0.085262865 0.69400001
-0.028420955 0.085262865 0.69400001
-0.027099049 0.085262865 0.69400001
-0.025777144 0.085262865 0.69400001
-0.024349526 0.084894292 0.69100004
-0.023100002 0.085140005 0.69300002
-0.021780001 0.085140005 0.69300002
-0.020460002 0.085140005 0.69300002
-0.019140001 0.085140005 0.69300002
-0.017768573 0.084894292 0.69100004
-0.016500002 0.085140005 0.69300002
-0.015201906 0.085262865 0.69400001
-0.013860001 0.085140005 0.69300002
-0.01254 0.085140005 0.69300002
-0.011220001 0.085140005 0.69300002
-0.0098714288 0.084894292 0.69100004
-0.0085800001 0.085140005 0.69300002
-0.0072600003 0.085140005 0.69300002
-0.0059400005 0.085140005 0.69300002
-0.004606667 0.084894292 0.69100004
-0.0033000002 0.085140005 0.69300002
-0.0019800002 0.085140005 0.69300002
-0.00066095241 0.085262865 0.69400001
0.00066095241 0.085262865 0.69400001
0.0019857143 0.085385717 0.69500005
0.0033190479 0.085631438 0.69700003
0.0046466668 0.085631438 0.69700003
0.0059742862 0.085631438 0.69700003
-0.047536194 0.087707624 0.70300001
-0.04626286 0.087832384 0.70400006
-0.044921909 0.087832384 0.70400006
-0.043580957 0.087832384 0.70400006
-0.042240001 0.087832384 0.70400006
-0.040724766 0.087458104 0.70100003
-0.039389525 0.087458104 0.70100003
-0.038000003 0.087333336 0.70000005
-0.036561906 0.087083817 0.69800001
-0.035181906 0.086959057 0.69700003
-0.033854287 0.086959057 0.69700003
-0.032433335 0.086709529 0.69500005
-0.031064764 0.086584769 0.69400001
-0.029742859 0.086584769 0.69400001
-0.028380001 0.086460009 0.69300002
-0.027060002 0.086460009 0.69300002
-0.025665715 0.086210482 0.69100004
-0.024349526 0.086210482 0.69100004
-0.023033334 0.086210482 0.69100004
-0.021717144 0.086210482 0.69100004
-0.020400954 0.086210482 0.69100004
-0.019057143 0.086085722 0.69000006
-0.017742859 0.086085722 0.69000006
-0.016452381 0.086210482 0.69100004
-0.015180001 0.086460009 0.69300002
-0.013820001 0.086210482 0.69100004
-0.01250381 0.086210482 0.69100004
-0.01118762 0.086210482 0.69100004
-0.0098714288 0.086210482 0.69100004
-0.0085800001 0.086460009 0.69300002
-0.0072390479 0.086210482 0.69100004
-0.0059228577 0.086210482 0.69100004
-0.004606667 0.086210482 0.69100004
-0.0032904765 0.086210482 0.69100004
-0.0019800002 0.086460009 0.69300002
-0.00066095241 0.086584769 0.69400001
0.00066000002 0.086460009 0.69300002
0.0019828572 0.086584769 0.69400001
0.0033095239 0.086709529 0.69500005
0.0046466668 0.086959057 0.69700003
0.0059742862 0.086959057 0.69700003
0.0073019052 0.086959057 0.69700003
0.0086419052 0.087083817 0.69800001
-0.047333337 0.08866667 0.70000005
-0.046197146 0.089046672 0.70300001
-0.044858098 0.089046672 0.70300001
-0.04351905 0.089046672 0.70300001
-0.042060003 0.088793337 0.70100003
-0.040724766 0.088793337 0.70100003
-0.039389525 0.088793337 0.70100003
-0.038000003 0.08866667 0.70000005
-0.036509525 0.088286676 0.69700003
-0.035181906 0.088286676 0.69700003
-0.033757146 0.088033341 0.69500005
-0.032433335 0.088033341 0.69500005
-0.031064764 0.087906674 0.69400001
-0.029700002 0.087780006 0.69300002
-0.028380001 0.087780006 0.69300002
-0.026981907 0.087526672 0.69100004
-0.025628572 0.087400004 0.69000006
-0.024314288 0.087400004 0.69000006
-0.023000002 0.087400004 0.69000006
-0.021685716 0.087400004 0.69000006
-0.02037143 0.087400004 0.69000006
-0.019057143 0.087400004 0.69000006
-0.017742859 0.087400004 0.69000006
-0.016428573 0.087400004 0.69000006
-0.015136192 0.087526672 0.69100004
-0.013820001 0.087526672 0.69100004
-0.01250381 0.087526672 0.69100004
-0.01118762 0.087526672 0.69100004
-0.0098714288 0.087526672 0.69100004
-0.0085552391 0.087526672 0.69100004
-0.0072390479 0.087526672 0.69100004
-0.0059228577 0.087526672 0.69100004
-0.0046000001 0.087400004 0.69000006
-0.0032904765 0.087526672 0.69100004
-0.0019742858 0.087526672 0.69100004
-0.00065809529 0.087526672 0.69100004
0.00065809529 0.087526672 0.69100004
0.0019800002 0.087780006 0.69300002
0.0033047621 0.087906674 0.69400001
0.0046333335 0.088033341 0.69500005
0.0059571434 0.088033341 0.69500005
0.0073019052 0.088286676 0.69700003
0.0086419052 0.088413343 0.69800001
0.010014286 0.088793337 0.70100003
0.011381906 0.089046672 0.70300001
0.15334667 0.093986675 0.74200004
0.16606668 0.093986675 0.74200004
-0.047198098 0.089742862 0.69800001
-0.046000004 0.090000004 0.70000005
-0.044730481 0.090128578 0.70100003
-0.04339524 0.090128578 0.70100003
-0.042060003 0.090128578 0.70100003
-0.04066667 0.090000004 0.70000005
-0.039333336 0.090000004 0.70000005
-0.037837144 0.089614294 0.69700003
-0.036404766 0.089357145 0.69500005
-0.035080954 0.089357145 0.69500005
-0.033708572 0.089228578 0.69400001
-0.032386668 0.089228578 0.69400001
-0.030930478 0.088842861 0.69100004
-0.029614288 0.088842861 0.69100004
-0.028257145 0.088714294 0.69000006
-0.026942858 0.088714294 0.69000006
-0.025591429 0.088585719 0.68900001
-0.024279049 0.088585719 0.68900001
-0.022900002 0.088328578 0.68700004
-0.021591431 0.088328578 0.68700004
-0.020282859 0.088328578 0.68700004
-0.018974287 0.088328578 0.68700004
-0.017665716 0.088328578 0.68700004
-0.016404763 0.088585719 0.68900001
-0.015114287 0.088714294 0.69000006
-0.013800001 0.088714294 0.69000006
-0.012485716 0.088714294 0.69000006
-0.011171429 0.088714294 0.69000006
-0.0098571433 0.088714294 0.69000006
-0.0085428581 0.088714294 0.69000006
-0.0072285719 0.088714294 0.69000006
-0.0059057148 0.088585719 0.68900001
-0.0046000001 0.088714294 0.69000006
-0.0032857144 0.088714294 0.69000006
-0.0019714287 0.088714294 0.69000006
-0.0006571429 0.088714294 0.69000006
0.0006571429 0.088714294 0.69000006
0.0019714287 0.088714294 0.69000006
0.0032904765 0.088842861 0.69100004
0.004606667 0.088842861 0.69100004
0.0059228577 0.088842861 0.69100004
0.0072704768 0.089228578 0.69400001
0.0086047621 0.089357145 0.69500005
0.0099714296 0.089742862 0.69800001
0.011349524 0.090128578 0.70100003
0.012684762 0.090128578 0.70100003
-0.043333337 0.091333337 0.70000005
-0.042000003 0.091333337 0.70000005
-0.040550478 0.091072388 0.69800001
-0.039220955 0.091072388 0.69800001
-0.037728574 0.090680957 0.69500005
-0.036404766 0.090680957 0.69500005
-0.035030477 0.090550482 0.69400001
-0.033708572 0.090550482 0.69400001
-0.032340001 0.090420008 0.69300002
-0.030930478 0.090159051 0.69100004
-0.029571431 0.090028577 0.69000006
-0.028257145 0.090028577 0.69000006
-0.026903812 0.089898102 0.68900001
-0.025591429 0.089898102 0.68900001
-0.024208574 0.089637145 0.68700004
-0.022866668 0.089506671 0.68600005
-0.021560002 0.089506671 0.68600005
-0.020253334 0.089506671 0.68600005
-0.018946668 0.089506671 0.68600005
-0.017665716 0.089637145 0.68700004
-0.016357144 0.089637145 0.68700004
-0.015092382 0.089898102 0.68900001
-0.013780001 0.089898102 0.68900001
-0.01246762 0.089898102 0.68900001
-0.011155238 0.089898102 0.68900001
-0.0098428577 0.089898102 0.68900001
-0.0085304771 0.089898102 0.68900001
-0.0071971435 0.089637145 0.68700004
-0.005888572 0.089637145 0.68700004
-0.0045933337 0.089898102 0.68900001
-0.0032809526 0.089898102 0.68900001
-0.0019685715 0.089898102 0.68900001
-0.0006561905 0.089898102 0.68900001
0.0006561905 0.089898102 0.68900001
0.0019685715 0.089898102 0.68900001
0.0032857144 0.090028577 0.69000006
0.0046000001 0.090028577 0.69000006
0.0059057148 0.089898102 0.68900001
0.0072180959 0.089898102 0.68900001
0.0085304771 0.089898102 0.68900001
0.0098142866 0.089637145 0.68700004
-0.040492382 0.092269532 0.69700003
-0.039164763 0.092269532 0.69700003
-0.037728574 0.092004769 0.69500005
-0.036352385 0.091872387 0.69400001
-0.035030477 0.091872387 0.69400001
-0.033660002 0.091740005 0.69300002
-0.032246668 0.091475241 0.69100004
-0.030885717 0.091342866 0.69000006
-0.029571431 0.091342866 0.69000006
-0.028216192 0.091210485 0.68900001
-0.026903812 0.091210485 0.68900001
-0.025591429 0.091210485 0.68900001
-0.024208574 0.090945721 0.68700004
-0.022866668 0.090813339 0.68600005
-0.021497143 0.090548575 0.68400002
-0.020194286 0.090548575 0.68400002
-0.018946668 0.090813339 0.68600005
-0.017640002 0.090813339 0.68600005
-0.016333334 0.090813339 0.68600005
-0.015048573 0.090945721 0.68700004
-0.013740001 0.090945721 0.68700004
-0.01246762 0.091210485 0.68900001
-0.011122858 0.090945721 0.68700004
-0.0098142866 0.090945721 0.68700004
-0.0085057151 0.090945721 0.68700004
-0.0071866671 0.090813339 0.68600005
-0.0058628577 0.090548575 0.68400002
-0.0045800004 0.090945721 0.68700004
-0.0032714289 0.090945721 0.68700004
-0.0019628573 0.090945721 0.68700004
-0.00065428577 0.090945721 0.68700004
0.00065428577 0.090945721 0.68700004
0.0019628573 0.090945721 0.68700004
0.0032809526 0.091210485 0.68900001
0.0045933337 0.091210485 0.68900001
0.0058800005 0.090813339 0.68600005
0.0071866671 0.090813339 0.68600005
0.0084933341 0.090813339 0.68600005
0.0098142866 0.090945721 0.68700004
0.011122858 0.090945721 0.68700004
0.012413334 0.090813339 0.68600005
0.013740001 0.090945721 0.68700004
-0.039052382 0.09332858 0.69500005
-0.037728574 0.09332858 0.69500005
-0.036352385 0.093194291 0.69400001
-0.034980003 0.093060009 0.69300002
-0.033660002 0.093060009 0.69300002
-0.032200001 0.092657149 0.69000006
-0.030885717 0.092657149 0.69000006
-0.029528573 0.09252286 0.68900001
-0.028216192 0.09252286 0.68900001
-0.026903812 0.09252286 0.68900001
-0.025591429 0.09252286 0.68900001
-0.024208574 0.092254288 0.68700004
-0.022866668 0.092120007 0.68600005
-0.021497143 0.091851436 0.68400002
-0.020194286 0.091851436 0.68400002
-0.01889143 0.091851436 0.68400002
-0.017588573 0.091851436 0.68400002
-0.016333334 0.092120007 0.68600005
-0.015048573 0.092254288 0.68700004
-0.013740001 0.092254288 0.68700004
-0.01246762 0.09252286 0.68900001
-0.0085057151 0.092254288 0.68700004
-0.0071657146 0.091851436 0.68400002
-0.0058628577 0.091851436 0.68400002
