# .PCD v0.7 - Point Cloud Data file format
VERSION 0.7
FIELDS x y z
SIZE 4 4 4
TYPE F F F
COUNT 1 1 1
WIDTH 1317
HEIGHT 1
VIEWPOINT 0 0 0 1 0 0 0
POINTS 1317
DATA ascii
-0.032834288 -0.0057942863 0.67600006
-0.031546667 -0.0057942863 0.67600006
-0.07532572 -0.0045066671 0.67600006
-0.07392858 -0.0045000003 0.67500001
-0.072642863 -0.0045000003 0.67500001
-0.07125143 -0.0044933334 0.67400002
-0.06996762 -0.0044933334 0.67400002
-0.068683811 -0.0044933334 0.67400002
-0.067400001 -0.0044933334 0.67400002
-0.066116191 -0.0044933334 0.67400002
-0.064640008 -0.0044800001 0.67200005
-0.063548572 -0.0044933334 0.67400002
-0.062264767 -0.0044933334 0.67400002
-0.060980957 -0.0044933334 0.67400002
-0.059520002 -0.0044800001 0.67200005
-0.058240004 -0.0044800001 0.67200005
-0.057129528 -0.0044933334 0.67400002
-0.055845719 -0.0044933334 0.67400002
-0.05464286 -0.0045000003 0.67500001
-0.053357147 -0.0045000003 0.67500001
-0.052071434 -0.0045000003 0.67500001
-0.050710481 -0.0044933334 0.67400002
-0.049426671 -0.0044933334 0.67400002
-0.048142862 -0.0044933334 0.67400002
-0.046859052 -0.0044933334 0.67400002
-0.045575242 -0.0044933334 0.67400002
-0.044160005 -0.0044800001 0.67200005
-0.042880002 -0.0044800001 0.67200005
-0.041723814 -0.0044933334 0.67400002
-0.040440004 -0.0044933334 0.67400002
-0.039214287 -0.0045000003 0.67500001
-0.037928574 -0.0045000003 0.67500001
-0.036697146 -0.0045066671 0.67600006
-0.035409525 -0.0045066671 0.67600006
-0.034121908 -0.0045066671 0.67600006
-0.032834288 -0.0045066671 0.67600006
-0.031640001 -0.0045200004 0.67800003
-0.075660005 -0.0032333336 0.67900002
-0.07392858 -0.0032142859 0.67500001
-0.072642863 -0.0032142859 0.67500001
-0.071357146 -0.0032142859 0.67500001
-0.070071436 -0.0032142859 0.67500001
-0.06878572 -0.0032142859 0.67500001
-0.067500003 -0.0032142859 0.67500001
-0.066116191 -0.0032095241 0.67400002
-0.064832382 -0.0032095241 0.67400002
-0.063548572 -0.0032095241 0.67400002
-0.062264767 -0.0032095241 0.67400002
-0.060980957 -0.0032095241 0.67400002
-0.059697147 -0.0032095241 0.67400002
-0.058413338 -0.0032095241 0.67400002
-0.057129528 -0.0032095241 0.67400002
-0.055928577 -0.0032142859 0.67500001
-0.05464286 -0.0032142859 0.67500001
-0.053357147 -0.0032142859 0.67500001
-0.052148573 -0.0032190478 0.67600006
-0.050785717 -0.0032142859 0.67500001
-0.049500003 -0.0032142859 0.67500001
-0.04821429 -0.0032142859 0.67500001
-0.046859052 -0.0032095241 0.67400002
-0.045575242 -0.0032095241 0.67400002
-0.044291433 -0.0032095241 0.67400002
-0.043007623 -0.0032095241 0.67400002
-0.041785717 -0.0032142859 0.67500001
-0.040500004 -0.0032142859 0.67500001
-0.039214287 -0.0032142859 0.67500001
-0.037928574 -0.0032142859 0.67500001
-0.036697146 -0.0032190478 0.67600006
-0.035514288 -0.0032285717 0.67800003
-0.03422286 -0.0032285717 0.67800003
-0.032931432 -0.0032285717 0.67800003
-0.031686667 -0.0032333336 0.67900002
-0.075771436 -0.0019428573 0.68000001
-0.074038103 -0.0019314287 0.67600006
-0.072750479 -0.0019314287 0.67600006
-0.071462862 -0.0019314287 0.67600006
-0.070175245 -0.0019314287 0.67600006
-0.06878572 -0.0019285716 0.67500001
-0.067500003 -0.0019285716 0.67500001
-0.066214293 -0.0019285716 0.67500001
-0.064832382 -0.0019257144 0.67400002
-0.063548572 -0.0019257144 0.67400002
-0.062264767 -0.0019257144 0.67400002
-0.060980957 -0.0019257144 0.67400002
-0.059697147 -0.0019257144 0.67400002
-0.058413338 -0.0019257144 0.67400002
-0.057129528 -0.0019257144 0.67400002
-0.055928577 -0.0019285716 0.67500001
-0.054723814 -0.0019314287 0.67600006
-0.053436194 -0.0019314287 0.67600006
-0.052148573 -0.0019314287 0.67600006
-0.050860956 -0.0019314287 0.67600006
-0.049573336 -0.0019314287 0.67600006
-0.048285719 -0.0019314287 0.67600006
-0.046928573 -0.0019285716 0.67500001
-0.04564286 -0.0019285716 0.67500001
-0.044291433 -0.0019257144 0.67400002
-0.04307143 -0.0019285716 0.67500001
-0.041785717 -0.0019285716 0.67500001
-0.040560003 -0.0019314287 0.67600006
-0.039272383 -0.0019314287 0.67600006
-0.037984766 -0.0019314287 0.67600006
-0.036697146 -0.0019314287 0.67600006
-0.035514288 -0.001937143 0.67800003
-0.03422286 -0.001937143 0.67800003
-0.032980002 -0.0019400001 0.67900002
-0.031686667 -0.0019400001 0.67900002
-0.030438097 -0.0019428573 0.68000001
-0.077066675 -0.00064761908 0.68000001
-0.075660005 -0.00064666668 0.67900002
-0.074038103 -0.00064380956 0.67600006
-0.072750479 -0.00064380956 0.67600006
-0.071462862 -0.00064380956 0.67600006
-0.070175245 -0.00064380956 0.67600006
-0.06878572 -0.00064285717 0.67500001
-0.067500003 -0.00064285717 0.67500001
-0.066214293 -0.00064285717 0.67500001
-0.064832382 -0.00064190483 0.67400002
-0.063548572 -0.00064190483 0.67400002
-0.062264767 -0.00064190483 0.67400002
-0.060980957 -0.00064190483 0.67400002
-0.059697147 -0.00064190483 0.67400002
-0.058413338 -0.00064190483 0.67400002
-0.05721429 -0.00064285717 0.67500001
-0.055928577 -0.00064285717 0.67500001
-0.054723814 -0.00064380956 0.67600006
-0.053436194 -0.00064380956 0.67600006
-0.05230286 -0.00064571435 0.67800003
-0.051011432 -0.00064571435 0.67800003
-0.049720004 -0.00064571435 0.67800003
-0.048428576 -0.00064571435 0.67800003
-0.046998098 -0.00064380956 0.67600006
-0.04564286 -0.00064285717 0.67500001
-0.044357147 -0.00064285717 0.67500001
-0.043135241 -0.00064380956 0.67600006
-0.04184762 -0.00064380956 0.67600006
-0.040680002 -0.00064571435 0.67800003
-0.039272383 -0.00064380956 0.67600006
-0.037984766 -0.00064380956 0.67600006
-0.036697146 -0.00064380956 0.67600006
-0.035514288 -0.00064571435 0.67800003
-0.034273334 -0.00064666668 0.67900002
-0.032980002 -0.00064666668 0.67900002
-0.031733334 -0.00064761908 0.68000001
-0.030438097 -0.00064761908 0.68000001
-0.077066675 0.00064761908 0.68000001
-0.075660005 0.00064666668 0.67900002
-0.07425715 0.00064571435 0.67800003
-0.072965719 0.00064571435 0.67800003
-0.071462862 0.00064380956 0.67600006
-0.070175245 0.00064380956 0.67600006
-0.068887621 0.00064380956 0.67600006
-0.067500003 0.00064285717 0.67500001
-0.066214293 0.00064285717 0.67500001
-0.064928576 0.00064285717 0.67500001
-0.063548572 0.00064190483 0.67400002
-0.062264767 0.00064190483 0.67400002
-0.060980957 0.00064190483 0.67400002
-0.059697147 0.00064190483 0.67400002
-0.058413338 0.00064190483 0.67400002
-0.05721429 0.00064285717 0.67500001
-0.056011431 0.00064380956 0.67600006
-0.054723814 0.00064380956 0.67600006
-0.053594287 0.00064571435 0.67800003
-0.05230286 0.00064571435 0.67800003
-0.051086672 0.00064666668 0.67900002
-0.049720004 0.00064571435 0.67800003
-0.048428576 0.00064571435 0.67800003
-0.046998098 0.00064380956 0.67600006
-0.045710478 0.00064380956 0.67600006
-0.044422861 0.00064380956 0.67600006
-0.043135241 0.00064380956 0.67600006
-0.04184762 0.00064380956 0.67600006
-0.040560003 0.00064380956 0.67600006
-0.039272383 0.00064380956 0.67600006
-0.037984766 0.00064380956 0.67600006
-0.036697146 0.00064380956 0.67600006
-0.035566669 0.00064666668 0.67900002
-0.034273334 0.00064666668 0.67900002
-0.033028573 0.00064761908 0.68000001
-0.031733334 0.00064761908 0.68000001
-0.030572383 0.00065047626 0.68300003
-0.029271431 0.00065047626 0.68300003
-0.02801143 0.00065142859 0.68400002
-0.077066675 0.0019428573 0.68000001
-0.075771436 0.0019428573 0.68000001
-0.074366674 0.0019400001 0.67900002
-0.073073335 0.0019400001 0.67900002
-0.071780004 0.0019400001 0.67900002
-0.070486672 0.0019400001 0.67900002
-0.069091432 0.001937143 0.67800003
-0.067600004 0.0019314287 0.67600006
-0.066312388 0.0019314287 0.67600006
-0.064928576 0.0019285716 0.67500001
-0.063642859 0.0019285716 0.67500001
-0.062357146 0.0019285716 0.67500001
-0.061071433 0.0019285716 0.67500001
-0.059697147 0.0019257144 0.67400002
-0.058500003 0.0019285716 0.67500001
-0.05721429 0.0019285716 0.67500001
-0.056011431 0.0019314287 0.67600006
-0.054723814 0.0019314287 0.67600006
-0.053594287 0.001937143 0.67800003
-0.052380003 0.0019400001 0.67900002
-0.051011432 0.001937143 0.67800003
-0.049720004 0.001937143 0.67800003
-0.048428576 0.001937143 0.67800003
-0.046998098 0.0019314287 0.67600006
-0.045710478 0.0019314287 0.67600006
-0.044422861 0.0019314287 0.67600006
-0.043135241 0.0019314287 0.67600006
-0.04184762 0.0019314287 0.67600006
-0.040680002 0.001937143 0.67800003
-0.039272383 0.0019314287 0.67600006
-0.037984766 0.0019314287 0.67600006
-0.036697146 0.0019314287 0.67600006
-0.035566669 0.0019400001 0.67900002
-0.034323812 0.0019428573 0.68000001
-0.033125717 0.0019485715 0.68200004
-0.031826667 0.0019485715 0.68200004
-0.030572383 0.0019514287 0.68300003
-0.029314287 0.0019542859 0.68400002
-0.02801143 0.0019542859 0.68400002
-0.073073335 0.0032333336 0.67900002
-0.071780004 0.0032333336 0.67900002
-0.070486672 0.0032333336 0.67900002
-0.069091432 0.0032285717 0.67800003
-0.067600004 0.0032190478 0.67600006
-0.066312388 0.0032190478 0.67600006
-0.065024763 0.0032190478 0.67600006
-0.063642859 0.0032142859 0.67500001
-0.062357146 0.0032142859 0.67500001
-0.061071433 0.0032142859 0.67500001
-0.05978572 0.0032142859 0.67500001
-0.058500003 0.0032142859 0.67500001
-0.05721429 0.0032142859 0.67500001
-0.056011431 0.0032190478 0.67600006
-0.054885719 0.0032285717 0.67800003
-0.053594287 0.0032285717 0.67800003
-0.05230286 0.0032285717 0.67800003
-0.050860956 0.0032190478 0.67600006
-0.049720004 0.0032285717 0.67800003
-0.048285719 0.0032190478 0.67600006
-0.046998098 0.0032190478 0.67600006
-0.045710478 0.0032190478 0.67600006
-0.044422861 0.0032190478 0.67600006
-0.043135241 0.0032190478 0.67600006
-0.04184762 0.0032190478 0.67600006
-0.040680002 0.0032285717 0.67800003
-0.039272383 0.0032190478 0.67600006
-0.037984766 0.0032190478 0.67600006
-0.036697146 0.0032190478 0.67600006
-0.035566669 0.0032333336 0.67900002
-0.034323812 0.0032380954 0.68000001
-0.033174288 0.0032523812 0.68300003
-0.031873334 0.0032523812 0.68300003
-0.030617144 0.0032571431 0.68400002
-0.029314287 0.0032571431 0.68400002
-0.028093334 0.0032666668 0.68600005
-0.026825717 0.0032714289 0.68700004
-0.073180959 0.0045333337 0.68000001
-0.071780004 0.0045266668 0.67900002
-0.070486672 0.0045266668 0.67900002
-0.069091432 0.0045200004 0.67800003
-0.067600004 0.0045066671 0.67600006
-0.066312388 0.0045066671 0.67600006
-0.065024763 0.0045066671 0.67600006
-0.063642859 0.0045000003 0.67500001
-0.062357146 0.0045000003 0.67500001
-0.061071433 0.0045000003 0.67500001
-0.05978572 0.0045000003 0.67500001
-0.058500003 0.0045000003 0.67500001
-0.057299051 0.0045066671 0.67600006
-0.056011431 0.0045066671 0.67600006
-0.054723814 0.0045066671 0.67600006
-0.053594287 0.0045200004 0.67800003
-0.05230286 0.0045200004 0.67800003
-0.051011432 0.0045200004 0.67800003
-0.049720004 0.0045200004 0.67800003
-0.048428576 0.0045200004 0.67800003
-0.047137145 0.0045200004 0.67800003
-0.045710478 0.0045066671 0.67600006
-0.044422861 0.0045066671 0.67600006
-0.043135241 0.0045066671 0.67600006
-0.04184762 0.0045066671 0.67600006
-0.040680002 0.0045200004 0.67800003
-0.039388575 0.0045200004 0.67800003
-0.037984766 0.0045066671 0.67600006
-0.036805715 0.0045200004 0.67800003
-0.035566669 0.0045266668 0.67900002
-0.034424763 0.004546667 0.68200004
-0.033174288 0.0045533339 0.68300003
-0.031873334 0.0045533339 0.68300003
-0.030617144 0.0045600003 0.68400002
-0.029400002 0.0045733335 0.68600005
-0.028093334 0.0045733335 0.68600005
-0.026825717 0.0045800004 0.68700004
-0.073180959 0.005828572 0.68000001
-0.071780004 0.0058200005 0.67900002
-0.070486672 0.0058200005 0.67900002
-0.069091432 0.0058114291 0.67800003
-0.067600004 0.0057942863 0.67600006
-0.066312388 0.0057942863 0.67600006
-0.065024763 0.0057942863 0.67600006
-0.063642859 0.0057857148 0.67500001
-0.062357146 0.0057857148 0.67500001
-0.061071433 0.0057857148 0.67500001
-0.05978572 0.0057857148 0.67500001
-0.058500003 0.0057857148 0.67500001
-0.057299051 0.0057942863 0.67600006
-0.056011431 0.0057942863 0.67600006
-0.054885719 0.0058114291 0.67800003
-0.053594287 0.0058114291 0.67800003
-0.05230286 0.0058114291 0.67800003
-0.051011432 0.0058114291 0.67800003
-0.049720004 0.0058114291 0.67800003
-0.048428576 0.0058114291 0.67800003
-0.047137145 0.0058114291 0.67800003
-0.045845717 0.0058114291 0.67800003
-0.044554289 0.0058114291 0.67800003
-0.043262862 0.0058114291 0.67800003
-0.04197143 0.0058114291 0.67800003
-0.040740002 0.0058200005 0.67900002
-0.039388575 0.0058114291 0.67800003
-0.038097147 0.0058114291 0.67800003
-0.036860004 0.0058200005 0.67900002
-0.03561905 0.005828572 0.68000001
-0.034424763 0.0058457148 0.68200004
-0.033222858 0.0058628577 0.68400002
-0.031920001 0.0058628577 0.68400002
-0.030706668 0.0058800005 0.68600005
-0.029400002 0.0058800005 0.68600005
-0.028093334 0.0058800005 0.68600005
-0.026825717 0.005888572 0.68700004
-0.073073335 0.0071133338 0.67900002
-0.071780004 0.0071133338 0.67900002
-0.070486672 0.0071133338 0.67900002
-0.069091432 0.0071028578 0.67800003
-0.067600004 0.0070819054 0.67600006
-0.066508576 0.0071028578 0.67800003
-0.065024763 0.0070819054 0.67600006
-0.063737147 0.0070819054 0.67600006
-0.06244953 0.0070819054 0.67600006
-0.061161909 0.0070819054 0.67600006
-0.059874289 0.0070819054 0.67600006
-0.058586672 0.0070819054 0.67600006
-0.057468574 0.0071028578 0.67800003
-0.056177147 0.0071028578 0.67800003
-0.054885719 0.0071028578 0.67800003
-0.053594287 0.0071028578 0.67800003
-0.05230286 0.0071028578 0.67800003
-0.051011432 0.0071028578 0.67800003
-0.049720004 0.0071028578 0.67800003
-0.048428576 0.0071028578 0.67800003
-0.047137145 0.0071028578 0.67800003
-0.045845717 0.0071028578 0.67800003
-0.044554289 0.0071028578 0.67800003
-0.043262862 0.0071028578 0.67800003
-0.04197143 0.0071028578 0.67800003
-0.040740002 0.0071133338 0.67900002
-0.039446671 0.0071133338 0.67900002
-0.038153335 0.0071133338 0.67900002
-0.036914289 0.0071238098 0.68000001
-0.035723813 0.0071447622 0.68200004
-0.034475241 0.0071552387 0.68300003
-0.033222858 0.0071657146 0.68400002
-0.031920001 0.0071657146 0.68400002
-0.030706668 0.0071866671 0.68600005
-0.029400002 0.0071866671 0.68600005
-0.028134288 0.0071971435 0.68700004
-0.026825717 0.0071971435 0.68700004
-0.07188572 0.008419048 0.68000001
-0.070590481 0.008419048 0.68000001
-0.069193341 0.008406667 0.67900002
-0.067900002 0.008406667 0.67900002
-0.066606671 0.008406667 0.67900002
-0.065313339 0.008406667 0.67900002
-0.064020008 0.008406667 0.67900002
-0.062726669 0.008406667 0.67900002
-0.061433338 0.008406667 0.67900002
-0.060140003 0.008406667 0.67900002
-0.058846671 0.008406667 0.67900002
-0.057553336 0.008406667 0.67900002
-0.056177147 0.008394286 0.67800003
-0.054885719 0.008394286 0.67800003
-0.053594287 0.008394286 0.67800003
-0.05230286 0.008394286 0.67800003
-0.051011432 0.008394286 0.67800003
-0.049720004 0.008394286 0.67800003
-0.048428576 0.008394286 0.67800003
-0.047137145 0.008394286 0.67800003
-0.045845717 0.008394286 0.67800003
-0.044554289 0.008394286 0.67800003
-0.043326668 0.008406667 0.67900002
-0.042033337 0.008406667 0.67900002
-0.040740002 0.008406667 0.67900002
-0.039504763 0.008419048 0.68000001
-0.038209528 0.008419048 0.68000001
-0.037022859 0.00844381 0.68200004
-0.035723813 0.00844381 0.68200004
-0.034475241 0.008456191 0.68300003
-0.033222858 0.0084685721 0.68400002
-0.031920001 0.0084685721 0.68400002
-0.030706668 0.0084933341 0.68600005
-0.029400002 0.0084933341 0.68600005
-0.028134288 0.0085057151 0.68700004
-0.073826671 0.009800001 0.68600005
-0.072202861 0.0097571434 0.68300003
-0.070901908 0.0097571434 0.68300003
-0.069295242 0.0097142868 0.68000001
-0.067900002 0.0097000003 0.67900002
-0.066704765 0.0097142868 0.68000001
-0.065409526 0.0097142868 0.68000001
-0.064020008 0.0097000003 0.67900002
-0.062726669 0.0097000003 0.67900002
-0.061433338 0.0097000003 0.67900002
-0.060140003 0.0097000003 0.67900002
-0.058846671 0.0097000003 0.67900002
-0.057553336 0.0097000003 0.67900002
-0.056177147 0.0096857147 0.67800003
-0.054885719 0.0096857147 0.67800003
-0.053594287 0.0096857147 0.67800003
-0.05230286 0.0096857147 0.67800003
-0.051011432 0.0096857147 0.67800003
-0.049720004 0.0096857147 0.67800003
-0.048428576 0.0096857147 0.67800003
-0.047137145 0.0096857147 0.67800003
-0.045845717 0.0096857147 0.67800003
-0.044620004 0.0097000003 0.67900002
-0.043326668 0.0097000003 0.67900002
-0.042033337 0.0097000003 0.67900002
-0.040740002 0.0097000003 0.67900002
-0.039504763 0.0097142868 0.68000001
-0.038209528 0.0097142868 0.68000001
-0.037022859 0.0097428579 0.68200004
-0.035723813 0.0097428579 0.68200004
-0.034475241 0.0097571434 0.68300003
-0.033222858 0.009771429 0.68400002
-0.031920001 0.009771429 0.68400002
-0.030706668 0.009800001 0.68600005
-0.029400002 0.009800001 0.68600005
-0.073611431 0.011074287 0.68400002
-0.072308578 0.011074287 0.68400002
-0.070901908 0.011058096 0.68300003
-0.069295242 0.011009525 0.68000001
-0.068000004 0.011009525 0.68000001
-0.066704765 0.011009525 0.68000001
-0.065409526 0.011009525 0.68000001
-0.064114287 0.011009525 0.68000001
-0.062726669 0.010993334 0.67900002
-0.061433338 0.010993334 0.67900002
-0.060140003 0.010993334 0.67900002
-0.058846671 0.010993334 0.67900002
-0.057553336 0.010993334 0.67900002
-0.056260005 0.010993334 0.67900002
-0.054885719 0.010977143 0.67800003
-0.053673338 0.010993334 0.67900002
-0.052380003 0.010993334 0.67900002
-0.051086672 0.010993334 0.67900002
-0.049793337 0.010993334 0.67900002
-0.048500001 0.010993334 0.67900002
-0.04720667 0.010993334 0.67900002
-0.045913335 0.010993334 0.67900002
-0.044620004 0.010993334 0.67900002
-0.043326668 0.010993334 0.67900002
-0.042033337 0.010993334 0.67900002
-0.040740002 0.010993334 0.67900002
-0.039504763 0.011009525 0.68000001
-0.038321909 0.011041906 0.68200004
-0.037022859 0.011041906 0.68200004
-0.035776194 0.011058096 0.68300003
-0.034475241 0.011058096 0.68300003
-0.033222858 0.011074287 0.68400002
-0.031920001 0.011074287 0.68400002
-0.030706668 0.011106667 0.68600005
-0.02944286 0.011122858 0.68700004
-0.075242862 0.01243143 0.68700004
-0.073826671 0.012413334 0.68600005
-0.072308578 0.012377144 0.68400002
-0.070901908 0.012359048 0.68300003
-0.069600955 0.012359048 0.68300003
-0.068200007 0.012340954 0.68200004
-0.066900954 0.012340954 0.68200004
-0.065601908 0.012340954 0.68200004
-0.064114287 0.012304762 0.68000001
-0.062726669 0.012286668 0.67900002
-0.061433338 0.012286668 0.67900002
-0.060228575 0.012304762 0.68000001
-0.058846671 0.012286668 0.67900002
-0.057553336 0.012286668 0.67900002
-0.056260005 0.012286668 0.67900002
-0.05496667 0.012286668 0.67900002
-0.053673338 0.012286668 0.67900002
-0.052380003 0.012286668 0.67900002
-0.051086672 0.012286668 0.67900002
-0.049793337 0.012286668 0.67900002
-0.048500001 0.012286668 0.67900002
-0.04720667 0.012286668 0.67900002
-0.045913335 0.012286668 0.67900002
-0.044620004 0.012286668 0.67900002
-0.043326668 0.012286668 0.67900002
-0.04209524 0.012304762 0.68000001
-0.040800001 0.012304762 0.68000001
-0.039620955 0.012340954 0.68200004
-0.038321909 0.012340954 0.68200004
-0.037077144 0.012359048 0.68300003
-0.035828575 0.012377144 0.68400002
-0.034525715 0.012377144 0.68400002
-0.033320002 0.012413334 0.68600005
-0.032013334 0.012413334 0.68600005
-0.030706668 0.012413334 0.68600005
-0.075461909 0.013780001 0.68900001
-0.073826671 0.013720001 0.68600005
-0.072520003 0.013720001 0.68600005
-0.071005717 0.013680001 0.68400002
-0.069702864 0.013680001 0.68400002
-0.068300001 0.013660001 0.68300003
-0.066900954 0.01364 0.68200004
-0.065601908 0.01364 0.68200004
-0.064114287 0.013600001 0.68000001
-0.062819049 0.013600001 0.68000001
-0.061523814 0.013600001 0.68000001
-0.060228575 0.013600001 0.68000001
-0.058933336 0.013600001 0.68000001
-0.057553336 0.013580001 0.67900002
-0.056260005 0.013580001 0.67900002
-0.05496667 0.013580001 0.67900002
-0.053673338 0.013580001 0.67900002
-0.052380003 0.013580001 0.67900002
-0.051086672 0.013580001 0.67900002
-0.049793337 0.013580001 0.67900002
-0.048500001 0.013580001 0.67900002
-0.04720667 0.013580001 0.67900002
-0.045913335 0.013580001 0.67900002
-0.044685718 0.013600001 0.68000001
-0.043390479 0.013600001 0.68000001
-0.04209524 0.013600001 0.68000001
-0.040800001 0.013600001 0.68000001
-0.039620955 0.01364 0.68200004
-0.038378097 0.013660001 0.68300003
-0.037077144 0.013660001 0.68300003
-0.035828575 0.013680001 0.68400002
-0.034525715 0.013680001 0.68400002
-0.033320002 0.013720001 0.68600005
-0.032013334 0.013720001 0.68600005
-0.030751431 0.013740001 0.68700004
-0.076885723 0.015114287 0.69000006
-0.075571433 0.015114287 0.69000006
-0.073934294 0.015048573 0.68700004
-0.072520003 0.015026668 0.68600005
-0.071213335 0.015026668 0.68600005
-0.069702864 0.014982858 0.68400002
-0.068400003 0.014982858 0.68400002
-0.066999055 0.014960953 0.68300003
-0.065698102 0.014960953 0.68300003
-0.064302862 0.014939048 0.68200004
-0.063003816 0.014939048 0.68200004
-0.061523814 0.014895239 0.68000001
-0.060228575 0.014895239 0.68000001
-0.058933336 0.014895239 0.68000001
-0.057638098 0.014895239 0.68000001
-0.056342863 0.014895239 0.68000001
-0.05496667 0.014873334 0.67900002
-0.053673338 0.014873334 0.67900002
-0.052380003 0.014873334 0.67900002
-0.051086672 0.014873334 0.67900002
-0.049793337 0.014873334 0.67900002
-0.048500001 0.014873334 0.67900002
-0.04720667 0.014873334 0.67900002
-0.045980956 0.014895239 0.68000001
-0.044685718 0.014895239 0.68000001
-0.043390479 0.014895239 0.68000001
-0.04209524 0.014895239 0.68000001
-0.040800001 0.014895239 0.68000001
-0.039620955 0.014939048 0.68200004
-0.038378097 0.014960953 0.68300003
-0.037077144 0.014960953 0.68300003
-0.035828575 0.014982858 0.68400002
-0.03462667 0.015026668 0.68600005
-0.033320002 0.015026668 0.68600005
-0.032013334 0.015026668 0.68600005
-0.076997146 0.016452381 0.69100004
-0.075571433 0.016428573 0.69000006
-0.073934294 0.016357144 0.68700004
-0.072625719 0.016357144 0.68700004
-0.071213335 0.016333334 0.68600005
-0.069906674 0.016333334 0.68600005
-0.068400003 0.016285716 0.68400002
-0.066999055 0.016261905 0.68300003
-0.065698102 0.016261905 0.68300003
-0.064397149 0.016261905 0.68300003
-0.063003816 0.016238097 0.68200004
-0.061704766 0.016238097 0.68200004
-0.06040572 0.016238097 0.68200004
-0.058933336 0.016190477 0.68000001
-0.057638098 0.016190477 0.68000001
-0.056342863 0.016190477 0.68000001
-0.05496667 0.016166668 0.67900002
-0.053752385 0.016190477 0.68000001
-0.052457146 0.016190477 0.68000001
-0.051086672 0.016166668 0.67900002
-0.049793337 0.016166668 0.67900002
-0.04857143 0.016190477 0.68000001
-0.04720667 0.016166668 0.67900002
-0.045980956 0.016190477 0.68000001
-0.044685718 0.016190477 0.68000001
-0.043390479 0.016190477 0.68000001
-0.04209524 0.016190477 0.68000001
-0.040800001 0.016190477 0.68000001
-0.039620955 0.016238097 0.68200004
-0.038378097 0.016261905 0.68300003
-0.037131432 0.016285716 0.68400002
-0.035828575 0.016285716 0.68400002
-0.03462667 0.016333334 0.68600005
-0.033320002 0.016333334 0.68600005
-0.032013334 0.016333334 0.68600005
-0.076997146 0.017768573 0.69100004
-0.075571433 0.017742859 0.69000006
-0.073934294 0.017665716 0.68700004
-0.072520003 0.017640002 0.68600005
-0.071213335 0.017640002 0.68600005
-0.069906674 0.017640002 0.68600005
-0.068400003 0.017588573 0.68400002
-0.066999055 0.017562859 0.68300003
-0.065698102 0.017562859 0.68300003
-0.064397149 0.017562859 0.68300003
-0.063003816 0.017537143 0.68200004
-0.061704766 0.017537143 0.68200004
-0.060494289 0.017562859 0.68300003
-0.05910667 0.017537143 0.68200004
-0.057807624 0.017537143 0.68200004
-0.056342863 0.017485715 0.68000001
-0.055047624 0.017485715 0.68000001
-0.053752385 0.017485715 0.68000001
-0.052457146 0.017485715 0.68000001
-0.051161908 0.017485715 0.68000001
-0.049866669 0.017485715 0.68000001
-0.04857143 0.017485715 0.68000001
-0.047276195 0.017485715 0.68000001
-0.045980956 0.017485715 0.68000001
-0.044685718 0.017485715 0.68000001
-0.043390479 0.017485715 0.68000001
-0.04221905 0.017537143 0.68200004
-0.040920004 0.017537143 0.68200004
-0.03967905 0.017562859 0.68300003
-0.038434289 0.017588573 0.68400002
-0.037131432 0.017588573 0.68400002
-0.035933334 0.017640002 0.68600005
-0.03462667 0.017640002 0.68600005
-0.033368573 0.017665716 0.68700004
-0.032060001 0.017665716 0.68700004
-0.075680956 0.019084763 0.69100004
-0.073934294 0.018974287 0.68700004
-0.072625719 0.018974287 0.68700004
-0.071213335 0.018946668 0.68600005
-0.069906674 0.018946668 0.68600005
-0.068400003 0.01889143 0.68400002
-0.06709715 0.01889143 0.68400002
-0.065698102 0.01886381 0.68300003
-0.064397149 0.01886381 0.68300003
-0.063096195 0.01886381 0.68300003
-0.061795242 0.01886381 0.68300003
-0.060494289 0.01886381 0.68300003
-0.059193335 0.01886381 0.68300003
-0.057807624 0.018836191 0.68200004
-0.056508575 0.018836191 0.68200004
-0.055209529 0.018836191 0.68200004
-0.053910479 0.018836191 0.68200004
-0.052611433 0.018836191 0.68200004
-0.051161908 0.018780954 0.68000001
-0.049866669 0.018780954 0.68000001
-0.04857143 0.018780954 0.68000001
-0.047276195 0.018780954 0.68000001
-0.046116192 0.018836191 0.68200004
-0.044817146 0.018836191 0.68200004
-0.0435181 0.018836191 0.68200004
-0.042280953 0.01886381 0.68300003
-0.040980004 0.01886381 0.68300003
-0.03967905 0.01886381 0.68300003
-0.038434289 0.01889143 0.68400002
-0.037131432 0.01889143 0.68400002
-0.035933334 0.018946668 0.68600005
-0.03462667 0.018946668 0.68600005
-0.033368573 0.018974287 0.68700004
-0.032060001 0.018974287 0.68700004
-0.030751431 0.018974287 0.68700004
-0.072520003 0.020253334 0.68600005
-0.071213335 0.020253334 0.68600005
-0.069702864 0.020194286 0.68400002
-0.068400003 0.020194286 0.68400002
-0.066999055 0.020164764 0.68300003
-0.065698102 0.020164764 0.68300003
-0.064397149 0.020164764 0.68300003
-0.063096195 0.020164764 0.68300003
-0.061795242 0.020164764 0.68300003
-0.060582861 0.020194286 0.68400002
-0.059193335 0.020164764 0.68300003
-0.057892386 0.020164764 0.68300003
-0.056591433 0.020164764 0.68300003
-0.055209529 0.020135239 0.68200004
-0.053910479 0.020135239 0.68200004
-0.052611433 0.020135239 0.68200004
-0.051312383 0.020135239 0.68200004
-0.050013337 0.020135239 0.68200004
-0.048714288 0.020135239 0.68200004
-0.047415242 0.020135239 0.68200004
-0.046116192 0.020135239 0.68200004
-0.04488286 0.020164764 0.68300003
-0.043581907 0.020164764 0.68300003
-0.042280953 0.020164764 0.68300003
-0.041040003 0.020194286 0.68400002
-0.039737146 0.020194286 0.68400002
-0.03854667 0.020253334 0.68600005
-0.037240002 0.020253334 0.68600005
-0.035933334 0.020253334 0.68600005
-0.034677144 0.020282859 0.68700004
-0.033465717 0.020341907 0.68900001
-0.032153334 0.020341907 0.68900001
-0.030885717 0.02037143 0.69000006
-0.073048577 0.021717144 0.69100004
-0.071524769 0.021654287 0.68900001
-0.069906674 0.021560002 0.68600005
-0.068600006 0.021560002 0.68600005
-0.06709715 0.021497143 0.68400002
-0.065794289 0.021497143 0.68400002
-0.064491436 0.021497143 0.68400002
-0.063188575 0.021497143 0.68400002
-0.061885718 0.021497143 0.68400002
-0.060582861 0.021497143 0.68400002
-0.059280004 0.021497143 0.68400002
-0.057977147 0.021497143 0.68400002
-0.05667429 0.021497143 0.68400002
-0.055290479 0.021465715 0.68300003
-0.054068577 0.021497143 0.68400002
-0.05276572 0.021497143 0.68400002
-0.051387623 0.021465715 0.68300003
-0.05008667 0.021465715 0.68300003
-0.048785716 0.021465715 0.68300003
-0.047484767 0.021465715 0.68300003
-0.046183813 0.021465715 0.68300003
-0.04488286 0.021465715 0.68300003
-0.043645717 0.021497143 0.68400002
-0.04234286 0.021497143 0.68400002
-0.041160002 0.021560002 0.68600005
-0.039853334 0.021560002 0.68600005
-0.03854667 0.021560002 0.68600005
-0.037240002 0.021560002 0.68600005
-0.035985716 0.021591431 0.68700004
-0.034677144 0.021591431 0.68700004
-0.033465717 0.021654287 0.68900001
-0.032153334 0.021654287 0.68900001
-0.030930478 0.021717144 0.69100004
-0.071317151 0.022900002 0.68700004
-0.070008576 0.022900002 0.68700004
-0.068600006 0.022866668 0.68600005
-0.06709715 0.022800002 0.68400002
-0.065794289 0.022800002 0.68400002
-0.064491436 0.022800002 0.68400002
-0.063188575 0.022800002 0.68400002
-0.061885718 0.022800002 0.68400002
-0.060582861 0.022800002 0.68400002
-0.059280004 0.022800002 0.68400002
-0.057977147 0.022800002 0.68400002
-0.05667429 0.022800002 0.68400002
-0.055371433 0.022800002 0.68400002
-0.054068577 0.022800002 0.68400002
-0.05276572 0.022800002 0.68400002
-0.051387623 0.022766668 0.68300003
-0.05008667 0.022766668 0.68300003
-0.048785716 0.022766668 0.68300003
-0.047484767 0.022766668 0.68300003
-0.046251431 0.022800002 0.68400002
-0.044948574 0.022800002 0.68400002
-0.043645717 0.022800002 0.68400002
-0.04234286 0.022800002 0.68400002
-0.041160002 0.022866668 0.68600005
-0.039853334 0.022866668 0.68600005
-0.038602859 0.022900002 0.68700004
-0.037294287 0.022900002 0.68700004
-0.036090478 0.022966668 0.68900001
-0.034778096 0.022966668 0.68900001
-0.033514287 0.023000002 0.69000006
-0.032200001 0.023000002 0.69000006
-0.030885717 0.023000002 0.69000006
-0.071628578 0.024314288 0.69000006
-0.070314288 0.024314288 0.69000006
-0.068900004 0.024279049 0.68900001
-0.067293338 0.024173334 0.68600005
-0.065986671 0.024173334 0.68600005
-0.064680003 0.024173334 0.68600005
-0.063188575 0.024102859 0.68400002
-0.061885718 0.024102859 0.68400002
-0.060582861 0.024102859 0.68400002
-0.059453338 0.024173334 0.68600005
-0.05814667 0.024173334 0.68600005
-0.056840003 0.024173334 0.68600005
-0.055533338 0.024173334 0.68600005
-0.05422667 0.024173334 0.68600005
-0.05276572 0.024102859 0.68400002
-0.051462859 0.024102859 0.68400002
-0.050160002 0.024102859 0.68400002
-0.048857145 0.024102859 0.68400002
-0.047484767 0.02406762 0.68300003
-0.046251431 0.024102859 0.68400002
-0.044948574 0.024102859 0.68400002
-0.043645717 0.024102859 0.68400002
-0.04234286 0.024102859 0.68400002
-0.041160002 0.024173334 0.68600005
-0.039853334 0.024173334 0.68600005
-0.038602859 0.024208574 0.68700004
-0.037294287 0.024208574 0.68700004
-0.036090478 0.024279049 0.68900001
-0.034778096 0.024279049 0.68900001
-0.033465717 0.024279049 0.68900001
-0.032200001 0.024314288 0.69000006
-0.030930478 0.024349526 0.69100004
-0.071732387 0.025665715 0.69100004
-0.070416197 0.025665715 0.69100004
-0.069000006 0.025628572 0.69000006
-0.067587622 0.025591429 0.68900001
-0.065986671 0.025480002 0.68600005
-0.064680003 0.025480002 0.68600005
-0.063188575 0.025405716 0.68400002
-0.062066671 0.025480002 0.68600005
-0.060760003 0.025480002 0.68600005
-0.059453338 0.025480002 0.68600005
-0.05814667 0.025480002 0.68600005
-0.056840003 0.025480002 0.68600005
-0.055533338 0.025480002 0.68600005
-0.05422667 0.025480002 0.68600005
-0.052920002 0.025480002 0.68600005
-0.051613338 0.025480002 0.68600005
-0.050160002 0.025405716 0.68400002
-0.048857145 0.025405716 0.68400002
-0.047554288 0.025405716 0.68400002
-0.046251431 0.025405716 0.68400002
-0.045080002 0.025480002 0.68600005
-0.043773334 0.025480002 0.68600005
-0.04246667 0.025480002 0.68600005
-0.041160002 0.025480002 0.68600005
-0.039853334 0.025480002 0.68600005
-0.03871524 0.025591429 0.68900001
-0.037402861 0.025591429 0.68900001
-0.03614286 0.025628572 0.69000006
-0.034828573 0.025628572 0.69000006
-0.033514287 0.025628572 0.69000006
-0.032200001 0.025628572 0.69000006
-0.030930478 0.025665715 0.69100004
-0.07368286 0.027216192 0.69700003
-0.071940005 0.027060002 0.69300002
-0.070416197 0.026981907 0.69100004
-0.069100007 0.026981907 0.69100004
-0.067685716 0.026942858 0.69000006
-0.066275239 0.026903812 0.68900001
-0.064962864 0.026903812 0.68900001
-0.063373335 0.026786668 0.68600005
-0.062066671 0.026786668 0.68600005
-0.060760003 0.026786668 0.68600005
-0.059453338 0.026786668 0.68600005
-0.05814667 0.026786668 0.68600005
-0.056840003 0.026786668 0.68600005
-0.055533338 0.026786668 0.68600005
-0.05422667 0.026786668 0.68600005
-0.052920002 0.026786668 0.68600005
-0.051613338 0.026786668 0.68600005
-0.05030667 0.026786668 0.68600005
-0.049000002 0.026786668 0.68600005
-0.047693338 0.026786668 0.68600005
-0.04638667 0.026786668 0.68600005
-0.045080002 0.026786668 0.68600005
-0.043773334 0.026786668 0.68600005
-0.04246667 0.026786668 0.68600005
-0.041160002 0.026786668 0.68600005
-0.03991143 0.026825717 0.68700004
-0.03871524 0.026903812 0.68900001
-0.037457146 0.026942858 0.69000006
-0.03614286 0.026942858 0.69000006
-0.034828573 0.026942858 0.69000006
-0.033514287 0.026942858 0.69000006
-0.032200001 0.026942858 0.69000006
-0.075010478 0.028543811 0.69700003
-0.073471434 0.028461907 0.69500005
-0.071940005 0.028380001 0.69300002
-0.070416197 0.028298097 0.69100004
-0.069100007 0.028298097 0.69100004
-0.067685716 0.028257145 0.69000006
-0.066275239 0.028216192 0.68900001
-0.064962864 0.028216192 0.68900001
-0.063373335 0.028093334 0.68600005
-0.062157147 0.028134288 0.68700004
-0.060760003 0.028093334 0.68600005
-0.059453338 0.028093334 0.68600005
-0.05814667 0.028093334 0.68600005
-0.056840003 0.028093334 0.68600005
-0.055533338 0.028093334 0.68600005
-0.054305717 0.028134288 0.68700004
-0.052920002 0.028093334 0.68600005
-0.051613338 0.028093334 0.68600005
-0.05030667 0.028093334 0.68600005
-0.049000002 0.028093334 0.68600005
-0.047693338 0.028093334 0.68600005
-0.04638667 0.028093334 0.68600005
-0.045080002 0.028093334 0.68600005
-0.043773334 0.028093334 0.68600005
-0.04246667 0.028093334 0.68600005
-0.041220002 0.028134288 0.68700004
-0.040027622 0.028216192 0.68900001
-0.038771432 0.028257145 0.69000006
-0.037457146 0.028257145 0.69000006
-0.036195241 0.028298097 0.69100004
-0.034879051 0.028298097 0.69100004
-0.033562858 0.028298097 0.69100004
-0.032246668 0.028298097 0.69100004
-0.075010478 0.02987143 0.69700003
-0.07368286 0.02987143 0.69700003
-0.071940005 0.029700002 0.69300002
-0.070416197 0.029614288 0.69100004
-0.069100007 0.029614288 0.69100004
-0.067783818 0.029614288 0.69100004
-0.066371433 0.029571431 0.69000006
-0.064962864 0.029528573 0.68900001
-0.063465722 0.02944286 0.68700004
-0.062157147 0.02944286 0.68700004
-0.060848575 0.02944286 0.68700004
-0.059540004 0.02944286 0.68700004
-0.058231432 0.02944286 0.68700004
-0.05692286 0.02944286 0.68700004
-0.055614289 0.02944286 0.68700004
-0.054305717 0.02944286 0.68700004
-0.052997146 0.02944286 0.68700004
-0.051688574 0.02944286 0.68700004
-0.050380003 0.02944286 0.68700004
-0.049000002 0.029400002 0.68600005
-0.047693338 0.029400002 0.68600005
-0.04638667 0.029400002 0.68600005
-0.045145717 0.02944286 0.68700004
-0.043837145 0.02944286 0.68700004
-0.042528573 0.02944286 0.68700004
-0.041220002 0.02944286 0.68700004
-0.040027622 0.029528573 0.68900001
-0.038771432 0.029571431 0.69000006
-0.037511431 0.029614288 0.69100004
-0.036195241 0.029614288 0.69100004
-0.034879051 0.029614288 0.69100004
-0.033660002 0.029700002 0.69300002
-0.032340001 0.029700002 0.69300002
-0.031020002 0.029700002 0.69300002
-0.075010478 0.031199049 0.69700003
-0.07368286 0.031199049 0.69700003
-0.072043814 0.031064764 0.69400001
-0.070620008 0.031020002 0.69300002
-0.069300003 0.031020002 0.69300002
-0.067783818 0.030930478 0.69100004
-0.066371433 0.030885717 0.69000006
-0.065057144 0.030885717 0.69000006
-0.063650481 0.030840954 0.68900001
-0.062338099 0.030840954 0.68900001
-0.06102572 0.030840954 0.68900001
-0.059713338 0.030840954 0.68900001
-0.058231432 0.030751431 0.68700004
-0.057088576 0.030840954 0.68900001
-0.055614289 0.030751431 0.68700004
-0.054463815 0.030840954 0.68900001
-0.052997146 0.030751431 0.68700004
-0.051688574 0.030751431 0.68700004
-0.050380003 0.030751431 0.68700004
-0.049000002 0.030706668 0.68600005
-0.047693338 0.030706668 0.68600005
-0.04638667 0.030706668 0.68600005
-0.045145717 0.030751431 0.68700004
-0.043837145 0.030751431 0.68700004
-0.042528573 0.030751431 0.68700004
-0.041220002 0.030751431 0.68700004
-0.040027622 0.030840954 0.68900001
-0.03882762 0.030930478 0.69100004
-0.037511431 0.030930478 0.69100004
-0.036300004 0.031020002 0.69300002
-0.035030477 0.031064764 0.69400001
-0.033708572 0.031064764 0.69400001
-0.032386668 0.031064764 0.69400001
-0.031064764 0.031064764 0.69400001
-0.07368286 0.032526668 0.69700003
-0.072043814 0.032386668 0.69400001
-0.070721909 0.032386668 0.69400001
-0.069400005 0.032386668 0.69400001
-0.067980006 0.032340001 0.69300002
-0.06646762 0.032246668 0.69100004
-0.065151431 0.032246668 0.69100004
-0.063742861 0.032200001 0.69000006
-0.062428575 0.032200001 0.69000006
-0.061114289 0.032200001 0.69000006
-0.059713338 0.032153334 0.68900001
-0.058400955 0.032153334 0.68900001
-0.057088576 0.032153334 0.68900001
-0.055776194 0.032153334 0.68900001
-0.054463815 0.032153334 0.68900001
-0.053151432 0.032153334 0.68900001
-0.051688574 0.032060001 0.68700004
-0.050380003 0.032060001 0.68700004
-0.049071431 0.032060001 0.68700004
-0.047693338 0.032013334 0.68600005
-0.04638667 0.032013334 0.68600005
-0.045080002 0.032013334 0.68600005
-0.043837145 0.032060001 0.68700004
-0.042528573 0.032060001 0.68700004
-0.041220002 0.032060001 0.68700004
-0.040085718 0.032200001 0.69000006
-0.038996194 0.032386668 0.69400001
-0.037674289 0.032386668 0.69400001
-0.036404766 0.032433335 0.69500005
-0.035080954 0.032433335 0.69500005
-0.033757146 0.032433335 0.69500005
-0.032433335 0.032433335 0.69500005
-0.031109527 0.032433335 0.69500005
-0.076995246 0.034145717 0.70300001
-0.075333342 0.034000002 0.70000005
-0.073788576 0.033902861 0.69800001
-0.072147623 0.033757146 0.69500005
-0.070823811 0.033757146 0.69500005
-0.069500007 0.033757146 0.69500005
-0.067980006 0.033660002 0.69300002
-0.06646762 0.033562858 0.69100004
-0.065151431 0.033562858 0.69100004
-0.063742861 0.033514287 0.69000006
-0.062428575 0.033514287 0.69000006
-0.061114289 0.033514287 0.69000006
-0.059800003 0.033514287 0.69000006
-0.058485717 0.033514287 0.69000006
-0.057171434 0.033514287 0.69000006
-0.055776194 0.033465717 0.68900001
-0.054463815 0.033465717 0.68900001
-0.053151432 0.033465717 0.68900001
-0.05183905 0.033465717 0.68900001
-0.050526671 0.033465717 0.68900001
-0.049071431 0.033368573 0.68700004
-0.04776286 0.033368573 0.68700004
-0.04638667 0.033320002 0.68600005
-0.045145717 0.033368573 0.68700004
-0.043837145 0.033368573 0.68700004
-0.042528573 0.033368573 0.68700004
-0.041340001 0.033465717 0.68900001
-0.040143814 0.033562858 0.69100004
-0.038996194 0.033708572 0.69400001
-0.037674289 0.033708572 0.69400001
-0.036404766 0.033757146 0.69500005
-0.035080954 0.033757146 0.69500005
-0.033757146 0.033757146 0.69500005
-0.032433335 0.033757146 0.69500005
-0.031199049 0.033854287 0.69700003
-0.074105717 0.035383813 0.70100003
-0.072666675 0.035333335 0.70000005
-0.071027622 0.035181906 0.69700003
-0.069500007 0.035080954 0.69500005
-0.067980006 0.034980003 0.69300002
-0.06646762 0.034879051 0.69100004
-0.065151431 0.034879051 0.69100004
-0.063742861 0.034828573 0.69000006
-0.062428575 0.034828573 0.69000006
-0.061114289 0.034828573 0.69000006
-0.059800003 0.034828573 0.69000006
-0.058485717 0.034828573 0.69000006
-0.057171434 0.034828573 0.69000006
-0.055857148 0.034828573 0.69000006
-0.054542862 0.034828573 0.69000006
-0.053228576 0.034828573 0.69000006
-0.05183905 0.034778096 0.68900001
-0.050526671 0.034778096 0.68900001
-0.049214289 0.034778096 0.68900001
-0.047901906 0.034778096 0.68900001
-0.046589527 0.034778096 0.68900001
-0.045277145 0.034778096 0.68900001
-0.044028573 0.034828573 0.69000006
-0.042776193 0.034879051 0.69100004
-0.041580003 0.034980003 0.69300002
-0.040318098 0.035030477 0.69400001
-0.039052382 0.035080954 0.69500005
-0.037728574 0.035080954 0.69500005
-0.036404766 0.035080954 0.69500005
-0.035181906 0.035181906 0.69700003
-0.033854287 0.035181906 0.69700003
-0.032526668 0.035181906 0.69700003
-0.031199049 0.035181906 0.69700003
-0.075440958 0.03671905 0.70100003
-0.074105717 0.03671905 0.70100003
-0.072666675 0.036666669 0.70000005
-0.071027622 0.036509525 0.69700003
-0.069700003 0.036509525 0.69700003
-0.068078101 0.036352385 0.69400001
-0.066660002 0.036300004 0.69300002
-0.065151431 0.036195241 0.69100004
-0.063742861 0.03614286 0.69000006
-0.062428575 0.03614286 0.69000006
-0.061114289 0.03614286 0.69000006
-0.059800003 0.03614286 0.69000006
-0.058485717 0.03614286 0.69000006
-0.057171434 0.03614286 0.69000006
-0.055857148 0.03614286 0.69000006
-0.054542862 0.03614286 0.69000006
-0.053228576 0.03614286 0.69000006
-0.05191429 0.03614286 0.69000006
-0.050600003 0.03614286 0.69000006
-0.049285717 0.03614286 0.69000006
-0.047971431 0.03614286 0.69000006
-0.046657145 0.03614286 0.69000006
-0.045342859 0.03614286 0.69000006
-0.044092383 0.036195241 0.69100004
-0.042776193 0.036195241 0.69100004
-0.041640002 0.036352385 0.69400001
-0.040376194 0.036404766 0.69500005
-0.039052382 0.036404766 0.69500005
-0.037728574 0.036404766 0.69500005
-0.036404766 0.036404766 0.69500005
-0.035181906 0.036509525 0.69700003
-0.033854287 0.036509525 0.69700003
-0.032526668 0.036509525 0.69700003
-0.031199049 0.036509525 0.69700003
-0.075656198 0.038162861 0.70300001
-0.07431715 0.038162861 0.70300001
-0.072770484 0.038054287 0.70100003
-0.071333341 0.038000003 0.70000005
-0.069800004 0.037891433 0.69800001
-0.068176195 0.037728574 0.69500005
-0.066756196 0.037674289 0.69400001
-0.065340005 0.037620004 0.69300002
-0.063835241 0.037511431 0.69100004
-0.062519051 0.037511431 0.69100004
-0.061114289 0.037457146 0.69000006
-0.059800003 0.037457146 0.69000006
-0.058485717 0.037457146 0.69000006
-0.057171434 0.037457146 0.69000006
-0.055857148 0.037457146 0.69000006
-0.054542862 0.037457146 0.69000006
-0.053228576 0.037457146 0.69000006
-0.05191429 0.037457146 0.69000006
-0.050600003 0.037457146 0.69000006
-0.049285717 0.037457146 0.69000006
-0.047971431 0.037457146 0.69000006
-0.046657145 0.037457146 0.69000006
-0.045342859 0.037457146 0.69000006
-0.044092383 0.037511431 0.69100004
-0.042900003 0.037620004 0.69300002
-0.041640002 0.037674289 0.69400001
-0.040376194 0.037728574 0.69500005
-0.039052382 0.037728574 0.69500005
-0.037728574 0.037728574 0.69500005
-0.036404766 0.037728574 0.69500005
-0.035181906 0.037837144 0.69700003
-0.033854287 0.037837144 0.69700003
-0.032526668 0.037837144 0.69700003
-0.031199049 0.037837144 0.69700003
-0.076995246 0.039501909 0.70300001
-0.075440958 0.039389525 0.70100003
-0.074105717 0.039389525 0.70100003
-0.072666675 0.039333336 0.70000005
-0.071333341 0.039333336 0.70000005
-0.069700003 0.039164763 0.69700003
-0.068176195 0.039052382 0.69500005
-0.066756196 0.038996194 0.69400001
-0.065434292 0.038996194 0.69400001
-0.064020008 0.038940001 0.69300002
-0.062519051 0.03882762 0.69100004
-0.061202861 0.03882762 0.69100004
-0.059886672 0.03882762 0.69100004
-0.058570482 0.03882762 0.69100004
-0.057171434 0.038771432 0.69000006
-0.055857148 0.038771432 0.69000006
-0.054542862 0.038771432 0.69000006
-0.053228576 0.038771432 0.69000006
-0.05191429 0.038771432 0.69000006
-0.050600003 0.038771432 0.69000006
-0.049285717 0.038771432 0.69000006
-0.047971431 0.038771432 0.69000006
-0.046657145 0.038771432 0.69000006
-0.045342859 0.038771432 0.69000006
-0.044092383 0.03882762 0.69100004
-0.042900003 0.038940001 0.69300002
-0.041640002 0.038996194 0.69400001
-0.040376194 0.039052382 0.69500005
-0.039052382 0.039052382 0.69500005
-0.037837144 0.039164763 0.69700003
-0.036509525 0.039164763 0.69700003
-0.035181906 0.039164763 0.69700003
-0.033854287 0.039164763 0.69700003
-0.032526668 0.039164763 0.69700003
-0.075656198 0.040840954 0.70300001
-0.07431715 0.040840954 0.70300001
-0.072666675 0.04066667 0.70000005
-0.071333341 0.04066667 0.70000005
-0.069700003 0.040492382 0.69700003
-0.068176195 0.040376194 0.69500005
-0.066852383 0.040376194 0.69500005
-0.065434292 0.040318098 0.69400001
-0.064112388 0.040318098 0.69400001
-0.062700003 0.040260002 0.69300002
-0.061380003 0.040260002 0.69300002
-0.059886672 0.040143814 0.69100004
-0.058570482 0.040143814 0.69100004
-0.057254288 0.040143814 0.69100004
-0.055857148 0.040085718 0.69000006
-0.054542862 0.040085718 0.69000006
-0.053228576 0.040085718 0.69000006
-0.05191429 0.040085718 0.69000006
-0.050600003 0.040085718 0.69000006
-0.049285717 0.040085718 0.69000006
-0.048040956 0.040143814 0.69100004
-0.046724766 0.040143814 0.69100004
-0.045408573 0.040143814 0.69100004
-0.044220004 0.040260002 0.69300002
-0.042961907 0.040318098 0.69400001
-0.041640002 0.040318098 0.69400001
-0.040376194 0.040376194 0.69500005
-0.039052382 0.040376194 0.69500005
-0.037837144 0.040492382 0.69700003
-0.036509525 0.040492382 0.69700003
-0.035181906 0.040492382 0.69700003
-0.033854287 0.040492382 0.69700003
-0.032526668 0.040492382 0.69700003
-0.077542864 0.042480003 0.708
-0.07587143 0.042300005 0.70500004
-0.074422859 0.042240001 0.70400006
-0.072770484 0.042060003 0.70100003
-0.071435243 0.042060003 0.70100003
-0.069800004 0.041880004 0.69800001
-0.068372384 0.041820005 0.69700003
-0.066852383 0.041700002 0.69500005
-0.065434292 0.041640002 0.69400001
-0.064112388 0.041640002 0.69400001
-0.062790483 0.041640002 0.69400001
-0.061380003 0.041580003 0.69300002
-0.060060006 0.041580003 0.69300002
-0.058570482 0.041460004 0.69100004
-0.057254288 0.041460004 0.69100004
-0.055938099 0.041460004 0.69100004
-0.054621909 0.041460004 0.69100004
-0.053228576 0.041400004 0.69000006
-0.051989526 0.041460004 0.69100004
-0.050673336 0.041460004 0.69100004
-0.049357146 0.041460004 0.69100004
-0.048040956 0.041460004 0.69100004
-0.046724766 0.041460004 0.69100004
-0.045540001 0.041580003 0.69300002
-0.044220004 0.041580003 0.69300002
-0.042961907 0.041640002 0.69400001
-0.041640002 0.041640002 0.69400001
-0.040376194 0.041700002 0.69500005
-0.039052382 0.041700002 0.69500005
-0.037837144 0.041820005 0.69700003
-0.036509525 0.041820005 0.69700003
-0.035181906 0.041820005 0.69700003
-0.033854287 0.041820005 0.69700003
-0.032526668 0.041820005 0.69700003
-0.07608667 0.04376667 0.70700002
-0.074528575 0.04364286 0.70500004
-0.072770484 0.04339524 0.70100003
-0.071333341 0.043333337 0.70000005
-0.069800004 0.043209527 0.69800001
-0.068372384 0.043147624 0.69700003
-0.066852383 0.043023814 0.69500005
-0.065528579 0.043023814 0.69500005
-0.064112388 0.042961907 0.69400001
-0.062790483 0.042961907 0.69400001
-0.061468575 0.042961907 0.69400001
-0.060060006 0.042900003 0.69300002
-0.058570482 0.042776193 0.69100004
-0.057254288 0.042776193 0.69100004
-0.055938099 0.042776193 0.69100004
-0.054621909 0.042776193 0.69100004
-0.053305719 0.042776193 0.69100004
-0.051989526 0.042776193 0.69100004
-0.050673336 0.042776193 0.69100004
-0.049357146 0.042776193 0.69100004
-0.048040956 0.042776193 0.69100004
-0.046860002 0.042900003 0.69300002
-0.045540001 0.042900003 0.69300002
-0.044283811 0.042961907 0.69400001
-0.042961907 0.042961907 0.69400001
-0.041700002 0.043023814 0.69500005
-0.040376194 0.043023814 0.69500005
-0.039164763 0.043147624 0.69700003
-0.037837144 0.043147624 0.69700003
-0.036509525 0.043147624 0.69700003
-0.035181906 0.043147624 0.69700003
-0.033854287 0.043147624 0.69700003
-0.032526668 0.043147624 0.69700003
-0.07608667 0.045113336 0.70700002
-0.074528575 0.044985719 0.70500004
-0.072978102 0.044858098 0.70300001
-0.071639054 0.044858098 0.70300001
-0.069800004 0.044539049 0.69800001
-0.068372384 0.044475242 0.69700003
-0.067044765 0.044475242 0.69700003
-0.065528579 0.044347622 0.69500005
-0.064204767 0.044347622 0.69500005
-0.062880956 0.044347622 0.69500005
-0.061557148 0.044347622 0.69500005
-0.060146671 0.044283811 0.69400001
-0.058740005 0.044220004 0.69300002
-0.057254288 0.044092383 0.69100004
-0.055938099 0.044092383 0.69100004
-0.054621909 0.044092383 0.69100004
-0.053305719 0.044092383 0.69100004
-0.051989526 0.044092383 0.69100004
-0.050673336 0.044092383 0.69100004
-0.049357146 0.044092383 0.69100004
-0.048180003 0.044220004 0.69300002
-0.046860002 0.044220004 0.69300002
-0.045540001 0.044220004 0.69300002
-0.044283811 0.044283811 0.69400001
-0.043023814 0.044347622 0.69500005
-0.041700002 0.044347622 0.69500005
-0.040376194 0.044347622 0.69500005
-0.039164763 0.044475242 0.69700003
-0.037837144 0.044475242 0.69700003
-0.036561906 0.044539049 0.69800001
-0.035232384 0.044539049 0.69800001
-0.033854287 0.044475242 0.69700003
-0.07587143 0.046328574 0.70500004
