# .PCD v0.7 - Point Cloud Data file format
VERSION 0.7
FIELDS x y z
SIZE 4 4 4
TYPE F F F
COUNT 1 1 1
WIDTH 1318
HEIGHT 1
VIEWPOINT 0 0 0 1 0 0 0
POINTS 1318
DATA ascii
-0.034000002 -0.020666668 0.70000005
-0.032666668 -0.020666668 0.70000005
-0.031378098 -0.020696191 0.70100003
-0.030042859 -0.020696191 0.70100003
-0.028707622 -0.020696191 0.70100003
-0.027450478 -0.020755239 0.70300001
-0.02611143 -0.020755239 0.70300001
-0.11671429 -0.026238097 0.95000005
-0.11466286 -0.026182858 0.94800007
-0.11285715 -0.026182858 0.94800007
-0.1107 -0.026100002 0.94500005
-0.072658099 -0.019692382 0.71300006
-0.071100004 -0.019637143 0.71100003
-0.069745719 -0.019637143 0.71100003
-0.06829524 -0.019609526 0.71000004
-0.066660002 -0.019526668 0.70700002
-0.065128572 -0.019471429 0.70500004
-0.063785717 -0.019471429 0.70500004
-0.062442861 -0.019471429 0.70500004
-0.061100002 -0.019471429 0.70500004
-0.059672385 -0.01944381 0.70400006
-0.058331434 -0.01944381 0.70400006
-0.056990478 -0.01944381 0.70400006
-0.055649526 -0.01944381 0.70400006
-0.054308575 -0.01944381 0.70400006
-0.052892383 -0.019416193 0.70300001
-0.051626671 -0.01944381 0.70400006
-0.050285719 -0.01944381 0.70400006
-0.048944764 -0.01944381 0.70400006
-0.047536194 -0.019416193 0.70300001
-0.046197146 -0.019416193 0.70300001
-0.044858098 -0.019416193 0.70300001
-0.04339524 -0.019360954 0.70100003
-0.042060003 -0.019360954 0.70100003
-0.040724766 -0.019360954 0.70100003
-0.039333336 -0.019333335 0.70000005
-0.038000003 -0.019333335 0.70000005
-0.03671905 -0.019360954 0.70100003
-0.035383813 -0.019360954 0.70100003
-0.034048572 -0.019360954 0.70100003
-0.032713335 -0.019360954 0.70100003
-0.03146762 -0.019416193 0.70300001
-0.030128574 -0.019416193 0.70300001
-0.028830478 -0.01944381 0.70400006
-0.027489526 -0.01944381 0.70400006
-0.026185716 -0.019471429 0.70500004
-0.1125 -0.024300002 0.94500005
-0.1107 -0.024300002 0.94500005
-0.072454289 -0.018282859 0.71100003
-0.071100004 -0.018282859 0.71100003
-0.069745719 -0.018282859 0.71100003
-0.06829524 -0.018257145 0.71000004
-0.066660002 -0.018180002 0.70700002
-0.065128572 -0.018128572 0.70500004
-0.063785717 -0.018128572 0.70500004
-0.062442861 -0.018128572 0.70500004
-0.061100002 -0.018128572 0.70500004
-0.059672385 -0.018102858 0.70400006
-0.058331434 -0.018102858 0.70400006
-0.056990478 -0.018102858 0.70400006
-0.055649526 -0.018102858 0.70400006
-0.054308575 -0.018102858 0.70400006
-0.052892383 -0.018077144 0.70300001
-0.051553335 -0.018077144 0.70300001
-0.050214291 -0.018077144 0.70300001
-0.048944764 -0.018102858 0.70400006
-0.047536194 -0.018077144 0.70300001
-0.046197146 -0.018077144 0.70300001
-0.044985719 -0.018128572 0.70500004
-0.04364286 -0.018128572 0.70500004
-0.042300005 -0.018128572 0.70500004
-0.040957145 -0.018128572 0.70500004
-0.039389525 -0.018025715 0.70100003
-0.038054287 -0.018025715 0.70100003
-0.03671905 -0.018025715 0.70100003
-0.035383813 -0.018025715 0.70100003
-0.034048572 -0.018025715 0.70100003
-0.032806668 -0.018077144 0.70300001
-0.03146762 -0.018077144 0.70300001
-0.030128574 -0.018077144 0.70300001
-0.028830478 -0.018102858 0.70400006
-0.027489526 -0.018102858 0.70400006
-0.071100004 -0.016928572 0.71100003
-0.069745719 -0.016928572 0.71100003
-0.06829524 -0.016904764 0.71000004
-0.066660002 -0.016833335 0.70700002
-0.065313339 -0.016833335 0.70700002
-0.063966669 -0.016833335 0.70700002
-0.062442861 -0.016785715 0.70500004
-0.061100002 -0.016785715 0.70500004
-0.059757147 -0.016785715 0.70500004
-0.058414288 -0.016785715 0.70500004
-0.057071432 -0.016785715 0.70500004
-0.055728573 -0.016785715 0.70500004
-0.054308575 -0.016761906 0.70400006
-0.052892383 -0.016738096 0.70300001
-0.051553335 -0.016738096 0.70300001
-0.050214291 -0.016738096 0.70300001
-0.048875242 -0.016738096 0.70300001
-0.047671434 -0.016785715 0.70500004
-0.046328574 -0.016785715 0.70500004
-0.044985719 -0.016785715 0.70500004
-0.04364286 -0.016785715 0.70500004
-0.042300005 -0.016785715 0.70500004
-0.040957145 -0.016785715 0.70500004
-0.038054287 -0.016690478 0.70100003
-0.03671905 -0.016690478 0.70100003
-0.035383813 -0.016690478 0.70100003
-0.034048572 -0.016690478 0.70100003
-0.032806668 -0.016738096 0.70300001
-0.031512383 -0.016761906 0.70400006
-0.03017143 -0.016761906 0.70400006
-0.02887143 -0.016785715 0.70500004
-0.027528573 -0.016785715 0.70500004
-0.026185716 -0.016785715 0.70500004
-0.025961906 -0.022380954 0.94000006
-0.024171431 -0.022380954 0.94000006
-0.071100004 -0.015574287 0.71100003
-0.069745719 -0.015574287 0.71100003
-0.06829524 -0.015552382 0.71000004
-0.066660002 -0.015486668 0.70700002
-0.065128572 -0.015442858 0.70500004
-0.063966669 -0.015486668 0.70700002
-0.062442861 -0.015442858 0.70500004
-0.061100002 -0.015442858 0.70500004
-0.059757147 -0.015442858 0.70500004
-0.058414288 -0.015442858 0.70500004
-0.057071432 -0.015442858 0.70500004
-0.055728573 -0.015442858 0.70500004
-0.054385718 -0.015442858 0.70500004
-0.053042859 -0.015442858 0.70500004
-0.051700003 -0.015442858 0.70500004
-0.046460003 -0.015486668 0.70700002
-0.045113336 -0.015486668 0.70700002
-0.04364286 -0.015442858 0.70500004
-0.042300005 -0.015442858 0.70500004
-0.040957145 -0.015442858 0.70500004
-0.036823813 -0.015399049 0.70300001
-0.035484765 -0.015399049 0.70300001
-0.034145717 -0.015399049 0.70300001
-0.032806668 -0.015399049 0.70300001
-0.031512383 -0.015420954 0.70400006
-0.03017143 -0.015420954 0.70400006
-0.02887143 -0.015442858 0.70500004
-0.027528573 -0.015442858 0.70500004
-0.026185716 -0.015442858 0.70500004
-0.069745719 -0.014220001 0.71100003
-0.068391435 -0.014220001 0.71100003
-0.066754289 -0.014160001 0.708
-0.065313339 -0.014140001 0.70700002
-0.064057149 -0.014160001 0.708
-0.062620007 -0.014140001 0.70700002
-0.061273336 -0.014140001 0.70700002
-0.05992667 -0.014140001 0.70700002
-0.058414288 -0.014100001 0.70500004
-0.057071432 -0.014100001 0.70500004
-0.055728573 -0.014100001 0.70500004
-0.054540005 -0.014140001 0.70700002
-0.053042859 -0.014100001 0.70500004
-0.051700003 -0.014100001 0.70500004
-0.050500002 -0.014140001 0.70700002
-0.049014289 -0.014100001 0.70500004
-0.047671434 -0.014100001 0.70500004
-0.046328574 -0.014100001 0.70500004
-0.044985719 -0.014100001 0.70500004
-0.04364286 -0.014100001 0.70500004
-0.042300005 -0.014100001 0.70500004
-0.040899049 -0.014080001 0.70400006
-0.039389525 -0.014020001 0.70100003
-0.038162861 -0.014060001 0.70300001
-0.036823813 -0.014060001 0.70300001
-0.035484765 -0.014060001 0.70300001
-0.034048572 -0.014020001 0.70100003
-0.032713335 -0.014020001 0.70100003
-0.031557146 -0.014100001 0.70500004
-0.030214287 -0.014100001 0.70500004
-0.02887143 -0.014100001 0.70500004
-0.027606668 -0.014140001 0.70700002
-0.068391435 -0.012865715 0.71100003
-0.066754289 -0.01281143 0.708
-0.065405719 -0.01281143 0.708
-0.064238101 -0.01284762 0.71000004
-0.062620007 -0.012793334 0.70700002
-0.061273336 -0.012793334 0.70700002
-0.05992667 -0.012793334 0.70700002
-0.058414288 -0.012757144 0.70500004
-0.057071432 -0.012757144 0.70500004
-0.055886671 -0.012793334 0.70700002
-0.054540005 -0.012793334 0.70700002
-0.053193338 -0.012793334 0.70700002
-0.051846672 -0.012793334 0.70700002
-0.050500002 -0.012793334 0.70700002
-0.049014289 -0.012757144 0.70500004
-0.047671434 -0.012757144 0.70500004
-0.046328574 -0.012757144 0.70500004
-0.044985719 -0.012757144 0.70500004
-0.04364286 -0.012757144 0.70500004
-0.042300005 -0.012757144 0.70500004
-0.040899049 -0.012739048 0.70400006
-0.039389525 -0.012684762 0.70100003
-0.038162861 -0.012720954 0.70300001
-0.036823813 -0.012720954 0.70300001
-0.035484765 -0.012720954 0.70300001
-0.034145717 -0.012720954 0.70300001
-0.032806668 -0.012720954 0.70300001
-0.031512383 -0.012739048 0.70400006
-0.030214287 -0.012757144 0.70500004
-0.02887143 -0.012757144 0.70500004
-0.027606668 -0.012793334 0.70700002
-0.06703715 -0.011511429 0.71100003
-0.065682858 -0.011511429 0.71100003
-0.064328574 -0.011511429 0.71100003
-0.062885717 -0.011495239 0.71000004
-0.061360005 -0.011462858 0.708
-0.05992667 -0.011446668 0.70700002
-0.058580004 -0.011446668 0.70700002
-0.057071432 -0.011414287 0.70500004
-0.055886671 -0.011446668 0.70700002
-0.054540005 -0.011446668 0.70700002
-0.053193338 -0.011446668 0.70700002
-0.051846672 -0.011446668 0.70700002
-0.050357144 -0.011414287 0.70500004
-0.049014289 -0.011414287 0.70500004
-0.047671434 -0.011414287 0.70500004
-0.046328574 -0.011414287 0.70500004
-0.044985719 -0.011414287 0.70500004
-0.04364286 -0.011414287 0.70500004
-0.042300005 -0.011414287 0.70500004
-0.040899049 -0.011398096 0.70400006
-0.039558098 -0.011398096 0.70400006
-0.038217146 -0.011398096 0.70400006
-0.036876194 -0.011398096 0.70400006
-0.035484765 -0.011381906 0.70300001
-0.034145717 -0.011381906 0.70300001
-0.032806668 -0.011381906 0.70300001
-0.031557146 -0.011414287 0.70500004
-0.030214287 -0.011414287 0.70500004
-0.028953334 -0.011446668 0.70700002
-0.064328574 -0.010157144 0.71100003
-0.062885717 -0.010142858 0.71000004
-0.061360005 -0.010114286 0.708
-0.05992667 -0.010100001 0.70700002
-0.058580004 -0.010100001 0.70700002
-0.057071432 -0.010071429 0.70500004
-0.055886671 -0.010100001 0.70700002
-0.054540005 -0.010100001 0.70700002
-0.053193338 -0.010100001 0.70700002
-0.051846672 -0.010100001 0.70700002
-0.050357144 -0.010071429 0.70500004
-0.049014289 -0.010071429 0.70500004
-0.047671434 -0.010071429 0.70500004
-0.046328574 -0.010071429 0.70500004
-0.044985719 -0.010071429 0.70500004
-0.04364286 -0.010071429 0.70500004
-0.042300005 -0.010071429 0.70500004
-0.040957145 -0.010071429 0.70500004
-0.03961429 -0.010071429 0.70500004
-0.038271431 -0.010071429 0.70500004
-0.036928575 -0.010071429 0.70500004
-0.035585716 -0.010071429 0.70500004
-0.034194287 -0.010057144 0.70400006
-0.032853335 -0.010057144 0.70400006
-0.031646669 -0.010100001 0.70700002
-0.030300003 -0.010100001 0.70700002
-0.028953334 -0.010100001 0.70700002
-0.027606668 -0.010100001 0.70700002
-0.064509526 -0.0088276193 0.71300006
-0.062974289 -0.0088028582 0.71100003
-0.061533336 -0.0087904772 0.71000004
-0.060011432 -0.0087657152 0.708
-0.058580004 -0.0087533342 0.70700002
-0.057233337 -0.0087533342 0.70700002
-0.055886671 -0.0087533342 0.70700002
-0.054540005 -0.0087533342 0.70700002
-0.053193338 -0.0087533342 0.70700002
-0.051846672 -0.0087533342 0.70700002
-0.050357144 -0.0087285722 0.70500004
-0.049014289 -0.0087285722 0.70500004
-0.047671434 -0.0087285722 0.70500004
-0.046328574 -0.0087285722 0.70500004
-0.044985719 -0.0087285722 0.70500004
-0.04364286 -0.0087285722 0.70500004
-0.042300005 -0.0087285722 0.70500004
-0.040957145 -0.0087285722 0.70500004
-0.03961429 -0.0087285722 0.70500004
-0.038271431 -0.0087285722 0.70500004
-0.037033334 -0.0087533342 0.70700002
-0.035686668 -0.0087533342 0.70700002
-0.034242861 -0.0087285722 0.70500004
-0.032993335 -0.0087533342 0.70700002
-0.031691432 -0.0087657152 0.708
-0.030342858 -0.0087657152 0.708
-0.028994288 -0.0087657152 0.708
-0.027645716 -0.0087657152 0.708
-0.026297145 -0.0087657152 0.708
-0.064328574 -0.0074485717 0.71100003
-0.062974289 -0.0074485717 0.71100003
-0.061533336 -0.0074380958 0.71000004
-0.060011432 -0.0074171433 0.708
-0.058580004 -0.0074066673 0.70700002
-0.057233337 -0.0074066673 0.70700002
-0.055886671 -0.0074066673 0.70700002
-0.054540005 -0.0074066673 0.70700002
-0.053193338 -0.0074066673 0.70700002
-0.051846672 -0.0074066673 0.70700002
-0.050500002 -0.0074066673 0.70700002
-0.049153335 -0.0074066673 0.70700002
-0.047806669 -0.0074066673 0.70700002
-0.046460003 -0.0074066673 0.70700002
-0.044985719 -0.0073857149 0.70500004
-0.04376667 -0.0074066673 0.70700002
-0.042300005 -0.0073857149 0.70500004
-0.040957145 -0.0073857149 0.70500004
-0.03961429 -0.0073857149 0.70500004
-0.038271431 -0.0073857149 0.70500004
-0.037033334 -0.0074066673 0.70700002
-0.035585716 -0.0073857149 0.70500004
-0.034242861 -0.0073857149 0.70500004
-0.032993335 -0.0074066673 0.70700002
-0.031691432 -0.0074171433 0.708
-0.030300003 -0.0074066673 0.70700002
-0.028994288 -0.0074171433 0.708
-0.027645716 -0.0074171433 0.708
-0.026260002 -0.0074066673 0.70700002
-0.024948573 -0.0074171433 0.708
-0.062974289 -0.0060942862 0.71100003
-0.061533336 -0.0060857148 0.71000004
-0.060011432 -0.0060685719 0.708
-0.058662862 -0.0060685719 0.708
-0.057233337 -0.0060600005 0.70700002
-0.055886671 -0.0060600005 0.70700002
-0.054540005 -0.0060600005 0.70700002
-0.053193338 -0.0060600005 0.70700002
-0.051846672 -0.0060600005 0.70700002
-0.050500002 -0.0060600005 0.70700002
-0.049153335 -0.0060600005 0.70700002
-0.047806669 -0.0060600005 0.70700002
-0.046328574 -0.0060428577 0.70500004
-0.044985719 -0.0060428577 0.70500004
-0.04376667 -0.0060600005 0.70700002
-0.042300005 -0.0060428577 0.70500004
-0.040957145 -0.0060428577 0.70500004
-0.03961429 -0.0060428577 0.70500004
-0.038271431 -0.0060428577 0.70500004
-0.037033334 -0.0060600005 0.70700002
-0.035686668 -0.0060600005 0.70700002
-0.034340002 -0.0060600005 0.70700002
-0.032993335 -0.0060600005 0.70700002
-0.031691432 -0.0060685719 0.708
-0.030428573 -0.0060857148 0.71000004
-0.029076193 -0.0060857148 0.71000004
-0.027762858 -0.0060942862 0.71100003
-0.026408574 -0.0060942862 0.71100003
-0.025124764 -0.0061114291 0.71300006
-0.064509526 -0.0047533335 0.71300006
-0.062974289 -0.0047400002 0.71100003
-0.061533336 -0.0047333338 0.71000004
-0.060011432 -0.0047200001 0.708
-0.058662862 -0.0047200001 0.708
-0.057233337 -0.0047133337 0.70700002
-0.055965718 -0.0047200001 0.708
-0.054617148 -0.0047200001 0.708
-0.053193338 -0.0047133337 0.70700002
-0.051846672 -0.0047133337 0.70700002
-0.050500002 -0.0047133337 0.70700002
-0.049153335 -0.0047133337 0.70700002
-0.047806669 -0.0047133337 0.70700002
-0.046460003 -0.0047133337 0.70700002
-0.045113336 -0.0047133337 0.70700002
-0.04376667 -0.0047133337 0.70700002
-0.042420004 -0.0047133337 0.70700002
-0.041073337 -0.0047133337 0.70700002
-0.03961429 -0.0047000004 0.70500004
-0.038380001 -0.0047133337 0.70700002
-0.037033334 -0.0047133337 0.70700002
-0.035686668 -0.0047133337 0.70700002
-0.034340002 -0.0047133337 0.70700002
-0.033040002 -0.0047200001 0.708
-0.031780954 -0.0047333338 0.71000004
-0.030428573 -0.0047333338 0.71000004
-0.029117145 -0.0047400002 0.71100003
-0.027762858 -0.0047400002 0.71100003
-0.02648286 -0.0047533335 0.71300006
-0.025124764 -0.0047533335 0.71300006
-0.064509526 -0.0033952384 0.71300006
-0.062974289 -0.0033857145 0.71100003
-0.061620004 -0.0033857145 0.71100003
-0.060180955 -0.0033809526 0.71000004
-0.058828574 -0.0033809526 0.71000004
-0.057314288 -0.0033714287 0.708
-0.055965718 -0.0033714287 0.708
-0.054617148 -0.0033714287 0.708
-0.053268574 -0.0033714287 0.708
-0.051846672 -0.0033666668 0.70700002
-0.050500002 -0.0033666668 0.70700002
-0.049153335 -0.0033666668 0.70700002
-0.047806669 -0.0033666668 0.70700002
-0.046460003 -0.0033666668 0.70700002
-0.045113336 -0.0033666668 0.70700002
-0.04376667 -0.0033666668 0.70700002
-0.042420004 -0.0033666668 0.70700002
-0.041073337 -0.0033666668 0.70700002
-0.039726671 -0.0033666668 0.70700002
-0.038380001 -0.0033666668 0.70700002
-0.037033334 -0.0033666668 0.70700002
-0.035737146 -0.0033714287 0.708
-0.034388572 -0.0033714287 0.708
-0.033133335 -0.0033809526 0.71000004
-0.031780954 -0.0033809526 0.71000004
-0.030471431 -0.0033857145 0.71100003
-0.029117145 -0.0033857145 0.71100003
-0.027840953 -0.0033952384 0.71300006
-0.064780958 -0.0020457145 0.71600002
-0.063151434 -0.0020371431 0.71300006
-0.061793339 -0.0020371431 0.71300006
-0.06026572 -0.0020314287 0.71100003
-0.058911432 -0.0020314287 0.71100003
-0.057476193 -0.0020285717 0.71000004
-0.056123812 -0.0020285717 0.71000004
-0.054771431 -0.0020285717 0.71000004
-0.053268574 -0.0020228573 0.708
-0.051920004 -0.0020228573 0.708
-0.05057143 -0.0020228573 0.708
-0.049153335 -0.0020200002 0.70700002
-0.047806669 -0.0020200002 0.70700002
-0.046460003 -0.0020200002 0.70700002
-0.045113336 -0.0020200002 0.70700002
-0.04376667 -0.0020200002 0.70700002
-0.042420004 -0.0020200002 0.70700002
-0.041073337 -0.0020200002 0.70700002
-0.039726671 -0.0020200002 0.70700002
-0.038380001 -0.0020200002 0.70700002
-0.037085716 -0.0020228573 0.708
-0.035737146 -0.0020228573 0.708
-0.034485716 -0.0020285717 0.71000004
-0.033133335 -0.0020285717 0.71000004
-0.031825718 -0.0020314287 0.71100003
-0.030471431 -0.0020314287 0.71100003
-0.029117145 -0.0020314287 0.71100003
-0.027840953 -0.0020371431 0.71300006
-0.064780958 -0.00068190478 0.71600002
-0.063151434 -0.00067904766 0.71300006
-0.061793339 -0.00067904766 0.71300006
-0.060435243 -0.00067904766 0.71300006
-0.058911432 -0.00067714287 0.71100003
-0.057557147 -0.00067714287 0.71100003
-0.056202862 -0.00067714287 0.71100003
-0.054771431 -0.00067619054 0.71000004
-0.05341905 -0.00067619054 0.71000004
-0.051920004 -0.00067428575 0.708
-0.05057143 -0.00067428575 0.708
-0.04922286 -0.00067428575 0.708
-0.047806669 -0.00067333336 0.70700002
-0.046460003 -0.00067333336 0.70700002
-0.045113336 -0.00067333336 0.70700002
-0.04376667 -0.00067333336 0.70700002
-0.042420004 -0.00067333336 0.70700002
-0.041073337 -0.00067333336 0.70700002
-0.039726671 -0.00067333336 0.70700002
-0.038434289 -0.00067428575 0.708
-0.037085716 -0.00067428575 0.708
-0.035838097 -0.00067619054 0.71000004
-0.034485716 -0.00067619054 0.71000004
-0.033180002 -0.00067714287 0.71100003
-0.031825718 -0.00067714287 0.71100003
-0.030471431 -0.00067714287 0.71100003
-0.029199049 -0.00067904766 0.71300006
-0.027840953 -0.00067904766 0.71300006
-0.026520003 -0.00068000006 0.71400005
-0.074594289 0.00069714291 0.73200005
-0.06487143 0.00068285718 0.71700001
-0.063240007 0.00068000006 0.71400005
-0.061880004 0.00068000006 0.71400005
-0.060435243 0.00067904766 0.71300006
-0.059077147 0.00067904766 0.71300006
-0.057557147 0.00067714287 0.71100003
-0.056202862 0.00067714287 0.71100003
-0.054848574 0.00067714287 0.71100003
-0.05341905 0.00067619054 0.71000004
-0.052066669 0.00067619054 0.71000004
-0.050714288 0.00067619054 0.71000004
-0.049361907 0.00067619054 0.71000004
-0.04787429 0.00067428575 0.708
-0.046525717 0.00067428575 0.708
-0.045177147 0.00067428575 0.708
-0.04376667 0.00067333336 0.70700002
-0.042420004 0.00067333336 0.70700002
-0.041073337 0.00067333336 0.70700002
-0.039782859 0.00067428575 0.708
-0.038434289 0.00067428575 0.708
-0.037190478 0.00067619054 0.71000004
-0.035838097 0.00067619054 0.71000004
-0.034534287 0.00067714287 0.71100003
-0.033180002 0.00067714287 0.71100003
-0.031825718 0.00067714287 0.71100003
-0.030557144 0.00067904766 0.71300006
-0.029199049 0.00067904766 0.71300006
-0.027880002 0.00068000006 0.71400005
-0.026520003 0.00068000006 0.71400005
-0.074594289 0.0020914287 0.73200005
-0.06487143 0.0020485716 0.71700001
-0.063240007 0.0020400002 0.71400005
-0.061880004 0.0020400002 0.71400005
-0.060520004 0.0020400002 0.71400005
-0.059077147 0.0020371431 0.71300006
-0.057719052 0.0020371431 0.71300006
-0.056360956 0.0020371431 0.71300006
-0.054848574 0.0020314287 0.71100003
-0.05349429 0.0020314287 0.71100003
-0.052066669 0.0020285717 0.71000004
-0.050714288 0.0020285717 0.71000004
-0.049361907 0.0020285717 0.71000004
-0.04787429 0.0020228573 0.708
-0.046525717 0.0020228573 0.708
-0.045177147 0.0020228573 0.708
-0.043828573 0.0020228573 0.708
-0.042480003 0.0020228573 0.708
-0.041131433 0.0020228573 0.708
-0.039782859 0.0020228573 0.708
-0.038542859 0.0020285717 0.71000004
-0.037190478 0.0020285717 0.71000004
-0.035838097 0.0020285717 0.71000004
-0.034534287 0.0020314287 0.71100003
-0.033180002 0.0020314287 0.71100003
-0.03191524 0.0020371431 0.71300006
-0.030557144 0.0020371431 0.71300006
-0.029240001 0.0020400002 0.71400005
-0.027880002 0.0020400002 0.71400005
-0.074594289 0.0034857146 0.73200005
-0.072900005 0.0034714288 0.72900003
-0.071511433 0.0034714288 0.72900003
-0.069834292 0.003457143 0.72600001
-0.068168573 0.0034428574 0.72300005
-0.066514291 0.0034285716 0.72000003
-0.06487143 0.0034142858 0.71700001
-0.063417144 0.003409524 0.71600002
-0.062053338 0.003409524 0.71600002
-0.060520004 0.0034000003 0.71400005
-0.059160005 0.0034000003 0.71400005
-0.057719052 0.0033952384 0.71300006
-0.056360956 0.0033952384 0.71300006
-0.055002861 0.0033952384 0.71300006
-0.05349429 0.0033857145 0.71100003
-0.052066669 0.0033809526 0.71000004
-0.050714288 0.0033809526 0.71000004
-0.049361907 0.0033809526 0.71000004
-0.048009526 0.0033809526 0.71000004
-0.046525717 0.0033714287 0.708
-0.045304764 0.0033809526 0.71000004
-0.043828573 0.0033714287 0.708
-0.042480003 0.0033714287 0.708
-0.041247621 0.0033809526 0.71000004
-0.03989524 0.0033809526 0.71000004
-0.038542859 0.0033809526 0.71000004
-0.03724286 0.0033857145 0.71100003
-0.035888575 0.0033857145 0.71100003
-0.034534287 0.0033857145 0.71100003
-0.033273336 0.0033952384 0.71300006
-0.03191524 0.0033952384 0.71300006
-0.030557144 0.0033952384 0.71300006
-0.029240001 0.0034000003 0.71400005
-0.027958097 0.003409524 0.71600002
-0.071119055 0.0048333337 0.72500002
-0.069738097 0.0048333337 0.72500002
-0.068074293 0.0048133335 0.72200006
-0.066421911 0.0047933338 0.71900004
-0.06487143 0.0047800005 0.71700001
-0.063417144 0.0047733337 0.71600002
-0.062053338 0.0047733337 0.71600002
-0.060520004 0.0047600004 0.71400005
-0.059160005 0.0047600004 0.71400005
-0.057719052 0.0047533335 0.71300006
-0.056360956 0.0047533335 0.71300006
-0.055002861 0.0047533335 0.71300006
-0.05349429 0.0047400002 0.71100003
-0.052140005 0.0047400002 0.71100003
-0.050785717 0.0047400002 0.71100003
-0.049431432 0.0047400002 0.71100003
-0.048009526 0.0047333338 0.71000004
-0.046657145 0.0047333338 0.71000004
-0.045304764 0.0047333338 0.71000004
-0.043952383 0.0047333338 0.71000004
-0.042600002 0.0047333338 0.71000004
-0.041247621 0.0047333338 0.71000004
-0.039951432 0.0047400002 0.71100003
-0.038542859 0.0047333338 0.71000004
-0.03724286 0.0047400002 0.71100003
-0.035888575 0.0047400002 0.71100003
-0.034534287 0.0047400002 0.71100003
-0.033273336 0.0047533335 0.71300006
-0.03191524 0.0047533335 0.71300006
-0.030557144 0.0047533335 0.71300006
-0.029240001 0.0047600004 0.71400005
-0.071217149 0.0062228576 0.72600001
-0.069738097 0.0062142862 0.72500002
-0.068168573 0.0061971433 0.72300005
-0.066514291 0.0061714291 0.72000003
-0.06487143 0.0061457148 0.71700001
-0.063505717 0.0061457148 0.71700001
-0.062140003 0.0061457148 0.71700001
-0.060689528 0.0061371434 0.71600002
-0.059160005 0.0061200005 0.71400005
-0.057800002 0.0061200005 0.71400005
-0.056360956 0.0061114291 0.71300006
-0.055002861 0.0061114291 0.71300006
-0.053644765 0.0061114291 0.71300006
-0.052140005 0.0060942862 0.71100003
-0.050785717 0.0060942862 0.71100003
-0.049431432 0.0060942862 0.71100003
-0.048077147 0.0060942862 0.71100003
-0.046657145 0.0060857148 0.71000004
-0.045368575 0.0060942862 0.71100003
-0.043952383 0.0060857148 0.71000004
-0.042660002 0.0060942862 0.71100003
-0.041305717 0.0060942862 0.71100003
-0.039951432 0.0060942862 0.71100003
-0.038597144 0.0060942862 0.71100003
-0.03724286 0.0060942862 0.71100003
-0.035888575 0.0060942862 0.71100003
-0.034534287 0.0060942862 0.71100003
-0.033273336 0.0061114291 0.71300006
-0.03191524 0.0061114291 0.71300006
-0.030557144 0.0061114291 0.71300006
-0.069738097 0.0075952387 0.72500002
-0.068074293 0.0075638099 0.72200006
-0.066514291 0.0075428574 0.72000003
-0.065052383 0.0075323815 0.71900004
-0.063505717 0.007511429 0.71700001
-0.062140003 0.007511429 0.71700001
-0.060689528 0.007500953 0.71600002
-0.059325717 0.007500953 0.71600002
-0.057800002 0.0074800006 0.71400005
-0.056440003 0.0074800006 0.71400005
-0.055080004 0.0074800006 0.71400005
-0.053644765 0.0074695242 0.71300006
-0.052140005 0.0074485717 0.71100003
-0.050785717 0.0074485717 0.71100003
-0.049431432 0.0074485717 0.71100003
-0.048077147 0.0074485717 0.71100003
-0.046722859 0.0074485717 0.71100003
-0.045368575 0.0074485717 0.71100003
-0.04401429 0.0074485717 0.71100003
-0.042660002 0.0074485717 0.71100003
-0.041305717 0.0074485717 0.71100003
-0.039951432 0.0074485717 0.71100003
-0.038597144 0.0074485717 0.71100003
-0.037347622 0.0074695242 0.71300006
-0.035989527 0.0074695242 0.71300006
-0.034631431 0.0074695242 0.71300006
-0.033273336 0.0074695242 0.71300006
-0.03191524 0.0074695242 0.71300006
-0.030600002 0.0074800006 0.71400005
-0.029240001 0.0074800006 0.71400005
-0.069545716 0.0089514293 0.72300005
-0.067885719 0.0089142863 0.72000003
-0.066514291 0.0089142863 0.72000003
-0.065052383 0.0089019053 0.71900004
-0.063682862 0.0089019053 0.71900004
-0.062140003 0.0088771433 0.71700001
-0.060774289 0.0088771433 0.71700001
-0.059325717 0.0088647623 0.71600002
-0.057961907 0.0088647623 0.71600002
-0.056440003 0.0088400003 0.71400005
-0.055080004 0.0088400003 0.71400005
-0.053644765 0.0088276193 0.71300006
-0.05228667 0.0088276193 0.71300006
-0.050928574 0.0088276193 0.71300006
-0.049570478 0.0088276193 0.71300006
-0.048212383 0.0088276193 0.71300006
-0.046854287 0.0088276193 0.71300006
-0.045496192 0.0088276193 0.71300006
-0.0441381 0.0088276193 0.71300006
-0.042840004 0.0088400003 0.71400005
-0.041421909 0.0088276193 0.71300006
-0.040063813 0.0088276193 0.71300006
-0.038705718 0.0088276193 0.71300006
-0.037347622 0.0088276193 0.71300006
-0.035989527 0.0088276193 0.71300006
-0.034631431 0.0088276193 0.71300006
-0.033273336 0.0088276193 0.71300006
-0.031960003 0.0088400003 0.71400005
-0.030685715 0.0088647623 0.71600002
-0.029362859 0.0088771433 0.71700001
-0.068074293 0.010314287 0.72200006
-0.06669905 0.010314287 0.72200006
-0.065142862 0.010285715 0.72000003
-0.063682862 0.010271429 0.71900004
-0.062313337 0.010271429 0.71900004
-0.060774289 0.010242858 0.71700001
-0.059325717 0.010228572 0.71600002
-0.058042862 0.010242858 0.71700001
-0.056598101 0.010228572 0.71600002
-0.055080004 0.0102 0.71400005
-0.053644765 0.010185715 0.71300006
-0.05228667 0.010185715 0.71300006
-0.050928574 0.010185715 0.71300006
-0.049570478 0.010185715 0.71300006
-0.048212383 0.010185715 0.71300006
-0.046854287 0.010185715 0.71300006
-0.045496192 0.010185715 0.71300006
-0.044200003 0.0102 0.71400005
-0.042840004 0.0102 0.71400005
-0.041480001 0.0102 0.71400005
-0.040120002 0.0102 0.71400005
-0.038705718 0.010185715 0.71300006
-0.037400004 0.0102 0.71400005
-0.036040001 0.0102 0.71400005
-0.034631431 0.010185715 0.71300006
-0.033320002 0.0102 0.71400005
-0.032049526 0.010228572 0.71600002
-0.030728573 0.010242858 0.71700001
-0.069738097 0.011738096 0.72500002
-0.068168573 0.011705715 0.72300005
-0.06669905 0.011689524 0.72200006
-0.065323815 0.011689524 0.72200006
-0.063771434 0.011657144 0.72000003
-0.062313337 0.011640953 0.71900004
-0.060774289 0.011608572 0.71700001
-0.059408575 0.011608572 0.71700001
-0.058042862 0.011608572 0.71700001
-0.056677148 0.011608572 0.71700001
-0.055311434 0.011608572 0.71700001
-0.053720005 0.01156 0.71400005
-0.05228667 0.01154381 0.71300006
-0.051000003 0.01156 0.71400005
-0.049570478 0.01154381 0.71300006
-0.048212383 0.01154381 0.71300006
-0.046854287 0.01154381 0.71300006
-0.045496192 0.01154381 0.71300006
-0.044200003 0.01156 0.71400005
-0.042960003 0.011592382 0.71600002
-0.041596193 0.011592382 0.71600002
-0.040120002 0.01156 0.71400005
-0.038760003 0.01156 0.71400005
-0.037400004 0.01156 0.71400005
-0.036140956 0.011592382 0.71600002
-0.034777146 0.011592382 0.71600002
-0.033413336 0.011592382 0.71600002
-0.032094289 0.011608572 0.71700001
-0.030814288 0.011640953 0.71900004
-0.029444763 0.011640953 0.71900004
-0.069738097 0.013119048 0.72500002
-0.068168573 0.013082858 0.72300005
-0.06679143 0.013082858 0.72300005
-0.065414287 0.013082858 0.72300005
-0.063771434 0.013028572 0.72000003
-0.062313337 0.013010477 0.71900004
-0.060943812 0.013010477 0.71900004
-0.059574291 0.013010477 0.71900004
-0.058204766 0.013010477 0.71900004
-0.056835242 0.013010477 0.71900004
-0.055311434 0.012974286 0.71700001
-0.053870481 0.012956192 0.71600002
-0.052360002 0.012920001 0.71400005
-0.051000003 0.012920001 0.71400005
-0.049640004 0.012920001 0.71400005
-0.048280004 0.012920001 0.71400005
-0.046920002 0.012920001 0.71400005
-0.045560002 0.012920001 0.71400005
-0.044323813 0.012956192 0.71600002
-0.042960003 0.012956192 0.71600002
-0.041596193 0.012956192 0.71600002
-0.040232383 0.012956192 0.71600002
-0.038868573 0.012956192 0.71600002
-0.037557144 0.012974286 0.71700001
-0.03619143 0.012974286 0.71700001
-0.034825716 0.012974286 0.71700001
-0.033460002 0.012974286 0.71700001
-0.032183811 0.013010477 0.71900004
-0.030857146 0.013028572 0.72000003
-0.069834292 0.014520001 0.72600001
-0.068357147 0.014500001 0.72500002
-0.066976197 0.014500001 0.72500002
-0.065414287 0.014460001 0.72300005
-0.064037144 0.014460001 0.72300005
-0.062400006 0.014400001 0.72000003
-0.060943812 0.014380001 0.71900004
-0.059574291 0.014380001 0.71900004
-0.058285717 0.014400001 0.72000003
-0.056835242 0.014380001 0.71900004
-0.055465717 0.014380001 0.71900004
-0.053945716 0.014340001 0.71700001
-0.05250667 0.014320001 0.71600002
-0.051214289 0.014340001 0.71700001
-0.04977905 0.014320001 0.71600002
-0.04841524 0.014320001 0.71600002
-0.047051433 0.014320001 0.71600002
-0.045687623 0.014320001 0.71600002
-0.044323813 0.014320001 0.71600002
-0.043020003 0.014340001 0.71700001
-0.041654289 0.014340001 0.71700001
-0.040288575 0.014340001 0.71700001
-0.038922861 0.014340001 0.71700001
-0.037557144 0.014340001 0.71700001
-0.03619143 0.014340001 0.71700001
-0.034825716 0.014340001 0.71700001
-0.033553336 0.014380001 0.71900004
-0.032183811 0.014380001 0.71900004
-0.030814288 0.014380001 0.71900004
-0.029444763 0.014380001 0.71900004
-0.069834292 0.015902858 0.72600001
-0.068451434 0.015902858 0.72600001
-0.066976197 0.015880954 0.72500002
-0.065595239 0.015880954 0.72500002
-0.064037144 0.015837144 0.72300005
-0.062400006 0.01577143 0.72000003
-0.060943812 0.015749525 0.71900004
-0.059574291 0.015749525 0.71900004
-0.058285717 0.01577143 0.72000003
-0.056835242 0.015749525 0.71900004
-0.055465717 0.015749525 0.71900004
-0.053945716 0.015705716 0.71700001
-0.052580003 0.015705716 0.71700001
-0.051214289 0.015705716 0.71700001
-0.049848575 0.015705716 0.71700001
-0.04841524 0.015683811 0.71600002
-0.047051433 0.015683811 0.71600002
-0.045687623 0.015683811 0.71600002
-0.044385716 0.015705716 0.71700001
-0.043020003 0.015705716 0.71700001
-0.041654289 0.015705716 0.71700001
-0.040288575 0.015705716 0.71700001
-0.038922861 0.015705716 0.71700001
-0.037557144 0.015705716 0.71700001
-0.03619143 0.015705716 0.71700001
-0.034922861 0.015749525 0.71900004
-0.033553336 0.015749525 0.71900004
-0.032183811 0.015749525 0.71900004
-0.030814288 0.015749525 0.71900004
-0.029444763 0.015749525 0.71900004
-0.071511433 0.017357145 0.72900003
-0.069834292 0.017285716 0.72600001
-0.068451434 0.017285716 0.72600001
-0.067068577 0.017285716 0.72600001
-0.065595239 0.017261906 0.72500002
-0.064037144 0.017214287 0.72300005
-0.062573336 0.017190477 0.72200006
-0.061028574 0.017142858 0.72000003
-0.059574291 0.017119048 0.71900004
-0.058285717 0.017142858 0.72000003
-0.056914289 0.017142858 0.72000003
-0.055465717 0.017119048 0.71900004
-0.054096196 0.017119048 0.71900004
-0.052580003 0.01707143 0.71700001
-0.051214289 0.01707143 0.71700001
-0.049848575 0.01707143 0.71700001
-0.04841524 0.017047619 0.71600002
-0.047051433 0.017047619 0.71600002
-0.04575143 0.01707143 0.71700001
-0.044385716 0.01707143 0.71700001
-0.043020003 0.01707143 0.71700001
-0.041654289 0.01707143 0.71700001
-0.040288575 0.01707143 0.71700001
-0.038922861 0.01707143 0.71700001
-0.037557144 0.01707143 0.71700001
-0.036292382 0.017119048 0.71900004
-0.034922861 0.017119048 0.71900004
-0.033600003 0.017142858 0.72000003
-0.032228574 0.017142858 0.72000003
-0.030814288 0.017119048 0.71900004
-0.029444763 0.017119048 0.71900004
-0.071707621 0.018797144 0.73100001
-0.070026673 0.018720001 0.72800004
-0.068734288 0.018745715 0.72900003
-0.067253336 0.018720001 0.72800004
-0.065595239 0.018642858 0.72500002
-0.064037144 0.01859143 0.72300005
-0.062573336 0.018565716 0.72200006
-0.061028574 0.018514287 0.72000003
-0.059657145 0.018514287 0.72000003
-0.058285717 0.018514287 0.72000003
-0.056914289 0.018514287 0.72000003
-0.055465717 0.018488573 0.71900004
-0.054096196 0.018488573 0.71900004
-0.052580003 0.018437143 0.71700001
-0.051214289 0.018437143 0.71700001
-0.049848575 0.018437143 0.71700001
-0.048482861 0.018437143 0.71700001
-0.047117148 0.018437143 0.71700001
-0.04575143 0.018437143 0.71700001
-0.044385716 0.018437143 0.71700001
-0.043020003 0.018437143 0.71700001
-0.041770481 0.018488573 0.71900004
-0.040400956 0.018488573 0.71900004
-0.039031431 0.018488573 0.71900004
-0.037661906 0.018488573 0.71900004
-0.036292382 0.018488573 0.71900004
-0.034971431 0.018514287 0.72000003
-0.033693336 0.018565716 0.72200006
-0.032318097 0.018565716 0.72200006
-0.030942859 0.018565716 0.72200006
-0.029567622 0.018565716 0.72200006
-0.028192382 0.018565716 0.72200006
-0.073400006 0.020272382 0.73400003
-0.071707621 0.020189526 0.73100001
-0.07012286 0.020134287 0.72900003
-0.068922862 0.020189526 0.73100001
-0.067253336 0.020106668 0.72800004
-0.065595239 0.020023812 0.72500002
-0.064037144 0.019968573 0.72300005
-0.062573336 0.019940954 0.72200006
-0.061028574 0.019885715 0.72000003
-0.059574291 0.019858096 0.71900004
-0.058285717 0.019885715 0.72000003
-0.056914289 0.019885715 0.72000003
-0.055465717 0.019858096 0.71900004
-0.054096196 0.019858096 0.71900004
-0.052726671 0.019858096 0.71900004
-0.051357146 0.019858096 0.71900004
-0.049848575 0.019802859 0.71700001
-0.048482861 0.019802859 0.71700001
-0.047117148 0.019802859 0.71700001
-0.04575143 0.019802859 0.71700001
-0.044385716 0.019802859 0.71700001
-0.043140002 0.019858096 0.71900004
-0.041770481 0.019858096 0.71900004
-0.040400956 0.019858096 0.71900004
-0.039031431 0.019858096 0.71900004
-0.037661906 0.019858096 0.71900004
-0.036292382 0.019858096 0.71900004
-0.034971431 0.019885715 0.72000003
-0.033693336 0.019940954 0.72200006
-0.032318097 0.019940954 0.72200006
-0.030942859 0.019940954 0.72200006
-0.029567622 0.019940954 0.72200006
-0.028192382 0.019940954 0.72200006
-0.026817145 0.019940954 0.72200006
-0.073400006 0.021670477 0.73400003
-0.071805716 0.02161143 0.73200005
-0.070315242 0.021581907 0.73100001
-0.068922862 0.021581907 0.73100001
-0.067345716 0.021522859 0.72900003
-0.065685719 0.021434287 0.72600001
-0.064214289 0.021404764 0.72500002
-0.062573336 0.021316191 0.72200006
-0.0611981 0.021316191 0.72200006
-0.059657145 0.021257143 0.72000003
-0.058447622 0.021316191 0.72200006
-0.056914289 0.021257143 0.72000003
-0.05554286 0.021257143 0.72000003
-0.054096196 0.021227621 0.71900004
-0.052726671 0.021227621 0.71900004
-0.051357146 0.021227621 0.71900004
-0.049987622 0.021227621 0.71900004
-0.048482861 0.021168573 0.71700001
-0.047117148 0.021168573 0.71700001
-0.045879051 0.021227621 0.71900004
-0.044509526 0.021227621 0.71900004
-0.043140002 0.021227621 0.71900004
-0.041770481 0.021227621 0.71900004
-0.040400956 0.021227621 0.71900004
-0.039031431 0.021227621 0.71900004
-0.037714288 0.021257143 0.72000003
-0.036342859 0.021257143 0.72000003
-0.034971431 0.021257143 0.72000003
-0.033740003 0.021345716 0.72300005
-0.03236286 0.021345716 0.72300005
-0.030985717 0.021345716 0.72300005
-0.029608574 0.021345716 0.72300005
-0.028192382 0.021316191 0.72200006
-0.071805716 0.023005717 0.73200005
-0.070315242 0.022974288 0.73100001
-0.06901715 0.023005717 0.73200005
-0.067345716 0.022911429 0.72900003
-0.065866672 0.022880001 0.72800004
-0.064302862 0.022817144 0.72600001
-0.062660001 0.022722859 0.72300005
-0.061282862 0.022722859 0.72300005
-0.059905719 0.022722859 0.72300005
-0.058528576 0.022722859 0.72300005
-0.057072386 0.022691431 0.72200006
-0.055697147 0.022691431 0.72200006
-0.054171432 0.022628574 0.72000003
-0.052800003 0.022628574 0.72000003
-0.051357146 0.022597143 0.71900004
-0.049987622 0.022597143 0.71900004
-0.048618097 0.022597143 0.71900004
-0.047248576 0.022597143 0.71900004
-0.045879051 0.022597143 0.71900004
-0.044509526 0.022597143 0.71900004
-0.043200001 0.022628574 0.72000003
-0.041828573 0.022628574 0.72000003
-0.040457144 0.022628574 0.72000003
-0.039085716 0.022628574 0.72000003
-0.03781905 0.022691431 0.72200006
-0.036443811 0.022691431 0.72200006
-0.035117146 0.022722859 0.72300005
-0.033740003 0.022722859 0.72300005
-0.03236286 0.022722859 0.72300005
-0.03107143 0.022785716 0.72500002
-0.029690478 0.022785716 0.72500002
-0.028231431 0.022722859 0.72300005
-0.026854288 0.022722859 0.72300005
-0.070411436 0.024400001 0.73200005
-0.06901715 0.024400001 0.73200005
-0.067530483 0.024366667 0.73100001
-0.065957144 0.024300002 0.72900003
-0.064480007 0.024266668 0.72800004
-0.062833339 0.024166668 0.72500002
-0.061282862 0.024100002 0.72300005
-0.059905719 0.024100002 0.72300005
-0.058528576 0.024100002 0.72300005
-0.057072386 0.024066668 0.72200006
-0.055697147 0.024066668 0.72200006
-0.054321907 0.024066668 0.72200006
-0.052800003 0.024000002 0.72000003
-0.051428575 0.024000002 0.72000003
-0.049987622 0.023966668 0.71900004
-0.048618097 0.023966668 0.71900004
-0.047248576 0.023966668 0.71900004
-0.045942862 0.024000002 0.72000003
-0.044571433 0.024000002 0.72000003
-0.043200001 0.024000002 0.72000003
-0.041828573 0.024000002 0.72000003
-0.040569525 0.024066668 0.72200006
-0.03919429 0.024066668 0.72200006
-0.03781905 0.024066668 0.72200006
-0.036494289 0.024100002 0.72300005
-0.035117146 0.024100002 0.72300005
-0.033833336 0.024166668 0.72500002
-0.032452382 0.024166668 0.72500002
-0.031114288 0.024200002 0.72600001
-0.029690478 0.024166668 0.72500002
-0.028309526 0.024166668 0.72500002
-0.026817145 0.024066668 0.72200006
-0.070411436 0.025794288 0.73200005
-0.06901715 0.025794288 0.73200005
-0.067530483 0.025759049 0.73100001
-0.066138096 0.025759049 0.73100001
-0.064568579 0.025688574 0.72900003
-0.062833339 0.02554762 0.72500002
-0.061452385 0.02554762 0.72500002
-0.059905719 0.025477145 0.72300005
-0.058528576 0.025477145 0.72300005
-0.057151433 0.025477145 0.72300005
-0.055697147 0.025441907 0.72200006
-0.054321907 0.025441907 0.72200006
-0.052946672 0.025441907 0.72200006
-0.051571433 0.025441907 0.72200006
-0.050057147 0.02537143 0.72000003
-0.048685718 0.02537143 0.72000003
-0.04731429 0.02537143 0.72000003
-0.045942862 0.02537143 0.72000003
-0.044571433 0.02537143 0.72000003
-0.043320004 0.025441907 0.72200006
-0.041944765 0.025441907 0.72200006
-0.040569525 0.025441907 0.72200006
-0.03919429 0.025441907 0.72200006
-0.03781905 0.025441907 0.72200006
-0.036494289 0.025477145 0.72300005
-0.035117146 0.025477145 0.72300005
-0.033833336 0.02554762 0.72500002
-0.032497145 0.025582859 0.72600001
-0.031114288 0.025582859 0.72600001
-0.02973143 0.025582859 0.72600001
-0.028309526 0.02554762 0.72500002
-0.070603818 0.027262859 0.73400003
-0.068922862 0.02715143 0.73100001
-0.067530483 0.02715143 0.73100001
-0.066138096 0.02715143 0.73100001
-0.064568579 0.027077144 0.72900003
-0.063093334 0.027040001 0.72800004
-0.061537147 0.026965717 0.72600001
-0.060071431 0.026928574 0.72500002
-0.058690481 0.026928574 0.72500002
-0.057151433 0.026854288 0.72300005
-0.05577429 0.026854288 0.72300005
-0.054397147 0.026854288 0.72300005
-0.052946672 0.026817145 0.72200006
-0.051571433 0.026817145 0.72200006
-0.050196193 0.026817145 0.72200006
-0.048820954 0.026817145 0.72200006
-0.047445718 0.026817145 0.72200006
-0.046070479 0.026817145 0.72200006
-0.04469524 0.026817145 0.72200006
-0.043320004 0.026817145 0.72200006
-0.041944765 0.026817145 0.72200006
-0.040569525 0.026817145 0.72200006
-0.03919429 0.026817145 0.72200006
-0.037871432 0.026854288 0.72300005
-0.036494289 0.026854288 0.72300005
-0.035214286 0.026928574 0.72500002
-0.033833336 0.026928574 0.72500002
-0.032497145 0.026965717 0.72600001
-0.031114288 0.026965717 0.72600001
-0.02973143 0.026965717 0.72600001
-0.028309526 0.026928574 0.72500002
-0.070603818 0.028660955 0.73400003
-0.06901715 0.02858286 0.73200005
-0.067530483 0.028543811 0.73100001
-0.066138096 0.028543811 0.73100001
-0.064568579 0.028465716 0.72900003
-0.063180007 0.028465716 0.72900003
-0.061537147 0.028348573 0.72600001
-0.060071431 0.028309526 0.72500002
-0.058690481 0.028309526 0.72500002
-0.057151433 0.028231431 0.72300005
-0.05577429 0.028231431 0.72300005
-0.054397147 0.028231431 0.72300005
-0.053020004 0.028231431 0.72300005
-0.051642861 0.028231431 0.72300005
-0.050265718 0.028231431 0.72300005
-0.048888575 0.028231431 0.72300005
-0.047511432 0.028231431 0.72300005
-0.046134289 0.028231431 0.72300005
-0.04469524 0.028192382 0.72200006
-0.043380003 0.028231431 0.72300005
-0.04200286 0.028231431 0.72300005
-0.040625717 0.028231431 0.72300005
-0.039248575 0.028231431 0.72300005
-0.037871432 0.028231431 0.72300005
-0.036494289 0.028231431 0.72300005
-0.035214286 0.028309526 0.72500002
-0.033880003 0.028348573 0.72600001
-0.032586668 0.028426668 0.72800004
-0.031200003 0.028426668 0.72800004
-0.029813336 0.028426668 0.72800004
-0.028426668 0.028426668 0.72800004
-0.070603818 0.030059049 0.73400003
-0.06901715 0.029977145 0.73200005
-0.067622863 0.029977145 0.73200005
-0.066138096 0.029936193 0.73100001
-0.064745717 0.029936193 0.73100001
-0.063180007 0.029854288 0.72900003
-0.061537147 0.02973143 0.72600001
-0.060154289 0.02973143 0.72600001
-0.058690481 0.029690478 0.72500002
-0.057309527 0.029690478 0.72500002
-0.055928577 0.029690478 0.72500002
-0.054397147 0.029608574 0.72300005
-0.053020004 0.029608574 0.72300005
-0.051642861 0.029608574 0.72300005
-0.050265718 0.029608574 0.72300005
-0.048888575 0.029608574 0.72300005
-0.047511432 0.029608574 0.72300005
-0.046134289 0.029608574 0.72300005
-0.044757146 0.029608574 0.72300005
-0.043380003 0.029608574 0.72300005
-0.04200286 0.029608574 0.72300005
-0.040625717 0.029608574 0.72300005
-0.039248575 0.029608574 0.72300005
-0.037871432 0.029608574 0.72300005
-0.03659524 0.029690478 0.72500002
-0.035214286 0.029690478 0.72500002
-0.033880003 0.02973143 0.72600001
-0.032586668 0.029813336 0.72800004
-0.031200003 0.029813336 0.72800004
-0.029813336 0.029813336 0.72800004
-0.070603818 0.031457145 0.73400003
-0.06901715 0.03137143 0.73200005
-0.067622863 0.03137143 0.73200005
-0.066228576 0.03137143 0.73200005
-0.064745717 0.031328574 0.73100001
-0.063353337 0.031328574 0.73100001
-0.06170667 0.031200003 0.72800004
-0.060154289 0.031114288 0.72600001
-0.058690481 0.03107143 0.72500002
-0.057309527 0.03107143 0.72500002
-0.055928577 0.03107143 0.72500002
-0.054547623 0.03107143 0.72500002
-0.053020004 0.030985717 0.72300005
-0.051642861 0.030985717 0.72300005
-0.050265718 0.030985717 0.72300005
-0.048888575 0.030985717 0.72300005
-0.047511432 0.030985717 0.72300005
-0.046134289 0.030985717 0.72300005
-0.044757146 0.030985717 0.72300005
-0.043380003 0.030985717 0.72300005
-0.04200286 0.030985717 0.72300005
-0.040625717 0.030985717 0.72300005
-0.039248575 0.030985717 0.72300005
-0.037871432 0.030985717 0.72300005
-0.03659524 0.03107143 0.72500002
-0.03526286 0.031114288 0.72600001
-0.033880003 0.031114288 0.72600001
-0.032586668 0.031200003 0.72800004
-0.031200003 0.031200003 0.72800004
-0.070603818 0.032855239 0.73400003
-0.069205716 0.032855239 0.73400003
-0.067807622 0.032855239 0.73400003
-0.066228576 0.032765716 0.73200005
-0.064834289 0.032765716 0.73200005
-0.063353337 0.032720953 0.73100001
-0.061791431 0.032631431 0.72900003
-0.060154289 0.032497145 0.72600001
-0.058690481 0.032452382 0.72500002
-0.057309527 0.032452382 0.72500002
-0.055928577 0.032452382 0.72500002
-0.054547623 0.032452382 0.72500002
-0.053166669 0.032452382 0.72500002
-0.051785719 0.032452382 0.72500002
-0.050265718 0.03236286 0.72300005
-0.048888575 0.03236286 0.72300005
-0.047511432 0.03236286 0.72300005
-0.046134289 0.03236286 0.72300005
-0.044757146 0.03236286 0.72300005
-0.043380003 0.03236286 0.72300005
-0.04200286 0.03236286 0.72300005
-0.040625717 0.03236286 0.72300005
-0.039357144 0.032452382 0.72500002
-0.037976194 0.032452382 0.72500002
-0.03659524 0.032452382 0.72500002
-0.03526286 0.032497145 0.72600001
-0.033973336 0.032586668 0.72800004
-0.032586668 0.032586668 0.72800004
-0.031242859 0.032631431 0.72900003
-0.070796192 0.03434667 0.73600006
-0.069205716 0.034253336 0.73400003
-0.067807622 0.034253336 0.73400003
-0.066409528 0.034253336 0.73400003
-0.064834289 0.034160003 0.73200005
-0.063440003 0.034160003 0.73200005
-0.061960958 0.034113336 0.73100001
-0.060320005 0.033973336 0.72800004
-0.058771431 0.033880003 0.72600001
-0.057309527 0.033833336 0.72500002
-0.055928577 0.033833336 0.72500002
-0.054547623 0.033833336 0.72500002
-0.053166669 0.033833336 0.72500002
-0.051785719 0.033833336 0.72500002
-0.050404765 0.033833336 0.72500002
-0.049023814 0.033833336 0.72500002
-0.047642861 0.033833336 0.72500002
-0.046261907 0.033833336 0.72500002
-0.044757146 0.033740003 0.72300005
-0.043500002 0.033833336 0.72500002
-0.042119049 0.033833336 0.72500002
-0.040738098 0.033833336 0.72500002
-0.039357144 0.033833336 0.72500002
-0.037976194 0.033833336 0.72500002
-0.036645718 0.033880003 0.72600001
-0.03526286 0.033880003 0.72600001
-0.033973336 0.033973336 0.72800004
-0.032586668 0.033973336 0.72800004
-0.031200003 0.033973336 0.72800004
-0.070796192 0.035748575 0.73600006
-0.069205716 0.03565143 0.73400003
-0.067807622 0.03565143 0.73400003
-0.066409528 0.03565143 0.73400003
-0.065011434 0.03565143 0.73400003
-0.063440003 0.03555429 0.73200005
-0.061960958 0.035505716 0.73100001
-0.060320005 0.035360001 0.72800004
-0.058771431 0.03526286 0.72600001
-0.057388574 0.03526286 0.72600001
-0.055928577 0.035214286 0.72500002
-0.054547623 0.035214286 0.72500002
-0.053166669 0.035214286 0.72500002
-0.051785719 0.035214286 0.72500002
-0.050404765 0.035214286 0.72500002
-0.049023814 0.035214286 0.72500002
-0.047642861 0.035214286 0.72500002
-0.046261907 0.035214286 0.72500002
-0.044880956 0.035214286 0.72500002
-0.043500002 0.035214286 0.72500002
-0.042119049 0.035214286 0.72500002
-0.040738098 0.035214286 0.72500002
-0.039357144 0.035214286 0.72500002
-0.037976194 0.035214286 0.72500002
-0.036645718 0.03526286 0.72600001
-0.035360001 0.035360001 0.72800004
-0.033973336 0.035360001 0.72800004
-0.032631431 0.035408575 0.72900003
-0.031242859 0.035408575 0.72900003
-0.073100008 0.036898099 0.73100001
-0.072296195 0.037200954 0.73700005
-0.070892386 0.037200954 0.73700005
-0.06939429 0.03715048 0.73600006
-0.067992382 0.03715048 0.73600006
-0.066590481 0.03715048 0.73600006
-0.065188579 0.03715048 0.73600006
-0.06361334 0.037049524 0.73400003
-0.062045719 0.036948573 0.73200005
-0.060402863 0.036797144 0.72900003
-0.058933336 0.03674667 0.72800004
-0.057388574 0.036645718 0.72600001
-0.056005716 0.036645718 0.72600001
-0.054547623 0.03659524 0.72500002
-0.053166669 0.03659524 0.72500002
-0.051785719 0.03659524 0.72500002
-0.050404765 0.03659524 0.72500002
-0.049023814 0.03659524 0.72500002
-0.047642861 0.03659524 0.72500002
-0.046261907 0.03659524 0.72500002
-0.044880956 0.03659524 0.72500002
-0.043500002 0.03659524 0.72500002
-0.042177144 0.036645718 0.72600001
-0.040794287 0.036645718 0.72600001
-0.039411429 0.036645718 0.72600001
-0.038028575 0.036645718 0.72600001
-0.03674667 0.03674667 0.72800004
-0.035360001 0.03674667 0.72800004
-0.034020003 0.036797144 0.72900003
-0.032631431 0.036797144 0.72900003
-0.031242859 0.036797144 0.72900003
-0.074492387 0.038290478 0.73100001
-0.073100008 0.038290478 0.73100001
-0.0721981 0.038552385 0.73600006
-0.070892386 0.038604766 0.73700005
-0.069488578 0.038604766 0.73700005
-0.068084769 0.038604766 0.73700005
-0.06668096 0.038604766 0.73700005
-0.065188579 0.038552385 0.73600006
-0.063786671 0.038552385 0.73600006
-0.062215243 0.038447622 0.73400003
-0.060568575 0.038290478 0.73100001
-0.059014291 0.038185716 0.72900003
-0.057546671 0.038133334 0.72800004
-0.056160003 0.038133334 0.72800004
-0.054622862 0.038028575 0.72600001
-0.053240005 0.038028575 0.72600001
-0.051857147 0.038028575 0.72600001
-0.050404765 0.037976194 0.72500002
-0.049091432 0.038028575 0.72600001
-0.047708575 0.038028575 0.72600001
-0.046325717 0.038028575 0.72600001
-0.044880956 0.037976194 0.72500002
-0.043560002 0.038028575 0.72600001
