# .PCD v0.7 - Point Cloud Data file format
VERSION 0.7
FIELDS x y z
SIZE 4 4 4
TYPE F F F
COUNT 1 1 1
WIDTH 1323
HEIGHT 1
VIEWPOINT 0 0 0 1 0 0 0
POINTS 1323
DATA ascii
-0.045857146 -0.032405715 0.64200002
-0.04463429 -0.032405715 0.64200002
-0.043614287 -0.032557145 0.64500004
-0.042385716 -0.032557145 0.64500004
-0.041220956 -0.032607622 0.64600003
-0.039990477 -0.032607622 0.64600003
-0.038760003 -0.032607622 0.64600003
-0.037529524 -0.032607622 0.64600003
-0.052376192 -0.031425714 0.64700001
-0.050906669 -0.031280003 0.64400005
-0.049680002 -0.031280003 0.64400005
-0.048302859 -0.031182859 0.64200002
-0.047080003 -0.031182859 0.64200002
-0.046000004 -0.031280003 0.64400005
-0.044773336 -0.031280003 0.64400005
-0.043614287 -0.031328574 0.64500004
-0.04245143 -0.031377144 0.64600003
-0.041220956 -0.031377144 0.64600003
-0.039990477 -0.031377144 0.64600003
-0.038760003 -0.031377144 0.64600003
-0.037529524 -0.031377144 0.64600003
-0.052376192 -0.030193334 0.64700001
-0.051143814 -0.030193334 0.64700001
-0.049834289 -0.030146668 0.64600003
-0.048528574 -0.030100003 0.64500004
-0.047226671 -0.030053336 0.64400005
-0.046000004 -0.030053336 0.64400005
-0.044773336 -0.030053336 0.64400005
-0.043681908 -0.030146668 0.64600003
-0.04245143 -0.030146668 0.64600003
-0.041220956 -0.030146668 0.64600003
-0.039990477 -0.030146668 0.64600003
-0.038820002 -0.030193334 0.64700001
-0.03758762 -0.030193334 0.64700001
-0.036355242 -0.030193334 0.64700001
-0.052457146 -0.029005716 0.648
-0.051143814 -0.028960954 0.64700001
-0.049911432 -0.028960954 0.64700001
-0.048528574 -0.02887143 0.64500004
-0.047300003 -0.02887143 0.64500004
-0.046071433 -0.02887143 0.64500004
-0.044842862 -0.02887143 0.64500004
-0.043681908 -0.028916193 0.64600003
-0.042517144 -0.028960954 0.64700001
-0.041220956 -0.028916193 0.64600003
-0.040052384 -0.028960954 0.64700001
-0.038820002 -0.028960954 0.64700001
-0.03758762 -0.028960954 0.64700001
-0.036355242 -0.028960954 0.64700001
-0.053857148 -0.027857145 0.65000004
-0.052619051 -0.027857145 0.65000004
-0.051222861 -0.02777143 0.648
-0.049988575 -0.02777143 0.648
-0.048603814 -0.027685717 0.64600003
-0.047373336 -0.027685717 0.64600003
-0.046142861 -0.027685717 0.64600003
-0.044842862 -0.027642859 0.64500004
-0.043749526 -0.027728572 0.64700001
-0.042517144 -0.027728572 0.64700001
-0.041284766 -0.027728572 0.64700001
-0.040114287 -0.02777143 0.648
-0.038880002 -0.02777143 0.648
-0.03758762 -0.027728572 0.64700001
-0.036355242 -0.027728572 0.64700001
0.060171433 -0.041657146 0.97200006
-0.052619051 -0.026619049 0.65000004
-0.051222861 -0.026537145 0.648
-0.049988575 -0.026537145 0.648
-0.04867905 -0.026496192 0.64700001
-0.047373336 -0.02645524 0.64600003
-0.046142861 -0.02645524 0.64600003
-0.044912383 -0.02645524 0.64600003
-0.043749526 -0.026496192 0.64700001
-0.042517144 -0.026496192 0.64700001
-0.041284766 -0.026496192 0.64700001
-0.040114287 -0.026537145 0.648
-0.038820002 -0.026496192 0.64700001
-0.03758762 -0.026496192 0.64700001
-0.036355242 -0.026496192 0.64700001
-0.052700002 -0.025420001 0.65100002
-0.051380955 -0.025380954 0.65000004
-0.050142862 -0.025380954 0.65000004
-0.04875429 -0.025302859 0.648
-0.047446668 -0.025263811 0.64700001
-0.04621429 -0.025263811 0.64700001
-0.044912383 -0.025224764 0.64600003
-0.043749526 -0.025263811 0.64700001
-0.042517144 -0.025263811 0.64700001
-0.041284766 -0.025263811 0.64700001
-0.040114287 -0.025302859 0.648
-0.038880002 -0.025302859 0.648
-0.03758762 -0.025263811 0.64700001
-0.036355242 -0.025263811 0.64700001
-0.052700002 -0.024180003 0.65100002
-0.051460002 -0.024180003 0.65100002
-0.050142862 -0.02414286 0.65000004
-0.048904765 -0.02414286 0.65000004
-0.047520004 -0.024068573 0.648
-0.04621429 -0.02403143 0.64700001
-0.044981908 -0.02403143 0.64700001
-0.043749526 -0.02403143 0.64700001
-0.042582858 -0.024068573 0.648
-0.041348573 -0.024068573 0.648
-0.040114287 -0.024068573 0.648
-0.038880002 -0.024068573 0.648
-0.037645716 -0.024068573 0.648
-0.036411431 -0.024068573 0.648
-0.052780956 -0.02297524 0.65200001
-0.051460002 -0.022940002 0.65100002
-0.050220001 -0.022940002 0.65100002
-0.048904765 -0.022904763 0.65000004
-0.047520004 -0.022834288 0.648
-0.046285719 -0.022834288 0.648
-0.044981908 -0.022799049 0.64700001
-0.043817144 -0.022834288 0.648
-0.042517144 -0.022799049 0.64700001
-0.041348573 -0.022834288 0.648
-0.040114287 -0.022834288 0.648
-0.038880002 -0.022834288 0.648
-0.037820004 -0.022940002 0.65100002
-0.036580004 -0.022940002 0.65100002
-0.054105718 -0.021766668 0.65300006
-0.052780956 -0.021733334 0.65200001
-0.051539052 -0.021733334 0.65200001
-0.050297145 -0.021733334 0.65200001
-0.048980001 -0.021700002 0.65100002
-0.047520004 -0.021600001 0.648
-0.046285719 -0.021600001 0.648
-0.045051433 -0.021600001 0.648
-0.043817144 -0.021600001 0.648
-0.042582858 -0.021600001 0.648
-0.041348573 -0.021600001 0.648
-0.040238097 -0.021666668 0.65000004
-0.039060004 -0.021700002 0.65100002
-0.037820004 -0.021700002 0.65100002
-0.036580004 -0.021700002 0.65100002
-0.055519052 -0.020585716 0.65500003
-0.054105718 -0.020522859 0.65300006
-0.052861907 -0.020522859 0.65300006
-0.051618099 -0.020522859 0.65300006
-0.050297145 -0.020491431 0.65200001
-0.049055241 -0.020491431 0.65200001
-0.047740005 -0.020460002 0.65100002
-0.046428576 -0.020428572 0.65000004
-0.045051433 -0.020365715 0.648
-0.043817144 -0.020365715 0.648
-0.042582858 -0.020365715 0.648
-0.041476194 -0.020428572 0.65000004
-0.040238097 -0.020428572 0.65000004
-0.039000001 -0.020428572 0.65000004
-0.037878096 -0.020491431 0.65200001
-0.036636192 -0.020491431 0.65200001
-0.055519052 -0.019338097 0.65500003
-0.054105718 -0.01927905 0.65300006
-0.052861907 -0.01927905 0.65300006
-0.051618099 -0.01927905 0.65300006
-0.050374288 -0.01927905 0.65300006
-0.049055241 -0.019249525 0.65200001
-0.047740005 -0.019220002 0.65100002
-0.046428576 -0.019190477 0.65000004
-0.04519048 -0.019190477 0.65000004
-0.043952383 -0.019190477 0.65000004
-0.04271429 -0.019190477 0.65000004
-0.041476194 -0.019190477 0.65000004
-0.040300004 -0.019220002 0.65100002
-0.039120004 -0.019249525 0.65200001
-0.037878096 -0.019249525 0.65200001
-0.036636192 -0.019249525 0.65200001
0.040628575 -0.027988574 0.94800007
0.04243429 -0.027988574 0.94800007
-0.055519052 -0.018090477 0.65500003
-0.054271434 -0.018090477 0.65500003
-0.053023811 -0.018090477 0.65500003
-0.051776193 -0.018090477 0.65500003
-0.050528575 -0.018090477 0.65500003
-0.049130481 -0.018035239 0.65300006
-0.047813337 -0.018007619 0.65200001
-0.046500005 -0.017980002 0.65100002
-0.045260005 -0.017980002 0.65100002
-0.044020005 -0.017980002 0.65100002
-0.042780004 -0.017980002 0.65100002
-0.041603811 -0.018007619 0.65200001
-0.04042381 -0.018035239 0.65300006
-0.039300002 -0.018090477 0.65500003
-0.036860954 -0.018118097 0.65600002
-0.055519052 -0.016842859 0.65500003
-0.054271434 -0.016842859 0.65500003
-0.053023811 -0.016842859 0.65500003
-0.051776193 -0.016842859 0.65500003
-0.050528575 -0.016842859 0.65500003
-0.049130481 -0.016791429 0.65300006
-0.04788667 -0.016791429 0.65300006
-0.04657143 -0.016765716 0.65200001
-0.045329526 -0.016765716 0.65200001
-0.044087622 -0.016765716 0.65200001
-0.042845719 -0.016765716 0.65200001
-0.041667622 -0.016791429 0.65300006
-0.040547621 -0.016842859 0.65500003
-0.039300002 -0.016842859 0.65500003
-0.03811048 -0.016868573 0.65600002
-0.036860954 -0.016868573 0.65600002
-0.035611432 -0.016868573 0.65600002
0.05819048 -0.024171431 0.94000006
-0.055519052 -0.015595239 0.65500003
-0.054105718 -0.01554762 0.65300006
-0.053023811 -0.015595239 0.65500003
-0.051776193 -0.015595239 0.65500003
-0.050528575 -0.015595239 0.65500003
-0.049280956 -0.015595239 0.65500003
-0.04788667 -0.01554762 0.65300006
-0.04657143 -0.015523811 0.65200001
-0.045329526 -0.015523811 0.65200001
-0.04415524 -0.01554762 0.65300006
-0.042911433 -0.01554762 0.65300006
-0.041667622 -0.01554762 0.65300006
-0.040547621 -0.015595239 0.65500003
-0.039300002 -0.015595239 0.65500003
-0.03811048 -0.015619049 0.65600002
-0.036860954 -0.015619049 0.65600002
-0.035611432 -0.015619049 0.65600002
-0.055519052 -0.01434762 0.65500003
-0.054271434 -0.01434762 0.65500003
-0.053023811 -0.01434762 0.65500003
-0.05185524 -0.014369525 0.65600002
-0.050605718 -0.014369525 0.65600002
-0.049356192 -0.014369525 0.65600002
-0.048033338 -0.01434762 0.65500003
-0.046642859 -0.014303811 0.65300006
-0.045399051 -0.014303811 0.65300006
-0.04415524 -0.014303811 0.65300006
-0.042911433 -0.014303811 0.65300006
-0.041795243 -0.01434762 0.65500003
-0.040547621 -0.01434762 0.65500003
-0.039360002 -0.014369525 0.65600002
-0.038168576 -0.01439143 0.65700001
-0.036917146 -0.01439143 0.65700001
-0.035665717 -0.01439143 0.65700001
-0.034623813 -0.014479049 0.66100001
-0.054271434 -0.013100001 0.65500003
-0.053023811 -0.013100001 0.65500003
-0.05185524 -0.013120001 0.65600002
-0.050605718 -0.013120001 0.65600002
-0.049356192 -0.013120001 0.65600002
-0.048033338 -0.013100001 0.65500003
-0.046642859 -0.013060001 0.65300006
-0.045399051 -0.013060001 0.65300006
-0.044290479 -0.013100001 0.65500003
-0.043042861 -0.013100001 0.65500003
-0.041795243 -0.013100001 0.65500003
-0.040609527 -0.013120001 0.65600002
-0.039420001 -0.01314 0.65700001
-0.038226668 -0.013160001 0.65800005
-0.036973335 -0.013160001 0.65800005
-0.03588286 -0.013220001 0.66100001
-0.034623813 -0.013220001 0.66100001
-0.053185716 -0.011888572 0.65700001
-0.05185524 -0.011870477 0.65600002
-0.050605718 -0.011870477 0.65600002
-0.049356192 -0.011870477 0.65600002
-0.048033338 -0.011852382 0.65500003
-0.046785716 -0.011852382 0.65500003
-0.045538098 -0.011852382 0.65500003
-0.044290479 -0.011852382 0.65500003
-0.043108575 -0.011870477 0.65600002
-0.041859049 -0.011870477 0.65600002
-0.040671431 -0.011888572 0.65700001
-0.039480001 -0.011906668 0.65800005
-0.03834286 -0.011942858 0.66000003
-0.037085716 -0.011942858 0.66000003
-0.035937145 -0.011979048 0.66200006
-0.034833334 -0.012033334 0.66500002
-0.053266671 -0.010653334 0.65800005
-0.052013338 -0.010653334 0.65800005
-0.050682861 -0.010637144 0.65700001
-0.049431432 -0.010637144 0.65700001
-0.04810667 -0.010620954 0.65600002
-0.046857145 -0.010620954 0.65600002
-0.045607623 -0.010620954 0.65600002
-0.044358097 -0.010620954 0.65600002
-0.043174289 -0.010637144 0.65700001
-0.04192286 -0.010637144 0.65700001
-0.040733337 -0.010653334 0.65800005
-0.039660003 -0.010701905 0.66100001
-0.038400955 -0.010701905 0.66100001
-0.037198097 -0.010718096 0.66200006
-0.035937145 -0.010718096 0.66200006
-0.034728575 -0.010734286 0.66300005
-0.053509526 -0.0094428575 0.66100001
-0.052171431 -0.0094285719 0.66000003
-0.050760005 -0.0094000008 0.65800005
-0.049506672 -0.0094000008 0.65800005
-0.048180003 -0.0093857152 0.65700001
-0.046928573 -0.0093857152 0.65700001
-0.045677144 -0.0093857152 0.65700001
-0.044425718 -0.0093857152 0.65700001
-0.043240003 -0.0094000008 0.65800005
-0.04198667 -0.0094000008 0.65800005
-0.040857144 -0.0094285719 0.66000003
-0.039660003 -0.0094428575 0.66100001
-0.038400955 -0.0094428575 0.66100001
-0.037198097 -0.009457143 0.66200006
-0.03599143 -0.0094714295 0.66300005
-0.034833334 -0.0095000006 0.66500002
-0.054934289 -0.0082085719 0.66300005
-0.05359048 -0.0081961909 0.66200006
-0.052250478 -0.0081838099 0.66100001
-0.050914288 -0.0081714289 0.66000003
-0.049657147 -0.0081714289 0.66000003
-0.048253335 -0.0081466669 0.65800005
-0.047000002 -0.0081466669 0.65800005
-0.045746669 -0.0081466669 0.65800005
-0.044493336 -0.0081466669 0.65800005
-0.043240003 -0.0081466669 0.65800005
-0.042114288 -0.0081714289 0.66000003
-0.040919051 -0.0081838099 0.66100001
-0.039720003 -0.0081961909 0.66200006
-0.038459051 -0.0081961909 0.66200006
-0.037254289 -0.0082085719 0.66300005
-0.03599143 -0.0082085719 0.66300005
-0.034833334 -0.0082333339 0.66500002
-0.054934289 -0.0069457148 0.66300005
-0.053671431 -0.0069457148 0.66300005
-0.052250478 -0.0069247624 0.66100001
-0.050991431 -0.0069247624 0.66100001
-0.049657147 -0.0069142859 0.66000003
-0.048400003 -0.0069142859 0.66000003
-0.04714286 -0.0069142859 0.66000003
-0.045885716 -0.0069142859 0.66000003
-0.044628575 -0.0069142859 0.66000003
-0.043371432 -0.0069142859 0.66000003
-0.042178098 -0.0069247624 0.66100001
-0.040980954 -0.0069352384 0.66200006
-0.039720003 -0.0069352384 0.66200006
-0.038517144 -0.0069457148 0.66300005
-0.037254289 -0.0069457148 0.66300005
-0.036100004 -0.0069666672 0.66500002
-0.034885716 -0.0069771432 0.66600001
-0.055100005 -0.0057000006 0.66500002
-0.053671431 -0.0056828577 0.66300005
-0.052408576 -0.0056828577 0.66300005
-0.051068574 -0.0056742863 0.66200006
-0.049807623 -0.0056742863 0.66200006
-0.048473336 -0.0056657149 0.66100001
-0.047214288 -0.0056657149 0.66100001
-0.045955241 -0.0056657149 0.66100001
-0.044696193 -0.0056657149 0.66100001
-0.043437146 -0.0056657149 0.66100001
-0.042241909 -0.0056742863 0.66200006
-0.041042861 -0.0056828577 0.66300005
-0.039780002 -0.0056828577 0.66300005
-0.038517144 -0.0056828577 0.66300005
-0.03736667 -0.0057000006 0.66500002
-0.036100004 -0.0057000006 0.66500002
-0.034938097 -0.0057171434 0.66700006
-0.055182859 -0.0044400003 0.66600001
-0.053833336 -0.0044333334 0.66500002
-0.052408576 -0.0044200001 0.66300005
-0.051068574 -0.0044133337 0.66200006
-0.049807623 -0.0044133337 0.66200006
-0.048546668 -0.0044133337 0.66200006
-0.047285717 -0.0044133337 0.66200006
-0.046024766 -0.0044133337 0.66200006
-0.044763811 -0.0044133337 0.66200006
-0.04350286 -0.0044133337 0.66200006
-0.042241909 -0.0044133337 0.66200006
-0.041042861 -0.0044200001 0.66300005
-0.039780002 -0.0044200001 0.66300005
-0.038633335 -0.0044333334 0.66500002
-0.03736667 -0.0044333334 0.66500002
-0.036154289 -0.0044400003 0.66600001
-0.03504286 -0.0044600004 0.66900003
-0.033768572 -0.0044600004 0.66900003
-0.055100005 -0.003166667 0.66500002
-0.053833336 -0.003166667 0.66500002
-0.052408576 -0.003157143 0.66300005
-0.051145718 -0.003157143 0.66300005
-0.049882859 -0.003157143 0.66300005
-0.048620004 -0.003157143 0.66300005
-0.047357146 -0.003157143 0.66300005
-0.046094287 -0.003157143 0.66300005
-0.044763811 -0.0031523812 0.66200006
-0.043568574 -0.003157143 0.66300005
-0.042305715 -0.003157143 0.66300005
-0.041166671 -0.003166667 0.66500002
-0.039900001 -0.003166667 0.66500002
-0.038633335 -0.003166667 0.66500002
-0.037422858 -0.0031714288 0.66600001
-0.036208574 -0.0031761907 0.66700006
-0.03504286 -0.0031857146 0.66900003
-0.033768572 -0.0031857146 0.66900003
-0.055100005 -0.0019000001 0.66500002
-0.053833336 -0.0019000001 0.66500002
-0.05256667 -0.0019000001 0.66500002
-0.051145718 -0.0018942858 0.66300005
-0.049882859 -0.0018942858 0.66300005
-0.048620004 -0.0018942858 0.66300005
-0.047357146 -0.0018942858 0.66300005
-0.046094287 -0.0018942858 0.66300005
-0.044831432 -0.0018942858 0.66300005
-0.043568574 -0.0018942858 0.66300005
-0.042305715 -0.0018942858 0.66300005
-0.041166671 -0.0019000001 0.66500002
-0.039900001 -0.0019000001 0.66500002
-0.038691431 -0.0019028572 0.66600001
-0.03747905 -0.0019057144 0.66700006
-0.036208574 -0.0019057144 0.66700006
-0.03504286 -0.0019114286 0.66900003
-0.033768572 -0.0019114286 0.66900003
-0.032542858 -0.0019142858 0.67000002
-0.053833336 -0.0006333334 0.66500002
-0.05256667 -0.0006333334 0.66500002
-0.051145718 -0.00063142861 0.66300005
-0.049882859 -0.00063142861 0.66300005
-0.048620004 -0.00063142861 0.66300005
-0.047357146 -0.00063142861 0.66300005
-0.046094287 -0.00063142861 0.66300005
-0.044831432 -0.00063142861 0.66300005
-0.043568574 -0.00063142861 0.66300005
-0.042305715 -0.00063142861 0.66300005
-0.041166671 -0.0006333334 0.66500002
-0.039960004 -0.00063428574 0.66600001
-0.038691431 -0.00063428574 0.66600001
-0.03747905 -0.00063523813 0.66700006
-0.036317144 -0.00063714292 0.66900003
-0.03504286 -0.00063714292 0.66900003
-0.033768572 -0.00063714292 0.66900003
-0.032542858 -0.00063809525 0.67000002
-0.05391429 0.00063428574 0.66600001
-0.05256667 0.0006333334 0.66500002
-0.051300004 0.0006333334 0.66500002
-0.050033338 0.0006333334 0.66500002
-0.048766669 0.0006333334 0.66500002
-0.047500003 0.0006333334 0.66500002
-0.046233337 0.0006333334 0.66500002
-0.044831432 0.00063142861 0.66300005
-0.043568574 0.00063142861 0.66300005
-0.042433336 0.0006333334 0.66500002
-0.041166671 0.0006333334 0.66500002
-0.039960004 0.00063428574 0.66600001
-0.038749527 0.00063523813 0.66700006
-0.037591431 0.00063714292 0.66900003
-0.036317144 0.00063714292 0.66900003
-0.035095241 0.00063809525 0.67000002
-0.033768572 0.00063714292 0.66900003
-0.05391429 0.0019028572 0.66600001
-0.052645717 0.0019028572 0.66600001
-0.051300004 0.0019000001 0.66500002
-0.050033338 0.0019000001 0.66500002
-0.048766669 0.0019000001 0.66500002
-0.047500003 0.0019000001 0.66500002
-0.046233337 0.0019000001 0.66500002
-0.044966668 0.0019000001 0.66500002
-0.043700002 0.0019000001 0.66500002
-0.042433336 0.0019000001 0.66500002
-0.041166671 0.0019000001 0.66500002
-0.040020004 0.0019057144 0.66700006
-0.038865715 0.0019114286 0.66900003
-0.03764762 0.0019142858 0.67000002
-0.036371432 0.0019142858 0.67000002
-0.035095241 0.0019142858 0.67000002
-0.03381905 0.0019142858 0.67000002
-0.05391429 0.0031714288 0.66600001
-0.052645717 0.0031714288 0.66600001
-0.051300004 0.003166667 0.66500002
-0.050033338 0.003166667 0.66500002
-0.048766669 0.003166667 0.66500002
-0.047500003 0.003166667 0.66500002
-0.046233337 0.003166667 0.66500002
-0.044966668 0.003166667 0.66500002
-0.043700002 0.003166667 0.66500002
-0.042433336 0.003166667 0.66500002
-0.041228574 0.0031714288 0.66600001
-0.040020004 0.0031761907 0.66700006
-0.038923811 0.0031904764 0.67000002
-0.03764762 0.0031904764 0.67000002
-0.036371432 0.0031904764 0.67000002
-0.035095241 0.0031904764 0.67000002
-0.05391429 0.0044400003 0.66600001
-0.05256667 0.0044333334 0.66500002
-0.051300004 0.0044333334 0.66500002
-0.050033338 0.0044333334 0.66500002
-0.048766669 0.0044333334 0.66500002
-0.047500003 0.0044333334 0.66500002
-0.046233337 0.0044333334 0.66500002
-0.044966668 0.0044333334 0.66500002
-0.043700002 0.0044333334 0.66500002
-0.042497147 0.0044400003 0.66600001
-0.041290481 0.0044466672 0.66700006
-0.040020004 0.0044466672 0.66700006
-0.038923811 0.0044666668 0.67000002
-0.037703812 0.0044733337 0.671
-0.036425717 0.0044733337 0.671
-0.035147622 0.0044733337 0.671
-0.05399524 0.0057171434 0.66700006
-0.052645717 0.005708572 0.66600001
-0.051377147 0.005708572 0.66600001
-0.050033338 0.0057000006 0.66500002
-0.048766669 0.0057000006 0.66500002
-0.047571432 0.005708572 0.66600001
-0.046302859 0.005708572 0.66600001
-0.045034289 0.005708572 0.66600001
-0.043765716 0.005708572 0.66600001
-0.042560954 0.0057171434 0.66700006
-0.041290481 0.0057171434 0.66700006
-0.040140003 0.0057342863 0.66900003
-0.038923811 0.0057428577 0.67000002
-0.037760001 0.0057600006 0.67200005
-0.036480002 0.0057600006 0.67200005
-0.035200004 0.0057600006 0.67200005
-0.034071431 0.0057857148 0.67500001
-0.095988579 0.0095123816 0.90800005
-0.094259053 0.0095123816 0.90800005
-0.052645717 0.0069771432 0.66600001
-0.051377147 0.0069771432 0.66600001
-0.050108574 0.0069771432 0.66600001
-0.048766669 0.0069666672 0.66500002
-0.047571432 0.0069771432 0.66600001
-0.046302859 0.0069771432 0.66600001
-0.045034289 0.0069771432 0.66600001
-0.043765716 0.0069771432 0.66600001
-0.042560954 0.0069876197 0.66700006
-0.041414287 0.0070085721 0.66900003
-0.040140003 0.0070085721 0.66900003
-0.038923811 0.0070190481 0.67000002
-0.037872385 0.007060953 0.67400002
-0.036588576 0.007060953 0.67400002
-0.035304762 0.007060953 0.67400002
-0.034071431 0.0070714289 0.67500001
-0.05464286 0.008357143 0.67500001
-0.0532781 0.008344762 0.67400002
-0.051840004 0.008320001 0.67200005
-0.050409526 0.0082952389 0.67000002
-0.049060002 0.0082828579 0.66900003
-0.047785718 0.0082828579 0.66900003
-0.04651143 0.0082828579 0.66900003
-0.045237146 0.0082828579 0.66900003
-0.043962859 0.0082828579 0.66900003
-0.042752385 0.0082952389 0.67000002
-0.041476194 0.0082952389 0.67000002
-0.040260002 0.00830762 0.671
-0.039040003 0.008320001 0.67200005
-0.037872385 0.008344762 0.67400002
-0.036642861 0.008357143 0.67500001
-0.035357144 0.008357143 0.67500001
-0.034121908 0.008369524 0.67600006
-0.058933336 0.0097142868 0.68000001
-0.057638098 0.0097142868 0.68000001
-0.056177147 0.0096857147 0.67800003
-0.054723814 0.0096571436 0.67600006
-0.053357147 0.0096428581 0.67500001
-0.05199429 0.0096285725 0.67400002
-0.050484765 0.0095857149 0.671
-0.049133338 0.0095714293 0.67000002
-0.047857147 0.0095714293 0.67000002
-0.04651143 0.0095571438 0.66900003
-0.045237146 0.0095571438 0.66900003
-0.044028573 0.0095714293 0.67000002
-0.042752385 0.0095714293 0.67000002
-0.041538097 0.0095857149 0.671
-0.040260002 0.0095857149 0.671
-0.039156195 0.0096285725 0.67400002
-0.037928574 0.0096428581 0.67500001
-0.036642861 0.0096428581 0.67500001
-0.035409525 0.0096571436 0.67600006
-0.034121908 0.0096571436 0.67600006
-0.032980002 0.0097000003 0.67900002
-0.062066671 0.011106667 0.68600005
-0.060582861 0.011074287 0.68400002
-0.05910667 0.011041906 0.68200004
-0.057638098 0.011009525 0.68000001
-0.056177147 0.010977143 0.67800003
-0.054723814 0.010944762 0.67600006
-0.053357147 0.010928572 0.67500001
-0.05199429 0.010912382 0.67400002
-0.050560005 0.010880001 0.67200005
-0.04920667 0.01086381 0.671
-0.047857147 0.01084762 0.67000002
-0.046580955 0.01084762 0.67000002
-0.045304764 0.01084762 0.67000002
-0.044028573 0.01084762 0.67000002
-0.042816192 0.01086381 0.671
-0.041538097 0.01086381 0.671
-0.040320002 0.010880001 0.67200005
-0.039156195 0.010912382 0.67400002
-0.037928574 0.010928572 0.67500001
-0.036697146 0.010944762 0.67600006
-0.035409525 0.010944762 0.67600006
-0.03422286 0.010977143 0.67800003
-0.032980002 0.010993334 0.67900002
-0.031686667 0.010993334 0.67900002
-0.062066671 0.012413334 0.68600005
-0.060494289 0.012359048 0.68300003
-0.058933336 0.012304762 0.68000001
-0.057638098 0.012304762 0.68000001
-0.056177147 0.012268572 0.67800003
-0.054723814 0.012232382 0.67600006
-0.053357147 0.012214286 0.67500001
-0.052071434 0.012214286 0.67500001
-0.050560005 0.01216 0.67200005
-0.049280003 0.01216 0.67200005
-0.047928575 0.012141906 0.671
-0.046580955 0.01212381 0.67000002
-0.045304764 0.01212381 0.67000002
-0.044094287 0.012141906 0.671
-0.042880002 0.01216 0.67200005
-0.041600004 0.01216 0.67200005
-0.040440004 0.012196192 0.67400002
-0.039156195 0.012196192 0.67400002
-0.037928574 0.012214286 0.67500001
-0.036697146 0.012232382 0.67600006
-0.035409525 0.012232382 0.67600006
-0.03422286 0.012268572 0.67800003
-0.032980002 0.012286668 0.67900002
-0.031686667 0.012286668 0.67900002
-0.062066671 0.013720001 0.68600005
-0.060582861 0.013680001 0.68400002
-0.05910667 0.01364 0.68200004
-0.057638098 0.013600001 0.68000001
-0.056177147 0.013560001 0.67800003
-0.054723814 0.013520001 0.67600006
-0.053436194 0.013520001 0.67600006
-0.052071434 0.013500001 0.67500001
-0.050710481 0.013480001 0.67400002
-0.049426671 0.013480001 0.67400002
-0.048000004 0.013440001 0.67200005
-0.04665048 0.013420001 0.671
-0.045440003 0.013440001 0.67200005
-0.044160005 0.013440001 0.67200005
-0.043007623 0.013480001 0.67400002
-0.041723814 0.013480001 0.67400002
-0.040440004 0.013480001 0.67400002
-0.039156195 0.013480001 0.67400002
-0.037928574 0.013500001 0.67500001
-0.036697146 0.013520001 0.67600006
-0.035514288 0.013560001 0.67800003
-0.03422286 0.013560001 0.67800003
-0.032980002 0.013580001 0.67900002
-0.031686667 0.013580001 0.67900002
-0.062157147 0.015048573 0.68700004
-0.060582861 0.014982858 0.68400002
-0.059193335 0.014960953 0.68300003
-0.057807624 0.014939048 0.68200004
-0.056260005 0.014873334 0.67900002
-0.054723814 0.01480762 0.67600006
-0.053436194 0.01480762 0.67600006
-0.052071434 0.014785715 0.67500001
-0.050710481 0.014763811 0.67400002
-0.049426671 0.014763811 0.67400002
-0.048142862 0.014763811 0.67400002
-0.046720002 0.014720001 0.67200005
-0.045575242 0.014763811 0.67400002
-0.044291433 0.014763811 0.67400002
-0.043007623 0.014763811 0.67400002
-0.041723814 0.014763811 0.67400002
-0.040440004 0.014763811 0.67400002
-0.039156195 0.014763811 0.67400002
-0.037928574 0.014785715 0.67500001
-0.036697146 0.01480762 0.67600006
-0.035514288 0.014851429 0.67800003
-0.034273334 0.014873334 0.67900002
-0.033028573 0.014895239 0.68000001
-0.031733334 0.014895239 0.68000001
-0.065057144 0.016428573 0.69000006
-0.063742861 0.016428573 0.69000006
-0.062338099 0.016404763 0.68900001
-0.060760003 0.016333334 0.68600005
-0.059193335 0.016261905 0.68300003
-0.057807624 0.016238097 0.68200004
-0.056260005 0.016166668 0.67900002
-0.054885719 0.016142858 0.67800003
-0.053436194 0.01609524 0.67600006
-0.052071434 0.016071429 0.67500001
-0.050710481 0.016047619 0.67400002
-0.049426671 0.016047619 0.67400002
-0.048142862 0.016047619 0.67400002
-0.046720002 0.016000001 0.67200005
-0.045575242 0.016047619 0.67400002
-0.044291433 0.016047619 0.67400002
-0.043007623 0.016047619 0.67400002
-0.041723814 0.016047619 0.67400002
-0.040440004 0.016047619 0.67400002
-0.039214287 0.016071429 0.67500001
-0.037928574 0.016071429 0.67500001
-0.036697146 0.01609524 0.67600006
-0.035566669 0.016166668 0.67900002
-0.034273334 0.016166668 0.67900002
-0.033028573 0.016190477 0.68000001
-0.031733334 0.016190477 0.68000001
-0.065057144 0.017742859 0.69000006
-0.063742861 0.017742859 0.69000006
-0.062338099 0.017717144 0.68900001
-0.060848575 0.017665716 0.68700004
-0.059453338 0.017640002 0.68600005
-0.057892386 0.017562859 0.68300003
-0.056342863 0.017485715 0.68000001
-0.054885719 0.017434286 0.67800003
-0.053436194 0.017382858 0.67600006
-0.052148573 0.017382858 0.67600006
-0.050785717 0.017357145 0.67500001
-0.049426671 0.017331429 0.67400002
-0.048142862 0.017331429 0.67400002
-0.046859052 0.017331429 0.67400002
-0.045575242 0.017331429 0.67400002
-0.044291433 0.017331429 0.67400002
-0.043007623 0.017331429 0.67400002
-0.041723814 0.017331429 0.67400002
-0.040500004 0.017357145 0.67500001
-0.039214287 0.017357145 0.67500001
-0.037984766 0.017382858 0.67600006
-0.036805715 0.017434286 0.67800003
-0.035566669 0.017460002 0.67900002
-0.034323812 0.017485715 0.68000001
-0.033028573 0.017485715 0.68000001
-0.031733334 0.017485715 0.68000001
-0.06646762 0.019084763 0.69100004
-0.065151431 0.019084763 0.69100004
-0.063742861 0.019057143 0.69000006
-0.062428575 0.019057143 0.69000006
-0.06102572 0.019029524 0.68900001
-0.059540004 0.018974287 0.68700004
-0.057977147 0.01889143 0.68400002
-0.056508575 0.018836191 0.68200004
-0.05496667 0.018753335 0.67900002
-0.053594287 0.018725716 0.67800003
-0.052148573 0.018670477 0.67600006
-0.050785717 0.018642858 0.67500001
-0.049500003 0.018642858 0.67500001
-0.048142862 0.01861524 0.67400002
-0.046859052 0.01861524 0.67400002
-0.045575242 0.01861524 0.67400002
-0.044291433 0.01861524 0.67400002
-0.04307143 0.018642858 0.67500001
-0.041785717 0.018642858 0.67500001
-0.040500004 0.018642858 0.67500001
-0.039272383 0.018670477 0.67600006
-0.037984766 0.018670477 0.67600006
-0.036805715 0.018725716 0.67800003
-0.035566669 0.018753335 0.67900002
-0.034323812 0.018780954 0.68000001
-0.033028573 0.018780954 0.68000001
-0.031733334 0.018780954 0.68000001
-0.065057144 0.02037143 0.69000006
-0.063742861 0.02037143 0.69000006
-0.062338099 0.020341907 0.68900001
-0.060848575 0.020282859 0.68700004
-0.059540004 0.020282859 0.68700004
-0.057977147 0.020194286 0.68400002
-0.056591433 0.020164764 0.68300003
-0.055209529 0.020135239 0.68200004
-0.053673338 0.020046668 0.67900002
-0.05230286 0.020017143 0.67800003
-0.050785717 0.019928573 0.67500001
-0.049500003 0.019928573 0.67500001
-0.04821429 0.019928573 0.67500001
-0.046928573 0.019928573 0.67500001
-0.04564286 0.019928573 0.67500001
-0.044357147 0.019928573 0.67500001
-0.04307143 0.019928573 0.67500001
-0.041785717 0.019928573 0.67500001
-0.040560003 0.019958096 0.67600006
-0.039272383 0.019958096 0.67600006
-0.038097147 0.020017143 0.67800003
-0.036860004 0.020046668 0.67900002
-0.03561905 0.020076191 0.68000001
-0.034424763 0.020135239 0.68200004
-0.033125717 0.020135239 0.68200004
-0.031826667 0.020135239 0.68200004
-0.030527622 0.020135239 0.68200004
-0.062428575 0.021685716 0.69000006
-0.060848575 0.021591431 0.68700004
-0.059540004 0.021591431 0.68700004
-0.057977147 0.021497143 0.68400002
-0.05667429 0.021497143 0.68400002
-0.055290479 0.021465715 0.68300003
-0.053910479 0.021434287 0.68200004
-0.052457146 0.02137143 0.68000001
-0.051086672 0.021340001 0.67900002
-0.049720004 0.021308573 0.67800003
-0.048285719 0.021245716 0.67600006
-0.046998098 0.021245716 0.67600006
-0.045710478 0.021245716 0.67600006
-0.044422861 0.021245716 0.67600006
-0.043262862 0.021308573 0.67800003
-0.04197143 0.021308573 0.67800003
-0.040740002 0.021340001 0.67900002
-0.039446671 0.021340001 0.67900002
-0.038209528 0.02137143 0.68000001
-0.036914289 0.02137143 0.68000001
-0.035723813 0.021434287 0.68200004
-0.034424763 0.021434287 0.68200004
-0.033174288 0.021465715 0.68300003
-0.031873334 0.021465715 0.68300003
-0.061114289 0.023000002 0.69000006
-0.059540004 0.022900002 0.68700004
-0.05814667 0.022866668 0.68600005
-0.05667429 0.022800002 0.68400002
-0.055290479 0.022766668 0.68300003
-0.053910479 0.022733334 0.68200004
-0.052457146 0.022666669 0.68000001
-0.051086672 0.022633335 0.67900002
-0.049720004 0.022600001 0.67800003
-0.048428576 0.022600001 0.67800003
-0.046998098 0.022533335 0.67600006
-0.045845717 0.022600001 0.67800003
-0.044554289 0.022600001 0.67800003
-0.043326668 0.022633335 0.67900002
-0.042033337 0.022633335 0.67900002
-0.040800001 0.022666669 0.68000001
-0.039504763 0.022666669 0.68000001
-0.038209528 0.022666669 0.68000001
-0.037022859 0.022733334 0.68200004
-0.035776194 0.022766668 0.68300003
-0.034475241 0.022766668 0.68300003
-0.033222858 0.022800002 0.68400002
-0.031920001 0.022800002 0.68400002
-0.030617144 0.022800002 0.68400002
-0.061114289 0.024314288 0.69000006
-0.059713338 0.024279049 0.68900001
-0.058231432 0.024208574 0.68700004
-0.056840003 0.024173334 0.68600005
-0.055371433 0.024102859 0.68400002
-0.053989526 0.02406762 0.68300003
-0.052611433 0.024032382 0.68200004
-0.051161908 0.023961907 0.68000001
-0.049793337 0.023926668 0.67900002
-0.048500001 0.023926668 0.67900002
-0.047137145 0.02389143 0.67800003
-0.045913335 0.023926668 0.67900002
-0.044620004 0.023926668 0.67900002
-0.043390479 0.023961907 0.68000001
-0.04209524 0.023961907 0.68000001
-0.040800001 0.023961907 0.68000001
-0.039620955 0.024032382 0.68200004
-0.038321909 0.024032382 0.68200004
-0.037022859 0.024032382 0.68200004
-0.035776194 0.02406762 0.68300003
-0.034475241 0.02406762 0.68300003
-0.033222858 0.024102859 0.68400002
-0.032013334 0.024173334 0.68600005
-0.030706668 0.024173334 0.68600005
-0.061114289 0.025628572 0.69000006
-0.059713338 0.025591429 0.68900001
-0.058231432 0.025517145 0.68700004
-0.056840003 0.025480002 0.68600005
-0.055533338 0.025480002 0.68600005
-0.054068577 0.025405716 0.68400002
-0.052688576 0.025368573 0.68300003
-0.051312383 0.02533143 0.68200004
-0.049866669 0.025257144 0.68000001
-0.04857143 0.025257144 0.68000001
-0.047276195 0.025257144 0.68000001
-0.045980956 0.025257144 0.68000001
-0.044685718 0.025257144 0.68000001
-0.043390479 0.025257144 0.68000001
-0.04221905 0.02533143 0.68200004
-0.040920004 0.02533143 0.68200004
-0.039620955 0.02533143 0.68200004
-0.038321909 0.02533143 0.68200004
-0.037077144 0.025368573 0.68300003
-0.035828575 0.025405716 0.68400002
-0.034525715 0.025405716 0.68400002
-0.033320002 0.025480002 0.68600005
-0.032013334 0.025480002 0.68600005
-0.030840954 0.025591429 0.68900001
-0.067814291 0.027528573 0.70500004
-0.066282861 0.027450478 0.70300001
-0.064943813 0.027450478 0.70300001
-0.063604765 0.027450478 0.70300001
-0.06102572 0.026903812 0.68900001
-0.059713338 0.026903812 0.68900001
-0.058231432 0.026825717 0.68700004
-0.05692286 0.026825717 0.68700004
-0.055533338 0.026786668 0.68600005
-0.054068577 0.026708573 0.68400002
-0.05276572 0.026708573 0.68400002
-0.051387623 0.026669526 0.68300003
-0.050013337 0.026630478 0.68200004
-0.04857143 0.026552383 0.68000001
-0.047276195 0.026552383 0.68000001
-0.046116192 0.026630478 0.68200004
-0.044817146 0.026630478 0.68200004
-0.0435181 0.026630478 0.68200004
-0.042280953 0.026669526 0.68300003
-0.040980004 0.026669526 0.68300003
-0.03967905 0.026669526 0.68300003
-0.038378097 0.026669526 0.68300003
-0.037131432 0.026708573 0.68400002
-0.035933334 0.026786668 0.68600005
-0.03462667 0.026786668 0.68600005
-0.033368573 0.026825717 0.68700004
-0.032060001 0.026825717 0.68700004
-0.030840954 0.026903812 0.68900001
-0.067718096 0.028830478 0.70400006
-0.066282861 0.028789526 0.70300001
-0.064943813 0.028789526 0.70300001
-0.063604765 0.028789526 0.70300001
-0.06226572 0.028789526 0.70300001
-0.059800003 0.028257145 0.69000006
-0.058231432 0.028134288 0.68700004
-0.05692286 0.028134288 0.68700004
-0.055533338 0.028093334 0.68600005
-0.05422667 0.028093334 0.68600005
-0.05276572 0.02801143 0.68400002
-0.051387623 0.027970478 0.68300003
-0.05008667 0.027970478 0.68300003
-0.048714288 0.027929526 0.68200004
-0.047415242 0.027929526 0.68200004
-0.046116192 0.027929526 0.68200004
-0.04488286 0.027970478 0.68300003
-0.043581907 0.027970478 0.68300003
-0.042280953 0.027970478 0.68300003
-0.040980004 0.027970478 0.68300003
-0.039737146 0.02801143 0.68400002
-0.038434289 0.02801143 0.68400002
-0.037131432 0.02801143 0.68400002
-0.035933334 0.028093334 0.68600005
-0.03462667 0.028093334 0.68600005
-0.033465717 0.028216192 0.68900001
-0.032153334 0.028216192 0.68900001
-0.030885717 0.028257145 0.69000006
-0.067621909 0.030128574 0.70300001
-0.066094287 0.030042859 0.70100003
-0.064759053 0.030042859 0.70100003
-0.063423812 0.030042859 0.70100003
-0.062088575 0.030042859 0.70100003
-0.059886672 0.029614288 0.69100004
-0.058485717 0.029571431 0.69000006
-0.057088576 0.029528573 0.68900001
-0.055614289 0.02944286 0.68700004
-0.05422667 0.029400002 0.68600005
-0.05276572 0.029314287 0.68400002
-0.051387623 0.029271431 0.68300003
-0.05008667 0.029271431 0.68300003
-0.048785716 0.029271431 0.68300003
-0.047484767 0.029271431 0.68300003
-0.046183813 0.029271431 0.68300003
-0.04488286 0.029271431 0.68300003
-0.043581907 0.029271431 0.68300003
-0.04234286 0.029314287 0.68400002
-0.041040003 0.029314287 0.68400002
-0.039737146 0.029314287 0.68400002
-0.038434289 0.029314287 0.68400002
-0.037131432 0.029314287 0.68400002
-0.035933334 0.029400002 0.68600005
-0.034677144 0.02944286 0.68700004
-0.033465717 0.029528573 0.68900001
-0.032200001 0.029571431 0.69000006
-0.030930478 0.029614288 0.69100004
-0.067621909 0.03146762 0.70300001
-0.066094287 0.031378098 0.70100003
-0.064759053 0.031378098 0.70100003
-0.063423812 0.031378098 0.70100003
-0.061822861 0.031243812 0.69800001
-0.060493339 0.031243812 0.69800001
-0.058740005 0.031020002 0.69300002
-0.057254288 0.030930478 0.69100004
-0.055776194 0.030840954 0.68900001
-0.05422667 0.030706668 0.68600005
-0.052920002 0.030706668 0.68600005
-0.051462859 0.030617144 0.68400002
-0.050160002 0.030617144 0.68400002
-0.048785716 0.030572383 0.68300003
-0.047484767 0.030572383 0.68300003
-0.046251431 0.030617144 0.68400002
-0.044948574 0.030617144 0.68400002
-0.043645717 0.030617144 0.68400002
-0.04234286 0.030617144 0.68400002
-0.041040003 0.030617144 0.68400002
-0.039737146 0.030617144 0.68400002
-0.03854667 0.030706668 0.68600005
-0.037240002 0.030706668 0.68600005
-0.035985716 0.030751431 0.68700004
-0.034778096 0.030840954 0.68900001
-0.033514287 0.030885717 0.69000006
-0.032200001 0.030885717 0.69000006
-0.031020002 0.031020002 0.69300002
-0.067140959 0.032573335 0.69800001
-0.065717146 0.032526668 0.69700003
-0.064389527 0.032526668 0.69700003
-0.063061908 0.032526668 0.69700003
-0.061734289 0.032526668 0.69700003
-0.060233336 0.032433335 0.69500005
-0.058740005 0.032340001 0.69300002
-0.057420004 0.032340001 0.69300002
-0.055857148 0.032200001 0.69000006
-0.054305717 0.032060001 0.68700004
-0.052997146 0.032060001 0.68700004
-0.051613338 0.032013334 0.68600005
-0.05030667 0.032013334 0.68600005
-0.048857145 0.031920001 0.68400002
-0.047554288 0.031920001 0.68400002
-0.046251431 0.031920001 0.68400002
-0.044948574 0.031920001 0.68400002
-0.043645717 0.031920001 0.68400002
-0.04246667 0.032013334 0.68600005
-0.041160002 0.032013334 0.68600005
-0.039853334 0.032013334 0.68600005
-0.03854667 0.032013334 0.68600005
-0.037294287 0.032060001 0.68700004
-0.036090478 0.032153334 0.68900001
-0.034828573 0.032200001 0.69000006
-0.033514287 0.032200001 0.69000006
-0.032246668 0.032246668 0.69100004
-0.031020002 0.032340001 0.69300002
-0.067140959 0.033902861 0.69800001
-0.065717146 0.033854287 0.69700003
-0.064389527 0.033854287 0.69700003
-0.063061908 0.033854287 0.69700003
-0.061734289 0.033854287 0.69700003
-0.060233336 0.033757146 0.69500005
-0.058740005 0.033660002 0.69300002
-0.057420004 0.033660002 0.69300002
-0.055857148 0.033514287 0.69000006
-0.054305717 0.033368573 0.68700004
-0.052997146 0.033368573 0.68700004
-0.051613338 0.033320002 0.68600005
-0.05030667 0.033320002 0.68600005
-0.048857145 0.033222858 0.68400002
-0.047554288 0.033222858 0.68400002
-0.046251431 0.033222858 0.68400002
-0.045080002 0.033320002 0.68600005
-0.043773334 0.033320002 0.68600005
-0.04246667 0.033320002 0.68600005
-0.041160002 0.033320002 0.68600005
-0.039853334 0.033320002 0.68600005
-0.038602859 0.033368573 0.68700004
-0.037402861 0.033465717 0.68900001
-0.03614286 0.033514287 0.69000006
-0.034828573 0.033514287 0.69000006
-0.033562858 0.033562858 0.69100004
-0.032246668 0.033562858 0.69100004
-0.031064764 0.033708572 0.69400001
-0.029785717 0.033757146 0.69500005
-0.063152388 0.035232384 0.69800001
-0.061822861 0.035232384 0.69800001
-0.06040667 0.035181906 0.69700003
-0.058909528 0.035080954 0.69500005
-0.057502862 0.035030477 0.69400001
-0.055938099 0.034879051 0.69100004
-0.054542862 0.034828573 0.69000006
-0.053151432 0.034778096 0.68900001
-0.05183905 0.034778096 0.68900001
-0.050380003 0.034677144 0.68700004
-0.049000002 0.03462667 0.68600005
-0.047693338 0.03462667 0.68600005
-0.04638667 0.03462667 0.68600005
-0.045080002 0.03462667 0.68600005
-0.043773334 0.03462667 0.68600005
-0.042528573 0.034677144 0.68700004
-0.041220002 0.034677144 0.68700004
-0.040027622 0.034778096 0.68900001
-0.03871524 0.034778096 0.68900001
-0.037457146 0.034828573 0.69000006
-0.036195241 0.034879051 0.69100004
-0.034879051 0.034879051 0.69100004
-0.033660002 0.034980003 0.69300002
-0.032386668 0.035030477 0.69400001
-0.031109527 0.035080954 0.69500005
-0.02987143 0.035181906 0.69700003
-0.061822861 0.036561906 0.69800001
-0.06040667 0.036509525 0.69700003
-0.058909528 0.036404766 0.69500005
-0.057502862 0.036352385 0.69400001
-0.056100003 0.036300004 0.69300002
-0.054621909 0.036195241 0.69100004
-0.053228576 0.03614286 0.69000006
-0.05183905 0.036090478 0.68900001
-0.050380003 0.035985716 0.68700004
-0.049071431 0.035985716 0.68700004
-0.047693338 0.035933334 0.68600005
-0.04638667 0.035933334 0.68600005
-0.045145717 0.035985716 0.68700004
-0.043837145 0.035985716 0.68700004
-0.042528573 0.035985716 0.68700004
-0.041340001 0.036090478 0.68900001
-0.040027622 0.036090478 0.68900001
-0.038771432 0.03614286 0.69000006
-0.037457146 0.03614286 0.69000006
-0.036195241 0.036195241 0.69100004
-0.034980003 0.036300004 0.69300002
-0.033708572 0.036352385 0.69400001
-0.032433335 0.036404766 0.69500005
-0.031109527 0.036404766 0.69500005
-0.02987143 0.036509525 0.69700003
-0.028584763 0.036561906 0.69800001
-0.061734289 0.037837144 0.69700003
-0.06040667 0.037837144 0.69700003
-0.058909528 0.037728574 0.69500005
-0.057502862 0.037674289 0.69400001
-0.056100003 0.037620004 0.69300002
-0.054621909 0.037511431 0.69100004
-0.053228576 0.037457146 0.69000006
-0.05191429 0.037457146 0.69000006
-0.050526671 0.037402861 0.68900001
-0.049071431 0.037294287 0.68700004
-0.047693338 0.037240002 0.68600005
-0.046454288 0.037294287 0.68700004
-0.045145717 0.037294287 0.68700004
-0.043837145 0.037294287 0.68700004
-0.042652383 0.037402861 0.68900001
-0.041400004 0.037457146 0.69000006
-0.040085718 0.037457146 0.69000006
-0.03882762 0.037511431 0.69100004
-0.037511431 0.037511431 0.69100004
-0.036300004 0.037620004 0.69300002
-0.035030477 0.037674289 0.69400001
-0.033708572 0.037674289 0.69400001
-0.032433335 0.037728574 0.69500005
-0.031109527 0.037728574 0.69500005
-0.02987143 0.037837144 0.69700003
-0.064943813 0.039501909 0.70300001
-0.063604765 0.039501909 0.70300001
-0.062000003 0.039333336 0.70000005
-0.060493339 0.039220955 0.69800001
-0.059079051 0.039164763 0.69700003
-0.057585716 0.039052382 0.69500005
-0.056180958 0.038996194 0.69400001
-0.054780003 0.038940001 0.69300002
-0.053305719 0.03882762 0.69100004
-0.05191429 0.038771432 0.69000006
-0.050526671 0.03871524 0.68900001
-0.049071431 0.038602859 0.68700004
-0.04776286 0.038602859 0.68700004
-0.046454288 0.038602859 0.68700004
-0.045145717 0.038602859 0.68700004
-0.043964766 0.03871524 0.68900001
-0.042652383 0.03871524 0.68900001
-0.041400004 0.038771432 0.69000006
-0.040143814 0.03882762 0.69100004
-0.038940001 0.038940001 0.69300002
-0.037620004 0.038940001 0.69300002
-0.036352385 0.038996194 0.69400001
-0.035080954 0.039052382 0.69500005
-0.033757146 0.039052382 0.69500005
-0.032526668 0.039164763 0.69700003
-0.031199049 0.039164763 0.69700003
-0.02987143 0.039164763 0.69700003
-0.028584763 0.039220955 0.69800001
-0.027450478 0.039501909 0.70300001
-0.064943813 0.040840954 0.70300001
-0.063604765 0.040840954 0.70300001
-0.062000003 0.04066667 0.70000005
-0.060493339 0.040550478 0.69800001
-0.059079051 0.040492382 0.69700003
-0.057585716 0.040376194 0.69500005
-0.056180958 0.040318098 0.69400001
-0.054780003 0.040260002 0.69300002
-0.053305719 0.040143814 0.69100004
-0.05191429 0.040085718 0.69000006
-0.050600003 0.040085718 0.69000006
-0.049214289 0.040027622 0.68900001
-0.04776286 0.03991143 0.68700004
-0.046454288 0.03991143 0.68700004
-0.045277145 0.040027622 0.68900001
-0.044028573 0.040085718 0.69000006
-0.04271429 0.040085718 0.69000006
-0.041460004 0.040143814 0.69100004
-0.040260002 0.040260002 0.69300002
-0.038940001 0.040260002 0.69300002
-0.037674289 0.040318098 0.69400001
-0.036352385 0.040318098 0.69400001
-0.035080954 0.040376194 0.69500005
-0.033854287 0.040492382 0.69700003
-0.032526668 0.040492382 0.69700003
-0.031199049 0.040492382 0.69700003
-0.029914288 0.040550478 0.69800001
-0.028584763 0.040550478 0.69800001
-0.027450478 0.040840954 0.70300001
-0.062000003 0.042000003 0.70000005
-0.060493339 0.041880004 0.69800001
-0.059079051 0.041820005 0.69700003
-0.057585716 0.041700002 0.69500005
-0.056180958 0.041640002 0.69400001
-0.054780003 0.041580003 0.69300002
-0.053305719 0.041460004 0.69100004
-0.051989526 0.041460004 0.69100004
-0.050600003 0.041400004 0.69000006
-0.049214289 0.041340001 0.68900001
-0.047901906 0.041340001 0.68900001
-0.046589527 0.041340001 0.68900001
-0.045342859 0.041400004 0.69000006
-0.044028573 0.041400004 0.69000006
-0.04271429 0.041400004 0.69000006
-0.041580003 0.041580003 0.69300002
-0.040318098 0.041640002 0.69400001
-0.038996194 0.041640002 0.69400001
-0.037728574 0.041700002 0.69500005
-0.036404766 0.041700002 0.69500005
-0.035181906 0.041820005 0.69700003
-0.033854287 0.041820005 0.69700003
-0.032526668 0.041820005 0.69700003
-0.031199049 0.041820005 0.69700003
-0.029914288 0.041880004 0.69800001
-0.028707622 0.042060003 0.70100003
-0.027450478 0.042180002 0.70300001
-0.062088575 0.04339524 0.70100003
-0.060666669 0.043333337 0.70000005
-0.059163813 0.043209527 0.69800001
-0.057751432 0.043147624 0.69700003
-0.056261908 0.043023814 0.69500005
-0.05485905 0.042961907 0.69400001
-0.053460002 0.042900003 0.69300002
-0.051989526 0.042776193 0.69100004
-0.050673336 0.042776193 0.69100004
-0.049285717 0.04271429 0.69000006
-0.047971431 0.04271429 0.69000006
-0.046657145 0.04271429 0.69000006
-0.045342859 0.04271429 0.69000006
-0.044092383 0.042776193 0.69100004
-0.042776193 0.042776193 0.69100004
-0.041580003 0.042900003 0.69300002
-0.040318098 0.042961907 0.69400001
-0.038996194 0.042961907 0.69400001
-0.037728574 0.043023814 0.69500005
-0.036404766 0.043023814 0.69500005
-0.035181906 0.043147624 0.69700003
-0.033854287 0.043147624 0.69700003
-0.032526668 0.043147624 0.69700003
-0.031199049 0.043147624 0.69700003
-0.029914288 0.043209527 0.69800001
-0.028666668 0.043333337 0.70000005
-0.027450478 0.04351905 0.70300001
-0.065682858 0.045368575 0.71100003
-0.064057149 0.045177147 0.708
-0.06226572 0.044858098 0.70300001
-0.060666669 0.04466667 0.70000005
-0.059163813 0.044539049 0.69800001
-0.057751432 0.044475242 0.69700003
-0.056261908 0.044347622 0.69500005
-0.05485905 0.044283811 0.69400001
-0.053460002 0.044220004 0.69300002
-0.052140005 0.044220004 0.69300002
-0.050673336 0.044092383 0.69100004
-0.049357146 0.044092383 0.69100004
-0.047971431 0.044028573 0.69000006
-0.046657145 0.044028573 0.69000006
-0.045408573 0.044092383 0.69100004
-0.044092383 0.044092383 0.69100004
-0.042900003 0.044220004 0.69300002
-0.041640002 0.044283811 0.69400001
-0.040376194 0.044347622 0.69500005
-0.039052382 0.044347622 0.69500005
-0.037728574 0.044347622 0.69500005
-0.036404766 0.044347622 0.69500005
-0.035181906 0.044475242 0.69700003
-0.033854287 0.044475242 0.69700003
-0.032526668 0.044475242 0.69700003
-0.031243812 0.044539049 0.69800001
-0.030000001 0.04466667 0.70000005
-0.028666668 0.04466667 0.70000005
-0.063695244 0.04626286 0.70400006
-0.06226572 0.046197146 0.70300001
-0.060666669 0.046000004 0.70000005
-0.059163813 0.045868576 0.69800001
-0.05783429 0.045868576 0.69800001
-0.056261908 0.045671433 0.69500005
-0.0549381 0.045671433 0.69500005
-0.053537145 0.045605719 0.69400001
-0.052215241 0.045605719 0.69400001
-0.050820004 0.045540001 0.69300002
-0.049500003 0.045540001 0.69300002
-0.048040956 0.045408573 0.69100004
-0.046724766 0.045408573 0.69100004
-0.045540001 0.045540001 0.69300002
-0.044220004 0.045540001 0.69300002
-0.042961907 0.045605719 0.69400001
-0.041700002 0.045671433 0.69500005
-0.040376194 0.045671433 0.69500005
-0.039052382 0.045671433 0.69500005
-0.037728574 0.045671433 0.69500005
-0.036509525 0.045802861 0.69700003
-0.035181906 0.045802861 0.69700003
-0.033854287 0.045802861 0.69700003
-0.032573335 0.045868576 0.69800001
-0.031243812 0.045868576 0.69800001
-0.030000001 0.046000004 0.70000005
-0.028707622 0.046065718 0.70100003
-0.063785717 0.047671434 0.70500004
-0.06226572 0.047536194 0.70300001
-0.060753338 0.047400955 0.70100003
-0.059333336 0.047333337 0.70000005
-0.058000002 0.047333337 0.70000005
-0.056423813 0.04713048 0.69700003
-0.055096194 0.04713048 0.69700003
-0.053614289 0.046995241 0.69500005
-0.052290481 0.046995241 0.69500005
-0.050893337 0.046927623 0.69400001
-0.049500003 0.046860002 0.69300002
-0.048180003 0.046860002 0.69300002
-0.046860002 0.046860002 0.69300002
-0.045540001 0.046860002 0.69300002
-0.044220004 0.046860002 0.69300002
-0.042961907 0.046927623 0.69400001
-0.041700002 0.046995241 0.69500005
-0.040376194 0.046995241 0.69500005
-0.039052382 0.046995241 0.69500005
-0.037728574 0.046995241 0.69500005
-0.036509525 0.04713048 0.69700003
-0.035181906 0.04713048 0.69700003
-0.033902861 0.047198098 0.69800001
-0.032573335 0.047198098 0.69800001
-0.031243812 0.047198098 0.69800001
-0.030000001 0.047333337 0.70000005
-0.028707622 0.047400955 0.70100003
-0.065128572 0.049014289 0.70500004
-0.063785717 0.049014289 0.70500004
-0.06226572 0.048875242 0.70300001
-0.060926672 0.048875242 0.70300001
-0.059418101 0.048736192 0.70100003
-0.058000002 0.048666671 0.70000005
-0.056504767 0.048527621 0.69800001
-0.055096194 0.048458099 0.69700003
-0.053614289 0.048319049 0.69500005
-0.052290481 0.048319049 0.69500005
-0.050966669 0.048319049 0.69500005
-0.049571432 0.048249528 0.69400001
-0.048249528 0.048249528 0.69400001
-0.046860002 0.048180003 0.69300002
-0.045605719 0.048249528 0.69400001
-0.044283811 0.048249528 0.69400001
-0.042961907 0.048249528 0.69400001
-0.041700002 0.048319049 0.69500005
-0.040376194 0.048319049 0.69500005
