# .PCD v0.7 - Point Cloud Data file format
VERSION 0.7
FIELDS x y z
SIZE 4 4 4
TYPE F F F
COUNT 1 1 1
WIDTH 1302
HEIGHT 1
VIEWPOINT 0 0 0 1 0 0 0
POINTS 1302
DATA ascii
-0.02561524 -0.031862859 0.65600002
-0.024365716 -0.031862859 0.65600002
-0.023116192 -0.031862859 0.65600002
-0.021866668 -0.031862859 0.65600002
-0.020617144 -0.031862859 0.65600002
-0.019338097 -0.031814288 0.65500003
-0.018035239 -0.031717144 0.65300006
-0.016791429 -0.031717144 0.65300006
-0.015523811 -0.031668574 0.65200001
-0.014281905 -0.031668574 0.65200001
-0.013040001 -0.031668574 0.65200001
-0.066900007 -0.031220002 0.66900003
-0.065429531 -0.031126669 0.66700006
-0.064159051 -0.031126669 0.66700006
-0.062888578 -0.031126669 0.66700006
-0.061618101 -0.031126669 0.66700006
-0.060257148 -0.031080002 0.66600001
-0.058988575 -0.031080002 0.66600001
-0.057720006 -0.031080002 0.66600001
-0.056366671 -0.031033335 0.66500002
-0.055100005 -0.031033335 0.66500002
-0.053671431 -0.030940002 0.66300005
-0.052408576 -0.030940002 0.66300005
-0.051145718 -0.030940002 0.66300005
-0.049882859 -0.030940002 0.66300005
-0.048620004 -0.030940002 0.66300005
-0.047285717 -0.030893335 0.66200006
-0.046024766 -0.030893335 0.66200006
-0.044763811 -0.030893335 0.66200006
-0.04350286 -0.030893335 0.66200006
-0.042178098 -0.030846668 0.66100001
-0.040857144 -0.030800002 0.66000003
-0.039600004 -0.030800002 0.66000003
-0.03834286 -0.030800002 0.66000003
-0.037085716 -0.030800002 0.66000003
-0.035720002 -0.030706668 0.65800005
-0.034571432 -0.030800002 0.66000003
-0.033213336 -0.030706668 0.65800005
-0.031960003 -0.030706668 0.65800005
-0.030660002 -0.030660002 0.65700001
-0.029408574 -0.030660002 0.65700001
-0.028157145 -0.030660002 0.65700001
-0.026905715 -0.030660002 0.65700001
-0.025654288 -0.030660002 0.65700001
-0.024402859 -0.030660002 0.65700001
-0.023151429 -0.030660002 0.65700001
-0.021900002 -0.030660002 0.65700001
-0.020648573 -0.030660002 0.65700001
-0.019397143 -0.030660002 0.65700001
-0.018090477 -0.030566668 0.65500003
-0.016791429 -0.030473335 0.65300006
-0.01554762 -0.030473335 0.65300006
-0.014281905 -0.030426668 0.65200001
-0.067000002 -0.029990477 0.67000002
-0.06562572 -0.029945716 0.66900003
-0.064159051 -0.029856192 0.66700006
-0.062888578 -0.029856192 0.66700006
-0.061618101 -0.029856192 0.66700006
-0.060347624 -0.029856192 0.66700006
-0.059077147 -0.029856192 0.66700006
-0.057720006 -0.029811431 0.66600001
-0.056366671 -0.029766669 0.66500002
-0.055100005 -0.029766669 0.66500002
-0.053833336 -0.029766669 0.66500002
-0.052408576 -0.029677145 0.66300005
-0.051145718 -0.029677145 0.66300005
-0.049882859 -0.029677145 0.66300005
-0.048620004 -0.029677145 0.66300005
-0.047357146 -0.029677145 0.66300005
-0.046024766 -0.029632382 0.66200006
-0.044763811 -0.029632382 0.66200006
-0.04350286 -0.029632382 0.66200006
-0.042178098 -0.029587621 0.66100001
-0.040919051 -0.029587621 0.66100001
-0.039600004 -0.02954286 0.66000003
-0.03834286 -0.02954286 0.66000003
-0.037085716 -0.02954286 0.66000003
-0.035828575 -0.02954286 0.66000003
-0.034571432 -0.02954286 0.66000003
-0.033213336 -0.029453335 0.65800005
-0.031960003 -0.029453335 0.65800005
-0.030706668 -0.029453335 0.65800005
-0.029453335 -0.029453335 0.65800005
-0.028200002 -0.029453335 0.65800005
-0.026905715 -0.029408574 0.65700001
-0.025654288 -0.029408574 0.65700001
-0.024402859 -0.029408574 0.65700001
-0.023151429 -0.029408574 0.65700001
-0.021900002 -0.029408574 0.65700001
-0.020648573 -0.029408574 0.65700001
-0.019397143 -0.029408574 0.65700001
-0.018145716 -0.029408574 0.65700001
-0.016842859 -0.02931905 0.65500003
-0.01554762 -0.029229525 0.65300006
-0.014303811 -0.029229525 0.65300006
-0.06562572 -0.02867143 0.66900003
-0.064159051 -0.028585717 0.66700006
-0.062888578 -0.028585717 0.66700006
-0.061618101 -0.028585717 0.66700006
-0.060347624 -0.028585717 0.66700006
-0.059077147 -0.028585717 0.66700006
-0.057806671 -0.028585717 0.66700006
-0.056451432 -0.028542859 0.66600001
-0.055182859 -0.028542859 0.66600001
-0.053833336 -0.028500002 0.66500002
-0.052408576 -0.028414287 0.66300005
-0.051145718 -0.028414287 0.66300005
-0.049882859 -0.028414287 0.66300005
-0.048620004 -0.028414287 0.66300005
-0.047357146 -0.028414287 0.66300005
-0.046024766 -0.028371431 0.66200006
-0.044763811 -0.028371431 0.66200006
-0.04350286 -0.028371431 0.66200006
-0.042178098 -0.028328573 0.66100001
-0.040919051 -0.028328573 0.66100001
-0.039660003 -0.028328573 0.66100001
-0.038400955 -0.028328573 0.66100001
-0.037085716 -0.028285716 0.66000003
-0.035828575 -0.028285716 0.66000003
-0.034571432 -0.028285716 0.66000003
-0.033314288 -0.028285716 0.66000003
-0.032057144 -0.028285716 0.66000003
-0.030706668 -0.028200002 0.65800005
-0.029453335 -0.028200002 0.65800005
-0.028200002 -0.028200002 0.65800005
-0.026946668 -0.028200002 0.65800005
-0.025693335 -0.028200002 0.65800005
-0.024402859 -0.028157145 0.65700001
-0.023151429 -0.028157145 0.65700001
-0.021900002 -0.028157145 0.65700001
-0.020648573 -0.028157145 0.65700001
-0.019397143 -0.028157145 0.65700001
-0.018145716 -0.028157145 0.65700001
-0.016894286 -0.028157145 0.65700001
-0.015595239 -0.02807143 0.65500003
-0.06562572 -0.027397145 0.66900003
-0.064351432 -0.027397145 0.66900003
-0.063077144 -0.027397145 0.66900003
-0.06180286 -0.027397145 0.66900003
-0.060347624 -0.02731524 0.66700006
-0.059077147 -0.02731524 0.66700006
-0.057806671 -0.02731524 0.66700006
-0.056536194 -0.02731524 0.66700006
-0.055182859 -0.027274288 0.66600001
-0.053833336 -0.027233334 0.66500002
-0.05256667 -0.027233334 0.66500002
-0.051145718 -0.02715143 0.66300005
-0.049882859 -0.02715143 0.66300005
-0.048620004 -0.02715143 0.66300005
-0.047357146 -0.02715143 0.66300005
-0.046094287 -0.02715143 0.66300005
-0.044763811 -0.027110478 0.66200006
-0.04350286 -0.027110478 0.66200006
-0.042178098 -0.027069526 0.66100001
-0.040919051 -0.027069526 0.66100001
-0.039660003 -0.027069526 0.66100001
-0.038400955 -0.027069526 0.66100001
-0.037141908 -0.027069526 0.66100001
-0.035828575 -0.027028574 0.66000003
-0.034571432 -0.027028574 0.66000003
-0.033314288 -0.027028574 0.66000003
-0.032057144 -0.027028574 0.66000003
-0.030706668 -0.026946668 0.65800005
-0.029453335 -0.026946668 0.65800005
-0.028200002 -0.026946668 0.65800005
-0.026946668 -0.026946668 0.65800005
-0.025693335 -0.026946668 0.65800005
-0.024440002 -0.026946668 0.65800005
-0.023151429 -0.026905715 0.65700001
-0.021933334 -0.026946668 0.65800005
-0.020648573 -0.026905715 0.65700001
-0.019426668 -0.026946668 0.65800005
-0.018145716 -0.026905715 0.65700001
-0.016894286 -0.026905715 0.65700001
-0.015642859 -0.026905715 0.65700001
-0.06562572 -0.026122859 0.66900003
-0.064447626 -0.026161907 0.67000002
-0.063077144 -0.026122859 0.66900003
-0.06180286 -0.026122859 0.66900003
-0.060528576 -0.026122859 0.66900003
-0.059077147 -0.026044764 0.66700006
-0.057806671 -0.026044764 0.66700006
-0.056536194 -0.026044764 0.66700006
-0.055265717 -0.026044764 0.66700006
-0.05391429 -0.026005715 0.66600001
-0.052645717 -0.026005715 0.66600001
-0.051145718 -0.025888573 0.66300005
-0.050033338 -0.025966669 0.66500002
-0.048620004 -0.025888573 0.66300005
-0.047357146 -0.025888573 0.66300005
-0.046094287 -0.025888573 0.66300005
-0.044831432 -0.025888573 0.66300005
-0.04350286 -0.025849525 0.66200006
-0.042241909 -0.025849525 0.66200006
-0.040980954 -0.025849525 0.66200006
-0.039660003 -0.025810478 0.66100001
-0.038400955 -0.025810478 0.66100001
-0.037141908 -0.025810478 0.66100001
-0.03588286 -0.025810478 0.66100001
-0.034623813 -0.025810478 0.66100001
-0.033364765 -0.025810478 0.66100001
-0.032105718 -0.025810478 0.66100001
-0.030800002 -0.02577143 0.66000003
-0.029453335 -0.025693335 0.65800005
-0.028200002 -0.025693335 0.65800005
-0.026946668 -0.025693335 0.65800005
-0.025693335 -0.025693335 0.65800005
-0.024440002 -0.025693335 0.65800005
-0.023186669 -0.025693335 0.65800005
-0.021933334 -0.025693335 0.65800005
-0.020680001 -0.025693335 0.65800005
-0.019426668 -0.025693335 0.65800005
-0.018173335 -0.025693335 0.65800005
-0.01692 -0.025693335 0.65800005
-0.067400001 -0.025034288 0.67400002
-0.065920003 -0.024960002 0.67200005
-0.064543813 -0.024922859 0.671
-0.063171431 -0.024885716 0.67000002
-0.06180286 -0.024848573 0.66900003
-0.060528576 -0.024848573 0.66900003
-0.059254289 -0.024848573 0.66900003
-0.057806671 -0.024774287 0.66700006
-0.056536194 -0.024774287 0.66700006
-0.055265717 -0.024774287 0.66700006
-0.05399524 -0.024774287 0.66700006
-0.052645717 -0.024737144 0.66600001
-0.051300004 -0.024700001 0.66500002
-0.050033338 -0.024700001 0.66500002
-0.048766669 -0.024700001 0.66500002
-0.047357146 -0.024625717 0.66300005
-0.046094287 -0.024625717 0.66300005
-0.044831432 -0.024625717 0.66300005
-0.04350286 -0.024588574 0.66200006
-0.042241909 -0.024588574 0.66200006
-0.040980954 -0.024588574 0.66200006
-0.039720003 -0.024588574 0.66200006
-0.038459051 -0.024588574 0.66200006
-0.037198097 -0.024588574 0.66200006
-0.035937145 -0.024588574 0.66200006
-0.034676194 -0.024588574 0.66200006
-0.033364765 -0.024551431 0.66100001
-0.032105718 -0.024551431 0.66100001
-0.030846668 -0.024551431 0.66100001
-0.02954286 -0.024514288 0.66000003
-0.028285716 -0.024514288 0.66000003
-0.026946668 -0.024440002 0.65800005
-0.025693335 -0.024440002 0.65800005
-0.024440002 -0.024440002 0.65800005
-0.023186669 -0.024440002 0.65800005
-0.021933334 -0.024440002 0.65800005
-0.020680001 -0.024440002 0.65800005
-0.019426668 -0.024440002 0.65800005
-0.018173335 -0.024440002 0.65800005
-0.01692 -0.024440002 0.65800005
-0.067400001 -0.023750478 0.67400002
-0.066116191 -0.023750478 0.67400002
-0.064543813 -0.023644764 0.671
-0.063265719 -0.023644764 0.671
-0.061895244 -0.023609525 0.67000002
-0.060528576 -0.023574287 0.66900003
-0.059254289 -0.023574287 0.66900003
-0.057806671 -0.02350381 0.66700006
-0.056536194 -0.02350381 0.66700006
-0.055265717 -0.02350381 0.66700006
-0.05399524 -0.02350381 0.66700006
-0.052645717 -0.023468573 0.66600001
-0.051377147 -0.023468573 0.66600001
-0.050033338 -0.023433335 0.66500002
-0.048766669 -0.023433335 0.66500002
-0.047500003 -0.023433335 0.66500002
-0.046094287 -0.023362858 0.66300005
-0.044831432 -0.023362858 0.66300005
-0.04350286 -0.023327621 0.66200006
-0.042241909 -0.023327621 0.66200006
-0.040980954 -0.023327621 0.66200006
-0.039720003 -0.023327621 0.66200006
-0.038459051 -0.023327621 0.66200006
-0.037198097 -0.023327621 0.66200006
-0.035937145 -0.023327621 0.66200006
-0.034676194 -0.023327621 0.66200006
-0.033364765 -0.023292383 0.66100001
-0.032105718 -0.023292383 0.66100001
-0.030846668 -0.023292383 0.66100001
-0.02954286 -0.023257144 0.66000003
-0.028285716 -0.023257144 0.66000003
-0.027028574 -0.023257144 0.66000003
-0.025693335 -0.023186669 0.65800005
-0.024440002 -0.023186669 0.65800005
-0.023186669 -0.023186669 0.65800005
-0.021933334 -0.023186669 0.65800005
-0.020680001 -0.023186669 0.65800005
-0.019485716 -0.023257144 0.66000003
-0.018228572 -0.023257144 0.66000003
-0.01697143 -0.023257144 0.66000003
-0.067400001 -0.022466669 0.67400002
-0.065920003 -0.022400001 0.67200005
-0.064543813 -0.022366669 0.671
-0.063265719 -0.022366669 0.671
-0.061895244 -0.022333335 0.67000002
-0.060528576 -0.022300001 0.66900003
-0.059254289 -0.022300001 0.66900003
-0.057980005 -0.022300001 0.66900003
-0.056705717 -0.022300001 0.66900003
-0.055431433 -0.022300001 0.66900003
-0.05399524 -0.022233335 0.66700006
-0.052724764 -0.022233335 0.66700006
-0.051454291 -0.022233335 0.66700006
-0.050108574 -0.022200001 0.66600001
-0.048840005 -0.022200001 0.66600001
-0.047500003 -0.022166668 0.66500002
-0.046233337 -0.022166668 0.66500002
-0.044831432 -0.022100002 0.66300005
-0.043568574 -0.022100002 0.66300005
-0.042241909 -0.022066668 0.66200006
-0.040980954 -0.022066668 0.66200006
-0.039720003 -0.022066668 0.66200006
-0.038459051 -0.022066668 0.66200006
-0.037198097 -0.022066668 0.66200006
-0.035937145 -0.022066668 0.66200006
-0.034676194 -0.022066668 0.66200006
-0.033415239 -0.022066668 0.66200006
-0.032105718 -0.022033336 0.66100001
-0.030846668 -0.022033336 0.66100001
-0.02954286 -0.022000002 0.66000003
-0.028285716 -0.022000002 0.66000003
-0.027028574 -0.022000002 0.66000003
-0.02577143 -0.022000002 0.66000003
-0.024440002 -0.021933334 0.65800005
-0.023186669 -0.021933334 0.65800005
-0.022000002 -0.022000002 0.66000003
-0.020742858 -0.022000002 0.66000003
-0.019485716 -0.022000002 0.66000003
-0.018228572 -0.022000002 0.66000003
-0.01692 -0.021933334 0.65800005
-0.067400001 -0.021182859 0.67400002
-0.066116191 -0.021182859 0.67400002
-0.064640008 -0.021120001 0.67200005
-0.063265719 -0.021088572 0.671
-0.061987624 -0.021088572 0.671
-0.060619052 -0.021057144 0.67000002
-0.059254289 -0.021025715 0.66900003
-0.057980005 -0.021025715 0.66900003
-0.056705717 -0.021025715 0.66900003
-0.055431433 -0.021025715 0.66900003
-0.05399524 -0.020962859 0.66700006
-0.052724764 -0.020962859 0.66700006
-0.051454291 -0.020962859 0.66700006
-0.050108574 -0.02093143 0.66600001
-0.048840005 -0.02093143 0.66600001
-0.047571432 -0.02093143 0.66600001
-0.046233337 -0.020900002 0.66500002
-0.044966668 -0.020900002 0.66500002
-0.043568574 -0.020837145 0.66300005
-0.042305715 -0.020837145 0.66300005
-0.041042861 -0.020837145 0.66300005
-0.039720003 -0.020805717 0.66200006
-0.038459051 -0.020805717 0.66200006
-0.037198097 -0.020805717 0.66200006
-0.035937145 -0.020805717 0.66200006
-0.034676194 -0.020805717 0.66200006
-0.033415239 -0.020805717 0.66200006
-0.032105718 -0.020774286 0.66100001
-0.030846668 -0.020774286 0.66100001
-0.029587621 -0.020774286 0.66100001
-0.028328573 -0.020774286 0.66100001
-0.027028574 -0.020742858 0.66000003
-0.02577143 -0.020742858 0.66000003
-0.024440002 -0.020680001 0.65800005
-0.023257144 -0.020742858 0.66000003
-0.022000002 -0.020742858 0.66000003
-0.020742858 -0.020742858 0.66000003
-0.019485716 -0.020742858 0.66000003
-0.018228572 -0.020742858 0.66000003
-0.01697143 -0.020742858 0.66000003
-0.065920003 -0.019840002 0.67200005
-0.064640008 -0.019840002 0.67200005
-0.063360006 -0.019840002 0.67200005
-0.061987624 -0.019810477 0.671
-0.060619052 -0.019780954 0.67000002
-0.059342861 -0.019780954 0.67000002
-0.057980005 -0.01975143 0.66900003
-0.056705717 -0.01975143 0.66900003
-0.055431433 -0.01975143 0.66900003
-0.05399524 -0.019692382 0.66700006
-0.052724764 -0.019692382 0.66700006
-0.051454291 -0.019692382 0.66700006
-0.050183814 -0.019692382 0.66700006
-0.048840005 -0.019662859 0.66600001
-0.047571432 -0.019662859 0.66600001
-0.046233337 -0.019633334 0.66500002
-0.044966668 -0.019633334 0.66500002
-0.043568574 -0.019574286 0.66300005
-0.042305715 -0.019574286 0.66300005
-0.041042861 -0.019574286 0.66300005
-0.039720003 -0.019544763 0.66200006
-0.038459051 -0.019544763 0.66200006
-0.037198097 -0.019544763 0.66200006
-0.035937145 -0.019544763 0.66200006
-0.034676194 -0.019544763 0.66200006
-0.033415239 -0.019544763 0.66200006
-0.032154288 -0.019544763 0.66200006
-0.030846668 -0.019515239 0.66100001
-0.029587621 -0.019515239 0.66100001
-0.028328573 -0.019515239 0.66100001
-0.027069526 -0.019515239 0.66100001
-0.02577143 -0.019485716 0.66000003
-0.024514288 -0.019485716 0.66000003
-0.023257144 -0.019485716 0.66000003
-0.022000002 -0.019485716 0.66000003
-0.020742858 -0.019485716 0.66000003
-0.019515239 -0.019515239 0.66100001
-0.018256191 -0.019515239 0.66100001
-0.016997144 -0.019515239 0.66100001
-0.015761906 -0.019544763 0.66200006
-0.065920003 -0.018560002 0.67200005
-0.064832382 -0.01861524 0.67400002
-0.063360006 -0.018560002 0.67200005
-0.062080003 -0.018560002 0.67200005
-0.060800005 -0.018560002 0.67200005
-0.059431434 -0.018532382 0.671
-0.05806667 -0.018504763 0.67000002
-0.056705717 -0.018477144 0.66900003
-0.055431433 -0.018477144 0.66900003
-0.054157145 -0.018477144 0.66900003
-0.052882861 -0.018477144 0.66900003
-0.051454291 -0.018421905 0.66700006
-0.050183814 -0.018421905 0.66700006
-0.048913337 -0.018421905 0.66700006
-0.047642861 -0.018421905 0.66700006
-0.046302859 -0.018394288 0.66600001
-0.045034289 -0.018394288 0.66600001
-0.043700002 -0.018366668 0.66500002
-0.042305715 -0.01831143 0.66300005
-0.041042861 -0.01831143 0.66300005
-0.039780002 -0.01831143 0.66300005
-0.038459051 -0.01828381 0.66200006
-0.037254289 -0.01831143 0.66300005
-0.03599143 -0.01831143 0.66300005
-0.034676194 -0.01828381 0.66200006
-0.033415239 -0.01828381 0.66200006
-0.032154288 -0.01828381 0.66200006
-0.030893335 -0.01828381 0.66200006
-0.029632382 -0.01828381 0.66200006
-0.028371431 -0.01828381 0.66200006
-0.027110478 -0.01828381 0.66200006
-0.025810478 -0.018256191 0.66100001
-0.024551431 -0.018256191 0.66100001
-0.023292383 -0.018256191 0.66100001
-0.022033336 -0.018256191 0.66100001
-0.020774286 -0.018256191 0.66100001
-0.019544763 -0.01828381 0.66200006
-0.01828381 -0.01828381 0.66200006
-0.017048573 -0.01831143 0.66300005
-0.015785715 -0.01831143 0.66300005
-0.065920003 -0.017280001 0.67200005
-0.064832382 -0.017331429 0.67400002
-0.063360006 -0.017280001 0.67200005
-0.062080003 -0.017280001 0.67200005
-0.060800005 -0.017280001 0.67200005
-0.059431434 -0.017254287 0.671
-0.058153339 -0.017254287 0.671
-0.056790479 -0.017228572 0.67000002
-0.055514291 -0.017228572 0.67000002
-0.054157145 -0.017202858 0.66900003
-0.052882861 -0.017202858 0.66900003
-0.051608574 -0.017202858 0.66900003
-0.05033429 -0.017202858 0.66900003
-0.048913337 -0.01715143 0.66700006
-0.047642861 -0.01715143 0.66700006
-0.046372384 -0.01715143 0.66700006
-0.045034289 -0.017125715 0.66600001
-0.043765716 -0.017125715 0.66600001
-0.042433336 -0.017100001 0.66500002
-0.041042861 -0.017048573 0.66300005
-0.039780002 -0.017048573 0.66300005
-0.038517144 -0.017048573 0.66300005
-0.037254289 -0.017048573 0.66300005
-0.03599143 -0.017048573 0.66300005
-0.034728575 -0.017048573 0.66300005
-0.033465717 -0.017048573 0.66300005
-0.032154288 -0.017022857 0.66200006
-0.030893335 -0.017022857 0.66200006
-0.029632382 -0.017022857 0.66200006
-0.028371431 -0.017022857 0.66200006
-0.027110478 -0.017022857 0.66200006
-0.025849525 -0.017022857 0.66200006
-0.024551431 -0.016997144 0.66100001
-0.023292383 -0.016997144 0.66100001
-0.022033336 -0.016997144 0.66100001
-0.020805717 -0.017022857 0.66200006
-0.019544763 -0.017022857 0.66200006
-0.01828381 -0.017022857 0.66200006
-0.017048573 -0.017048573 0.66300005
-0.015785715 -0.017048573 0.66300005
-0.064832382 -0.016047619 0.67400002
-0.063548572 -0.016047619 0.67400002
-0.062264767 -0.016047619 0.67400002
-0.060800005 -0.016000001 0.67200005
-0.059520002 -0.016000001 0.67200005
-0.058153339 -0.015976192 0.671
-0.056790479 -0.015952382 0.67000002
-0.055514291 -0.015952382 0.67000002
-0.0542381 -0.015952382 0.67000002
-0.052882861 -0.015928572 0.66900003
-0.051608574 -0.015928572 0.66900003
-0.05033429 -0.015928572 0.66900003
-0.049060002 -0.015928572 0.66900003
-0.047642861 -0.015880954 0.66700006
-0.046372384 -0.015880954 0.66700006
-0.045101907 -0.015880954 0.66700006
-0.043765716 -0.015857143 0.66600001
-0.042433336 -0.015833335 0.66500002
-0.041042861 -0.015785715 0.66300005
-0.039780002 -0.015785715 0.66300005
-0.038517144 -0.015785715 0.66300005
-0.037254289 -0.015785715 0.66300005
-0.03599143 -0.015785715 0.66300005
-0.034728575 -0.015785715 0.66300005
-0.033465717 -0.015785715 0.66300005
-0.032154288 -0.015761906 0.66200006
-0.030893335 -0.015761906 0.66200006
-0.029677145 -0.015785715 0.66300005
-0.028371431 -0.015761906 0.66200006
-0.027110478 -0.015761906 0.66200006
-0.025849525 -0.015761906 0.66200006
-0.024588574 -0.015761906 0.66200006
-0.023327621 -0.015761906 0.66200006
-0.022066668 -0.015761906 0.66200006
-0.020805717 -0.015761906 0.66200006
-0.019544763 -0.015761906 0.66200006
-0.01831143 -0.015785715 0.66300005
-0.017100001 -0.015833335 0.66500002
-0.015785715 -0.015785715 0.66300005
-0.064928576 -0.014785715 0.67500001
-0.063642859 -0.014785715 0.67500001
-0.062264767 -0.014763811 0.67400002
-0.060980957 -0.014763811 0.67400002
-0.059520002 -0.014720001 0.67200005
-0.058240004 -0.014720001 0.67200005
-0.05687524 -0.014698097 0.671
-0.055597145 -0.014698097 0.671
-0.0542381 -0.014676192 0.67000002
-0.052961908 -0.014676192 0.67000002
-0.051685717 -0.014676192 0.67000002
-0.05033429 -0.014654287 0.66900003
-0.049060002 -0.014654287 0.66900003
-0.047785718 -0.014654287 0.66900003
-0.046372384 -0.014610477 0.66700006
-0.045101907 -0.014610477 0.66700006
-0.043765716 -0.014588572 0.66600001
-0.042497147 -0.014588572 0.66600001
-0.041166671 -0.014566667 0.66500002
-0.039780002 -0.014522858 0.66300005
-0.038517144 -0.014522858 0.66300005
-0.03736667 -0.014566667 0.66500002
-0.03599143 -0.014522858 0.66300005
-0.034728575 -0.014522858 0.66300005
-0.033465717 -0.014522858 0.66300005
-0.032202858 -0.014522858 0.66300005
-0.030940002 -0.014522858 0.66300005
-0.029677145 -0.014522858 0.66300005
-0.028414287 -0.014522858 0.66300005
-0.02715143 -0.014522858 0.66300005
-0.025849525 -0.014500953 0.66200006
-0.024588574 -0.014500953 0.66200006
-0.023327621 -0.014500953 0.66200006
-0.022066668 -0.014500953 0.66200006
-0.020837145 -0.014522858 0.66300005
-0.019574286 -0.014522858 0.66300005
-0.01831143 -0.014522858 0.66300005
-0.017125715 -0.014588572 0.66600001
-0.015857143 -0.014588572 0.66600001
-0.065024763 -0.013520001 0.67600006
-0.063737147 -0.013520001 0.67600006
-0.062357146 -0.013500001 0.67500001
-0.060980957 -0.013480001 0.67400002
-0.059697147 -0.013480001 0.67400002
-0.058240004 -0.013440001 0.67200005
-0.056960005 -0.013440001 0.67200005
-0.055597145 -0.013420001 0.671
-0.05431905 -0.013420001 0.671
-0.052961908 -0.013400001 0.67000002
-0.051685717 -0.013400001 0.67000002
-0.050409526 -0.013400001 0.67000002
-0.049060002 -0.013380001 0.66900003
-0.047785718 -0.013380001 0.66900003
-0.046372384 -0.013340001 0.66700006
-0.045101907 -0.013340001 0.66700006
-0.04383143 -0.013340001 0.66700006
-0.042497147 -0.013320001 0.66600001
-0.041166671 -0.013300001 0.66500002
-0.039900001 -0.013300001 0.66500002
-0.038633335 -0.013300001 0.66500002
-0.03736667 -0.013300001 0.66500002
-0.03599143 -0.013260001 0.66300005
-0.034728575 -0.013260001 0.66300005
-0.033465717 -0.013260001 0.66300005
-0.032202858 -0.013260001 0.66300005
-0.030940002 -0.013260001 0.66300005
-0.029677145 -0.013260001 0.66300005
-0.028414287 -0.013260001 0.66300005
-0.02715143 -0.013260001 0.66300005
-0.025888573 -0.013260001 0.66300005
-0.024625717 -0.013260001 0.66300005
-0.023362858 -0.013260001 0.66300005
-0.022100002 -0.013260001 0.66300005
-0.020837145 -0.013260001 0.66300005
-0.019633334 -0.013300001 0.66500002
-0.018394288 -0.013320001 0.66600001
-0.017125715 -0.013320001 0.66600001
-0.015857143 -0.013320001 0.66600001
-0.065217145 -0.012268572 0.67800003
-0.063925721 -0.012268572 0.67800003
-0.06244953 -0.012232382 0.67600006
-0.061161909 -0.012232382 0.67600006
-0.05978572 -0.012214286 0.67500001
-0.058413338 -0.012196192 0.67400002
-0.056960005 -0.01216 0.67200005
-0.055680003 -0.01216 0.67200005
-0.05431905 -0.012141906 0.671
-0.052961908 -0.01212381 0.67000002
-0.05176286 -0.012141906 0.671
-0.050409526 -0.01212381 0.67000002
-0.049133338 -0.01212381 0.67000002
-0.047785718 -0.012105715 0.66900003
-0.04651143 -0.012105715 0.66900003
-0.045237146 -0.012105715 0.66900003
-0.04383143 -0.012069524 0.66700006
-0.042497147 -0.01205143 0.66600001
-0.041228574 -0.01205143 0.66600001
-0.040020004 -0.012069524 0.66700006
-0.038691431 -0.01205143 0.66600001
-0.037422858 -0.01205143 0.66600001
-0.036100004 -0.012033334 0.66500002
-0.034833334 -0.012033334 0.66500002
-0.033566669 -0.012033334 0.66500002
-0.032202858 -0.011997144 0.66300005
-0.030940002 -0.011997144 0.66300005
-0.029677145 -0.011997144 0.66300005
-0.028414287 -0.011997144 0.66300005
-0.02715143 -0.011997144 0.66300005
-0.025888573 -0.011997144 0.66300005
-0.024625717 -0.011997144 0.66300005
-0.023362858 -0.011997144 0.66300005
-0.022166668 -0.012033334 0.66500002
-0.02093143 -0.01205143 0.66600001
-0.019662859 -0.01205143 0.66600001
-0.018394288 -0.01205143 0.66600001
-0.01715143 -0.012069524 0.66700006
-0.015880954 -0.012069524 0.66700006
-0.065217145 -0.010977143 0.67800003
-0.063925721 -0.010977143 0.67800003
-0.062634289 -0.010977143 0.67800003
-0.061161909 -0.010944762 0.67600006
-0.059874289 -0.010944762 0.67600006
-0.058500003 -0.010928572 0.67500001
-0.057129528 -0.010912382 0.67400002
-0.055845719 -0.010912382 0.67400002
-0.054400004 -0.010880001 0.67200005
-0.053120002 -0.010880001 0.67200005
-0.05176286 -0.01086381 0.671
-0.050409526 -0.01084762 0.67000002
-0.049133338 -0.01084762 0.67000002
-0.047857147 -0.01084762 0.67000002
-0.04651143 -0.01083143 0.66900003
-0.045237146 -0.01083143 0.66900003
-0.043962859 -0.01083143 0.66900003
-0.042560954 -0.010799048 0.66700006
-0.041290481 -0.010799048 0.66700006
-0.040020004 -0.010799048 0.66700006
-0.038749527 -0.010799048 0.66700006
-0.03747905 -0.010799048 0.66700006
-0.036154289 -0.010782857 0.66600001
-0.034833334 -0.010766667 0.66500002
-0.033566669 -0.010766667 0.66500002
-0.032202858 -0.010734286 0.66300005
-0.030940002 -0.010734286 0.66300005
-0.029766669 -0.010766667 0.66500002
-0.028414287 -0.010734286 0.66300005
-0.027233334 -0.010766667 0.66500002
-0.025966669 -0.010766667 0.66500002
-0.024700001 -0.010766667 0.66500002
-0.023433335 -0.010766667 0.66500002
-0.022200001 -0.010782857 0.66600001
-0.02093143 -0.010782857 0.66600001
-0.019662859 -0.010782857 0.66600001
-0.018421905 -0.010799048 0.66700006
-0.01715143 -0.010799048 0.66700006
-0.015880954 -0.010799048 0.66700006
-0.065217145 -0.0096857147 0.67800003
-0.063925721 -0.0096857147 0.67800003
-0.062634289 -0.0096857147 0.67800003
-0.061342862 -0.0096857147 0.67800003
-0.059874289 -0.0096571436 0.67600006
-0.058586672 -0.0096571436 0.67600006
-0.05721429 -0.0096428581 0.67500001
-0.055845719 -0.0096285725 0.67400002
-0.054400004 -0.0096000005 0.67200005
-0.053120002 -0.0096000005 0.67200005
-0.05176286 -0.0095857149 0.671
-0.050484765 -0.0095857149 0.671
-0.049133338 -0.0095714293 0.67000002
-0.047857147 -0.0095714293 0.67000002
-0.04651143 -0.0095571438 0.66900003
-0.045237146 -0.0095571438 0.66900003
-0.043962859 -0.0095571438 0.66900003
-0.042688575 -0.0095571438 0.66900003
-0.041290481 -0.0095285717 0.66700006
-0.040020004 -0.0095285717 0.66700006
-0.038749527 -0.0095285717 0.66700006
-0.03747905 -0.0095285717 0.66700006
-0.036154289 -0.0095142862 0.66600001
-0.034885716 -0.0095142862 0.66600001
-0.033617146 -0.0095142862 0.66600001
-0.032300003 -0.0095000006 0.66500002
-0.031033335 -0.0095000006 0.66500002
-0.029811431 -0.0095142862 0.66600001
-0.028500002 -0.0095000006 0.66500002
-0.027274288 -0.0095142862 0.66600001
-0.026005715 -0.0095142862 0.66600001
-0.024737144 -0.0095142862 0.66600001
-0.023468573 -0.0095142862 0.66600001
-0.022200001 -0.0095142862 0.66600001
-0.020962859 -0.0095285717 0.66700006
-0.019692382 -0.0095285717 0.66700006
-0.018421905 -0.0095285717 0.66700006
-0.01715143 -0.0095285717 0.66700006
-0.015880954 -0.0095285717 0.66700006
-0.065313339 -0.008406667 0.67900002
-0.063925721 -0.008394286 0.67800003
-0.062634289 -0.008394286 0.67800003
-0.061342862 -0.008394286 0.67800003
-0.059874289 -0.008369524 0.67600006
-0.058586672 -0.008369524 0.67600006
-0.05721429 -0.008357143 0.67500001
-0.055845719 -0.008344762 0.67400002
-0.054561909 -0.008344762 0.67400002
-0.053120002 -0.008320001 0.67200005
-0.051840004 -0.008320001 0.67200005
-0.050484765 -0.00830762 0.671
-0.04920667 -0.00830762 0.671
-0.047857147 -0.0082952389 0.67000002
-0.046580955 -0.0082952389 0.67000002
-0.045304764 -0.0082952389 0.67000002
-0.043962859 -0.0082828579 0.66900003
-0.042688575 -0.0082828579 0.66900003
-0.041414287 -0.0082828579 0.66900003
-0.040020004 -0.0082580959 0.66700006
-0.038749527 -0.0082580959 0.66700006
-0.03747905 -0.0082580959 0.66700006
-0.036208574 -0.0082580959 0.66700006
-0.034885716 -0.0082457149 0.66600001
-0.033617146 -0.0082457149 0.66600001
-0.032348573 -0.0082457149 0.66600001
-0.031080002 -0.0082457149 0.66600001
-0.029811431 -0.0082457149 0.66600001
-0.028542859 -0.0082457149 0.66600001
-0.027274288 -0.0082457149 0.66600001
-0.026044764 -0.0082580959 0.66700006
-0.024774287 -0.0082580959 0.66700006
-0.02350381 -0.0082580959 0.66700006
-0.022233335 -0.0082580959 0.66700006
-0.020962859 -0.0082580959 0.66700006
-0.019692382 -0.0082580959 0.66700006
-0.018421905 -0.0082580959 0.66700006
-0.01715143 -0.0082580959 0.66700006
-0.065313339 -0.0071133338 0.67900002
-0.064020008 -0.0071133338 0.67900002
-0.062634289 -0.0071028578 0.67800003
-0.061342862 -0.0071028578 0.67800003
-0.060051434 -0.0071028578 0.67800003
-0.058586672 -0.0070819054 0.67600006
-0.057299051 -0.0070819054 0.67600006
-0.055928577 -0.0070714289 0.67500001
-0.054561909 -0.007060953 0.67400002
-0.0532781 -0.007060953 0.67400002
-0.051840004 -0.0070400005 0.67200005
-0.050484765 -0.0070295241 0.671
-0.04920667 -0.0070295241 0.671
-0.047928575 -0.0070295241 0.671
-0.046580955 -0.0070190481 0.67000002
-0.045304764 -0.0070190481 0.67000002
-0.043962859 -0.0070085721 0.66900003
-0.042688575 -0.0070085721 0.66900003
-0.041414287 -0.0070085721 0.66900003
-0.040140003 -0.0070085721 0.66900003
-0.038865715 -0.0070085721 0.66900003
-0.03747905 -0.0069876197 0.66700006
-0.036208574 -0.0069876197 0.66700006
-0.034938097 -0.0069876197 0.66700006
-0.03366762 -0.0069876197 0.66700006
-0.032348573 -0.0069771432 0.66600001
-0.031080002 -0.0069771432 0.66600001
-0.029856192 -0.0069876197 0.66700006
-0.028585717 -0.0069876197 0.66700006
-0.02731524 -0.0069876197 0.66700006
-0.026044764 -0.0069876197 0.66700006
-0.024774287 -0.0069876197 0.66700006
-0.02350381 -0.0069876197 0.66700006
-0.022233335 -0.0069876197 0.66700006
-0.020962859 -0.0069876197 0.66700006
-0.019692382 -0.0069876197 0.66700006
-0.018477144 -0.0070085721 0.66900003
-0.017202858 -0.0070085721 0.66900003
-0.064020008 -0.0058200005 0.67900002
-0.062726669 -0.0058200005 0.67900002
-0.061342862 -0.0058114291 0.67800003
-0.060051434 -0.0058114291 0.67800003
-0.058760002 -0.0058114291 0.67800003
-0.057299051 -0.0057942863 0.67600006
-0.055928577 -0.0057857148 0.67500001
-0.054561909 -0.0057771434 0.67400002
-0.0532781 -0.0057771434 0.67400002
-0.051840004 -0.0057600006 0.67200005
-0.050560005 -0.0057600006 0.67200005
-0.04920667 -0.0057514291 0.671
-0.047928575 -0.0057514291 0.671
-0.04665048 -0.0057514291 0.671
-0.045304764 -0.0057428577 0.67000002
-0.044028573 -0.0057428577 0.67000002
-0.042688575 -0.0057342863 0.66900003
-0.041414287 -0.0057342863 0.66900003
-0.040140003 -0.0057342863 0.66900003
-0.038865715 -0.0057342863 0.66900003
-0.037591431 -0.0057342863 0.66900003
-0.036208574 -0.0057171434 0.66700006
-0.034938097 -0.0057171434 0.66700006
-0.03366762 -0.0057171434 0.66700006
-0.032397144 -0.0057171434 0.66700006
-0.031126669 -0.0057171434 0.66700006
-0.029856192 -0.0057171434 0.66700006
-0.028585717 -0.0057171434 0.66700006
-0.02731524 -0.0057171434 0.66700006
-0.026044764 -0.0057171434 0.66700006
-0.024774287 -0.0057171434 0.66700006
-0.02350381 -0.0057171434 0.66700006
-0.022300001 -0.0057342863 0.66900003
-0.021025715 -0.0057342863 0.66900003
-0.019692382 -0.0057171434 0.66700006
-0.018477144 -0.0057342863 0.66900003
-0.062726669 -0.0045266668 0.67900002
-0.061342862 -0.0045200004 0.67800003
-0.060051434 -0.0045200004 0.67800003
-0.058760002 -0.0045200004 0.67800003
-0.057299051 -0.0045066671 0.67600006
-0.056011431 -0.0045066671 0.67600006
-0.05464286 -0.0045000003 0.67500001
-0.0532781 -0.0044933334 0.67400002
-0.05199429 -0.0044933334 0.67400002
-0.050560005 -0.0044800001 0.67200005
-0.049280003 -0.0044800001 0.67200005
-0.047928575 -0.0044733337 0.671
-0.04665048 -0.0044733337 0.671
-0.045372386 -0.0044733337 0.671
-0.044028573 -0.0044666668 0.67000002
-0.042752385 -0.0044666668 0.67000002
-0.041476194 -0.0044666668 0.67000002
-0.040140003 -0.0044600004 0.66900003
-0.038865715 -0.0044600004 0.66900003
-0.037591431 -0.0044600004 0.66900003
-0.036317144 -0.0044600004 0.66900003
-0.03504286 -0.0044600004 0.66900003
-0.03366762 -0.0044466672 0.66700006
-0.032397144 -0.0044466672 0.66700006
-0.031126669 -0.0044466672 0.66700006
-0.029856192 -0.0044466672 0.66700006
-0.028585717 -0.0044466672 0.66700006
-0.02731524 -0.0044466672 0.66700006
-0.026044764 -0.0044466672 0.66700006
-0.024774287 -0.0044466672 0.66700006
-0.023574287 -0.0044600004 0.66900003
-0.022300001 -0.0044600004 0.66900003
-0.021025715 -0.0044600004 0.66900003
-0.01975143 -0.0044600004 0.66900003
-0.062726669 -0.0032333336 0.67900002
-0.061342862 -0.0032285717 0.67800003
-0.060051434 -0.0032285717 0.67800003
-0.058760002 -0.0032285717 0.67800003
-0.057468574 -0.0032285717 0.67800003
-0.056011431 -0.0032190478 0.67600006
-0.05464286 -0.0032142859 0.67500001
-0.053357147 -0.0032142859 0.67500001
-0.05199429 -0.0032095241 0.67400002
-0.050560005 -0.0032000002 0.67200005
-0.049280003 -0.0032000002 0.67200005
-0.048000004 -0.0032000002 0.67200005
-0.04665048 -0.0031952383 0.671
-0.045372386 -0.0031952383 0.671
-0.044094287 -0.0031952383 0.671
-0.042752385 -0.0031904764 0.67000002
-0.041476194 -0.0031904764 0.67000002
-0.040200002 -0.0031904764 0.67000002
-0.038923811 -0.0031904764 0.67000002
-0.037591431 -0.0031857146 0.66900003
-0.036317144 -0.0031857146 0.66900003
-0.03504286 -0.0031857146 0.66900003
-0.033768572 -0.0031857146 0.66900003
-0.032494288 -0.0031857146 0.66900003
-0.031220002 -0.0031857146 0.66900003
-0.029945716 -0.0031857146 0.66900003
-0.02867143 -0.0031857146 0.66900003
-0.027397145 -0.0031857146 0.66900003
-0.026044764 -0.0031761907 0.66700006
-0.024848573 -0.0031857146 0.66900003
-0.023574287 -0.0031857146 0.66900003
-0.022300001 -0.0031857146 0.66900003
-0.021025715 -0.0031857146 0.66900003
-0.01975143 -0.0031857146 0.66900003
-0.062726669 -0.0019400001 0.67900002
-0.061433338 -0.0019400001 0.67900002
-0.060140003 -0.0019400001 0.67900002
-0.058760002 -0.001937143 0.67800003
-0.057468574 -0.001937143 0.67800003
-0.056177147 -0.001937143 0.67800003
-0.054723814 -0.0019314287 0.67600006
-0.053357147 -0.0019285716 0.67500001
-0.052071434 -0.0019285716 0.67500001
-0.050710481 -0.0019257144 0.67400002
-0.049280003 -0.0019200002 0.67200005
-0.048000004 -0.0019200002 0.67200005
-0.046720002 -0.0019200002 0.67200005
-0.045440003 -0.0019200002 0.67200005
-0.044094287 -0.001917143 0.671
-0.042752385 -0.0019142858 0.67000002
-0.041476194 -0.0019142858 0.67000002
-0.040200002 -0.0019142858 0.67000002
-0.038923811 -0.0019142858 0.67000002
-0.03764762 -0.0019142858 0.67000002
-0.036317144 -0.0019114286 0.66900003
-0.03504286 -0.0019114286 0.66900003
-0.033768572 -0.0019114286 0.66900003
-0.032494288 -0.0019114286 0.66900003
-0.031220002 -0.0019114286 0.66900003
-0.029945716 -0.0019114286 0.66900003
-0.02867143 -0.0019114286 0.66900003
-0.027397145 -0.0019114286 0.66900003
-0.026122859 -0.0019114286 0.66900003
-0.024848573 -0.0019114286 0.66900003
-0.023574287 -0.0019114286 0.66900003
-0.022333335 -0.0019142858 0.67000002
-0.021057144 -0.0019142858 0.67000002
-0.019780954 -0.0019142858 0.67000002
-0.018532382 -0.001917143 0.671
-0.062726669 -0.00064666668 0.67900002
-0.061433338 -0.00064666668 0.67900002
-0.060140003 -0.00064666668 0.67900002
-0.058846671 -0.00064666668 0.67900002
-0.057468574 -0.00064571435 0.67800003
-0.056177147 -0.00064571435 0.67800003
-0.054723814 -0.00064380956 0.67600006
-0.053357147 -0.00064285717 0.67500001
-0.052071434 -0.00064285717 0.67500001
-0.050710481 -0.00064190483 0.67400002
-0.049426671 -0.00064190483 0.67400002
-0.048000004 -0.00064000004 0.67200005
-0.046720002 -0.00064000004 0.67200005
-0.045440003 -0.00064000004 0.67200005
-0.044160005 -0.00064000004 0.67200005
-0.042816192 -0.00063904765 0.671
-0.041538097 -0.00063904765 0.671
-0.040260002 -0.00063904765 0.671
-0.038923811 -0.00063809525 0.67000002
-0.03764762 -0.00063809525 0.67000002
-0.036371432 -0.00063809525 0.67000002
-0.035095241 -0.00063809525 0.67000002
-0.03381905 -0.00063809525 0.67000002
-0.032542858 -0.00063809525 0.67000002
-0.031220002 -0.00063714292 0.66900003
-0.029945716 -0.00063714292 0.66900003
-0.02867143 -0.00063714292 0.66900003
-0.027397145 -0.00063714292 0.66900003
-0.026122859 -0.00063714292 0.66900003
-0.024848573 -0.00063714292 0.66900003
-0.023609525 -0.00063809525 0.67000002
-0.022333335 -0.00063809525 0.67000002
-0.021057144 -0.00063809525 0.67000002
-0.019810477 -0.00063904765 0.671
-0.018560002 -0.00064000004 0.67200005
-0.062819049 0.00064761908 0.68000001
-0.061523814 0.00064761908 0.68000001
-0.060140003 0.00064666668 0.67900002
-0.058846671 0.00064666668 0.67900002
-0.057468574 0.00064571435 0.67800003
-0.056177147 0.00064571435 0.67800003
-0.054885719 0.00064571435 0.67800003
-0.053436194 0.00064380956 0.67600006
-0.052148573 0.00064380956 0.67600006
-0.050785717 0.00064285717 0.67500001
-0.049426671 0.00064190483 0.67400002
-0.048142862 0.00064190483 0.67400002
-0.046859052 0.00064190483 0.67400002
-0.045440003 0.00064000004 0.67200005
-0.044160005 0.00064000004 0.67200005
-0.042880002 0.00064000004 0.67200005
-0.041538097 0.00063904765 0.671
-0.040260002 0.00063904765 0.671
-0.038981907 0.00063904765 0.671
-0.037703812 0.00063904765 0.671
-0.036371432 0.00063809525 0.67000002
-0.035095241 0.00063809525 0.67000002
-0.03381905 0.00063809525 0.67000002
-0.032542858 0.00063809525 0.67000002
-0.031266667 0.00063809525 0.67000002
-0.029990477 0.00063809525 0.67000002
-0.028714288 0.00063809525 0.67000002
-0.027397145 0.00063714292 0.66900003
-0.026161907 0.00063809525 0.67000002
-0.024885716 0.00063809525 0.67000002
-0.023609525 0.00063809525 0.67000002
-0.022366669 0.00063904765 0.671
-0.021088572 0.00063904765 0.671
-0.019840002 0.00064000004 0.67200005
-0.01861524 0.00064190483 0.67400002
-0.017331429 0.00064190483 0.67400002
-0.063096195 0.0019514287 0.68300003
-0.061704766 0.0019485715 0.68200004
-0.060228575 0.0019428573 0.68000001
-0.058933336 0.0019428573 0.68000001
-0.057553336 0.0019400001 0.67900002
-0.056260005 0.0019400001 0.67900002
-0.054885719 0.001937143 0.67800003
-0.053436194 0.0019314287 0.67600006
-0.052148573 0.0019314287 0.67600006
-0.050785717 0.0019285716 0.67500001
-0.049500003 0.0019285716 0.67500001
-0.048142862 0.0019257144 0.67400002
-0.046859052 0.0019257144 0.67400002
-0.045575242 0.0019257144 0.67400002
-0.044160005 0.0019200002 0.67200005
-0.042880002 0.0019200002 0.67200005
-0.041600004 0.0019200002 0.67200005
-0.040320002 0.0019200002 0.67200005
-0.038981907 0.001917143 0.671
-0.037703812 0.001917143 0.671
-0.036371432 0.0019142858 0.67000002
-0.035095241 0.0019142858 0.67000002
-0.033869527 0.001917143 0.671
-0.032542858 0.0019142858 0.67000002
-0.031266667 0.0019142858 0.67000002
-0.029990477 0.0019142858 0.67000002
-0.028714288 0.0019142858 0.67000002
-0.027438097 0.0019142858 0.67000002
-0.026200954 0.001917143 0.671
-0.024922859 0.001917143 0.671
-0.023644764 0.001917143 0.671
-0.022400001 0.0019200002 0.67200005
-0.021120001 0.0019200002 0.67200005
-0.01989905 0.0019257144 0.67400002
-0.01861524 0.0019257144 0.67400002
-0.017357145 0.0019285716 0.67500001
-0.063096195 0.0032523812 0.68300003
-0.061704766 0.0032476194 0.68200004
-0.06040572 0.0032476194 0.68200004
-0.058933336 0.0032380954 0.68000001
-0.057553336 0.0032333336 0.67900002
-0.056260005 0.0032333336 0.67900002
-0.054885719 0.0032285717 0.67800003
-0.053594287 0.0032285717 0.67800003
-0.052148573 0.0032190478 0.67600006
-0.050785717 0.0032142859 0.67500001
-0.049500003 0.0032142859 0.67500001
-0.048142862 0.0032095241 0.67400002
-0.046859052 0.0032095241 0.67400002
-0.045575242 0.0032095241 0.67400002
-0.044291433 0.0032095241 0.67400002
-0.042880002 0.0032000002 0.67200005
-0.041600004 0.0032000002 0.67200005
-0.040320002 0.0032000002 0.67200005
-0.039040003 0.0032000002 0.67200005
-0.037703812 0.0031952383 0.671
-0.036425717 0.0031952383 0.671
-0.035147622 0.0031952383 0.671
-0.033869527 0.0031952383 0.671
-0.032542858 0.0031904764 0.67000002
-0.031266667 0.0031904764 0.67000002
-0.029990477 0.0031904764 0.67000002
-0.028714288 0.0031904764 0.67000002
-0.027438097 0.0031904764 0.67000002
-0.026200954 0.0031952383 0.671
-0.024922859 0.0031952383 0.671
-0.023644764 0.0031952383 0.671
-0.022400001 0.0032000002 0.67200005
-0.021182859 0.0032095241 0.67400002
-0.01989905 0.0032095241 0.67400002
-0.01861524 0.0032095241 0.67400002
-0.017357145 0.0032142859 0.67500001
-0.063096195 0.0045533339 0.68300003
-0.061704766 0.004546667 0.68200004
-0.06040572 0.004546667 0.68200004
-0.058933336 0.0045333337 0.68000001
-0.057638098 0.0045333337 0.68000001
-0.056260005 0.0045266668 0.67900002
-0.054885719 0.0045200004 0.67800003
-0.053594287 0.0045200004 0.67800003
-0.05230286 0.0045200004 0.67800003
-0.050860956 0.0045066671 0.67600006
-0.049573336 0.0045066671 0.67600006
-0.04821429 0.0045000003 0.67500001
-0.046928573 0.0045000003 0.67500001
-0.045575242 0.0044933334 0.67400002
-0.044291433 0.0044933334 0.67400002
-0.043007623 0.0044933334 0.67400002
-0.041723814 0.0044933334 0.67400002
-0.040440004 0.0044933334 0.67400002
-0.039040003 0.0044800001 0.67200005
-0.037760001 0.0044800001 0.67200005
-0.036425717 0.0044733337 0.671
-0.035147622 0.0044733337 0.671
-0.033869527 0.0044733337 0.671
-0.032591432 0.0044733337 0.671
-0.031266667 0.0044666668 0.67000002
-0.029990477 0.0044666668 0.67000002
-0.028714288 0.0044666668 0.67000002
-0.027438097 0.0044666668 0.67000002
-0.026200954 0.0044733337 0.671
-0.024960002 0.0044800001 0.67200005
-0.023680001 0.0044800001 0.67200005
-0.022400001 0.0044800001 0.67200005
-0.021182859 0.0044933334 0.67400002
-0.01989905 0.0044933334 0.67400002
-0.018642858 0.0045000003 0.67500001
-0.017357145 0.0045000003 0.67500001
-0.064397149 0.0058542863 0.68300003
-0.063096195 0.0058542863 0.68300003
-0.061795242 0.0058542863 0.68300003
-0.06040572 0.0058457148 0.68200004
-0.058933336 0.005828572 0.68000001
-0.057638098 0.005828572 0.68000001
-0.056260005 0.0058200005 0.67900002
-0.05496667 0.0058200005 0.67900002
-0.053594287 0.0058114291 0.67800003
-0.05230286 0.0058114291 0.67800003
-0.051011432 0.0058114291 0.67800003
-0.049573336 0.0057942863 0.67600006
-0.048285719 0.0057942863 0.67600006
-0.046998098 0.0057942863 0.67600006
-0.04564286 0.0057857148 0.67500001
-0.044357147 0.0057857148 0.67500001
-0.04307143 0.0057857148 0.67500001
-0.041723814 0.0057771434 0.67400002
-0.040440004 0.0057771434 0.67400002
-0.039040003 0.0057600006 0.67200005
-0.037760001 0.0057600006 0.67200005
-0.036480002 0.0057600006 0.67200005
-0.035147622 0.0057514291 0.671
-0.033869527 0.0057514291 0.671
-0.032591432 0.0057514291 0.671
-0.031313334 0.0057514291 0.671
-0.029990477 0.0057428577 0.67000002
-0.028714288 0.0057428577 0.67000002
-0.027438097 0.0057428577 0.67000002
-0.026200954 0.0057514291 0.671
-0.024960002 0.0057600006 0.67200005
-0.023680001 0.0057600006 0.67200005
-0.022466669 0.0057771434 0.67400002
-0.021214288 0.0057857148 0.67500001
-0.019928573 0.0057857148 0.67500001
-0.018642858 0.0057857148 0.67500001
-0.017357145 0.0057857148 0.67500001
-0.063188575 0.0071657146 0.68400002
-0.061885718 0.0071657146 0.68400002
-0.060494289 0.0071552387 0.68300003
-0.05910667 0.0071447622 0.68200004
-0.057807624 0.0071447622 0.68200004
-0.056342863 0.0071238098 0.68000001
-0.05496667 0.0071133338 0.67900002
-0.053673338 0.0071133338 0.67900002
-0.052380003 0.0071133338 0.67900002
-0.051011432 0.0071028578 0.67800003
-0.049720004 0.0071028578 0.67800003
-0.048285719 0.0070819054 0.67600006
-0.046998098 0.0070819054 0.67600006
-0.04564286 0.0070714289 0.67500001
-0.044357147 0.0070714289 0.67500001
-0.04307143 0.0070714289 0.67500001
-0.041723814 0.007060953 0.67400002
-0.040440004 0.007060953 0.67400002
-0.039040003 0.0070400005 0.67200005
-0.037760001 0.0070400005 0.67200005
-0.036480002 0.0070400005 0.67200005
-0.035200004 0.0070400005 0.67200005
-0.033920001 0.0070400005 0.67200005
-0.032640003 0.0070400005 0.67200005
-0.031313334 0.0070295241 0.671
-0.030035241 0.0070295241 0.671
-0.028757146 0.0070295241 0.671
-0.027479049 0.0070295241 0.671
-0.026200954 0.0070295241 0.671
-0.024960002 0.0070400005 0.67200005
-0.023750478 0.007060953 0.67400002
-0.022466669 0.007060953 0.67400002
-0.021214288 0.0070714289 0.67500001
-0.019928573 0.0070714289 0.67500001
-0.018670477 0.0070819054 0.67600006
-0.017382858 0.0070819054 0.67600006
-0.063373335 0.0084933341 0.68600005
-0.062066671 0.0084933341 0.68600005
-0.060582861 0.0084685721 0.68400002
-0.059193335 0.008456191 0.68300003
-0.057892386 0.008456191 0.68300003
-0.056508575 0.00844381 0.68200004
-0.055047624 0.008419048 0.68000001
-0.053752385 0.008419048 0.68000001
-0.052380003 0.008406667 0.67900002
-0.051086672 0.008406667 0.67900002
-0.049720004 0.008394286 0.67800003
-0.048428576 0.008394286 0.67800003
-0.047137145 0.008394286 0.67800003
-0.045710478 0.008369524 0.67600006
-0.044422861 0.008369524 0.67600006
-0.043135241 0.008369524 0.67600006
-0.041785717 0.008357143 0.67500001
-0.040500004 0.008357143 0.67500001
-0.039156195 0.008344762 0.67400002
-0.037872385 0.008344762 0.67400002
-0.036480002 0.008320001 0.67200005
-0.035200004 0.008320001 0.67200005
-0.033920001 0.008320001 0.67200005
-0.032640003 0.008320001 0.67200005
-0.03136 0.008320001 0.67200005
-0.030080002 0.008320001 0.67200005
-0.028757146 0.00830762 0.671
-0.027520001 0.008320001 0.67200005
-0.026240002 0.008320001 0.67200005
-0.024960002 0.008320001 0.67200005
-0.023785716 0.008357143 0.67500001
-0.022500001 0.008357143 0.67500001
-0.021245716 0.008369524 0.67600006
-0.019958096 0.008369524 0.67600006
-0.018670477 0.008369524 0.67600006
-0.017382858 0.008369524 0.67600006
-0.063465722 0.0098142866 0.68700004
-0.062157147 0.0098142866 0.68700004
-0.060760003 0.009800001 0.68600005
-0.059280004 0.009771429 0.68400002
-0.057977147 0.009771429 0.68400002
-0.056591433 0.0097571434 0.68300003
-0.055290479 0.0097571434 0.68300003
-0.053752385 0.0097142868 0.68000001
-0.052457146 0.0097142868 0.68000001
-0.051086672 0.0097000003 0.67900002
-0.049720004 0.0096857147 0.67800003
-0.048428576 0.0096857147 0.67800003
-0.047137145 0.0096857147 0.67800003
-0.045710478 0.0096571436 0.67600006
-0.044422861 0.0096571436 0.67600006
-0.043135241 0.0096571436 0.67600006
-0.04184762 0.0096571436 0.67600006
-0.040500004 0.0096428581 0.67500001
-0.039214287 0.0096428581 0.67500001
-0.037872385 0.0096285725 0.67400002
-0.036588576 0.0096285725 0.67400002
-0.035304762 0.0096285725 0.67400002
-0.033920001 0.0096000005 0.67200005
-0.032640003 0.0096000005 0.67200005
-0.03136 0.0096000005 0.67200005
-0.030080002 0.0096000005 0.67200005
-0.028800001 0.0096000005 0.67200005
-0.027520001 0.0096000005 0.67200005
-0.026240002 0.0096000005 0.67200005
-0.025034288 0.0096285725 0.67400002
-0.023785716 0.0096428581 0.67500001
-0.022533335 0.0096571436 0.67600006
-0.021245716 0.0096571436 0.67600006
-0.019958096 0.0096571436 0.67600006
-0.018725716 0.0096857147 0.67800003
-0.062157147 0.011122858 0.68700004
-0.060760003 0.011106667 0.68600005
-0.059280004 0.011074287 0.68400002
-0.057977147 0.011074287 0.68400002
-0.056591433 0.011058096 0.68300003
-0.055290479 0.011058096 0.68300003
-0.053910479 0.011041906 0.68200004
-0.052457146 0.011009525 0.68000001
-0.051086672 0.010993334 0.67900002
-0.049793337 0.010993334 0.67900002
-0.048428576 0.010977143 0.67800003
-0.047137145 0.010977143 0.67800003
-0.045845717 0.010977143 0.67800003
-0.044554289 0.010977143 0.67800003
-0.043135241 0.010944762 0.67600006
-0.04184762 0.010944762 0.67600006
-0.040560003 0.010944762 0.67600006
-0.039214287 0.010928572 0.67500001
-0.037872385 0.010912382 0.67400002
-0.036588576 0.010912382 0.67400002
-0.035304762 0.010912382 0.67400002
-0.034020953 0.010912382 0.67400002
-0.032737143 0.010912382 0.67400002
-0.031453334 0.010912382 0.67400002
-0.030080002 0.010880001 0.67200005
-0.028800001 0.010880001 0.67200005
-0.027601907 0.010912382 0.67400002
-0.026318097 0.010912382 0.67400002
-0.025034288 0.010912382 0.67400002
-0.023785716 0.010928572 0.67500001
-0.022533335 0.010944762 0.67600006
-0.021308573 0.010977143 0.67800003
-0.020017143 0.010977143 0.67800003
-0.018725716 0.010977143 0.67800003
-0.062338099 0.01246762 0.68900001
-0.060848575 0.01243143 0.68700004
