# .PCD v0.7 - Point Cloud Data file format
VERSION 0.7
FIELDS x y z
SIZE 4 4 4
TYPE F F F
COUNT 1 1 1
WIDTH 1408
HEIGHT 1
VIEWPOINT 0 0 0 1 0 0 0
POINTS 1408
DATA ascii
0.062263813 0.049461909 0.611
0.063220002 0.049300004 0.60900003
0.064274289 0.04921905 0.60800004
0.065432385 0.04921905 0.60800004
0.066480957 0.049138099 0.60700005
0.067414291 0.048976194 0.60500002
0.068566673 0.048976194 0.60500002
0.069719054 0.048976194 0.60500002
0.07075429 0.04889524 0.60400003
0.072023816 0.048976194 0.60500002
0.073055245 0.04889524 0.60400003
0.074205719 0.04889524 0.60400003
0.07548096 0.048976194 0.60500002
0.076633342 0.048976194 0.60500002
0.07791429 0.049057145 0.60600001
0.078938097 0.048976194 0.60500002
0.080090478 0.048976194 0.60500002
0.047550481 0.052365717 0.63200003
0.048677146 0.052282862 0.63100004
0.049720954 0.052117147 0.62900001
0.050838098 0.052034289 0.62800002
0.051785719 0.051785719 0.625
0.052806672 0.051620003 0.62300003
0.053733338 0.051371433 0.62
0.054737147 0.051205717 0.61800003
0.055823814 0.051122859 0.61700004
0.05690667 0.051040005 0.61600006
0.057985719 0.050957147 0.61500001
0.058964767 0.050791431 0.61300004
0.060132384 0.050791431 0.61300004
0.061200004 0.050708573 0.61200005
0.062263813 0.050625719 0.611
0.063220002 0.050460003 0.60900003
0.064274289 0.050377145 0.60800004
0.065432385 0.050377145 0.60800004
0.066480957 0.050294288 0.60700005
0.067637146 0.050294288 0.60700005
0.068680003 0.050211433 0.60600001
0.069834292 0.050211433 0.60600001
0.070988573 0.050211433 0.60600001
0.072142862 0.050211433 0.60600001
0.07329715 0.050211433 0.60600001
0.074328579 0.050128575 0.60500002
0.07560572 0.050211433 0.60600001
0.076760001 0.050211433 0.60600001
0.07791429 0.050211433 0.60600001
0.078938097 0.050128575 0.60500002
0.080090478 0.050128575 0.60500002
0.046566669 0.053823814 0.63500005
0.047625717 0.053654291 0.63300002
0.04875429 0.053569525 0.63200003
0.049720954 0.053315241 0.62900001
0.050838098 0.053230479 0.62800002
0.051785719 0.052976195 0.625
0.052806672 0.052806672 0.62300003
0.053733338 0.052552383 0.62
0.054737147 0.05238286 0.61800003
0.055823814 0.052298099 0.61700004
0.05690667 0.052213337 0.61600006
0.057985719 0.052128576 0.61500001
0.058964767 0.051959053 0.61300004
0.06003429 0.051874287 0.61200005
0.061200004 0.051874287 0.61200005
0.062263813 0.051789526 0.611
0.063220002 0.051620003 0.60900003
0.064380005 0.051620003 0.60900003
0.065432385 0.051535241 0.60800004
0.066590481 0.051535241 0.60800004
0.067748576 0.051535241 0.60800004
0.068793342 0.05145048 0.60700005
0.06994953 0.05145048 0.60700005
0.071105719 0.05145048 0.60700005
0.072142862 0.051365718 0.60600001
0.07329715 0.051365718 0.60600001
0.074451432 0.051365718 0.60600001
0.07560572 0.051365718 0.60600001
0.076760001 0.051365718 0.60600001
0.07791429 0.051365718 0.60600001
0.079068579 0.051365718 0.60600001
0.14274001 0.067216195 0.79300004
0.14425048 0.067216195 0.79300004
0.14576097 0.067216195 0.79300004
0.14727144 0.067216195 0.79300004
0.047625717 0.054860003 0.63300002
0.04875429 0.054773338 0.63200003
0.049720954 0.054513335 0.62900001
0.050757147 0.054340005 0.62700003
0.051702861 0.054080002 0.62400001
0.052806672 0.053993337 0.62300003
0.053733338 0.053733338 0.62
0.054825719 0.053646669 0.61900002
0.05591429 0.053560004 0.61800003
0.05690667 0.05338667 0.61600006
0.058080003 0.05338667 0.61600006
0.059157148 0.053300004 0.61500001
0.060132384 0.05312667 0.61300004
0.061200004 0.053040005 0.61200005
0.062365718 0.053040005 0.61200005
0.06342762 0.052953336 0.611
0.064380005 0.052780002 0.60900003
0.065540001 0.052780002 0.60900003
0.066590481 0.052693337 0.60800004
0.067748576 0.052693337 0.60800004
0.068793342 0.052606668 0.60700005
0.06994953 0.052606668 0.60700005
0.071105719 0.052606668 0.60700005
0.072261907 0.052606668 0.60700005
0.07329715 0.052520003 0.60600001
0.074451432 0.052520003 0.60600001
0.07573048 0.052606668 0.60700005
0.076886669 0.052606668 0.60700005
0.078042865 0.052606668 0.60700005
0.079199053 0.052606668 0.60700005
0.13786002 0.068553336 0.79100001
0.13936667 0.068553336 0.79100001
0.14087334 0.068553336 0.79100001
0.14238001 0.068553336 0.79100001
0.14388667 0.068553336 0.79100001
0.14539334 0.068553336 0.79100001
0.14690001 0.068553336 0.79100001
0.046566669 0.056242861 0.63500005
0.047625717 0.05606572 0.63300002
0.04852286 0.055711433 0.62900001
0.049641907 0.055622861 0.62800002
0.050757147 0.055534288 0.62700003
0.051702861 0.055268575 0.62400001
0.052806672 0.055180002 0.62300003
0.053733338 0.054914288 0.62
0.054825719 0.054825719 0.61900002
0.05591429 0.054737147 0.61800003
0.05699905 0.054648574 0.61700004
0.058080003 0.054560002 0.61600006
0.059157148 0.054471433 0.61500001
0.060132384 0.054294288 0.61300004
0.061300006 0.054294288 0.61300004
0.062365718 0.054205719 0.61200005
0.06342762 0.054117147 0.611
0.06459143 0.054117147 0.611
0.065540001 0.053940002 0.60900003
0.066700004 0.053940002 0.60900003
0.067748576 0.053851433 0.60800004
0.068793342 0.053762861 0.60700005
0.06994953 0.053762861 0.60700005
0.071105719 0.053762861 0.60700005
0.072261907 0.053762861 0.60700005
0.073418103 0.053762861 0.60700005
0.074451432 0.053674288 0.60600001
0.07573048 0.053762861 0.60700005
0.076886669 0.053762861 0.60700005
0.078042865 0.053762861 0.60700005
0.079199053 0.053762861 0.60700005
0.046566669 0.057452384 0.63500005
0.047625717 0.057271432 0.63300002
0.04852286 0.056909528 0.62900001
0.049879052 0.05709048 0.63100004
0.050838098 0.056819052 0.62800002
0.051868577 0.056638099 0.62600005
0.052976195 0.056547623 0.625
0.053993337 0.056366671 0.62300003
0.055091433 0.056276195 0.62200004
0.056004766 0.056004766 0.61900002
0.057091434 0.05591429 0.61800003
0.05817429 0.055823814 0.61700004
0.059253339 0.055733338 0.61600006
0.060328577 0.055642862 0.61500001
0.061300006 0.05546191 0.61300004
0.062467624 0.05546191 0.61300004
0.063531436 0.055371433 0.61200005
0.064697146 0.055371433 0.61200005
0.065755241 0.055280957 0.611
0.066700004 0.055100005 0.60900003
0.067860007 0.055100005 0.60900003
0.068906672 0.055009529 0.60800004
0.070064768 0.055009529 0.60800004
0.071222864 0.055009529 0.60800004
0.072261907 0.054919053 0.60700005
0.073539056 0.055009529 0.60800004
0.074574292 0.054919053 0.60700005
0.07585524 0.055009529 0.60800004
0.077013336 0.055009529 0.60800004
0.078171432 0.055009529 0.60800004
0.079329528 0.055009529 0.60800004
0.046493337 0.058569528 0.634
0.047625717 0.058477148 0.63300002
0.04852286 0.058107622 0.62900001
0.049641907 0.058015242 0.62800002
0.050838098 0.058015242 0.62800002
0.051868577 0.057830479 0.62600005
0.052976195 0.057738099 0.625
0.053993337 0.057553336 0.62300003
0.055091433 0.057460956 0.62200004
0.056095243 0.057276193 0.62
0.057091434 0.057091434 0.61800003
0.05817429 0.05699905 0.61700004
0.059253339 0.05690667 0.61600006
0.060328577 0.056814291 0.61500001
0.061400004 0.056721907 0.61400002
0.062467624 0.056629527 0.61300004
0.063635245 0.056629527 0.61300004
0.064697146 0.056537148 0.61200005
0.065862864 0.056537148 0.61200005
0.066919051 0.056444764 0.611
0.067860007 0.056260005 0.60900003
0.069020003 0.056260005 0.60900003
0.070064768 0.056167621 0.60800004
0.071222864 0.056167621 0.60800004
0.07238096 0.056167621 0.60800004
0.073539056 0.056167621 0.60800004
0.074697144 0.056167621 0.60800004
0.076354288 0.056537148 0.61200005
0.077520005 0.056537148 0.61200005
0.078685716 0.056537148 0.61200005
0.080503814 0.05699905 0.61700004
0.081546672 0.05690667 0.61600006
0.082720004 0.05690667 0.61600006
0.083893336 0.05690667 0.61600006
0.046420004 0.059682861 0.63300002
0.047475241 0.059494291 0.63100004
0.04852286 0.05930572 0.62900001
0.049720954 0.05930572 0.62900001
0.050919052 0.05930572 0.62900001
0.051951431 0.059117146 0.62700003
0.053060956 0.059022862 0.62600005
0.054080002 0.058834288 0.62400001
0.055180002 0.058740005 0.62300003
0.056095243 0.058457147 0.62
0.057091434 0.058268577 0.61800003
0.05817429 0.05817429 0.61700004
0.059349529 0.05817429 0.61700004
0.060426671 0.058080003 0.61600006
0.061500005 0.057985719 0.61500001
0.062569529 0.057891432 0.61400002
0.063635245 0.057797145 0.61300004
0.064802863 0.057797145 0.61300004
0.065862864 0.057702862 0.61200005
0.067028575 0.057702862 0.61200005
0.068082862 0.057608575 0.611
0.069246672 0.057608575 0.611
0.070410483 0.057608575 0.611
0.071222864 0.057325717 0.60800004
0.07238096 0.057325717 0.60800004
0.073539056 0.057325717 0.60800004
0.075680003 0.058080003 0.61600006
0.076728575 0.057985719 0.61500001
0.077900007 0.057985719 0.61500001
0.079200007 0.058080003 0.61600006
0.080503814 0.05817429 0.61700004
0.081546672 0.058080003 0.61600006
0.082720004 0.058080003 0.61600006
0.083893336 0.058080003 0.61600006
0.047625717 0.060888577 0.63300002
0.048677146 0.060696196 0.63100004
0.049879052 0.060696196 0.63100004
0.050919052 0.060503814 0.62900001
0.052034289 0.060407624 0.62800002
0.053145718 0.060311433 0.62700003
0.054253336 0.060215242 0.62600005
0.055180002 0.05992667 0.62300003
0.056276195 0.059830479 0.62200004
0.057276193 0.059638098 0.62
0.05817429 0.059349529 0.61700004
0.059349529 0.059349529 0.61700004
0.060426671 0.059253339 0.61600006
0.061500005 0.059157148 0.61500001
0.062569529 0.059060957 0.61400002
0.063635245 0.058964767 0.61300004
0.064802863 0.058964767 0.61300004
0.06597048 0.058964767 0.61300004
0.067028575 0.058868576 0.61200005
0.068194292 0.058868576 0.61200005
0.069360003 0.058868576 0.61200005
0.070525721 0.058868576 0.61200005
0.071340002 0.058580004 0.60900003
0.072500005 0.058580004 0.60900003
0.07450667 0.059253339 0.61600006
0.075680003 0.059253339 0.61600006
0.076853335 0.059253339 0.61600006
0.078026675 0.059253339 0.61600006
0.079200007 0.059253339 0.61600006
0.080373339 0.059253339 0.61600006
0.081546672 0.059253339 0.61600006
0.082720004 0.059253339 0.61600006
0.083757147 0.059157148 0.61500001
0.047700956 0.062192384 0.634
0.048831433 0.06209429 0.63300002
0.049958099 0.061996195 0.63200003
0.051080957 0.061898101 0.63100004
0.052117147 0.061701909 0.62900001
0.053230479 0.061603814 0.62800002
0.054340005 0.06150572 0.62700003
0.055268575 0.061211433 0.62400001
0.056276195 0.061015241 0.62200004
0.057276193 0.060819052 0.62
0.058268577 0.06062286 0.61800003
0.059349529 0.060524765 0.61700004
0.060524765 0.060524765 0.61700004
0.061500005 0.060328577 0.61500001
0.06267143 0.060328577 0.61500001
0.063739054 0.060230479 0.61400002
0.064908579 0.060230479 0.61400002
0.066078097 0.060230479 0.61400002
0.067138098 0.060132384 0.61300004
0.068305716 0.060132384 0.61300004
0.069473341 0.060132384 0.61300004
0.070640959 0.060132384 0.61300004
0.071925722 0.060230479 0.61400002
0.07309524 0.060230479 0.61400002
0.07450667 0.060426671 0.61600006
0.075680003 0.060426671 0.61600006
0.076853335 0.060426671 0.61600006
0.078026675 0.060426671 0.61600006
0.079200007 0.060426671 0.61600006
0.080373339 0.060426671 0.61600006
0.081546672 0.060426671 0.61600006
0.082854293 0.060524765 0.61700004
0.047700956 0.063400008 0.634
0.048908576 0.063400008 0.634
0.050037146 0.063300006 0.63300002
0.051080957 0.063100003 0.63100004
0.052117147 0.062900007 0.62900001
0.053230479 0.062800005 0.62800002
0.054340005 0.062700003 0.62700003
0.055357147 0.062500007 0.625
0.056095243 0.062000003 0.62
0.057183813 0.061900005 0.61900002
0.058268577 0.061800003 0.61800003
0.059349529 0.061700005 0.61700004
0.060524765 0.061700005 0.61700004
0.061600003 0.061600003 0.61600006
0.06267143 0.061500005 0.61500001
0.063739054 0.061400004 0.61400002
0.064908579 0.061400004 0.61400002
0.066078097 0.061400004 0.61400002
0.067247622 0.061400004 0.61400002
0.068417147 0.061400004 0.61400002
0.069700003 0.061500005 0.61500001
0.070986673 0.061600003 0.61600006
0.07204286 0.061500005 0.61500001
0.073214293 0.061500005 0.61500001
0.07450667 0.061600003 0.61600006
0.075802863 0.061700005 0.61700004
0.076978102 0.061700005 0.61700004
0.078026675 0.061600003 0.61600006
0.079328574 0.061700005 0.61700004
0.080503814 0.061700005 0.61700004
0.081679054 0.061700005 0.61700004
0.047700956 0.06460762 0.634
0.048908576 0.06460762 0.634
0.049958099 0.064403817 0.63200003
0.051080957 0.064301908 0.63100004
0.052117147 0.064098097 0.62900001
0.053315241 0.064098097 0.62900001
0.05442667 0.063996196 0.62800002
0.055357147 0.063690484 0.625
0.056276195 0.063384764 0.62200004
0.057276193 0.063180953 0.62
0.05836286 0.063079052 0.61900002
0.059445716 0.06297715 0.61800003
0.06062286 0.06297715 0.61800003
0.061700005 0.062875241 0.61700004
0.062875241 0.062875241 0.61700004
0.063946672 0.062773339 0.61600006
0.065120004 0.062773339 0.61600006
0.066293336 0.062773339 0.61600006
0.067466669 0.062773339 0.61600006
0.068640001 0.062773339 0.61600006
0.069926672 0.062875241 0.61700004
0.071101911 0.062875241 0.61700004
0.072160006 0.062773339 0.61600006
0.073452383 0.062875241 0.61700004
0.074627623 0.062875241 0.61700004
0.075802863 0.062875241 0.61700004
0.076978102 0.062875241 0.61700004
0.078280002 0.06297715 0.61800003
0.079328574 0.062875241 0.61700004
0.04678667 0.066230483 0.63800001
0.047776192 0.065919049 0.63500005
0.048985716 0.065919049 0.63500005
0.050116193 0.06581524 0.634
0.051161908 0.065607622 0.63200003
0.052282862 0.065503813 0.63100004
0.053315241 0.065296195 0.62900001
0.05442667 0.065192387 0.62800002
0.05544572 0.064984769 0.62600005
0.056276195 0.064569525 0.62200004
0.057276193 0.064361908 0.62
0.058457147 0.064361908 0.62
0.059541907 0.064258099 0.61900002
0.060720958 0.064258099 0.61900002
0.061900005 0.064258099 0.61900002
0.06297715 0.06415429 0.61800003
0.06415429 0.06415429 0.61800003
0.065331429 0.06415429 0.61800003
0.06640096 0.064050481 0.61700004
0.067576192 0.064050481 0.61700004
0.068862863 0.06415429 0.61800003
0.070040002 0.06415429 0.61800003
0.071217149 0.06415429 0.61800003
0.072277151 0.064050481 0.61700004
0.073571436 0.06415429 0.61800003
0.074627623 0.064050481 0.61700004
0.075925723 0.06415429 0.61800003
0.077102862 0.06415429 0.61800003
0.078280002 0.06415429 0.61800003
0.079457149 0.06415429 0.61800003
0.080764771 0.064258099 0.61900002
0.046860002 0.067551434 0.63900006
0.048001908 0.067445718 0.63800001
0.049217146 0.067445718 0.63800001
0.05027429 0.067234293 0.63600004
0.051323812 0.06702286 0.634
0.052448574 0.066917144 0.63300002
0.053484764 0.066705719 0.63100004
0.05442667 0.066388577 0.62800002
0.05544572 0.066177145 0.62600005
0.056276195 0.065754287 0.62200004
0.057460956 0.065754287 0.62200004
0.058645718 0.065754287 0.62200004
0.059638098 0.065542862 0.62
0.060819052 0.065542862 0.62
0.062000003 0.065542862 0.62
0.063180953 0.065542862 0.62
0.064258099 0.065437146 0.61900002
0.065437146 0.065437146 0.61900002
0.066508576 0.065331429 0.61800003
0.067685716 0.065331429 0.61800003
0.068862863 0.065331429 0.61800003
0.070040002 0.065331429 0.61800003
0.071217149 0.065331429 0.61800003
0.072277151 0.06522572 0.61700004
0.073452383 0.06522572 0.61700004
0.074627623 0.06522572 0.61700004
0.075925723 0.065331429 0.61800003
0.077102862 0.065331429 0.61800003
0.078280002 0.065331429 0.61800003
0.079457149 0.065331429 0.61800003
0.080764771 0.065437146 0.61900002
0.045785718 0.068983816 0.64100003
0.046860002 0.068768576 0.63900006
0.048001908 0.06866096 0.63800001
0.049217146 0.06866096 0.63800001
0.050195243 0.068338096 0.63500005
0.051323812 0.06823048 0.634
0.052448574 0.068122864 0.63300002
0.053569525 0.06801524 0.63200003
0.054513335 0.067692384 0.62900001
0.05544572 0.067369528 0.62600005
0.056457147 0.067154288 0.62400001
0.057738099 0.067261912 0.625
0.058645718 0.066939048 0.62200004
0.059638098 0.066723816 0.62
0.061015241 0.066939048 0.62200004
0.062000003 0.066723816 0.62
0.063180953 0.066723816 0.62
0.064258099 0.066616192 0.61900002
0.065437146 0.066616192 0.61900002
0.066508576 0.066508576 0.61800003
0.067685716 0.066508576 0.61800003
0.068862863 0.066508576 0.61800003
0.070040002 0.066508576 0.61800003
0.071101911 0.06640096 0.61700004
0.072277151 0.06640096 0.61700004
0.073452383 0.06640096 0.61700004
0.074627623 0.06640096 0.61700004
0.075925723 0.066508576 0.61800003
0.077102862 0.066508576 0.61800003
0.078533337 0.066723816 0.62
0.079714291 0.066723816 0.62
0.080895245 0.066723816 0.62
0.045785718 0.070204765 0.64100003
0.046933338 0.070095241 0.64000005
0.048077147 0.069985718 0.63900006
0.049217146 0.069876194 0.63800001
0.050195243 0.069547623 0.63500005
0.051323812 0.0694381 0.634
0.052448574 0.069328576 0.63300002
0.053484764 0.069109529 0.63100004
0.054513335 0.068890482 0.62900001
0.05544572 0.068561912 0.62600005
0.056457147 0.068342865 0.62400001
0.057645719 0.068342865 0.62400001
0.058740005 0.068233341 0.62300003
0.05992667 0.068233341 0.62300003
0.061113339 0.068233341 0.62300003
0.062200002 0.068123817 0.62200004
0.063384764 0.068123817 0.62200004
0.064569525 0.068123817 0.62200004
0.065754287 0.068123817 0.62200004
0.066939048 0.068123817 0.62200004
0.068123817 0.068123817 0.62200004
0.069085717 0.067904763 0.62
0.070266671 0.067904763 0.62
0.071332388 0.067795239 0.61900002
0.072511435 0.067795239 0.61900002
0.073690481 0.067795239 0.61900002
0.074990481 0.067904763 0.62
0.076171435 0.067904763 0.62
0.07760191 0.068123817 0.62200004
0.078786671 0.068123817 0.62200004
0.080100007 0.068233341 0.62300003
0.045714289 0.07131429 0.64000005
0.046860002 0.071202859 0.63900006
0.048001908 0.071091436 0.63800001
0.049217146 0.071091436 0.63800001
0.050116193 0.07064572 0.634
0.051242862 0.070534289 0.63300002
0.052448574 0.070534289 0.63300002
0.053484764 0.070311435 0.63100004
0.054686669 0.070311435 0.63100004
0.055534288 0.069865718 0.62700003
0.056638099 0.069754288 0.62600005
0.057738099 0.069642864 0.625
0.058740005 0.069420002 0.62300003
0.059830479 0.069308579 0.62200004
0.061015241 0.069308579 0.62200004
0.062200002 0.069308579 0.62200004
0.063384764 0.069308579 0.62200004
0.064569525 0.069308579 0.62200004
0.065754287 0.069308579 0.62200004
0.066939048 0.069308579 0.62200004
0.068123817 0.069308579 0.62200004
0.069308579 0.069308579 0.62200004
0.070266671 0.069085717 0.62
0.071447626 0.069085717 0.62
0.072628573 0.069085717 0.62
0.073809527 0.069085717 0.62
0.074990481 0.069085717 0.62
0.076171435 0.069085717 0.62
0.07760191 0.069308579 0.62200004
0.078913338 0.069420002 0.62300003
0.080228575 0.069531433 0.62400001
0.046933338 0.072533339 0.64000005
0.048001908 0.07230667 0.63800001
0.049217146 0.07230667 0.63800001
0.050195243 0.07196667 0.63500005
0.051323812 0.07185334 0.634
0.052448574 0.071740001 0.63300002
0.053484764 0.07151334 0.63100004
0.054686669 0.07151334 0.63100004
0.055534288 0.071060002 0.62700003
0.056638099 0.070946671 0.62600005
0.057738099 0.07083334 0.625
0.058928575 0.07083334 0.625
0.05992667 0.070606671 0.62300003
0.061113339 0.070606671 0.62300003
0.062200002 0.07049334 0.62200004
0.063384764 0.07049334 0.62200004
0.064569525 0.07049334 0.62200004
0.065754287 0.07049334 0.62200004
0.066939048 0.07049334 0.62200004
0.068123817 0.07049334 0.62200004
0.069308579 0.07049334 0.62200004
0.070266671 0.070266671 0.62
0.071447626 0.070266671 0.62
0.072628573 0.070266671 0.62
0.073809527 0.070266671 0.62
0.075232387 0.07049334 0.62200004
0.076417148 0.07049334 0.62200004
0.07772667 0.070606671 0.62300003
0.078913338 0.070606671 0.62300003
0.080228575 0.070720002 0.62400001
0.081547625 0.07083334 0.625
0.046933338 0.073752388 0.64000005
0.048077147 0.07363715 0.63900006
0.049217146 0.073521912 0.63800001
0.05027429 0.073291436 0.63600004
0.051404767 0.073176198 0.63500005
0.052448574 0.072945721 0.63300002
0.053569525 0.072830483 0.63200003
0.054686669 0.072715245 0.63100004
0.055711433 0.072484769 0.62900001
0.056728575 0.072254293 0.62700003
0.057830479 0.072139055 0.62600005
0.058928575 0.072023816 0.625
0.060119051 0.072023816 0.625
0.061113339 0.07179334 0.62300003
0.062300004 0.07179334 0.62300003
0.063384764 0.071678102 0.62200004
0.064569525 0.071678102 0.62200004
0.065754287 0.071678102 0.62200004
0.066939048 0.071678102 0.62200004
0.068123817 0.071678102 0.62200004
0.069308579 0.071678102 0.62200004
0.07049334 0.071678102 0.62200004
0.071678102 0.071678102 0.62200004
0.072862864 0.071678102 0.62200004
0.074047625 0.071678102 0.62200004
0.075232387 0.071678102 0.62200004
0.076417148 0.071678102 0.62200004
0.07772667 0.07179334 0.62300003
0.079040006 0.071908578 0.62400001
0.080228575 0.071908578 0.62400001
0.081547625 0.072023816 0.625
0.046000004 0.075440004 0.64400005
0.04700667 0.075088575 0.64100003
0.048152383 0.07497143 0.64000005
0.049217146 0.074737146 0.63800001
0.05027429 0.074502863 0.63600004
0.051404767 0.074385718 0.63500005
0.052448574 0.074151434 0.63300002
0.053569525 0.074034289 0.63200003
0.054686669 0.07391715 0.63100004
0.055888575 0.07391715 0.63100004
0.056728575 0.073448576 0.62700003
0.057830479 0.073331431 0.62600005
0.058834288 0.073097147 0.62400001
0.05992667 0.072980002 0.62300003
0.061113339 0.072980002 0.62300003
0.062300004 0.072980002 0.62300003
0.063486673 0.072980002 0.62300003
0.064673334 0.072980002 0.62300003
0.065860003 0.072980002 0.62300003
0.067046672 0.072980002 0.62300003
0.068123817 0.072862864 0.62200004
0.069308579 0.072862864 0.62200004
0.07049334 0.072862864 0.62200004
0.071678102 0.072862864 0.62200004
0.072862864 0.072862864 0.62200004
0.074047625 0.072862864 0.62200004
0.075353339 0.072980002 0.62300003
0.076540008 0.072980002 0.62300003
0.077851437 0.073097147 0.62400001
0.079166673 0.073214293 0.625
0.080357149 0.073214293 0.625
0.081547625 0.073214293 0.625
0.048152383 0.076190479 0.64000005
0.049294289 0.076071434 0.63900006
0.05027429 0.07571429 0.63600004
0.051404767 0.075595245 0.63500005
0.052531432 0.075476192 0.634
0.053569525 0.075238101 0.63200003
0.054686669 0.075119056 0.63100004
0.055888575 0.075119056 0.63100004
0.056819052 0.074761912 0.62800002
0.057830479 0.074523814 0.62600005
0.059022862 0.074523814 0.62600005
0.060022861 0.074285716 0.62400001
0.061113339 0.07416667 0.62300003
0.062400006 0.074285716 0.62400001
0.063486673 0.07416667 0.62300003
0.064673334 0.07416667 0.62300003
0.065860003 0.07416667 0.62300003
0.067046672 0.07416667 0.62300003
0.068233341 0.07416667 0.62300003
0.069420002 0.07416667 0.62300003
0.070606671 0.07416667 0.62300003
0.07179334 0.07416667 0.62300003
0.072980002 0.07416667 0.62300003
0.07416667 0.07416667 0.62300003
0.075353339 0.07416667 0.62300003
0.076662861 0.074285716 0.62400001
0.077976197 0.074404769 0.625
0.079166673 0.074404769 0.625
0.080357149 0.074404769 0.625
0.0816781 0.074523814 0.62600005
0.048077147 0.077288575 0.63900006
0.049217146 0.077167623 0.63800001
0.05027429 0.076925717 0.63600004
0.051404767 0.076804765 0.63500005
0.052531432 0.076683812 0.634
0.053654291 0.076562859 0.63300002
0.054860003 0.076562859 0.63300002
0.055888575 0.076320961 0.63100004
0.056819052 0.075958103 0.62800002
0.057830479 0.075716197 0.62600005
0.058928575 0.075595245 0.625
0.060022861 0.075474292 0.62400001
0.061211433 0.075474292 0.62400001
0.062400006 0.075474292 0.62400001
0.063486673 0.075353339 0.62300003
0.064777151 0.075474292 0.62400001
0.06596572 0.075474292 0.62400001
0.067046672 0.075353339 0.62300003
0.068233341 0.075353339 0.62300003
0.069420002 0.075353339 0.62300003
0.070606671 0.075353339 0.62300003
0.07179334 0.075353339 0.62300003
0.072980002 0.075353339 0.62300003
0.07416667 0.075353339 0.62300003
0.075474292 0.075474292 0.62400001
0.076785721 0.075595245 0.625
0.077976197 0.075595245 0.625
0.07929334 0.075716197 0.62600005
0.080485716 0.075716197 0.62600005
0.048152383 0.078628577 0.64000005
0.049217146 0.078382865 0.63800001
0.05027429 0.078137144 0.63600004
0.051404767 0.078014292 0.63500005
0.052531432 0.077891432 0.634
0.053654291 0.077768579 0.63300002
0.054860003 0.077768579 0.63300002
0.055888575 0.077522859 0.63100004
0.056819052 0.077154294 0.62800002
0.057922862 0.077031434 0.62700003
0.059022862 0.076908574 0.62600005
0.060119051 0.076785721 0.625
0.061309528 0.076785721 0.625
0.062400006 0.076662861 0.62400001
0.063588575 0.076662861 0.62400001
0.064777151 0.076662861 0.62400001
0.06596572 0.076662861 0.62400001
0.067154288 0.076662861 0.62400001
0.068342865 0.076662861 0.62400001
0.069531433 0.076662861 0.62400001
0.070606671 0.076540008 0.62300003
0.071908578 0.076662861 0.62400001
0.073097147 0.076662861 0.62400001
0.074285716 0.076662861 0.62400001
0.075474292 0.076662861 0.62400001
0.076785721 0.076785721 0.625
0.078100957 0.076908574 0.62600005
0.07929334 0.076908574 0.62600005
0.080485716 0.076908574 0.62600005
0.049217146 0.079598099 0.63800001
0.05027429 0.079348579 0.63600004
0.051404767 0.079223812 0.63500005
0.052531432 0.079099052 0.634
0.053739052 0.079099052 0.634
0.054860003 0.078974292 0.63300002
0.055888575 0.078724764 0.63100004
0.056909528 0.078475244 0.62900001
0.057922862 0.078225717 0.62700003
0.059117146 0.078225717 0.62700003
0.060119051 0.077976197 0.625
0.061309528 0.077976197 0.625
0.062500007 0.077976197 0.625
0.063588575 0.077851437 0.62400001
0.06488096 0.077976197 0.625
0.066071436 0.077976197 0.625
0.067154288 0.077851437 0.62400001
0.068342865 0.077851437 0.62400001
0.069531433 0.077851437 0.62400001
0.070720002 0.077851437 0.62400001
0.072023816 0.077976197 0.625
0.073097147 0.077851437 0.62400001
0.074404769 0.077976197 0.625
0.075595245 0.077976197 0.625
0.076908574 0.078100957 0.62600005
0.078225717 0.078225717 0.62700003
0.07929334 0.078100957 0.62600005
0.080485716 0.078100957 0.62600005
0.049062859 0.080560006 0.63600004
0.05027429 0.080560006 0.63600004
0.051404767 0.080433339 0.63500005
0.052531432 0.080306672 0.634
0.053739052 0.080306672 0.634
0.054860003 0.080180004 0.63300002
0.055888575 0.07992667 0.63100004
0.056909528 0.079673335 0.62900001
0.058015242 0.079546675 0.62800002
0.059117146 0.079420008 0.62700003
0.060311433 0.079420008 0.62700003
0.061407622 0.07929334 0.62600005
0.062600002 0.07929334 0.62600005
0.063792385 0.07929334 0.62600005
0.06488096 0.079166673 0.625
0.066071436 0.079166673 0.625
0.067261912 0.079166673 0.625
0.068452388 0.079166673 0.625
0.069642864 0.079166673 0.625
0.07083334 0.079166673 0.625
0.072023816 0.079166673 0.625
0.073214293 0.079166673 0.625
0.074404769 0.079166673 0.625
0.075716197 0.07929334 0.62600005
0.077031434 0.079420008 0.62700003
0.078225717 0.079420008 0.62700003
0.079420008 0.079420008 0.62700003
0.080614291 0.079420008 0.62700003
0.049217146 0.082028575 0.63800001
0.05027429 0.081771433 0.63600004
0.051404767 0.081642866 0.63500005
0.05261429 0.081642866 0.63500005
0.053739052 0.081514291 0.634
0.054946668 0.081514291 0.634
0.055977147 0.08125715 0.63200003
0.057180956 0.08125715 0.63200003
0.058107622 0.080871433 0.62900001
0.059211433 0.080742866 0.62800002
0.060407624 0.080742866 0.62800002
0.06150572 0.080614291 0.62700003
0.062700003 0.080614291 0.62700003
0.063894287 0.080614291 0.62700003
0.064984769 0.080485716 0.62600005
0.066177145 0.080485716 0.62600005
0.067261912 0.080357149 0.625
0.068452388 0.080357149 0.625
0.069642864 0.080357149 0.625
0.07083334 0.080357149 0.625
0.072023816 0.080357149 0.625
0.073331431 0.080485716 0.62600005
0.074523814 0.080485716 0.62600005
0.075716197 0.080485716 0.62600005
0.077154294 0.080742866 0.62800002
0.078350484 0.080742866 0.62800002
0.079546675 0.080742866 0.62800002
0.080614291 0.080614291 0.62700003
0.081808574 0.080614291 0.62700003
0.049062859 0.082982861 0.63600004
0.05027429 0.082982861 0.63600004
0.051404767 0.082852386 0.63500005
0.05261429 0.082852386 0.63500005
0.053739052 0.082721911 0.634
0.054946668 0.082721911 0.634
0.05606572 0.082591437 0.63300002
0.057180956 0.082460955 0.63200003
0.058292385 0.08233048 0.63100004
0.059494291 0.08233048 0.63100004
0.060503814 0.082069531 0.62900001
0.061701909 0.082069531 0.62900001
0.062900007 0.082069531 0.62900001
0.063996196 0.081939057 0.62800002
0.065192387 0.081939057 0.62800002
0.066282861 0.081808574 0.62700003
0.067369528 0.0816781 0.62600005
0.068561912 0.0816781 0.62600005
0.069754288 0.0816781 0.62600005
0.070946671 0.0816781 0.62600005
0.072139055 0.0816781 0.62600005
0.073448576 0.081808574 0.62700003
0.074761912 0.081939057 0.62800002
0.076079056 0.082069531 0.62900001
0.077277146 0.082069531 0.62900001
0.078475244 0.082069531 0.62900001
0.079673335 0.082069531 0.62900001
0.080871433 0.082069531 0.62900001
0.081939057 0.081939057 0.62800002
0.050432384 0.084459051 0.63800001
0.051485717 0.084194288 0.63600004
0.05261429 0.084061913 0.63500005
0.053739052 0.083929531 0.634
0.054946668 0.083929531 0.634
0.05606572 0.083797149 0.63300002
0.057180956 0.083664767 0.63200003
0.058292385 0.083532386 0.63100004
0.059494291 0.083532386 0.63100004
0.060696196 0.083532386 0.63100004
0.061701909 0.083267622 0.62900001
0.062900007 0.083267622 0.62900001
0.064098097 0.083267622 0.62900001
0.065192387 0.083135247 0.62800002
0.066388577 0.083135247 0.62800002
0.067369528 0.082870483 0.62600005
0.068561912 0.082870483 0.62600005
0.069754288 0.082870483 0.62600005
0.070946671 0.082870483 0.62600005
0.072254293 0.083002865 0.62700003
0.073448576 0.083002865 0.62700003
0.074880958 0.083267622 0.62900001
0.076320961 0.083532386 0.63100004
0.077522859 0.083532386 0.63100004
0.078724764 0.083532386 0.63100004
0.07992667 0.083532386 0.63100004
0.081128575 0.083532386 0.63100004
0.08233048 0.083532386 0.63100004
0.083532386 0.083532386 0.63100004
0.050432384 0.085674293 0.63800001
0.051485717 0.085405722 0.63600004
0.05261429 0.085271433 0.63500005
0.053823814 0.085271433 0.63500005
0.054946668 0.085137151 0.634
0.05606572 0.085002862 0.63300002
0.057271432 0.085002862 0.63300002
0.058384765 0.08486858 0.63200003
0.059588574 0.08486858 0.63200003
0.060696196 0.084734291 0.63100004
0.061898101 0.084734291 0.63100004
0.063100003 0.084734291 0.63100004
0.064301908 0.084734291 0.63100004
0.065296195 0.08446572 0.62900001
0.066494294 0.08446572 0.62900001
0.067584768 0.08433143 0.62800002
0.068671435 0.084197149 0.62700003
0.069865718 0.084197149 0.62700003
0.071060002 0.084197149 0.62700003
0.072254293 0.084197149 0.62700003
0.073565722 0.08433143 0.62800002
0.074880958 0.08446572 0.62900001
0.076441906 0.08486858 0.63200003
0.077645719 0.08486858 0.63200003
0.078849532 0.08486858 0.63200003
0.080180004 0.085002862 0.63300002
0.081385717 0.085002862 0.63300002
0.082591437 0.085002862 0.63300002
0.050590478 0.087161914 0.64000005
0.051647622 0.086889528 0.63800001
0.052697148 0.086617149 0.63600004
0.053823814 0.08648096 0.63500005
0.055033337 0.08648096 0.63500005
0.056154288 0.086344771 0.634
0.057271432 0.086208574 0.63300002
0.058384765 0.086072385 0.63200003
0.059588574 0.086072385 0.63200003
0.060696196 0.085936196 0.63100004
0.061898101 0.085936196 0.63100004
0.063100003 0.085936196 0.63100004
0.064301908 0.085936196 0.63100004
0.065296195 0.085663818 0.62900001
0.066494294 0.085663818 0.62900001
0.067692384 0.085663818 0.62900001
0.068780959 0.085527621 0.62800002
0.069977149 0.085527621 0.62800002
0.07117334 0.085527621 0.62800002
0.072484769 0.085663818 0.62900001
0.07368286 0.085663818 0.62900001
0.075119056 0.085936196 0.63100004
0.076562859 0.086208574 0.63300002
0.077768579 0.086208574 0.63300002
0.078974292 0.086208574 0.63300002
0.080180004 0.086208574 0.63300002
0.081514291 0.086344771 0.634
0.082721911 0.086344771 0.634
0.050590478 0.088380955 0.64000005
0.051809527 0.088380955 0.64000005
0.052697148 0.087828577 0.63600004
0.053823814 0.08769048 0.63500005
0.055033337 0.08769048 0.63500005
0.056154288 0.087552384 0.634
0.057361908 0.087552384 0.634
0.058569528 0.087552384 0.634
0.059682861 0.087414294 0.63300002
0.060792387 0.087276198 0.63200003
0.061996195 0.087276198 0.63200003
0.063200004 0.087276198 0.63200003
0.064403817 0.087276198 0.63200003
0.065503813 0.087138101 0.63100004
0.066705719 0.087138101 0.63100004
0.067692384 0.086861908 0.62900001
0.068890482 0.086861908 0.62900001
0.070088573 0.086861908 0.62900001
0.071286671 0.086861908 0.62900001
0.072484769 0.086861908 0.62900001
0.07391715 0.087138101 0.63100004
0.075119056 0.087138101 0.63100004
0.076683812 0.087552384 0.634
0.077891432 0.087552384 0.634
0.079099052 0.087552384 0.634
0.080433339 0.08769048 0.63500005
0.081642866 0.08769048 0.63500005
0.082852386 0.08769048 0.63500005
0.13854191 0.10094763 0.73100001
0.051890481 0.089740008 0.64100003
0.052697148 0.089040004 0.63600004
0.053823814 0.088900007 0.63500005
0.055033337 0.088900007 0.63500005
0.056242861 0.088900007 0.63500005
0.057361908 0.088760003 0.634
0.058569528 0.088760003 0.634
0.059682861 0.088620007 0.63300002
0.060888577 0.088620007 0.63300002
0.061996195 0.088480003 0.63200003
0.063200004 0.088480003 0.63200003
0.064403817 0.088480003 0.63200003
0.065503813 0.088340007 0.63100004
0.066705719 0.088340007 0.63100004
0.067907624 0.088340007 0.63100004
0.068890482 0.088060006 0.62900001
0.070311435 0.088340007 0.63100004
0.07151334 0.088340007 0.63100004
0.072715245 0.088340007 0.63100004
0.07391715 0.088340007 0.63100004
0.075357147 0.088620007 0.63300002
0.076683812 0.088760003 0.634
0.078014292 0.088900007 0.63500005
0.079223812 0.088900007 0.63500005
0.080433339 0.088900007 0.63500005
0.081771433 0.089040004 0.63600004
0.083504766 0.089600004 0.64000005
0.051890481 0.090960957 0.64100003
0.052945718 0.09067715 0.63900006
0.053908575 0.090251431 0.63600004
0.055033337 0.090109527 0.63500005
0.056242861 0.090109527 0.63500005
0.057361908 0.089967623 0.634
0.058569528 0.089967623 0.634
0.059777148 0.089967623 0.634
0.060888577 0.08982572 0.63300002
0.06209429 0.08982572 0.63300002
0.063300006 0.08982572 0.63300002
0.064403817 0.089683816 0.63200003
0.065503813 0.089541912 0.63100004
0.066705719 0.089541912 0.63100004
0.067907624 0.089541912 0.63100004
0.069109529 0.089541912 0.63100004
0.070311435 0.089541912 0.63100004
0.071626671 0.089683816 0.63200003
0.072715245 0.089541912 0.63100004
0.074151434 0.08982572 0.63300002
0.075476192 0.089967623 0.634
0.076804765 0.090109527 0.63500005
0.078014292 0.090109527 0.63500005
0.079223812 0.090109527 0.63500005
0.080433339 0.090109527 0.63500005
0.08215715 0.09067715 0.63900006
0.083504766 0.090819053 0.64000005
0.051890481 0.092181914 0.64100003
0.053028576 0.092038102 0.64000005
0.05416286 0.091894291 0.63900006
0.055120002 0.091462865 0.63600004
0.056242861 0.091319054 0.63500005
0.057452384 0.091319054 0.63500005
0.058661908 0.091319054 0.63500005
0.059777148 0.091175243 0.634
0.060888577 0.091031432 0.63300002
0.06209429 0.091031432 0.63300002
0.063300006 0.091031432 0.63300002
0.064403817 0.090887628 0.63200003
0.065503813 0.090743817 0.63100004
0.066705719 0.090743817 0.63100004
0.067907624 0.090743817 0.63100004
0.069109529 0.090743817 0.63100004
0.070422865 0.090887628 0.63200003
0.071626671 0.090887628 0.63200003
0.072830483 0.090887628 0.63200003
0.074151434 0.091031432 0.63300002
0.075476192 0.091175243 0.634
0.076804765 0.091319054 0.63500005
0.078137144 0.091462865 0.63600004
0.079348579 0.091462865 0.63600004
0.080813341 0.09175048 0.63800001
0.082285717 0.092038102 0.64000005
0.083635241 0.092181914 0.64100003
0.050669529 0.093402863 0.64100003
0.051890481 0.093402863 0.64100003
0.053028576 0.093257152 0.64000005
0.05416286 0.093111433 0.63900006
0.055120002 0.092674293 0.63600004
0.056331433 0.092674293 0.63600004
0.057542861 0.092674293 0.63600004
0.058661908 0.092528574 0.63500005
0.059777148 0.092382863 0.634
0.060984764 0.092382863 0.634
0.062192384 0.092382863 0.634
0.063300006 0.092237152 0.63300002
0.064403817 0.092091434 0.63200003
0.065607622 0.092091434 0.63200003
0.066811435 0.092091434 0.63200003
0.06801524 0.092091434 0.63200003
0.069219053 0.092091434 0.63200003
0.070422865 0.092091434 0.63200003
0.071740001 0.092237152 0.63300002
0.072945721 0.092237152 0.63300002
0.074268579 0.092382863 0.634
0.075476192 0.092382863 0.634
0.076925717 0.092674293 0.63600004
0.078137144 0.092674293 0.63600004
0.079598099 0.092965722 0.63800001
0.080813341 0.092965722 0.63800001
0.082285717 0.093257152 0.64000005
0.083765723 0.093548581 0.64200002
0.050669529 0.094623819 0.64100003
0.051890481 0.094623819 0.64100003
0.053028576 0.094476193 0.64000005
0.05416286 0.094328575 0.63900006
0.055293337 0.094180956 0.63800001
0.056508575 0.094180956 0.63800001
0.057542861 0.09388572 0.63600004
0.058661908 0.093738101 0.63500005
0.059871431 0.093738101 0.63500005
0.060984764 0.093590483 0.634
0.062192384 0.093590483 0.634
0.063400008 0.093590483 0.634
0.064403817 0.093295246 0.63200003
0.065607622 0.093295246 0.63200003
0.066811435 0.093295246 0.63200003
0.068122864 0.093442865 0.63300002
0.069328576 0.093442865 0.63300002
0.070534289 0.093442865 0.63300002
0.071740001 0.093442865 0.63300002
0.07306096 0.093590483 0.634
0.074268579 0.093590483 0.634
0.075476192 0.093590483 0.634
0.076804765 0.093738101 0.63500005
0.078137144 0.09388572 0.63600004
0.079598099 0.094180956 0.63800001
0.080813341 0.094180956 0.63800001
0.051890481 0.095844768 0.64100003
0.053028576 0.095695242 0.64000005
0.054247621 0.095695242 0.64000005
0.055380005 0.095545724 0.63900006
0.056508575 0.095396198 0.63800001
0.057723813 0.095396198 0.63800001
0.058754291 0.095097147 0.63600004
0.059965719 0.095097147 0.63600004
0.061177146 0.095097147 0.63600004
0.062290478 0.094947629 0.63500005
0.063400008 0.094798103 0.634
0.06460762 0.094798103 0.634
0.06581524 0.094798103 0.634
0.06702286 0.094798103 0.634
0.06823048 0.094798103 0.634
0.0694381 0.094798103 0.634
0.070757151 0.094947629 0.63500005
0.07196667 0.094947629 0.63500005
0.073176198 0.094947629 0.63500005
0.074385718 0.094947629 0.63500005
0.075595245 0.094947629 0.63500005
0.077288575 0.095545724 0.63900006
0.078505717 0.095545724 0.63900006
0.079847626 0.095695242 0.64000005
0.081066675 0.095695242 0.64000005
0.050906669 0.097520009 0.64400005
0.051890481 0.097065717 0.64100003
0.053028576 0.096914291 0.64000005
0.054247621 0.096914291 0.64000005
0.055380005 0.096762866 0.63900006
0.056597147 0.096762866 0.63900006
0.057723813 0.096611433 0.63800001
0.058754291 0.096308574 0.63600004
0.059965719 0.096308574 0.63600004
0.061080955 0.096157148 0.63500005
0.062290478 0.096157148 0.63500005
0.063400008 0.096005723 0.634
0.06460762 0.096005723 0.634
0.06581524 0.096005723 0.634
0.067128576 0.096157148 0.63500005
0.06823048 0.096005723 0.634
0.069547623 0.096157148 0.63500005
0.070757151 0.096157148 0.63500005
0.07196667 0.096157148 0.63500005
0.073176198 0.096157148 0.63500005
0.074385718 0.096157148 0.63500005
0.075595245 0.096157148 0.63500005
0.077288575 0.096762866 0.63900006
0.078505717 0.096762866 0.63900006
0.079722859 0.096762866 0.63900006
0.050906669 0.098746672 0.64400005
0.051971432 0.098440006 0.64200002
0.05311143 0.098286673 0.64100003
0.054332383 0.098286673 0.64100003
0.055466671 0.09813334 0.64000005
0.05668572 0.09813334 0.64000005
0.057814289 0.097980008 0.63900006
0.059031431 0.097980008 0.63900006
0.060154289 0.097826675 0.63800001
0.061177146 0.097520009 0.63600004
0.062290478 0.097366676 0.63500005
0.063400008 0.097213343 0.634
0.06460762 0.097213343 0.634
0.06581524 0.097213343 0.634
0.06702286 0.097213343 0.634
0.06823048 0.097213343 0.634
0.069547623 0.097366676 0.63500005
0.070757151 0.097366676 0.63500005
0.07196667 0.097366676 0.63500005
0.073176198 0.097366676 0.63500005
0.074502863 0.097520009 0.63600004
0.07571429 0.097520009 0.63600004
0.077409528 0.09813334 0.64000005
0.078628577 0.09813334 0.64000005
0.080097146 0.098440006 0.64200002
0.081320003 0.098440006 0.64200002
0.050985716 0.10012858 0.64500004
0.051971432 0.099662863 0.64200002
0.053194288 0.099662863 0.64200002
0.054332383 0.099507622 0.64100003
0.055553336 0.099507622 0.64100003
0.05668572 0.09935239 0.64000005
0.057904765 0.09935239 0.64000005
0.059031431 0.099197149 0.63900006
0.060154289 0.099041909 0.63800001
0.061369527 0.099041909 0.63800001
0.062290478 0.098576196 0.63500005
0.063500002 0.098576196 0.63500005
0.06460762 0.098420955 0.634
0.065919049 0.098576196 0.63500005
0.067128576 0.098576196 0.63500005
0.068338096 0.098576196 0.63500005
0.069657147 0.098731436 0.63600004
0.070868574 0.098731436 0.63600004
0.072080001 0.098731436 0.63600004
0.073291436 0.098731436 0.63600004
0.074737146 0.099041909 0.63800001
0.076071434 0.099197149 0.63900006
0.077409528 0.09935239 0.64000005
0.078628577 0.09935239 0.64000005
0.079847626 0.09935239 0.64000005
0.050985716 0.10135715 0.64500004
0.052133337 0.10120001 0.64400005
0.053194288 0.10088572 0.64200002
0.054417148 0.10088572 0.64200002
0.055553336 0.10072858 0.64100003
0.05668572 0.10057144 0.64000005
0.057904765 0.10057144 0.64000005
0.059031431 0.10041429 0.63900006
0.060154289 0.10025715 0.63800001
0.061369527 0.10025715 0.63800001
0.062290478 0.099785723 0.63500005
0.063500002 0.099785723 0.63500005
0.064709529 0.099785723 0.63500005
0.066022858 0.099942863 0.63600004
0.067234293 0.099942863 0.63600004
0.06844572 0.099942863 0.63600004
0.069876194 0.10025715 0.63800001
0.071091436 0.10025715 0.63800001
0.07230667 0.10025715 0.63800001
0.07363715 0.10041429 0.63900006
0.074737146 0.10025715 0.63800001
0.075952388 0.10025715 0.63800001
0.078014292 0.10135715 0.64500004
0.052133337 0.10242667 0.64400005
0.053360004 0.10242667 0.64400005
0.054586671 0.10242667 0.64400005
0.055640005 0.10210858 0.64200002
0.056774288 0.10194953 0.64100003
0.057904765 0.10179048 0.64000005
0.059123814 0.10179048 0.64000005
0.060248576 0.10163143 0.63900006
0.061465718 0.10163143 0.63900006
0.062584765 0.10147239 0.63800001
0.063600004 0.10115429 0.63600004
0.064811431 0.10115429 0.63600004
0.066230483 0.10147239 0.63800001
0.067445718 0.10147239 0.63800001
0.068876192 0.10179048 0.64000005
0.070095241 0.10179048 0.64000005
0.071202859 0.10163143 0.63900006
0.072533339 0.10179048 0.64000005
0.073752388 0.10179048 0.64000005
0.074854292 0.10163143 0.63900006
0.078014292 0.10258572 0.64500004
0.079242863 0.10258572 0.64500004
0.051380955 0.10461906 0.65000004
0.052295242 0.10397524 0.64600003
0.053442862 0.10381429 0.64500004
0.054671433 0.10381429 0.64500004
0.055813339 0.10365334 0.64400005
0.056862861 0.10333143 0.64200002
0.058085717 0.10333143 0.64200002
0.059216194 0.10317048 0.64100003
0.060342859 0.10300953 0.64000005
0.061465718 0.10284857 0.63900006
0.062584765 0.10268763 0.63800001
0.063800007 0.10268763 0.63800001
0.065117151 0.10284857 0.63900006
0.066334292 0.10284857 0.63900006
0.06765715 0.10300953 0.64000005
0.068983816 0.10317048 0.64100003
0.070204765 0.10317048 0.64100003
0.07131429 0.10300953 0.64000005
0.07264667 0.10317048 0.64100003
0.073867626 0.10317048 0.64100003
0.075088575 0.10317048 0.64100003
0.076666668 0.10365334 0.64400005
0.078014292 0.10381429 0.64500004
0.079242863 0.10381429 0.64500004
0.051380955 0.10585715 0.65000004
0.052376192 0.10536858 0.64700001
0.053442862 0.10504287 0.64500004
0.054671433 0.10504287 0.64500004
0.055813339 0.10488001 0.64400005
0.056862861 0.1045543 0.64200002
0.058085717 0.1045543 0.64200002
0.059216194 0.10439143 0.64100003
0.060437147 0.10439143 0.64100003
0.061561909 0.10422858 0.64000005
0.06268286 0.10406572 0.63900006
0.063900001 0.10406572 0.63900006
0.065219052 0.10422858 0.64000005
0.066438101 0.10422858 0.64000005
0.067762859 0.10439143 0.64100003
0.068983816 0.10439143 0.64100003
0.070204765 0.10439143 0.64100003
0.071425721 0.10439143 0.64100003
0.072760008 0.1045543 0.64200002
0.073982865 0.1045543 0.64200002
0.075205721 0.1045543 0.64200002
0.076666668 0.10488001 0.64400005
0.078014292 0.10504287 0.64500004
0.051222861 0.10676572 0.648
0.052457146 0.10676572 0.648
0.053442862 0.10627144 0.64500004
0.054671433 0.10627144 0.64500004
0.055813339 0.10610668 0.64400005
0.057040002 0.10610668 0.64400005
0.058085717 0.10577715 0.64200002
0.059308574 0.10577715 0.64200002
0.060531434 0.10577715 0.64200002
0.061658099 0.10561239 0.64100003
0.06268286 0.10528287 0.63900006
0.063900001 0.10528287 0.63900006
0.065219052 0.10544763 0.64000005
0.066438101 0.10544763 0.64000005
0.067762859 0.10561239 0.64100003
0.068983816 0.10561239 0.64100003
0.070204765 0.10561239 0.64100003
0.071425721 0.10561239 0.64100003
0.072760008 0.10577715 0.64200002
0.073982865 0.10577715 0.64200002
0.075205721 0.10577715 0.64200002
0.076785721 0.10627144 0.64500004
0.078135245 0.1064362 0.64600003
0.052457146 0.10800001 0.648
0.053442862 0.10750001 0.64500004
0.054671433 0.10750001 0.64500004
0.055813339 0.10733334 0.64400005
0.057040002 0.10733334 0.64400005
0.05826667 0.10733334 0.64400005
0.059308574 0.10700001 0.64200002
0.060531434 0.10700001 0.64200002
0.06175429 0.10700001 0.64200002
0.062879048 0.10683334 0.64100003
0.064000003 0.10666668 0.64000005
0.065320954 0.10683334 0.64100003
0.06654191 0.10683334 0.64100003
0.067868575 0.10700001 0.64200002
0.069091432 0.10700001 0.64200002
0.070314288 0.10700001 0.64200002
0.071537144 0.10700001 0.64200002
0.072760008 0.10700001 0.64200002
0.073982865 0.10700001 0.64200002
0.075440004 0.10733334 0.64400005
0.076785721 0.10750001 0.64500004
0.078135245 0.10766667 0.64600003
0.079611436 0.10800001 0.648
0.050214291 0.11850572 0.70300001
0.053525716 0.10889715 0.64600003
0.054756194 0.10889715 0.64600003
0.055900004 0.10872858 0.64500004
0.057128575 0.10872858 0.64500004
0.05826667 0.10856001 0.64400005
0.059493337 0.10856001 0.64400005
0.060814291 0.10872858 0.64500004
0.061946671 0.10856001 0.64400005
0.063173339 0.10856001 0.64400005
0.064200006 0.10822286 0.64200002
0.065626673 0.10856001 0.64400005
0.066853337 0.10856001 0.64400005
0.068080008 0.10856001 0.64400005
0.069306672 0.10856001 0.64400005
0.070533335 0.10856001 0.64400005
0.071760006 0.10856001 0.64400005
0.073100008 0.10872858 0.64500004
0.074328579 0.10872858 0.64500004
0.07555715 0.10872858 0.64500004
0.076904766 0.10889715 0.64600003
0.078619055 0.10957143 0.65000004
0.079857148 0.10957143 0.65000004
0.081095241 0.10957143 0.65000004
0.053525716 0.11012763 0.64600003
0.054756194 0.11012763 0.64600003
0.055986669 0.11012763 0.64600003
0.057128575 0.10995715 0.64500004
0.058357146 0.10995715 0.64500004
0.059585717 0.10995715 0.64500004
0.060814291 0.10995715 0.64500004
0.062042862 0.10995715 0.64500004
0.063173339 0.10978667 0.64400005
0.064400002 0.10978667 0.64400005
0.065626673 0.10978667 0.64400005
0.066853337 0.10978667 0.64400005
0.068080008 0.10978667 0.64400005
0.069306672 0.10978667 0.64400005
0.070533335 0.10978667 0.64400005
0.07187143 0.10995715 0.64500004
0.073100008 0.10995715 0.64500004
0.074328579 0.10995715 0.64500004
0.07555715 0.10995715 0.64500004
0.076904766 0.11012763 0.64600003
0.078256197 0.1102981 0.64700001
0.079857148 0.11080953 0.65000004
0.053525716 0.11135811 0.64600003
0.054756194 0.11135811 0.64600003
0.055986669 0.11135811 0.64600003
0.057217147 0.11135811 0.64600003
0.058447622 0.11135811 0.64600003
0.059585717 0.11118572 0.64500004
0.060814291 0.11118572 0.64500004
0.062042862 0.11118572 0.64500004
0.063271433 0.11118572 0.64500004
0.064400002 0.11101334 0.64400005
0.065728575 0.11118572 0.64500004
0.066957146 0.11118572 0.64500004
0.068185717 0.11118572 0.64500004
0.069414288 0.11118572 0.64500004
0.070642859 0.11118572 0.64500004
0.07187143 0.11118572 0.64500004
0.073100008 0.11118572 0.64500004
0.074328579 0.11118572 0.64500004
0.075674288 0.11135811 0.64600003
0.076904766 0.11135811 0.64600003
0.07837715 0.11170287 0.648
0.079611436 0.11170287 0.648
0.080845721 0.11170287 0.648
0.053608574 0.11276286 0.64700001
0.054840956 0.11276286 0.64700001
0.055986669 0.11258858 0.64600003
0.057217147 0.11258858 0.64600003
0.058447622 0.11258858 0.64600003
0.0596781 0.11258858 0.64600003
0.060814291 0.11241429 0.64500004
0.062042862 0.11241429 0.64500004
0.063271433 0.11241429 0.64500004
0.064500004 0.11241429 0.64500004
0.065728575 0.11241429 0.64500004
0.066957146 0.11241429 0.64500004
0.068291433 0.11258858 0.64600003
0.069521911 0.11258858 0.64600003
0.070752382 0.11258858 0.64600003
0.071982861 0.11258858 0.64600003
0.073213339 0.11258858 0.64600003
0.074559055 0.11276286 0.64700001
0.075791433 0.11276286 0.64700001
0.077023812 0.11276286 0.64700001
0.078256197 0.11276286 0.64700001
0.079488575 0.11276286 0.64700001
0.054925717 0.11417144 0.648
0.056160003 0.11417144 0.648
