# .PCD v0.7 - Point Cloud Data file format
VERSION 0.7
FIELDS x y z
SIZE 4 4 4
TYPE F F F
COUNT 1 1 1
WIDTH 1448
HEIGHT 1
VIEWPOINT 0 0 0 1 0 0 0
POINTS 1448
DATA ascii
0.083765723 0.11922858 0.64200002
0.084988579 0.11922858 0.64200002
0.086211435 0.11922858 0.64200002
0.087434292 0.11922858 0.64200002
0.088933341 0.11960001 0.64400005
0.090160005 0.11960001 0.64400005
0.091386676 0.11960001 0.64400005
0.092757151 0.11978572 0.64500004
0.094131432 0.11997144 0.64600003
0.095509529 0.12015715 0.64700001
0.096741915 0.12015715 0.64700001
0.097974293 0.12015715 0.64700001
0.099206671 0.12015715 0.64700001
0.10059429 0.12034287 0.648
0.10182858 0.12034287 0.648
0.10306286 0.12034287 0.648
0.10429715 0.12034287 0.648
0.10585715 0.12071429 0.65000004
0.10709524 0.12071429 0.65000004
0.10833334 0.12071429 0.65000004
0.10974 0.12090001 0.65100002
0.11132096 0.12127144 0.65300006
0.11308191 0.12182858 0.65600002
0.11433144 0.12182858 0.65600002
0.11593334 0.1222 0.65800005
0.11754286 0.12257144 0.66000003
0.11898001 0.12275715 0.66100001
0.12005715 0.12257144 0.66000003
0.1214981 0.12275715 0.66100001
0.12294286 0.12294286 0.66200006
0.12420382 0.12294286 0.66200006
0.12546477 0.12294286 0.66200006
0.12672572 0.12294286 0.66200006
-0.045760002 0.1170743 0.62400001
-0.044571433 0.1170743 0.62400001
-0.043382861 0.1170743 0.62400001
-0.042194288 0.1170743 0.62400001
-0.041005716 0.1170743 0.62400001
-0.039817147 0.1170743 0.62400001
-0.038628574 0.1170743 0.62400001
-0.037440002 0.1170743 0.62400001
-0.036251429 0.1170743 0.62400001
-0.035062861 0.1170743 0.62400001
-0.033874288 0.1170743 0.62400001
-0.032685716 0.1170743 0.62400001
-0.031497143 0.1170743 0.62400001
-0.030357145 0.11726191 0.625
-0.029166669 0.11726191 0.625
-0.027976193 0.11726191 0.625
-0.026785716 0.11726191 0.625
-0.02559524 0.11726191 0.625
-0.024404764 0.11726191 0.625
-0.023214288 0.11726191 0.625
-0.02202381 0.11726191 0.625
-0.020833334 0.11726191 0.625
-0.019611429 0.1170743 0.62400001
-0.018452382 0.11726191 0.625
-0.017261906 0.11726191 0.625
-0.016071429 0.11726191 0.625
-0.014880953 0.11726191 0.625
-0.013690477 0.11726191 0.625
-0.012500001 0.11726191 0.625
-0.011309525 0.11726191 0.625
-0.010119048 0.11726191 0.625
-0.0089285718 0.11726191 0.625
-0.0077380957 0.11726191 0.625
-0.0065476196 0.11726191 0.625
-0.0053657144 0.11744953 0.62600005
-0.0041733338 0.11744953 0.62600005
-0.0029809526 0.11744953 0.62600005
-0.0017885716 0.11744953 0.62600005
-0.00059619051 0.11744953 0.62600005
0.00059714291 0.11763715 0.62700003
0.0017885716 0.11744953 0.62600005
0.0029857145 0.11763715 0.62700003
0.0041800002 0.11763715 0.62700003
0.0053657144 0.11744953 0.62600005
0.0065580956 0.11744953 0.62600005
0.0077504767 0.11744953 0.62600005
0.0089428574 0.11744953 0.62600005
0.010135239 0.11744953 0.62600005
0.01132762 0.11744953 0.62600005
0.012520001 0.11744953 0.62600005
0.013712382 0.11744953 0.62600005
0.014904763 0.11744953 0.62600005
0.016097143 0.11744953 0.62600005
0.017289525 0.11744953 0.62600005
0.018511429 0.11763715 0.62700003
0.019705715 0.11763715 0.62700003
0.020900002 0.11763715 0.62700003
0.022129524 0.11782477 0.62800002
0.023325715 0.11782477 0.62800002
0.024521906 0.11782477 0.62800002
0.025718097 0.11782477 0.62800002
0.026957145 0.11801239 0.62900001
0.028155239 0.11801239 0.62900001
0.029353335 0.11801239 0.62900001
0.03055143 0.11801239 0.62900001
0.031749524 0.11801239 0.62900001
0.032947622 0.11801239 0.62900001
0.034254286 0.11838762 0.63100004
0.035456192 0.11838762 0.63100004
0.036541909 0.11801239 0.62900001
0.037740003 0.11801239 0.62900001
0.039061908 0.11838762 0.63100004
0.040263813 0.11838762 0.63100004
0.041465718 0.11838762 0.63100004
0.042532384 0.11801239 0.62900001
0.043730479 0.11801239 0.62900001
0.044928573 0.11801239 0.62900001
0.046273336 0.11838762 0.63100004
0.047475241 0.11838762 0.63100004
0.04875429 0.11857525 0.63200003
0.049958099 0.11857525 0.63200003
0.051242862 0.11876287 0.63300002
0.052448574 0.11876287 0.63300002
0.053654291 0.11876287 0.63300002
0.054860003 0.11876287 0.63300002
0.05606572 0.11876287 0.63300002
0.057271432 0.11876287 0.63300002
0.058477148 0.11876287 0.63300002
0.059682861 0.11876287 0.63300002
0.060888577 0.11876287 0.63300002
0.061996195 0.11857525 0.63200003
0.063400008 0.11895049 0.634
0.064505719 0.11876287 0.63300002
0.073176198 0.11913811 0.63500005
0.074385718 0.11913811 0.63500005
0.07571429 0.11932572 0.63600004
0.076925717 0.11932572 0.63600004
0.078014292 0.11913811 0.63500005
0.079348579 0.11932572 0.63600004
0.080813341 0.11970096 0.63800001
0.082028575 0.11970096 0.63800001
0.083374292 0.11988858 0.63900006
0.084723815 0.1200762 0.64000005
0.085942864 0.1200762 0.64000005
0.087298103 0.12026381 0.64100003
0.088519052 0.12026381 0.64100003
0.089740008 0.12026381 0.64100003
0.090960957 0.12026381 0.64100003
0.092181914 0.12026381 0.64100003
0.093548581 0.12045144 0.64200002
0.095066674 0.12082668 0.64400005
0.096293338 0.12082668 0.64400005
0.097520009 0.12082668 0.64400005
0.098900005 0.1210143 0.64500004
0.10028382 0.12120191 0.64600003
0.10167143 0.12138953 0.64700001
0.10290381 0.12138953 0.64700001
0.1041362 0.12138953 0.64700001
0.10536858 0.12138953 0.64700001
0.10676572 0.12157715 0.648
0.10783334 0.12138953 0.64700001
0.1092343 0.12157715 0.648
0.11046858 0.12157715 0.648
0.11204763 0.12195239 0.65000004
0.11346 0.12214001 0.65100002
0.1148762 0.12232763 0.65200001
0.11665239 0.12289049 0.65500003
0.11826001 0.12326572 0.65700001
0.11951143 0.12326572 0.65700001
0.12094668 0.12345334 0.65800005
0.12257144 0.12382858 0.66000003
0.12382858 0.12382858 0.66000003
0.12508573 0.12382858 0.66000003
0.12634286 0.12382858 0.66000003
0.12760001 0.12382858 0.66000003
-0.04568667 0.11807334 0.62300003
-0.044500005 0.11807334 0.62300003
-0.043313336 0.11807334 0.62300003
-0.042194288 0.11826286 0.62400001
-0.041005716 0.11826286 0.62400001
-0.039753336 0.11807334 0.62300003
-0.038566668 0.11807334 0.62300003
-0.037440002 0.11826286 0.62400001
-0.036251429 0.11826286 0.62400001
-0.035062861 0.11826286 0.62400001
-0.033874288 0.11826286 0.62400001
-0.032685716 0.11826286 0.62400001
-0.031497143 0.11826286 0.62400001
-0.030308573 0.11826286 0.62400001
-0.029120002 0.11826286 0.62400001
-0.027931431 0.11826286 0.62400001
-0.026742859 0.11826286 0.62400001
-0.025554288 0.11826286 0.62400001
-0.024365716 0.11826286 0.62400001
-0.023177145 0.11826286 0.62400001
-0.021988573 0.11826286 0.62400001
-0.020800002 0.11826286 0.62400001
-0.019611429 0.11826286 0.62400001
-0.018452382 0.11845239 0.625
-0.017261906 0.11845239 0.625
-0.016071429 0.11845239 0.625
-0.014880953 0.11845239 0.625
-0.013690477 0.11845239 0.625
-0.012500001 0.11845239 0.625
-0.011309525 0.11845239 0.625
-0.010119048 0.11845239 0.625
-0.0089285718 0.11845239 0.625
-0.0077380957 0.11845239 0.625
-0.0065476196 0.11845239 0.625
-0.005357143 0.11845239 0.625
-0.0041733338 0.11864191 0.62600005
-0.0029809526 0.11864191 0.62600005
-0.0017885716 0.11864191 0.62600005
-0.00059619051 0.11864191 0.62600005
0.00059714291 0.11883143 0.62700003
0.0017914287 0.11883143 0.62700003
0.0029809526 0.11864191 0.62600005
0.0041733338 0.11864191 0.62600005
0.0053657144 0.11864191 0.62600005
0.0065580956 0.11864191 0.62600005
0.0077504767 0.11864191 0.62600005
0.0089428574 0.11864191 0.62600005
0.010119048 0.11845239 0.625
0.011309525 0.11845239 0.625
0.012520001 0.11864191 0.62600005
0.013712382 0.11864191 0.62600005
0.014904763 0.11864191 0.62600005
0.016097143 0.11864191 0.62600005
0.017289525 0.11864191 0.62600005
0.018481907 0.11864191 0.62600005
0.019705715 0.11883143 0.62700003
0.020900002 0.11883143 0.62700003
0.022094287 0.11883143 0.62700003
0.023288572 0.11883143 0.62700003
0.024482859 0.11883143 0.62700003
0.025677145 0.11883143 0.62700003
0.02687143 0.11883143 0.62700003
0.028155239 0.11921048 0.62900001
0.029353335 0.11921048 0.62900001
0.03055143 0.11921048 0.62900001
0.031749524 0.11921048 0.62900001
0.032947622 0.11921048 0.62900001
0.034145717 0.11921048 0.62900001
0.035343811 0.11921048 0.62900001
0.036541909 0.11921048 0.62900001
0.037740003 0.11921048 0.62900001
0.038938098 0.11921048 0.62900001
0.040136192 0.11921048 0.62900001
0.04133429 0.11921048 0.62900001
0.042532384 0.11921048 0.62900001
0.043730479 0.11921048 0.62900001
0.044928573 0.11921048 0.62900001
0.046126671 0.11921048 0.62900001
0.047324765 0.11921048 0.62900001
0.048677146 0.11958953 0.63100004
0.049879052 0.11958953 0.63100004
0.051161908 0.11977906 0.63200003
0.052365717 0.11977906 0.63200003
0.053569525 0.11977906 0.63200003
0.054773338 0.11977906 0.63200003
0.055977147 0.11977906 0.63200003
0.057180956 0.11977906 0.63200003
0.058384765 0.11977906 0.63200003
0.059494291 0.11958953 0.63100004
0.060696196 0.11958953 0.63100004
0.061898101 0.11958953 0.63100004
0.063200004 0.11977906 0.63200003
0.064403817 0.11977906 0.63200003
0.07185334 0.12015811 0.634
0.07306096 0.12015811 0.634
0.074268579 0.12015811 0.634
0.075595245 0.12034763 0.63500005
0.076804765 0.12034763 0.63500005
0.078014292 0.12034763 0.63500005
0.079223812 0.12034763 0.63500005
0.080560006 0.12053715 0.63600004
0.081771433 0.12053715 0.63600004
0.083243817 0.1209162 0.63800001
0.084591433 0.12110572 0.63900006
0.085808575 0.12110572 0.63900006
0.087025717 0.12110572 0.63900006
0.088242866 0.12110572 0.63900006
0.089460008 0.12110572 0.63900006
0.09067715 0.12110572 0.63900006
0.091894291 0.12110572 0.63900006
0.093257152 0.12129524 0.64000005
0.094623819 0.12148477 0.64100003
0.095844768 0.12148477 0.64100003
0.097065717 0.12148477 0.64100003
0.098440006 0.12167429 0.64200002
0.099973343 0.12205334 0.64400005
0.10151429 0.12243239 0.64600003
0.10274477 0.12243239 0.64600003
0.10397524 0.12243239 0.64600003
0.10520572 0.12243239 0.64600003
0.10660096 0.12262192 0.64700001
0.10766667 0.12243239 0.64600003
0.10906572 0.12262192 0.64700001
0.11012763 0.12243239 0.64600003
0.11153048 0.12262192 0.64700001
0.11293715 0.12281144 0.648
0.11417144 0.12281144 0.648
0.1161181 0.12356953 0.65200001
0.11808001 0.12432763 0.65600002
0.11914763 0.1241381 0.65500003
0.12057906 0.12432763 0.65600002
0.1222 0.12470668 0.65800005
0.12345334 0.12470668 0.65800005
0.12470668 0.12470668 0.65800005
0.12596001 0.12470668 0.65800005
-0.043243811 0.11906858 0.62200004
-0.04212667 0.11926001 0.62300003
-0.040940002 0.11926001 0.62300003
-0.039753336 0.11926001 0.62300003
-0.038566668 0.11926001 0.62300003
-0.037380002 0.11926001 0.62300003
-0.036193337 0.11926001 0.62300003
-0.035062861 0.11945143 0.62400001
-0.033874288 0.11945143 0.62400001
-0.032685716 0.11945143 0.62400001
-0.031497143 0.11945143 0.62400001
-0.030308573 0.11945143 0.62400001
-0.029120002 0.11945143 0.62400001
-0.027931431 0.11945143 0.62400001
-0.026742859 0.11945143 0.62400001
-0.025554288 0.11945143 0.62400001
-0.024365716 0.11945143 0.62400001
-0.023177145 0.11945143 0.62400001
-0.021988573 0.11945143 0.62400001
-0.020800002 0.11945143 0.62400001
-0.019611429 0.11945143 0.62400001
-0.018452382 0.11964287 0.625
-0.017261906 0.11964287 0.625
-0.016071429 0.11964287 0.625
-0.014880953 0.11964287 0.625
-0.013690477 0.11964287 0.625
-0.012500001 0.11964287 0.625
-0.011309525 0.11964287 0.625
-0.010119048 0.11964287 0.625
-0.0089285718 0.11964287 0.625
-0.0077380957 0.11964287 0.625
-0.0065476196 0.11964287 0.625
-0.005357143 0.11964287 0.625
-0.0041666669 0.11964287 0.625
-0.0029761908 0.11964287 0.625
-0.0017885716 0.1198343 0.62600005
-0.00059619051 0.1198343 0.62600005
0.00059619051 0.1198343 0.62600005
0.0017914287 0.12002572 0.62700003
0.0029809526 0.1198343 0.62600005
0.0041733338 0.1198343 0.62600005
0.0053657144 0.1198343 0.62600005
0.0065580956 0.1198343 0.62600005
0.0077504767 0.1198343 0.62600005
0.0089428574 0.1198343 0.62600005
0.010119048 0.11964287 0.625
0.011309525 0.11964287 0.625
0.012500001 0.11964287 0.625
0.013690477 0.11964287 0.625
0.014880953 0.11964287 0.625
0.016071429 0.11964287 0.625
0.017289525 0.1198343 0.62600005
0.018481907 0.1198343 0.62600005
0.019674286 0.1198343 0.62600005
0.020866668 0.1198343 0.62600005
0.022059049 0.1198343 0.62600005
0.023288572 0.12002572 0.62700003
0.024482859 0.12002572 0.62700003
0.025677145 0.12002572 0.62700003
0.02687143 0.12002572 0.62700003
0.028065717 0.12002572 0.62700003
0.029306669 0.12021715 0.62800002
0.03050286 0.12021715 0.62800002
0.031749524 0.12040858 0.62900001
0.032895241 0.12021715 0.62800002
0.034145717 0.12040858 0.62900001
0.035343811 0.12040858 0.62900001
0.036541909 0.12040858 0.62900001
0.037680004 0.12021715 0.62800002
0.038876195 0.12021715 0.62800002
0.040136192 0.12040858 0.62900001
0.04133429 0.12040858 0.62900001
0.042532384 0.12040858 0.62900001
0.043660954 0.12021715 0.62800002
0.044928573 0.12040858 0.62900001
0.046126671 0.12040858 0.62900001
0.047324765 0.12040858 0.62900001
0.04852286 0.12040858 0.62900001
0.049720954 0.12040858 0.62900001
0.051080957 0.12079144 0.63100004
0.052282862 0.12079144 0.63100004
0.053484764 0.12079144 0.63100004
0.054686669 0.12079144 0.63100004
0.055888575 0.12079144 0.63100004
0.05709048 0.12079144 0.63100004
0.058292385 0.12079144 0.63100004
0.059494291 0.12079144 0.63100004
0.060696196 0.12079144 0.63100004
0.061898101 0.12079144 0.63100004
0.063100003 0.12079144 0.63100004
0.064301908 0.12079144 0.63100004
0.07185334 0.12136572 0.634
0.072945721 0.12117429 0.63300002
0.074151434 0.12117429 0.63300002
0.075476192 0.12136572 0.634
0.076683812 0.12136572 0.634
0.077891432 0.12136572 0.634
0.079099052 0.12136572 0.634
0.080433339 0.12155715 0.63500005
0.081642866 0.12155715 0.63500005
0.082982861 0.12174858 0.63600004
0.084194288 0.12174858 0.63600004
0.085405722 0.12174858 0.63600004
0.086889528 0.12213144 0.63800001
0.08810477 0.12213144 0.63800001
0.089320004 0.12213144 0.63800001
0.090535246 0.12213144 0.63800001
0.09175048 0.12213144 0.63800001
0.092965722 0.12213144 0.63800001
0.094328575 0.12232286 0.63900006
0.095545724 0.12232286 0.63900006
0.096762866 0.12232286 0.63900006
0.09813334 0.12251429 0.64000005
0.099507622 0.12270572 0.64100003
0.10088572 0.12289715 0.64200002
0.10242667 0.12328001 0.64400005
0.10365334 0.12328001 0.64400005
0.10504287 0.12347144 0.64500004
0.10627144 0.12347144 0.64500004
0.10750001 0.12347144 0.64500004
0.10889715 0.12366287 0.64600003
0.10995715 0.12347144 0.64500004
0.11135811 0.12366287 0.64600003
0.11276286 0.12385429 0.64700001
0.11399525 0.12385429 0.64700001
0.11594 0.12462001 0.65100002
0.11790001 0.12538572 0.65500003
0.11914763 0.12538572 0.65500003
0.12057906 0.12557715 0.65600002
0.12201429 0.12576859 0.65700001
0.1230781 0.12557715 0.65600002
0.12432763 0.12557715 0.65600002
0.12557715 0.12557715 0.65600002
-0.044500005 0.12044667 0.62300003
-0.043313336 0.12044667 0.62300003
-0.042194288 0.12064001 0.62400001
-0.041005716 0.12064001 0.62400001
-0.039753336 0.12044667 0.62300003
-0.038566668 0.12044667 0.62300003
-0.037440002 0.12064001 0.62400001
-0.036193337 0.12044667 0.62300003
-0.035062861 0.12064001 0.62400001
-0.033874288 0.12064001 0.62400001
-0.032633334 0.12044667 0.62300003
-0.031446669 0.12044667 0.62300003
-0.030308573 0.12064001 0.62400001
-0.029120002 0.12064001 0.62400001
-0.027931431 0.12064001 0.62400001
-0.026742859 0.12064001 0.62400001
-0.025554288 0.12064001 0.62400001
-0.024365716 0.12064001 0.62400001
-0.023177145 0.12064001 0.62400001
-0.021988573 0.12064001 0.62400001
-0.020800002 0.12064001 0.62400001
-0.019611429 0.12064001 0.62400001
-0.018452382 0.12083334 0.625
-0.017261906 0.12083334 0.625
-0.016071429 0.12083334 0.625
-0.014880953 0.12083334 0.625
-0.013690477 0.12083334 0.625
-0.012500001 0.12083334 0.625
-0.011309525 0.12083334 0.625
-0.010119048 0.12083334 0.625
-0.0089142863 0.12064001 0.62400001
-0.0077257147 0.12064001 0.62400001
-0.0065371431 0.12064001 0.62400001
-0.005357143 0.12083334 0.625
-0.0041666669 0.12083334 0.625
-0.0029761908 0.12083334 0.625
-0.0017857144 0.12083334 0.625
-0.00059619051 0.12102667 0.62600005
0.00059619051 0.12102667 0.62600005
0.0017885716 0.12102667 0.62600005
0.0029809526 0.12102667 0.62600005
0.0041733338 0.12102667 0.62600005
0.0053657144 0.12102667 0.62600005
0.0065580956 0.12102667 0.62600005
0.0077504767 0.12102667 0.62600005
0.0089285718 0.12083334 0.625
0.010119048 0.12083334 0.625
0.011309525 0.12083334 0.625
0.012500001 0.12083334 0.625
0.013690477 0.12083334 0.625
0.014880953 0.12083334 0.625
0.016071429 0.12083334 0.625
0.017261906 0.12083334 0.625
0.018481907 0.12102667 0.62600005
0.019674286 0.12102667 0.62600005
0.020866668 0.12102667 0.62600005
0.022059049 0.12102667 0.62600005
0.023251429 0.12102667 0.62600005
0.024482859 0.12122001 0.62700003
0.025636192 0.12102667 0.62600005
0.026828574 0.12102667 0.62600005
0.028065717 0.12122001 0.62700003
0.029260002 0.12122001 0.62700003
0.030454287 0.12122001 0.62700003
0.031648573 0.12122001 0.62700003
0.03284286 0.12122001 0.62700003
0.034037147 0.12122001 0.62700003
0.03523143 0.12122001 0.62700003
0.036483813 0.12141334 0.62800002
0.037680004 0.12141334 0.62800002
0.038876195 0.12141334 0.62800002
0.040072385 0.12141334 0.62800002
0.04133429 0.12160668 0.62900001
0.042464763 0.12141334 0.62800002
0.043660954 0.12141334 0.62800002
0.044928573 0.12160668 0.62900001
0.046053335 0.12141334 0.62800002
0.047249526 0.12141334 0.62800002
0.04852286 0.12160668 0.62900001
0.049720954 0.12160668 0.62900001
0.050919052 0.12160668 0.62900001
0.052117147 0.12160668 0.62900001
0.053484764 0.12199334 0.63100004
0.054513335 0.12160668 0.62900001
0.055888575 0.12199334 0.63100004
0.056909528 0.12160668 0.62900001
0.058107622 0.12160668 0.62900001
0.05930572 0.12160668 0.62900001
0.060503814 0.12160668 0.62900001
0.061701909 0.12160668 0.62900001
0.063100003 0.12199334 0.63100004
0.063996196 0.12141334 0.62800002
0.070311435 0.12199334 0.63100004
0.07151334 0.12199334 0.63100004
0.072830483 0.12218668 0.63200003
0.074034289 0.12218668 0.63200003
0.075357147 0.12238001 0.63300002
0.076683812 0.12257334 0.634
0.077891432 0.12257334 0.634
0.079099052 0.12257334 0.634
0.080433339 0.12276667 0.63500005
0.081642866 0.12276667 0.63500005
0.082852386 0.12276667 0.63500005
0.084061913 0.12276667 0.63500005
0.085271433 0.12276667 0.63500005
0.086617149 0.12296001 0.63600004
0.087828577 0.12296001 0.63600004
0.089040004 0.12296001 0.63600004
0.090251431 0.12296001 0.63600004
0.091462865 0.12296001 0.63600004
0.092674293 0.12296001 0.63600004
0.09388572 0.12296001 0.63600004
0.095396198 0.12334667 0.63800001
0.096611433 0.12334667 0.63800001
0.097826675 0.12334667 0.63800001
0.099197149 0.12354001 0.63900006
0.10057144 0.12373334 0.64000005
0.10210858 0.12412 0.64200002
0.10333143 0.12412 0.64200002
0.10488001 0.12450667 0.64400005
0.10610668 0.12450667 0.64400005
0.10700001 0.12412 0.64200002
0.10856001 0.12450667 0.64400005
0.10978667 0.12450667 0.64400005
0.11101334 0.12450667 0.64400005
0.11241429 0.12470001 0.64500004
0.11364286 0.12470001 0.64500004
0.11504953 0.12489334 0.64600003
0.11628 0.12489334 0.64600003
0.11878382 0.12624668 0.65300006
0.12002762 0.12624668 0.65300006
0.12182858 0.12682667 0.65600002
0.12289049 0.12663335 0.65500003
0.1241381 0.12663335 0.65500003
0.12538572 0.12663335 0.65500003
-0.044571433 0.12182858 0.62400001
-0.043382861 0.12182858 0.62400001
-0.042194288 0.12182858 0.62400001
-0.041005716 0.12182858 0.62400001
-0.039817147 0.12182858 0.62400001
-0.038628574 0.12182858 0.62400001
-0.037440002 0.12182858 0.62400001
-0.036251429 0.12182858 0.62400001
-0.035062861 0.12182858 0.62400001
-0.033874288 0.12182858 0.62400001
-0.032685716 0.12182858 0.62400001
-0.031497143 0.12182858 0.62400001
-0.030308573 0.12182858 0.62400001
-0.029120002 0.12182858 0.62400001
-0.027931431 0.12182858 0.62400001
-0.026742859 0.12182858 0.62400001
-0.025554288 0.12182858 0.62400001
-0.024365716 0.12182858 0.62400001
-0.023177145 0.12182858 0.62400001
-0.021988573 0.12182858 0.62400001
-0.020800002 0.12182858 0.62400001
-0.019611429 0.12182858 0.62400001
-0.018452382 0.12202382 0.625
-0.017261906 0.12202382 0.625
-0.016071429 0.12202382 0.625
-0.014880953 0.12202382 0.625
-0.013690477 0.12202382 0.625
-0.012500001 0.12202382 0.625
-0.011309525 0.12202382 0.625
-0.010102858 0.12182858 0.62400001
-0.0089142863 0.12182858 0.62400001
-0.0077257147 0.12182858 0.62400001
-0.0065371431 0.12182858 0.62400001
-0.0053485716 0.12182858 0.62400001
-0.0041666669 0.12202382 0.625
-0.0029761908 0.12202382 0.625
-0.0017857144 0.12202382 0.625
-0.00059523812 0.12202382 0.625
0.00059523812 0.12202382 0.625
0.0017885716 0.12221906 0.62600005
0.0029809526 0.12221906 0.62600005
0.0041733338 0.12221906 0.62600005
0.0053657144 0.12221906 0.62600005
0.0065580956 0.12221906 0.62600005
0.0077504767 0.12221906 0.62600005
0.0089285718 0.12202382 0.625
0.010119048 0.12202382 0.625
0.011309525 0.12202382 0.625
0.012500001 0.12202382 0.625
0.013690477 0.12202382 0.625
0.014880953 0.12202382 0.625
0.016071429 0.12202382 0.625
0.017261906 0.12202382 0.625
0.018452382 0.12202382 0.625
0.019674286 0.12221906 0.62600005
0.020866668 0.12221906 0.62600005
0.022059049 0.12221906 0.62600005
0.023251429 0.12221906 0.62600005
0.024443811 0.12221906 0.62600005
0.025636192 0.12221906 0.62600005
0.026828574 0.12221906 0.62600005
0.028020954 0.12221906 0.62600005
0.029213335 0.12221906 0.62600005
0.030454287 0.12241429 0.62700003
0.031648573 0.12241429 0.62700003
0.03284286 0.12241429 0.62700003
0.034037147 0.12241429 0.62700003
0.03523143 0.12241429 0.62700003
0.036425717 0.12241429 0.62700003
0.037680004 0.12260953 0.62800002
0.038938098 0.12280477 0.62900001
0.040072385 0.12260953 0.62800002
0.04133429 0.12280477 0.62900001
0.042532384 0.12280477 0.62900001
0.043730479 0.12280477 0.62900001
0.044928573 0.12280477 0.62900001
0.046126671 0.12280477 0.62900001
0.047249526 0.12260953 0.62800002
0.048445717 0.12260953 0.62800002
0.049641907 0.12260953 0.62800002
0.050838098 0.12260953 0.62800002
0.052117147 0.12280477 0.62900001
0.053315241 0.12280477 0.62900001
0.054513335 0.12280477 0.62900001
0.055711433 0.12280477 0.62900001
0.056909528 0.12280477 0.62900001
0.058107622 0.12280477 0.62900001
0.05930572 0.12280477 0.62900001
0.060503814 0.12280477 0.62900001
0.061701909 0.12280477 0.62900001
0.062900007 0.12280477 0.62900001
0.063996196 0.12260953 0.62800002
0.065088578 0.12241429 0.62700003
0.068890482 0.12280477 0.62900001
0.070088573 0.12280477 0.62900001
0.071286671 0.12280477 0.62900001
0.072715245 0.12319525 0.63100004
0.07391715 0.12319525 0.63100004
0.075238101 0.12339048 0.63200003
0.076562859 0.12358572 0.63300002
0.077768579 0.12358572 0.63300002
0.078974292 0.12358572 0.63300002
0.080306672 0.12378096 0.634
0.081514291 0.12378096 0.634
0.082852386 0.1239762 0.63500005
0.084061913 0.1239762 0.63500005
0.085137151 0.12378096 0.634
0.08648096 0.1239762 0.63500005
0.08769048 0.1239762 0.63500005
0.088900007 0.1239762 0.63500005
0.090109527 0.1239762 0.63500005
0.091319054 0.1239762 0.63500005
0.092528574 0.1239762 0.63500005
0.093738101 0.1239762 0.63500005
0.095097147 0.12417144 0.63600004
0.096308574 0.12417144 0.63600004
0.097520009 0.12417144 0.63600004
0.099041909 0.12456191 0.63800001
0.10041429 0.12475715 0.63900006
0.10194953 0.12514763 0.64100003
0.10300953 0.12495239 0.64000005
0.10439143 0.12514763 0.64100003
0.10561239 0.12514763 0.64100003
0.10683334 0.12514763 0.64100003
0.1080543 0.12514763 0.64100003
0.10944572 0.12534286 0.64200002
0.1104962 0.12514763 0.64100003
0.11224001 0.12573335 0.64400005
0.11311429 0.12534286 0.64200002
0.11469334 0.12573335 0.64400005
0.11592001 0.12573335 0.64400005
0.11842 0.12710001 0.65100002
0.11984382 0.12729524 0.65200001
0.12127144 0.12749049 0.65300006
0.12289049 0.12788096 0.65500003
0.12375905 0.12749049 0.65300006
0.12538572 0.12788096 0.65500003
0.12663335 0.12788096 0.65500003
-0.047285717 0.13050859 0.66200006
-0.043382861 0.12301715 0.62400001
-0.042194288 0.12301715 0.62400001
-0.041005716 0.12301715 0.62400001
-0.039817147 0.12301715 0.62400001
-0.038628574 0.12301715 0.62400001
-0.037440002 0.12301715 0.62400001
-0.036251429 0.12301715 0.62400001
-0.035062861 0.12301715 0.62400001
-0.033874288 0.12301715 0.62400001
-0.032685716 0.12301715 0.62400001
-0.031497143 0.12301715 0.62400001
-0.030308573 0.12301715 0.62400001
-0.029120002 0.12301715 0.62400001
-0.027931431 0.12301715 0.62400001
-0.026742859 0.12301715 0.62400001
-0.025554288 0.12301715 0.62400001
-0.024365716 0.12301715 0.62400001
-0.023177145 0.12301715 0.62400001
-0.021988573 0.12301715 0.62400001
-0.020800002 0.12301715 0.62400001
-0.019611429 0.12301715 0.62400001
-0.018452382 0.1232143 0.625
-0.017234286 0.12301715 0.62400001
-0.016071429 0.1232143 0.625
-0.014880953 0.1232143 0.625
-0.013668573 0.12301715 0.62400001
-0.012500001 0.1232143 0.625
-0.011309525 0.1232143 0.625
-0.010102858 0.12301715 0.62400001
-0.0089142863 0.12301715 0.62400001
-0.0077257147 0.12301715 0.62400001
-0.0065371431 0.12301715 0.62400001
-0.0053485716 0.12301715 0.62400001
-0.0041600005 0.12301715 0.62400001
-0.0029761908 0.1232143 0.625
-0.0017857144 0.1232143 0.625
-0.00059523812 0.1232143 0.625
0.00059523812 0.1232143 0.625
0.0017885716 0.12341144 0.62600005
0.0029809526 0.12341144 0.62600005
0.0041733338 0.12341144 0.62600005
0.0053657144 0.12341144 0.62600005
0.0065580956 0.12341144 0.62600005
0.0077380957 0.1232143 0.625
0.0089285718 0.1232143 0.625
0.010119048 0.1232143 0.625
0.011309525 0.1232143 0.625
0.012500001 0.1232143 0.625
0.013690477 0.1232143 0.625
0.014880953 0.1232143 0.625
0.016071429 0.1232143 0.625
0.017261906 0.1232143 0.625
0.018452382 0.1232143 0.625
0.019674286 0.12341144 0.62600005
0.020866668 0.12341144 0.62600005
0.022059049 0.12341144 0.62600005
0.023251429 0.12341144 0.62600005
0.024443811 0.12341144 0.62600005
0.025636192 0.12341144 0.62600005
0.026828574 0.12341144 0.62600005
0.028020954 0.12341144 0.62600005
0.029213335 0.12341144 0.62600005
0.030405717 0.12341144 0.62600005
0.031648573 0.12360858 0.62700003
0.03284286 0.12360858 0.62700003
0.034037147 0.12360858 0.62700003
0.03523143 0.12360858 0.62700003
0.036425717 0.12360858 0.62700003
0.037680004 0.12380572 0.62800002
0.038876195 0.12380572 0.62800002
0.040072385 0.12380572 0.62800002
0.04133429 0.12400287 0.62900001
0.042532384 0.12400287 0.62900001
0.043730479 0.12400287 0.62900001
0.044928573 0.12400287 0.62900001
0.045980003 0.12360858 0.62700003
0.04717429 0.12360858 0.62700003
0.048445717 0.12380572 0.62800002
0.04956286 0.12360858 0.62700003
0.050838098 0.12380572 0.62800002
0.052034289 0.12380572 0.62800002
0.053230479 0.12380572 0.62800002
0.05442667 0.12380572 0.62800002
0.055711433 0.12400287 0.62900001
0.056909528 0.12400287 0.62900001
0.058015242 0.12380572 0.62800002
0.059211433 0.12380572 0.62800002
0.060407624 0.12380572 0.62800002
0.061603814 0.12380572 0.62800002
0.062900007 0.12400287 0.62900001
0.063996196 0.12380572 0.62800002
0.065088578 0.12360858 0.62700003
0.067692384 0.12400287 0.62900001
0.068890482 0.12400287 0.62900001
0.070088573 0.12400287 0.62900001
0.071286671 0.12400287 0.62900001
0.072484769 0.12400287 0.62900001
0.07391715 0.12439715 0.63100004
0.075119056 0.12439715 0.63100004
0.076441906 0.12459429 0.63200003
0.077645719 0.12459429 0.63200003
0.078974292 0.12479144 0.63300002
0.080180004 0.12479144 0.63300002
0.081385717 0.12479144 0.63300002
0.082721911 0.12498858 0.634
0.083929531 0.12498858 0.634
0.085137151 0.12498858 0.634
0.086344771 0.12498858 0.634
0.087552384 0.12498858 0.634
0.088760003 0.12498858 0.634
0.089967623 0.12498858 0.634
0.091175243 0.12498858 0.634
0.092382863 0.12498858 0.634
0.093590483 0.12498858 0.634
0.094947629 0.12518573 0.63500005
0.096157148 0.12518573 0.63500005
0.097366676 0.12518573 0.63500005
0.098731436 0.12538287 0.63600004
0.10041429 0.1259743 0.63900006
0.10163143 0.1259743 0.63900006
0.10268763 0.12577716 0.63800001
0.10390286 0.12577716 0.63800001
0.10544763 0.12617144 0.64000005
0.10666668 0.12617144 0.64000005
0.10771715 0.1259743 0.63900006
0.10910477 0.12617144 0.64000005
0.11032382 0.12617144 0.64000005
0.11171715 0.12636858 0.64100003
0.11293811 0.12636858 0.64100003
0.11415906 0.12636858 0.64100003
0.11787429 0.12774858 0.648
0.1194762 0.12814286 0.65000004
0.12108573 0.12853715 0.65200001
0.12251525 0.12873429 0.65300006
0.12356953 0.12853715 0.65200001
0.12481143 0.12853715 0.65200001
0.12605335 0.12853715 0.65200001
-0.043382861 0.12420572 0.62400001
-0.042194288 0.12420572 0.62400001
-0.041005716 0.12420572 0.62400001
-0.039817147 0.12420572 0.62400001
-0.038628574 0.12420572 0.62400001
-0.037440002 0.12420572 0.62400001
-0.036251429 0.12420572 0.62400001
-0.035062861 0.12420572 0.62400001
-0.033874288 0.12420572 0.62400001
-0.032685716 0.12420572 0.62400001
-0.031497143 0.12420572 0.62400001
-0.030308573 0.12420572 0.62400001
-0.029120002 0.12420572 0.62400001
-0.027931431 0.12420572 0.62400001
-0.026742859 0.12420572 0.62400001
-0.025554288 0.12420572 0.62400001
-0.024365716 0.12420572 0.62400001
-0.023177145 0.12420572 0.62400001
-0.021988573 0.12420572 0.62400001
-0.020800002 0.12420572 0.62400001
-0.019580001 0.12400667 0.62300003
-0.018422859 0.12420572 0.62400001
-0.017234286 0.12420572 0.62400001
-0.016045716 0.12420572 0.62400001
-0.014880953 0.12440477 0.625
-0.013668573 0.12420572 0.62400001
-0.012480001 0.12420572 0.62400001
-0.011309525 0.12440477 0.625
-0.010102858 0.12420572 0.62400001
-0.0089142863 0.12420572 0.62400001
-0.0077257147 0.12420572 0.62400001
-0.0065371431 0.12420572 0.62400001
-0.0053485716 0.12420572 0.62400001
-0.0041600005 0.12420572 0.62400001
-0.0029714287 0.12420572 0.62400001
-0.0017857144 0.12440477 0.625
-0.00059523812 0.12440477 0.625
0.00059523812 0.12440477 0.625
0.0017885716 0.12460382 0.62600005
0.0029809526 0.12460382 0.62600005
0.0041733338 0.12460382 0.62600005
0.0053657144 0.12460382 0.62600005
0.0065580956 0.12460382 0.62600005
0.0077380957 0.12440477 0.625
0.0089285718 0.12440477 0.625
0.010119048 0.12440477 0.625
0.011309525 0.12440477 0.625
0.012500001 0.12440477 0.625
0.013690477 0.12440477 0.625
0.014880953 0.12440477 0.625
0.016071429 0.12440477 0.625
0.017261906 0.12440477 0.625
0.018452382 0.12440477 0.625
0.019674286 0.12460382 0.62600005
0.020866668 0.12460382 0.62600005
0.022059049 0.12460382 0.62600005
0.023251429 0.12460382 0.62600005
0.024443811 0.12460382 0.62600005
0.025636192 0.12460382 0.62600005
0.026828574 0.12460382 0.62600005
0.028020954 0.12460382 0.62600005
0.029213335 0.12460382 0.62600005
0.030405717 0.12460382 0.62600005
0.031648573 0.12480287 0.62700003
0.03284286 0.12480287 0.62700003
0.034037147 0.12480287 0.62700003
0.03523143 0.12480287 0.62700003
0.036425717 0.12480287 0.62700003
0.037620004 0.12480287 0.62700003
0.038814288 0.12480287 0.62700003
0.040008575 0.12480287 0.62700003
0.04133429 0.12520096 0.62900001
0.042464763 0.12500191 0.62800002
0.043660954 0.12500191 0.62800002
0.044857144 0.12500191 0.62800002
0.045980003 0.12480287 0.62700003
0.04717429 0.12480287 0.62700003
0.048368573 0.12480287 0.62700003
0.04956286 0.12480287 0.62700003
0.050757147 0.12480287 0.62700003
0.051951431 0.12480287 0.62700003
0.053230479 0.12500191 0.62800002
0.05442667 0.12500191 0.62800002
0.055622861 0.12500191 0.62800002
0.056819052 0.12500191 0.62800002
0.058015242 0.12500191 0.62800002
0.059211433 0.12500191 0.62800002
0.060407624 0.12500191 0.62800002
0.061603814 0.12500191 0.62800002
0.062800005 0.12500191 0.62800002
0.063894287 0.12480287 0.62700003
0.065088578 0.12480287 0.62700003
0.066282861 0.12480287 0.62700003
0.067584768 0.12500191 0.62800002
0.068780959 0.12500191 0.62800002
0.070088573 0.12520096 0.62900001
0.071286671 0.12520096 0.62900001
0.072484769 0.12520096 0.62900001
0.07368286 0.12520096 0.62900001
0.075119056 0.12559906 0.63100004
0.076320961 0.12559906 0.63100004
0.077522859 0.12559906 0.63100004
0.078724764 0.12559906 0.63100004
0.080053337 0.12579811 0.63200003
0.08125715 0.12579811 0.63200003
0.082591437 0.12599716 0.63300002
0.083797149 0.12599716 0.63300002
0.085002862 0.12599716 0.63300002
0.086208574 0.12599716 0.63300002
0.087414294 0.12599716 0.63300002
0.088620007 0.12599716 0.63300002
0.08982572 0.12599716 0.63300002
0.091031432 0.12599716 0.63300002
0.092237152 0.12599716 0.63300002
0.093442865 0.12599716 0.63300002
0.094798103 0.12619621 0.634
0.096005723 0.12619621 0.634
0.097213343 0.12619621 0.634
0.098420955 0.12619621 0.634
0.099785723 0.12639524 0.63500005
0.10099524 0.12639524 0.63500005
0.10220477 0.12639524 0.63500005
0.10341429 0.12639524 0.63500005
0.10462382 0.12639524 0.63500005
0.10600001 0.12659429 0.63600004
0.10721143 0.12659429 0.63600004
0.10842287 0.12659429 0.63600004
0.10997906 0.12699239 0.63800001
0.11136858 0.12719144 0.63900006
0.11276191 0.12739049 0.64000005
0.11398096 0.12739049 0.64000005
0.11484001 0.12699239 0.63800001
0.11787429 0.12898287 0.648
0.11910858 0.12898287 0.648
0.12071429 0.12938096 0.65000004
0.12232763 0.12977906 0.65200001
0.12338001 0.12958001 0.65100002
0.12442858 0.12938096 0.65000004
0.12566668 0.12938096 0.65000004
-0.045833338 0.12559524 0.625
-0.044642862 0.12559524 0.625
-0.043382861 0.1253943 0.62400001
-0.042194288 0.1253943 0.62400001
-0.041005716 0.1253943 0.62400001
-0.039817147 0.1253943 0.62400001
-0.038628574 0.1253943 0.62400001
-0.037440002 0.1253943 0.62400001
-0.036251429 0.1253943 0.62400001
-0.035062861 0.1253943 0.62400001
-0.033874288 0.1253943 0.62400001
-0.032685716 0.1253943 0.62400001
-0.031497143 0.1253943 0.62400001
-0.030308573 0.1253943 0.62400001
-0.029120002 0.1253943 0.62400001
-0.027931431 0.1253943 0.62400001
-0.026742859 0.1253943 0.62400001
-0.025554288 0.1253943 0.62400001
-0.024365716 0.1253943 0.62400001
-0.023177145 0.1253943 0.62400001
-0.021988573 0.1253943 0.62400001
-0.020800002 0.1253943 0.62400001
-0.019611429 0.1253943 0.62400001
-0.018452382 0.12559524 0.625
-0.017261906 0.12559524 0.625
-0.016071429 0.12559524 0.625
-0.014880953 0.12559524 0.625
-0.013668573 0.1253943 0.62400001
-0.012500001 0.12559524 0.625
-0.011309525 0.12559524 0.625
-0.010102858 0.1253943 0.62400001
-0.0089142863 0.1253943 0.62400001
-0.0077257147 0.1253943 0.62400001
-0.0065371431 0.1253943 0.62400001
-0.0053485716 0.1253943 0.62400001
-0.0041600005 0.1253943 0.62400001
-0.0029714287 0.1253943 0.62400001
-0.0017857144 0.12559524 0.625
-0.00059523812 0.12559524 0.625
0.00059523812 0.12559524 0.625
0.0017885716 0.1257962 0.62600005
0.0029809526 0.1257962 0.62600005
0.0041733338 0.1257962 0.62600005
0.0053657144 0.1257962 0.62600005
0.0065580956 0.1257962 0.62600005
0.0077380957 0.12559524 0.625
0.0089285718 0.12559524 0.625
0.010119048 0.12559524 0.625
0.011309525 0.12559524 0.625
0.012500001 0.12559524 0.625
0.013690477 0.12559524 0.625
0.014880953 0.12559524 0.625
0.016071429 0.12559524 0.625
0.017261906 0.12559524 0.625
0.018452382 0.12559524 0.625
0.019642858 0.12559524 0.625
0.020833334 0.12559524 0.625
0.02202381 0.12559524 0.625
0.023251429 0.1257962 0.62600005
0.024443811 0.1257962 0.62600005
0.025636192 0.1257962 0.62600005
0.026828574 0.1257962 0.62600005
0.028020954 0.1257962 0.62600005
0.029213335 0.1257962 0.62600005
0.030405717 0.1257962 0.62600005
0.031648573 0.12599716 0.62700003
0.03284286 0.12599716 0.62700003
0.033982858 0.1257962 0.62600005
0.03523143 0.12599716 0.62700003
0.036425717 0.12599716 0.62700003
0.037620004 0.12599716 0.62700003
0.038814288 0.12599716 0.62700003
0.040008575 0.12599716 0.62700003
0.041202858 0.12599716 0.62700003
0.042397145 0.12599716 0.62700003
0.043591432 0.12599716 0.62700003
0.044785716 0.12599716 0.62700003
0.045980003 0.12599716 0.62700003
0.04717429 0.12599716 0.62700003
0.048368573 0.12599716 0.62700003
0.04956286 0.12599716 0.62700003
0.050757147 0.12599716 0.62700003
0.051951431 0.12599716 0.62700003
0.053145718 0.12599716 0.62700003
0.05442667 0.1261981 0.62800002
0.055622861 0.1261981 0.62800002
0.056819052 0.1261981 0.62800002
0.058015242 0.1261981 0.62800002
0.059211433 0.1261981 0.62800002
0.060407624 0.1261981 0.62800002
0.06150572 0.12599716 0.62700003
0.062800005 0.1261981 0.62800002
0.063894287 0.12599716 0.62700003
0.065088578 0.12599716 0.62700003
0.066177145 0.1257962 0.62600005
0.067477144 0.12599716 0.62700003
0.068780959 0.1261981 0.62800002
0.069977149 0.1261981 0.62800002
0.07117334 0.1261981 0.62800002
0.072484769 0.12639906 0.62900001
0.07368286 0.12639906 0.62900001
0.074880958 0.12639906 0.62900001
0.076079056 0.12639906 0.62900001
0.077522859 0.12680095 0.63100004
0.078724764 0.12680095 0.63100004
0.07992667 0.12680095 0.63100004
0.081128575 0.12680095 0.63100004
0.08233048 0.12680095 0.63100004
0.083532386 0.12680095 0.63100004
0.08486858 0.12700191 0.63200003
0.086072385 0.12700191 0.63200003
0.087276198 0.12700191 0.63200003
0.088620007 0.12720287 0.63300002
0.08982572 0.12720287 0.63300002
0.091031432 0.12720287 0.63300002
0.092237152 0.12720287 0.63300002
0.093442865 0.12720287 0.63300002
0.094648577 0.12720287 0.63300002
0.09585429 0.12720287 0.63300002
0.09706001 0.12720287 0.63300002
0.098265722 0.12720287 0.63300002
0.099628575 0.12740381 0.634
0.1008362 0.12740381 0.634
0.10220477 0.12760477 0.63500005
0.10325143 0.12740381 0.634
0.10445905 0.12740381 0.634
0.10583334 0.12760477 0.63500005
0.10704286 0.12760477 0.63500005
0.10825239 0.12760477 0.63500005
0.10946191 0.12760477 0.63500005
0.11084572 0.12780572 0.63600004
0.11240953 0.12820762 0.63800001
0.11362477 0.12820762 0.63800001
0.11484001 0.12820762 0.63800001
0.11550953 0.12760477 0.63500005
0.1194762 0.13061905 0.65000004
0.12071429 0.13061905 0.65000004
0.12195239 0.13061905 0.65000004
0.12319048 0.13061905 0.65000004
0.12404572 0.13021715 0.648
0.12612382 0.12981525 0.64600003
-0.045833338 0.12678573 0.625
-0.044642862 0.12678573 0.625
-0.043382861 0.12658286 0.62400001
-0.042261906 0.12678573 0.625
-0.04107143 0.12678573 0.625
-0.039880954 0.12678573 0.625
-0.038628574 0.12658286 0.62400001
-0.037440002 0.12658286 0.62400001
-0.036251429 0.12658286 0.62400001
-0.035062861 0.12658286 0.62400001
-0.033874288 0.12658286 0.62400001
-0.032685716 0.12658286 0.62400001
-0.031497143 0.12658286 0.62400001
-0.030308573 0.12658286 0.62400001
-0.029120002 0.12658286 0.62400001
-0.027976193 0.12678573 0.625
-0.026785716 0.12678573 0.625
-0.02559524 0.12678573 0.625
-0.024404764 0.12678573 0.625
-0.023214288 0.12678573 0.625
-0.02202381 0.12678573 0.625
-0.020800002 0.12658286 0.62400001
-0.019611429 0.12658286 0.62400001
-0.018452382 0.12678573 0.625
-0.017261906 0.12678573 0.625
-0.016071429 0.12678573 0.625
-0.014880953 0.12678573 0.625
-0.013690477 0.12678573 0.625
-0.012500001 0.12678573 0.625
-0.011309525 0.12678573 0.625
-0.010119048 0.12678573 0.625
-0.0089142863 0.12658286 0.62400001
-0.0077380957 0.12678573 0.625
-0.0065371431 0.12658286 0.62400001
-0.005357143 0.12678573 0.625
-0.0041600005 0.12658286 0.62400001
-0.0029714287 0.12658286 0.62400001
-0.0017857144 0.12678573 0.625
-0.00059523812 0.12678573 0.625
0.00059523812 0.12678573 0.625
0.0017885716 0.12698857 0.62600005
0.0029809526 0.12698857 0.62600005
0.0041733338 0.12698857 0.62600005
0.0053657144 0.12698857 0.62600005
0.0065580956 0.12698857 0.62600005
0.0077380957 0.12678573 0.625
0.0089285718 0.12678573 0.625
0.010119048 0.12678573 0.625
0.011309525 0.12678573 0.625
0.012500001 0.12678573 0.625
0.013690477 0.12678573 0.625
0.014880953 0.12678573 0.625
0.016071429 0.12678573 0.625
0.017261906 0.12678573 0.625
0.018452382 0.12678573 0.625
0.019642858 0.12678573 0.625
0.020833334 0.12678573 0.625
0.022059049 0.12698857 0.62600005
0.023251429 0.12698857 0.62600005
0.024443811 0.12698857 0.62600005
0.025636192 0.12698857 0.62600005
0.026828574 0.12698857 0.62600005
0.028020954 0.12698857 0.62600005
0.029213335 0.12698857 0.62600005
0.030405717 0.12698857 0.62600005
0.031598099 0.12698857 0.62600005
0.032790478 0.12698857 0.62600005
0.033982858 0.12698857 0.62600005
0.035175242 0.12698857 0.62600005
0.036425717 0.12719144 0.62700003
0.037620004 0.12719144 0.62700003
0.038814288 0.12719144 0.62700003
0.039944764 0.12698857 0.62600005
0.041202858 0.12719144 0.62700003
0.042329527 0.12698857 0.62600005
0.043591432 0.12719144 0.62700003
0.044785716 0.12719144 0.62700003
0.04590667 0.12698857 0.62600005
0.04709905 0.12698857 0.62600005
0.048368573 0.12719144 0.62700003
0.049483813 0.12698857 0.62600005
0.050676193 0.12698857 0.62600005
0.051951431 0.12719144 0.62700003
0.053145718 0.12719144 0.62700003
0.054340005 0.12719144 0.62700003
0.055534288 0.12719144 0.62700003
0.056728575 0.12719144 0.62700003
0.057922862 0.12719144 0.62700003
0.059117146 0.12719144 0.62700003
0.060311433 0.12719144 0.62700003
0.06150572 0.12719144 0.62700003
0.062700003 0.12719144 0.62700003
0.063792385 0.12698857 0.62600005
0.064984769 0.12698857 0.62600005
0.066177145 0.12698857 0.62600005
0.067477144 0.12719144 0.62700003
0.068671435 0.12719144 0.62700003
0.069977149 0.12739429 0.62800002
0.07117334 0.12739429 0.62800002
0.072369531 0.12739429 0.62800002
0.073565722 0.12739429 0.62800002
0.074880958 0.12759715 0.62900001
0.076079056 0.12759715 0.62900001
0.077277146 0.12759715 0.62900001
0.078475244 0.12759715 0.62900001
0.079673335 0.12759715 0.62900001
0.080871433 0.12759715 0.62900001
0.082069531 0.12759715 0.62900001
0.083532386 0.12800287 0.63100004
0.084734291 0.12800287 0.63100004
0.085936196 0.12800287 0.63100004
0.087138101 0.12800287 0.63100004
0.088480003 0.12820572 0.63200003
0.089683816 0.12820572 0.63200003
0.090887628 0.12820572 0.63200003
0.092091434 0.12820572 0.63200003
0.093295246 0.12820572 0.63200003
0.094349533 0.12800287 0.63100004
0.095702864 0.12820572 0.63200003
0.096906669 0.12820572 0.63200003
0.098110482 0.12820572 0.63200003
0.099314295 0.12820572 0.63200003
0.1005181 0.12820572 0.63200003
0.10204381 0.12861143 0.634
0.10308858 0.12840858 0.63300002
0.10429429 0.12840858 0.63300002
0.10566667 0.12861143 0.634
0.10687429 0.12861143 0.634
0.10808191 0.12861143 0.634
0.10928953 0.12861143 0.634
0.11067144 0.12881429 0.63500005
0.11188096 0.12881429 0.63500005
0.11309049 0.12881429 0.63500005
0.11430001 0.12881429 0.63500005
0.11550953 0.12881429 0.63500005
0.11727048 0.12942286 0.63800001
0.11922858 0.1302343 0.64200002
0.12138953 0.13124858 0.64700001
0.12262192 0.13124858 0.64700001
0.12366287 0.13104573 0.64600003
0.12592858 0.13084286 0.64500004
-0.045833338 0.12797619 0.625
-0.044642862 0.12797619 0.625
-0.043452382 0.12797619 0.625
-0.042261906 0.12797619 0.625
-0.04107143 0.12797619 0.625
-0.039880954 0.12797619 0.625
-0.038628574 0.12777144 0.62400001
-0.037440002 0.12777144 0.62400001
-0.036251429 0.12777144 0.62400001
-0.035062861 0.12777144 0.62400001
-0.033874288 0.12777144 0.62400001
-0.032685716 0.12777144 0.62400001
-0.031497143 0.12777144 0.62400001
-0.030308573 0.12777144 0.62400001
-0.029120002 0.12777144 0.62400001
-0.027931431 0.12777144 0.62400001
-0.026785716 0.12797619 0.625
-0.025554288 0.12777144 0.62400001
-0.024404764 0.12797619 0.625
-0.023214288 0.12797619 0.625
-0.02202381 0.12797619 0.625
-0.020833334 0.12797619 0.625
-0.019611429 0.12777144 0.62400001
-0.018481907 0.12818097 0.62600005
-0.017261906 0.12797619 0.625
-0.016071429 0.12797619 0.625
-0.014880953 0.12797619 0.625
-0.013690477 0.12797619 0.625
-0.012500001 0.12797619 0.625
-0.011309525 0.12797619 0.625
-0.010119048 0.12797619 0.625
-0.0089285718 0.12797619 0.625
-0.0077380957 0.12797619 0.625
-0.0065476196 0.12797619 0.625
-0.005357143 0.12797619 0.625
-0.0041666669 0.12797619 0.625
-0.0029761908 0.12797619 0.625
-0.0017857144 0.12797619 0.625
-0.00059523812 0.12797619 0.625
0.00059619051 0.12818097 0.62600005
0.0017885716 0.12818097 0.62600005
0.0029809526 0.12818097 0.62600005
0.0041666669 0.12797619 0.625
0.0053657144 0.12818097 0.62600005
0.0065476196 0.12797619 0.625
0.0077380957 0.12797619 0.625
0.0089285718 0.12797619 0.625
0.010119048 0.12797619 0.625
0.011309525 0.12797619 0.625
0.012500001 0.12797619 0.625
0.013690477 0.12797619 0.625
0.014880953 0.12797619 0.625
0.016071429 0.12797619 0.625
0.017261906 0.12797619 0.625
0.018452382 0.12797619 0.625
0.019642858 0.12797619 0.625
0.020833334 0.12797619 0.625
0.02202381 0.12797619 0.625
0.023251429 0.12818097 0.62600005
0.024443811 0.12818097 0.62600005
0.025636192 0.12818097 0.62600005
0.026785716 0.12797619 0.625
0.028020954 0.12818097 0.62600005
0.029213335 0.12818097 0.62600005
0.030405717 0.12818097 0.62600005
0.031598099 0.12818097 0.62600005
0.032790478 0.12818097 0.62600005
0.033982858 0.12818097 0.62600005
0.035175242 0.12818097 0.62600005
0.036367621 0.12818097 0.62600005
0.037620004 0.12838572 0.62700003
0.038752384 0.12818097 0.62600005
0.039944764 0.12818097 0.62600005
0.041137144 0.12818097 0.62600005
0.042329527 0.12818097 0.62600005
0.043591432 0.12838572 0.62700003
0.044785716 0.12838572 0.62700003
0.04590667 0.12818097 0.62600005
0.04717429 0.12838572 0.62700003
0.048368573 0.12838572 0.62700003
0.049483813 0.12818097 0.62600005
0.050676193 0.12818097 0.62600005
0.051868577 0.12818097 0.62600005
0.053145718 0.12838572 0.62700003
0.054340005 0.12838572 0.62700003
0.055534288 0.12838572 0.62700003
0.056728575 0.12838572 0.62700003
0.057922862 0.12838572 0.62700003
0.059117146 0.12838572 0.62700003
0.060311433 0.12838572 0.62700003
0.06150572 0.12838572 0.62700003
0.062700003 0.12838572 0.62700003
0.063792385 0.12818097 0.62600005
0.064984769 0.12818097 0.62600005
0.066177145 0.12818097 0.62600005
0.067369528 0.12818097 0.62600005
0.068671435 0.12838572 0.62700003
0.069865718 0.12838572 0.62700003
0.07117334 0.12859048 0.62800002
0.072369531 0.12859048 0.62800002
0.073565722 0.12859048 0.62800002
0.074880958 0.12879525 0.62900001
0.076079056 0.12879525 0.62900001
0.077277146 0.12879525 0.62900001
0.078475244 0.12879525 0.62900001
0.079673335 0.12879525 0.62900001
0.080871433 0.12879525 0.62900001
0.082069531 0.12879525 0.62900001
0.083532386 0.12920476 0.63100004
0.084734291 0.12920476 0.63100004
0.085936196 0.12920476 0.63100004
0.087138101 0.12920476 0.63100004
0.088340007 0.12920476 0.63100004
0.089541912 0.12920476 0.63100004
0.090743817 0.12920476 0.63100004
0.091945723 0.12920476 0.63100004
0.093147628 0.12920476 0.63100004
0.094349533 0.12920476 0.63100004
0.095551431 0.12920476 0.63100004
0.096753336 0.12920476 0.63100004
0.097955242 0.12920476 0.63100004
0.099314295 0.12940954 0.63200003
0.10035905 0.12920476 0.63100004
0.10188287 0.12961429 0.63300002
0.10292572 0.12940954 0.63200003
0.10412953 0.12940954 0.63200003
0.10533334 0.12940954 0.63200003
0.10670572 0.12961429 0.63300002
0.10808191 0.12981905 0.634
0.10911715 0.12961429 0.63300002
0.11049715 0.12981905 0.634
0.11170477 0.12981905 0.634
0.11291239 0.12981905 0.634
0.11430001 0.13002382 0.63500005
0.11569144 0.13022858 0.63600004
0.11727048 0.13063811 0.63800001
0.11922858 0.13145715 0.64200002
0.12045144 0.13145715 0.64200002
0.12224287 0.13207144 0.64500004
0.12347144 0.13207144 0.64500004
0.12450667 0.13186668 0.64400005
-0.045833338 0.12916668 0.625
-0.044642862 0.12916668 0.625
-0.043452382 0.12916668 0.625
-0.042261906 0.12916668 0.625
-0.04107143 0.12916668 0.625
-0.039880954 0.12916668 0.625
-0.038690478 0.12916668 0.625
-0.037500001 0.12916668 0.625
-0.036309525 0.12916668 0.625
-0.035062861 0.12896001 0.62400001
-0.033874288 0.12896001 0.62400001
-0.032685716 0.12896001 0.62400001
-0.031497143 0.12896001 0.62400001
-0.030308573 0.12896001 0.62400001
-0.029120002 0.12896001 0.62400001
-0.027931431 0.12896001 0.62400001
-0.026785716 0.12916668 0.625
-0.02559524 0.12916668 0.625
-0.024404764 0.12916668 0.625
-0.023214288 0.12916668 0.625
-0.02202381 0.12916668 0.625
-0.020833334 0.12916668 0.625
-0.019642858 0.12916668 0.625
-0.018452382 0.12916668 0.625
-0.017289525 0.12937334 0.62600005
-0.016097143 0.12937334 0.62600005
-0.014904763 0.12937334 0.62600005
-0.013690477 0.12916668 0.625
-0.012500001 0.12916668 0.625
-0.011309525 0.12916668 0.625
-0.010119048 0.12916668 0.625
-0.0089285718 0.12916668 0.625
-0.0077380957 0.12916668 0.625
-0.0065476196 0.12916668 0.625
-0.005357143 0.12916668 0.625
-0.0041666669 0.12916668 0.625
-0.0029761908 0.12916668 0.625
-0.0017857144 0.12916668 0.625
-0.00059523812 0.12916668 0.625
