# .PCD v0.7 - Point Cloud Data file format
VERSION 0.7
FIELDS x y z
SIZE 4 4 4
TYPE F F F
COUNT 1 1 1
WIDTH 1345
HEIGHT 1
VIEWPOINT 0 0 0 1 0 0 0
POINTS 1345
DATA ascii
-0.01859143 0.058528576 0.72300005
-0.017261906 0.058690481 0.72500002
-0.015837144 0.058528576 0.72300005
-0.014440001 0.058447622 0.72200006
-0.013028572 0.058285717 0.72000003
-0.011657144 0.058285717 0.72000003
-0.010285715 0.058285717 0.72000003
-0.0089142863 0.058285717 0.72000003
-0.0075638099 0.058447622 0.72200006
-0.0061885719 0.058447622 0.72200006
-0.0048333337 0.058690481 0.72500002
-0.003457143 0.058771431 0.72600001
-0.0020714288 0.058690481 0.72500002
-0.00069142861 0.058771431 0.72600001
0.00069142861 0.058771431 0.72600001
0.0020742859 0.058771431 0.72600001
-0.027040001 0.060320005 0.72800004
-0.025582859 0.060154289 0.72600001
-0.024200002 0.060154289 0.72600001
-0.022785716 0.060071431 0.72500002
-0.021345716 0.059905719 0.72300005
-0.019968573 0.059905719 0.72300005
-0.018565716 0.059822861 0.72200006
-0.017214287 0.059905719 0.72300005
-0.015815239 0.059822861 0.72200006
-0.014400001 0.059657145 0.72000003
-0.013028572 0.059657145 0.72000003
-0.011657144 0.059657145 0.72000003
-0.010271429 0.059574291 0.71900004
-0.0089019053 0.059574291 0.71900004
-0.0075428574 0.059657145 0.72000003
-0.0061714291 0.059657145 0.72000003
-0.0048133335 0.059822861 0.72200006
-0.0034428574 0.059905719 0.72300005
-0.0020657144 0.059905719 0.72300005
-0.00069047621 0.060071431 0.72500002
0.00069047621 0.060071431 0.72500002
0.0020742859 0.060154289 0.72600001
0.003457143 0.060154289 0.72600001
0.0048400005 0.060154289 0.72600001
0.14612858 0.065871432 0.79500002
-0.025653334 0.06170667 0.72800004
-0.024200002 0.061537147 0.72600001
-0.022785716 0.061452385 0.72500002
-0.021345716 0.061282862 0.72300005
-0.019940954 0.0611981 0.72200006
-0.018514287 0.061028574 0.72000003
-0.017190477 0.0611981 0.72200006
-0.01577143 0.061028574 0.72000003
-0.014380001 0.060943812 0.71900004
-0.013010477 0.060943812 0.71900004
-0.011640953 0.060943812 0.71900004
-0.010242858 0.060774289 0.71700001
-0.0088771433 0.060774289 0.71700001
-0.007511429 0.060774289 0.71700001
-0.0061628576 0.060943812 0.71900004
-0.0047933338 0.060943812 0.71900004
-0.0034285716 0.061028574 0.72000003
-0.0020628574 0.0611981 0.72200006
-0.00068857148 0.061282862 0.72300005
0.00068857148 0.061282862 0.72300005
0.0020657144 0.061282862 0.72300005
0.0034523811 0.061452385 0.72500002
0.14274001 0.067216195 0.79300004
0.14425048 0.067216195 0.79300004
0.14576097 0.067216195 0.79300004
0.14727144 0.067216195 0.79300004
0.14878191 0.067216195 0.79300004
-0.024166668 0.062833339 0.72500002
-0.022722859 0.062660001 0.72300005
-0.021316191 0.062573336 0.72200006
-0.019885715 0.062400006 0.72000003
-0.018488573 0.062313337 0.71900004
-0.017119048 0.062313337 0.71900004
-0.015749525 0.062313337 0.71900004
-0.014340001 0.062140003 0.71700001
-0.012974286 0.062140003 0.71700001
-0.011592382 0.062053338 0.71600002
-0.010228572 0.062053338 0.71600002
-0.0088400003 0.061880004 0.71400005
-0.007500953 0.062053338 0.71600002
-0.0061371434 0.062053338 0.71600002
-0.0047733337 0.062053338 0.71600002
-0.0034238098 0.062313337 0.71900004
-0.002057143 0.062400006 0.72000003
-0.00068761909 0.062573336 0.72200006
0.00068761909 0.062573336 0.72200006
0.0020628574 0.062573336 0.72200006
0.0034428574 0.062660001 0.72300005
0.0048200004 0.062660001 0.72300005
0.0061971433 0.062660001 0.72300005
0.13484667 0.068553336 0.79100001
0.13786002 0.068553336 0.79100001
0.13936667 0.068553336 0.79100001
0.14087334 0.068553336 0.79100001
0.14238001 0.068553336 0.79100001
0.14388667 0.068553336 0.79100001
0.14539334 0.068553336 0.79100001
0.14690001 0.068553336 0.79100001
0.14840667 0.068553336 0.79100001
-0.026854288 0.064037144 0.72300005
-0.025441907 0.063948579 0.72200006
-0.024066668 0.063948579 0.72200006
-0.022691431 0.063948579 0.72200006
-0.021227621 0.063682862 0.71900004
-0.019802859 0.063505717 0.71700001
-0.018437143 0.063505717 0.71700001
-0.017047619 0.063417144 0.71600002
-0.015683811 0.063417144 0.71600002
-0.014280001 0.063240007 0.71400005
-0.012920001 0.063240007 0.71400005
-0.01156 0.063240007 0.71400005
-0.010185715 0.063151434 0.71300006
-0.0088400003 0.063240007 0.71400005
-0.0074800006 0.063240007 0.71400005
-0.0061200005 0.063240007 0.71400005
-0.0047733337 0.063417144 0.71600002
-0.003409524 0.063417144 0.71600002
-0.0020485716 0.063505717 0.71700001
-0.00068476197 0.063682862 0.71900004
0.00068476197 0.063682862 0.71900004
0.002054286 0.063682862 0.71900004
0.0034285716 0.063771434 0.72000003
0.0048000002 0.063771434 0.72000003
0.0061885719 0.063948579 0.72200006
0.0075742863 0.064037144 0.72300005
-0.026854288 0.065414287 0.72300005
-0.025441907 0.065323815 0.72200006
-0.024066668 0.065323815 0.72200006
-0.022628574 0.065142862 0.72000003
-0.02113905 0.064780958 0.71600002
-0.019720001 0.064600006 0.71400005
-0.018360002 0.064600006 0.71400005
-0.017000001 0.064600006 0.71400005
-0.015640002 0.064600006 0.71400005
-0.014280001 0.064600006 0.71400005
-0.012901906 0.064509526 0.71300006
-0.01154381 0.064509526 0.71300006
-0.010185715 0.064509526 0.71300006
-0.0088276193 0.064509526 0.71300006
-0.0074800006 0.064600006 0.71400005
-0.0061200005 0.064600006 0.71400005
-0.0047600004 0.064600006 0.71400005
-0.0034000003 0.064600006 0.71400005
-0.0020457145 0.064780958 0.71600002
-0.00068285718 0.06487143 0.71700001
0.00068285718 0.06487143 0.71700001
0.0020485716 0.06487143 0.71700001
0.0034238098 0.065052383 0.71900004
0.0047933338 0.065052383 0.71900004
0.0061714291 0.065142862 0.72000003
0.0075638099 0.065323815 0.72200006
-0.026817145 0.06669905 0.72200006
-0.02537143 0.066514291 0.72000003
-0.024000002 0.066514291 0.72000003
-0.022502858 0.066144764 0.71600002
-0.021080002 0.065960005 0.71400005
-0.019692382 0.065867625 0.71300006
-0.018334286 0.065867625 0.71300006
-0.017000001 0.065960005 0.71400005
-0.015618096 0.065867625 0.71300006
-0.014260001 0.065867625 0.71300006
-0.012901906 0.065867625 0.71300006
-0.011511429 0.065682858 0.71100003
-0.010157144 0.065682858 0.71100003
-0.0088028582 0.065682858 0.71100003
-0.0074695242 0.065867625 0.71300006
-0.0061114291 0.065867625 0.71300006
-0.0047533335 0.065867625 0.71300006
-0.0033952384 0.065867625 0.71300006
-0.0020400002 0.065960005 0.71400005
-0.00068000006 0.065960005 0.71400005
0.00068190478 0.066144764 0.71600002
0.0020457145 0.066144764 0.71600002
0.003409524 0.066144764 0.71600002
0.0047733337 0.066144764 0.71600002
0.0061628576 0.066421911 0.71900004
-0.026705716 0.067791432 0.71900004
-0.025265716 0.067602858 0.71700001
-0.023900002 0.067602858 0.71700001
-0.022440001 0.067320004 0.71400005
-0.021050477 0.067225717 0.71300006
-0.019692382 0.067225717 0.71300006
-0.018334286 0.067225717 0.71300006
-0.016976191 0.067225717 0.71300006
-0.015618096 0.067225717 0.71300006
-0.014220001 0.06703715 0.71100003
-0.012865715 0.06703715 0.71100003
-0.011495239 0.066942863 0.71000004
-0.010142858 0.066942863 0.71000004
-0.0087904772 0.066942863 0.71000004
-0.0074380958 0.066942863 0.71000004
-0.0060942862 0.06703715 0.71100003
-0.0047400002 0.06703715 0.71100003
-0.0033857145 0.06703715 0.71100003
-0.0020314287 0.06703715 0.71100003
-0.00067904766 0.067225717 0.71300006
0.00068000006 0.067320004 0.71400005
0.0020400002 0.067320004 0.71400005
0.0034000003 0.067320004 0.71400005
0.0047600004 0.067320004 0.71400005
-0.026705716 0.069160961 0.71900004
-0.025265716 0.068968579 0.71700001
-0.023800002 0.068680003 0.71400005
-0.022408573 0.068583816 0.71300006
-0.02099143 0.068391435 0.71100003
-0.019637143 0.068391435 0.71100003
-0.018282859 0.068391435 0.71100003
-0.016928572 0.068391435 0.71100003
-0.015574287 0.068391435 0.71100003
-0.014200001 0.06829524 0.71000004
-0.01284762 0.06829524 0.71000004
-0.011462858 0.068102859 0.708
-0.010114286 0.068102859 0.708
-0.0087657152 0.068102859 0.708
-0.0074171433 0.068102859 0.708
-0.0060685719 0.068102859 0.708
-0.0047333338 0.06829524 0.71000004
-0.0033809526 0.06829524 0.71000004
-0.0020285717 0.06829524 0.71000004
-0.00067619054 0.06829524 0.71000004
0.00067714287 0.068391435 0.71100003
0.0020314287 0.068391435 0.71100003
0.0033857145 0.068391435 0.71100003
0.0047400002 0.068391435 0.71100003
0.0061200005 0.068680003 0.71400005
-0.028075241 0.070530482 0.71900004
-0.02663143 0.070334293 0.71700001
-0.025230478 0.070236199 0.71600002
-0.023766669 0.069941908 0.71300006
-0.022345716 0.069745719 0.71100003
-0.020961907 0.069647625 0.71000004
-0.019554287 0.069451436 0.708
-0.018205715 0.069451436 0.708
-0.016904764 0.069647625 0.71000004
-0.015552382 0.069647625 0.71000004
-0.014160001 0.069451436 0.708
-0.01281143 0.069451436 0.708
-0.011446668 0.069353335 0.70700002
-0.010100001 0.069353335 0.70700002
-0.0087533342 0.069353335 0.70700002
-0.0074066673 0.069353335 0.70700002
-0.0060600005 0.069353335 0.70700002
-0.0047133337 0.069353335 0.70700002
-0.0033666668 0.069353335 0.70700002
-0.0020200002 0.069353335 0.70700002
-0.00067428575 0.069451436 0.708
0.00067619054 0.069647625 0.71000004
0.0020285717 0.069647625 0.71000004
0.0033809526 0.069647625 0.71000004
0.0047333338 0.069647625 0.71000004
0.0060942862 0.069745719 0.71100003
0.0074485717 0.069745719 0.71100003
-0.027997145 0.071700007 0.71700001
-0.026520003 0.071400002 0.71400005
-0.025054287 0.071100004 0.71100003
-0.023700001 0.071100004 0.71100003
-0.022314288 0.071000002 0.71000004
-0.020902859 0.070800006 0.708
-0.019526668 0.070700005 0.70700002
-0.018180002 0.070700005 0.70700002
-0.016857143 0.070800006 0.708
-0.015508573 0.070800006 0.708
-0.014140001 0.070700005 0.70700002
-0.012793334 0.070700005 0.70700002
-0.011398096 0.070400007 0.70400006
-0.010071429 0.070500001 0.70500004
-0.0087285722 0.070500001 0.70500004
-0.0073752385 0.070400007 0.70400006
-0.0060342862 0.070400007 0.70400006
-0.0046933335 0.070400007 0.70400006
-0.0033571431 0.070500001 0.70500004
-0.0020142859 0.070500001 0.70500004
-0.00067333336 0.070700005 0.70700002
0.00067333336 0.070700005 0.70700002
0.0020200002 0.070700005 0.70700002
0.0033714287 0.070800006 0.708
0.0047133337 0.070700005 0.70700002
0.0060685719 0.070800006 0.708
0.0074066673 0.070700005 0.70700002
-0.027997145 0.07306572 0.71700001
-0.026594287 0.072963811 0.71600002
-0.025054287 0.072454289 0.71100003
-0.023666669 0.072352387 0.71000004
-0.022251431 0.072148576 0.708
-0.020873334 0.072046675 0.70700002
-0.019526668 0.072046675 0.70700002
-0.018128572 0.071842864 0.70500004
-0.016833335 0.072046675 0.70700002
-0.015442858 0.071842864 0.70500004
-0.014100001 0.071842864 0.70500004
-0.012739048 0.071740955 0.70400006
-0.011381906 0.071639054 0.70300001
-0.010042857 0.071639054 0.70300001
-0.0087038102 0.071639054 0.70300001
-0.0073647625 0.071639054 0.70300001
-0.0060257148 0.071639054 0.70300001
-0.0046866671 0.071639054 0.70300001
-0.0033523813 0.071740955 0.70400006
-0.0020114286 0.071740955 0.70400006
-0.00067047623 0.071740955 0.70400006
0.00067047623 0.071740955 0.70400006
0.0020142859 0.071842864 0.70500004
0.0033571431 0.071842864 0.70500004
0.0047000004 0.071842864 0.70500004
0.0060600005 0.072046675 0.70700002
0.0073857149 0.071842864 0.70500004
0.0087285722 0.071842864 0.70500004
-0.029321907 0.074327625 0.71600002
-0.027958097 0.074327625 0.71600002
-0.026594287 0.074327625 0.71600002
-0.02501905 0.073704764 0.71000004
-0.023600001 0.073497146 0.708
-0.022220001 0.073393337 0.70700002
-0.020873334 0.073393337 0.70700002
-0.019471429 0.07318572 0.70500004
-0.018128572 0.07318572 0.70500004
-0.016785715 0.07318572 0.70500004
-0.015442858 0.07318572 0.70500004
-0.014060001 0.072978102 0.70300001
-0.012720954 0.072978102 0.70300001
-0.011349524 0.072770484 0.70100003
-0.010014286 0.072770484 0.70100003
-0.0086790482 0.072770484 0.70100003
-0.0073438101 0.072770484 0.70100003
-0.0060085719 0.072770484 0.70100003
-0.0046866671 0.072978102 0.70300001
-0.0033476192 0.072978102 0.70300001
-0.0020085715 0.072978102 0.70300001
-0.00067047623 0.073081911 0.70400006
0.00067047623 0.073081911 0.70400006
0.0020114286 0.073081911 0.70400006
0.0033523813 0.073081911 0.70400006
0.0046933335 0.073081911 0.70400006
0.0060342862 0.073081911 0.70400006
0.0073752385 0.073081911 0.70400006
0.0087038102 0.072978102 0.70300001
0.010042857 0.072978102 0.70300001
-0.029199049 0.07537429 0.71300006
-0.027840953 0.07537429 0.71300006
-0.02648286 0.07537429 0.71300006
-0.02501905 0.075057149 0.71000004
-0.023600001 0.074845716 0.708
-0.022220001 0.074740008 0.70700002
-0.020814287 0.074528575 0.70500004
-0.019471429 0.074528575 0.70500004
-0.018102858 0.074422859 0.70400006
-0.016785715 0.074528575 0.70500004
-0.015420954 0.074422859 0.70400006
-0.014060001 0.07431715 0.70300001
-0.012684762 0.074105717 0.70100003
-0.011349524 0.074105717 0.70100003
-0.010014286 0.074105717 0.70100003
-0.0086790482 0.074105717 0.70100003
-0.0073333336 0.074000008 0.70000005
-0.0060085719 0.074105717 0.70100003
-0.0046733338 0.074105717 0.70100003
-0.0033380955 0.074105717 0.70100003
-0.0020028572 0.074105717 0.70100003
-0.00066952384 0.07431715 0.70300001
0.00066952384 0.07431715 0.70300001
0.0020085715 0.07431715 0.70300001
0.0033476192 0.07431715 0.70300001
0.0046933335 0.074422859 0.70400006
0.0060342862 0.074422859 0.70400006
0.0073752385 0.074422859 0.70400006
0.0087161912 0.074422859 0.70400006
0.010014286 0.074105717 0.70100003
-0.029076193 0.076409526 0.71000004
-0.027723812 0.076409526 0.71000004
-0.026297145 0.076194294 0.708
-0.024948573 0.076194294 0.708
-0.023566669 0.07608667 0.70700002
-0.022157144 0.07587143 0.70500004
-0.020784764 0.075763814 0.70400006
-0.019416193 0.075656198 0.70300001
-0.018077144 0.075656198 0.70300001
-0.016738096 0.075656198 0.70300001
-0.015399049 0.075656198 0.70300001
-0.014020001 0.075440958 0.70100003
-0.012666668 0.075333342 0.70000005
-0.011333334 0.075333342 0.70000005
-0.010000001 0.075333342 0.70000005
-0.0086419052 0.075118102 0.69800001
-0.0073123816 0.075118102 0.69800001
-0.0059828577 0.075118102 0.69800001
-0.004666667 0.075333342 0.70000005
-0.0033333336 0.075333342 0.70000005
-0.0019942857 0.075118102 0.69800001
-0.00066666672 0.075333342 0.70000005
0.00066666672 0.075333342 0.70000005
0.0020000001 0.075333342 0.70000005
0.0033380955 0.075440958 0.70100003
0.004666667 0.075333342 0.70000005
0.0060000005 0.075333342 0.70000005
0.0073438101 0.075440958 0.70100003
0.0086666672 0.075333342 0.70000005
0.010000001 0.075333342 0.70000005
-0.032142859 0.08214286 0.75000006
-0.027723812 0.077761911 0.71000004
-0.026260002 0.07743334 0.70700002
-0.024842858 0.077214293 0.70500004
-0.023500001 0.077214293 0.70500004
-0.022125715 0.07710477 0.70400006
-0.020784764 0.07710477 0.70400006
-0.019416193 0.076995246 0.70300001
-0.018025715 0.076776199 0.70100003
-0.016738096 0.076995246 0.70300001
-0.015355239 0.076776199 0.70100003
-0.014000001 0.076666668 0.70000005
-0.012666668 0.076666668 0.70000005
-0.011300953 0.076447621 0.69800001
-0.0099571431 0.076338097 0.69700003
-0.0086295241 0.076338097 0.69700003
-0.0073019052 0.076338097 0.69700003
-0.0059742862 0.076338097 0.69700003
-0.0046466668 0.076338097 0.69700003
-0.0033190479 0.076338097 0.69700003
-0.0019914287 0.076338097 0.69700003
-0.00066476193 0.076447621 0.69800001
0.00066476193 0.076447621 0.69800001
0.0019942857 0.076447621 0.69800001
0.0033333336 0.076666668 0.70000005
0.0046533337 0.076447621 0.69800001
0.0059828577 0.076447621 0.69800001
0.0073123816 0.076447621 0.69800001
0.0086419052 0.076447621 0.69800001
0.0099714296 0.076447621 0.69800001
-0.032057144 0.08334858 0.74800003
-0.027723812 0.079114288 0.71000004
-0.026260002 0.078780003 0.70700002
-0.024842858 0.078557149 0.70500004
-0.023466669 0.078445718 0.70400006
-0.022094287 0.078334294 0.70300001
-0.020755239 0.078334294 0.70300001
-0.019360954 0.078111432 0.70100003
-0.018025715 0.078111432 0.70100003
-0.016690478 0.078111432 0.70100003
-0.015333334 0.078000002 0.70000005
-0.013960001 0.077777147 0.69800001
-0.012630477 0.077777147 0.69800001
-0.011284763 0.077665716 0.69700003
-0.009928572 0.077442862 0.69500005
-0.0086047621 0.077442862 0.69500005
-0.0072809528 0.077442862 0.69500005
-0.005948572 0.077331431 0.69400001
-0.0046200003 0.077220008 0.69300002
-0.0033047621 0.077331431 0.69400001
-0.0019857143 0.077442862 0.69500005
-0.00066190481 0.077442862 0.69500005
0.00066380959 0.077665716 0.69700003
0.0019914287 0.077665716 0.69700003
0.0033190479 0.077665716 0.69700003
0.0046466668 0.077665716 0.69700003
0.0059742862 0.077665716 0.69700003
0.0073019052 0.077665716 0.69700003
0.0086295241 0.077665716 0.69700003
0.0099571431 0.077665716 0.69700003
-0.027606668 0.080126673 0.70700002
-0.026260002 0.080126673 0.70700002
-0.024807621 0.079786673 0.70400006
-0.023466669 0.079786673 0.70400006
-0.022094287 0.079673335 0.70300001
-0.020696191 0.079446673 0.70100003
-0.019333335 0.079333335 0.70000005
-0.018000001 0.079333335 0.70000005
-0.016666668 0.079333335 0.70000005
-0.015289525 0.079106674 0.69800001
-0.013960001 0.079106674 0.69800001
-0.012612382 0.078993335 0.69700003
-0.011252382 0.078766674 0.69500005
-0.009928572 0.078766674 0.69500005
-0.0085923811 0.078653336 0.69400001
-0.0072704768 0.078653336 0.69400001
-0.0059400005 0.078540005 0.69300002
-0.0046200003 0.078540005 0.69300002
-0.0033000002 0.078540005 0.69300002
-0.0019800002 0.078540005 0.69300002
-0.00066095241 0.078653336 0.69400001
0.00066190481 0.078766674 0.69500005
0.0019857143 0.078766674 0.69500005
0.0033095239 0.078766674 0.69500005
0.0046466668 0.078993335 0.69700003
0.0059742862 0.078993335 0.69700003
0.0073019052 0.078993335 0.69700003
0.0086295241 0.078993335 0.69700003
0.0099571431 0.078993335 0.69700003
-0.026260002 0.081473336 0.70700002
-0.024807621 0.081127621 0.70400006
-0.023466669 0.081127621 0.70400006
-0.02203143 0.080781907 0.70100003
-0.020696191 0.080781907 0.70100003
-0.019333335 0.080666669 0.70000005
-0.017948573 0.080436192 0.69800001
-0.016619049 0.080436192 0.69800001
-0.01526762 0.080320954 0.69700003
-0.013940001 0.080320954 0.69700003
-0.012576192 0.080090478 0.69500005
-0.011236191 0.07997524 0.69400001
-0.0099000009 0.079860002 0.69300002
-0.0085800001 0.079860002 0.69300002
-0.0072390479 0.079629526 0.69100004
-0.0059228577 0.079629526 0.69100004
-0.004606667 0.079629526 0.69100004
-0.0032904765 0.079629526 0.69100004
-0.0019800002 0.079860002 0.69300002
-0.00066000002 0.079860002 0.69300002
0.00066190481 0.080090478 0.69500005
0.0019857143 0.080090478 0.69500005
0.0033095239 0.080090478 0.69500005
0.0046333335 0.080090478 0.69500005
0.0059742862 0.080320954 0.69700003
0.0073019052 0.080320954 0.69700003
0.0086295241 0.080320954 0.69700003
0.0099571431 0.080320954 0.69700003
0.011284763 0.080320954 0.69700003
-0.026260002 0.082820006 0.70700002
-0.024807621 0.082468577 0.70400006
-0.023433335 0.082351431 0.70300001
-0.02203143 0.082117148 0.70100003
-0.020666668 0.082000002 0.70000005
-0.019278096 0.081765719 0.69800001
-0.01787143 0.08141429 0.69500005
-0.016595239 0.081648573 0.69700003
-0.01522381 0.08141429 0.69500005
-0.013900001 0.08141429 0.69500005
-0.01254 0.081180006 0.69300002
-0.011220001 0.081180006 0.69300002
-0.0098714288 0.080945723 0.69100004
-0.0085552391 0.080945723 0.69100004
-0.0072285719 0.080828577 0.69000006
-0.0059142862 0.080828577 0.69000006
-0.0046000001 0.080828577 0.69000006
-0.0032857144 0.080828577 0.69000006
-0.0019742858 0.080945723 0.69100004
-0.00065809529 0.080945723 0.69100004
0.00066000002 0.081180006 0.69300002
0.0019800002 0.081180006 0.69300002
0.0033047621 0.081297152 0.69400001
0.0046333335 0.08141429 0.69500005
0.0059571434 0.08141429 0.69500005
0.0072809528 0.08141429 0.69500005
0.0086047621 0.08141429 0.69500005
0.009928572 0.08141429 0.69500005
0.011252382 0.08141429 0.69500005
0.012576192 0.08141429 0.69500005
-0.024807621 0.083809532 0.70400006
-0.023366667 0.083452389 0.70100003
-0.022000002 0.083333336 0.70000005
-0.02060762 0.083095245 0.69800001
-0.019250477 0.082976192 0.69700003
-0.017845716 0.082619056 0.69400001
-0.01654762 0.082738101 0.69500005
-0.015201906 0.082619056 0.69400001
-0.013860001 0.082500003 0.69300002
-0.01250381 0.082261913 0.69100004
-0.01118762 0.082261913 0.69100004
-0.0098571433 0.08214286 0.69000006
-0.0085428581 0.08214286 0.69000006
-0.0072285719 0.08214286 0.69000006
-0.0059142862 0.08214286 0.69000006
-0.0046000001 0.08214286 0.69000006
-0.0032857144 0.08214286 0.69000006
-0.0019714287 0.08214286 0.69000006
-0.0006571429 0.08214286 0.69000006
0.00065809529 0.082261913 0.69100004
0.0019742858 0.082261913 0.69100004
0.0033000002 0.082500003 0.69300002
0.0046200003 0.082500003 0.69300002
0.005948572 0.082619056 0.69400001
0.0072809528 0.082738101 0.69500005
0.0085923811 0.082619056 0.69400001
0.009928572 0.082738101 0.69500005
0.011252382 0.082738101 0.69500005
0.01254 0.082500003 0.69300002
-0.022000002 0.084666669 0.70000005
-0.02051905 0.084061913 0.69500005
-0.019167621 0.08394096 0.69400001
-0.017820001 0.083820008 0.69300002
-0.01652381 0.08394096 0.69400001
-0.015180001 0.083820008 0.69300002
-0.013860001 0.083820008 0.69300002
-0.01250381 0.083578102 0.69100004
-0.011171429 0.08345715 0.69000006
-0.0098428577 0.083336197 0.68900001
-0.0085428581 0.08345715 0.69000006
-0.0072180959 0.083336197 0.68900001
-0.0059057148 0.083336197 0.68900001
-0.0045933337 0.083336197 0.68900001
-0.0032809526 0.083336197 0.68900001
-0.0019685715 0.083336197 0.68900001
-0.0006571429 0.08345715 0.69000006
0.0006571429 0.08345715 0.69000006
0.0019742858 0.083578102 0.69100004
0.0032904765 0.083578102 0.69100004
0.004606667 0.083578102 0.69100004
0.0059400005 0.083820008 0.69300002
0.0072704768 0.08394096 0.69400001
0.0085800001 0.083820008 0.69300002
0.0099142864 0.08394096 0.69400001
0.011236191 0.08394096 0.69400001
0.01250381 0.083578102 0.69100004
-0.021905717 0.085631438 0.69700003
-0.020489525 0.085262865 0.69400001
-0.019140001 0.085140005 0.69300002
-0.017768573 0.084894292 0.69100004
-0.016500002 0.085140005 0.69300002
-0.015180001 0.085140005 0.69300002
-0.013820001 0.084894292 0.69100004
-0.012485716 0.084771432 0.69000006
-0.011155238 0.084648579 0.68900001
-0.0098142866 0.084402859 0.68700004
-0.0085304771 0.084648579 0.68900001
-0.0071971435 0.084402859 0.68700004
-0.005888572 0.084402859 0.68700004
-0.0045800004 0.084402859 0.68700004
-0.0032714289 0.084402859 0.68700004
-0.0019628573 0.084402859 0.68700004
-0.0006561905 0.084648579 0.68900001
0.0006561905 0.084648579 0.68900001
0.0019714287 0.084771432 0.69000006
0.0032857144 0.084771432 0.69000006
0.004606667 0.084894292 0.69100004
0.0059228577 0.084894292 0.69100004
0.0072600003 0.085140005 0.69300002
0.0085552391 0.084894292 0.69100004
0.0099000009 0.085140005 0.69300002
0.01118762 0.084894292 0.69100004
0.01250381 0.084894292 0.69100004
-0.021842858 0.086709529 0.69500005
-0.020489525 0.086584769 0.69400001
-0.019057143 0.086085722 0.69000006
-0.017768573 0.086210482 0.69100004
-0.016452381 0.086210482 0.69100004
-0.015136192 0.086210482 0.69100004
-0.013800001 0.086085722 0.69000006
-0.01246762 0.085960954 0.68900001
-0.011122858 0.085711434 0.68700004
-0.009800001 0.085586675 0.68600005
-0.0084933341 0.085586675 0.68600005
-0.0071866671 0.085586675 0.68600005
-0.0058800005 0.085586675 0.68600005
-0.0045733335 0.085586675 0.68600005
-0.0032666668 0.085586675 0.68600005
-0.00196 0.085586675 0.68600005
-0.00065333338 0.085586675 0.68600005
0.00065333338 0.085586675 0.68600005
0.0019628573 0.085711434 0.68700004
0.0032809526 0.085960954 0.68900001
0.0045933337 0.085960954 0.68900001
0.0059142862 0.086085722 0.69000006
0.0072285719 0.086085722 0.69000006
0.0085552391 0.086210482 0.69100004
0.0098714288 0.086210482 0.69100004
0.01118762 0.086210482 0.69100004
0.01250381 0.086210482 0.69100004
-0.023133336 0.087906674 0.69400001
-0.021811429 0.087906674 0.69400001
-0.020460002 0.087780006 0.69300002
-0.019057143 0.087400004 0.69000006
-0.017768573 0.087526672 0.69100004
-0.016428573 0.087400004 0.69000006
-0.015114287 0.087400004 0.69000006
-0.013780001 0.087273337 0.68900001
-0.01243143 0.087020002 0.68700004
-0.011106667 0.086893342 0.68600005
-0.009771429 0.086640008 0.68400002
-0.0084685721 0.086640008 0.68400002
-0.0071657146 0.086640008 0.68400002
-0.0058628577 0.086640008 0.68400002
-0.0045533339 0.08651334 0.68300003
-0.0032523812 0.08651334 0.68300003
-0.0019542859 0.086640008 0.68400002
-0.00065047626 0.08651334 0.68300003
0.00065047626 0.08651334 0.68300003
0.0019542859 0.086640008 0.68400002
0.0032571431 0.086640008 0.68400002
0.0045600003 0.086640008 0.68400002
0.0058800005 0.086893342 0.68600005
0.0071971435 0.087020002 0.68700004
0.0085304771 0.087273337 0.68900001
0.0098571433 0.087400004 0.69000006
0.011171429 0.087400004 0.69000006
0.012485716 0.087400004 0.69000006
0.013740001 0.087020002 0.68700004
-0.021780001 0.089100003 0.69300002
-0.020400954 0.088842861 0.69100004
-0.019029524 0.088585719 0.68900001
-0.017717144 0.088585719 0.68900001
-0.016333334 0.088200003 0.68600005
-0.015026668 0.088200003 0.68600005
-0.013680001 0.087942861 0.68400002
-0.012359048 0.087814294 0.68300003
-0.011058096 0.087814294 0.68300003
-0.0097428579 0.087685719 0.68200004
-0.00844381 0.087685719 0.68200004
-0.0071447622 0.087685719 0.68200004
-0.005828572 0.087428577 0.68000001
-0.0045333337 0.087428577 0.68000001
-0.0032380954 0.087428577 0.68000001
-0.0019428573 0.087428577 0.68000001
-0.00064761908 0.087428577 0.68000001
0.00064761908 0.087428577 0.68000001
0.0019485715 0.087685719 0.68200004
0.0032476194 0.087685719 0.68200004
0.004546667 0.087685719 0.68200004
0.0058457148 0.087685719 0.68200004
0.0071657146 0.087942861 0.68400002
0.0084933341 0.088200003 0.68600005
0.009800001 0.088200003 0.68600005
0.011074287 0.087942861 0.68400002
0.012413334 0.088200003 0.68600005
0.013720001 0.088200003 0.68600005
0.015048573 0.088328578 0.68700004
0.016357144 0.088328578 0.68700004
-0.02037143 0.090028577 0.69000006
-0.018946668 0.089506671 0.68600005
-0.017640002 0.089506671 0.68600005
-0.016285716 0.089245722 0.68400002
-0.014982858 0.089245722 0.68400002
-0.013660001 0.089115247 0.68300003
-0.012340954 0.088984765 0.68200004
-0.011041906 0.088984765 0.68200004
-0.0097142868 0.088723816 0.68000001
-0.008406667 0.088593341 0.67900002
-0.0071133338 0.088593341 0.67900002
-0.0058200005 0.088593341 0.67900002
-0.0045266668 0.088593341 0.67900002
-0.0032333336 0.088593341 0.67900002
-0.0019400001 0.088593341 0.67900002
-0.00064666668 0.088593341 0.67900002
0.00064666668 0.088593341 0.67900002
0.0019428573 0.088723816 0.68000001
0.0032380954 0.088723816 0.68000001
0.0045333337 0.088723816 0.68000001
0.0058457148 0.088984765 0.68200004
0.0071447622 0.088984765 0.68200004
0.008456191 0.089115247 0.68300003
0.0097571434 0.089115247 0.68300003
0.011058096 0.089115247 0.68300003
0.012377144 0.089245722 0.68400002
0.013680001 0.089245722 0.68400002
0.014982858 0.089245722 0.68400002
0.016285716 0.089245722 0.68400002
-0.025777144 0.091872387 0.69400001
-0.021780001 0.091740005 0.69300002
-0.020282859 0.090945721 0.68700004
-0.01889143 0.090548575 0.68400002
-0.017588573 0.090548575 0.68400002
-0.016261905 0.090416193 0.68300003
-0.014960953 0.090416193 0.68300003
-0.01364 0.090283819 0.68200004
-0.012340954 0.090283819 0.68200004
-0.011009525 0.090019055 0.68000001
-0.0097000003 0.089886673 0.67900002
-0.008406667 0.089886673 0.67900002
-0.0071133338 0.089886673 0.67900002
-0.0058114291 0.089754291 0.67800003
-0.0045200004 0.089754291 0.67800003
-0.0032285717 0.089754291 0.67800003
-0.001937143 0.089754291 0.67800003
-0.00064571435 0.089754291 0.67800003
0.00064571435 0.089754291 0.67800003
0.0019400001 0.089886673 0.67900002
0.0032333336 0.089886673 0.67900002
0.0045266668 0.089886673 0.67900002
0.005828572 0.090019055 0.68000001
0.0071238098 0.090019055 0.68000001
0.00844381 0.090283819 0.68200004
0.0097428579 0.090283819 0.68200004
0.011041906 0.090283819 0.68200004
0.012340954 0.090283819 0.68200004
0.013660001 0.090416193 0.68300003
0.014960953 0.090416193 0.68300003
0.016261905 0.090416193 0.68300003
0.017537143 0.090283819 0.68200004
-0.025777144 0.093194291 0.69400001
-0.024420002 0.093060009 0.69300002
-0.023100002 0.093060009 0.69300002
-0.021780001 0.093060009 0.69300002
-0.020253334 0.092120007 0.68600005
-0.01886381 0.091717146 0.68300003
-0.017562859 0.091717146 0.68300003
-0.016261905 0.091717146 0.68300003
-0.014939048 0.091582865 0.68200004
-0.01364 0.091582865 0.68200004
-0.012304762 0.091314293 0.68000001
-0.011009525 0.091314293 0.68000001
-0.0097000003 0.091180004 0.67900002
-0.008394286 0.091045722 0.67800003
-0.0071028578 0.091045722 0.67800003
-0.0058114291 0.091045722 0.67800003
-0.0045200004 0.091045722 0.67800003
-0.0032285717 0.091045722 0.67800003
-0.001937143 0.091045722 0.67800003
-0.00064571435 0.091045722 0.67800003
0.00064571435 0.091045722 0.67800003
0.001937143 0.091045722 0.67800003
0.0032285717 0.091045722 0.67800003
0.0045200004 0.091045722 0.67800003
0.0058114291 0.091045722 0.67800003
0.0071133338 0.091180004 0.67900002
0.008406667 0.091180004 0.67900002
0.0097000003 0.091180004 0.67900002
0.011009525 0.091314293 0.68000001
0.012304762 0.091314293 0.68000001
0.01364 0.091582865 0.68200004
0.014939048 0.091582865 0.68200004
0.016238097 0.091582865 0.68200004
0.017485715 0.091314293 0.68000001
-0.025777144 0.094516195 0.69400001
-0.02445524 0.094516195 0.69400001
-0.023133336 0.094516195 0.69400001
-0.021717144 0.094107628 0.69100004
-0.020194286 0.093154289 0.68400002
-0.018836191 0.092881911 0.68200004
-0.017537143 0.092881911 0.68200004
-0.016190477 0.092609532 0.68000001
-0.014895239 0.092609532 0.68000001
-0.013600001 0.092609532 0.68000001
-0.012286668 0.092473343 0.67900002
-0.010993334 0.092473343 0.67900002
-0.0096857147 0.092337146 0.67800003
-0.008394286 0.092337146 0.67800003
-0.0070819054 0.092064768 0.67600006
-0.0057942863 0.092064768 0.67600006
-0.0045066671 0.092064768 0.67600006
-0.0032285717 0.092337146 0.67800003
-0.001937143 0.092337146 0.67800003
-0.00064571435 0.092337146 0.67800003
0.00064571435 0.092337146 0.67800003
0.001937143 0.092337146 0.67800003
0.0032285717 0.092337146 0.67800003
0.0045066671 0.092064768 0.67600006
0.0057857148 0.091928579 0.67500001
0.0071028578 0.092337146 0.67800003
0.008394286 0.092337146 0.67800003
0.0096857147 0.092337146 0.67800003
0.010993334 0.092473343 0.67900002
0.012286668 0.092473343 0.67900002
0.013600001 0.092609532 0.68000001
0.014895239 0.092609532 0.68000001
0.016190477 0.092609532 0.68000001
0.017485715 0.092609532 0.68000001
-0.022966668 0.095147625 0.68900001
-0.021654287 0.095147625 0.68900001
-0.020017143 0.093628578 0.67800003
-0.018780954 0.093904771 0.68000001
-0.017485715 0.093904771 0.68000001
-0.016166668 0.093766674 0.67900002
-0.014873334 0.093766674 0.67900002
-0.013580001 0.093766674 0.67900002
-0.012268572 0.093628578 0.67800003
-0.010944762 0.093352385 0.67600006
-0.0096428581 0.093214288 0.67500001
-0.008357143 0.093214288 0.67500001
-0.0070714289 0.093214288 0.67500001
-0.0057857148 0.093214288 0.67500001
-0.0045000003 0.093214288 0.67500001
-0.0032190478 0.093352385 0.67600006
-0.0019314287 0.093352385 0.67600006
-0.00064380956 0.093352385 0.67600006
0.00064380956 0.093352385 0.67600006
0.0019314287 0.093352385 0.67600006
0.0032142859 0.093214288 0.67500001
0.0044933334 0.093076199 0.67400002
0.0057771434 0.093076199 0.67400002
0.0070400005 0.092800006 0.67200005
0.008344762 0.093076199 0.67400002
0.0096571436 0.093352385 0.67600006
0.010944762 0.093352385 0.67600006
0.012268572 0.093628578 0.67800003
0.013580001 0.093766674 0.67900002
0.014873334 0.093766674 0.67900002
0.016166668 0.093766674 0.67900002
0.017460002 0.093766674 0.67900002
-0.028216192 0.096460007 0.68900001
-0.026903812 0.096460007 0.68900001
-0.025591429 0.096460007 0.68900001
-0.024208574 0.096180007 0.68700004
-0.022866668 0.096040003 0.68600005
-0.021340001 0.095060006 0.67900002
-0.020017143 0.094920009 0.67800003
-0.018725716 0.094920009 0.67800003
-0.017460002 0.095060006 0.67900002
-0.016142858 0.094920009 0.67800003
-0.014851429 0.094920009 0.67800003
-0.013560001 0.094920009 0.67800003
-0.012232382 0.094640009 0.67600006
-0.010928572 0.094500005 0.67500001
-0.0096285725 0.094360009 0.67400002
-0.008344762 0.094360009 0.67400002
-0.007060953 0.094360009 0.67400002
-0.0057857148 0.094500005 0.67500001
-0.0044933334 0.094360009 0.67400002
-0.0032142859 0.094500005 0.67500001
-0.0019285716 0.094500005 0.67500001
-0.00064285717 0.094500005 0.67500001
0.00064285717 0.094500005 0.67500001
0.0019257144 0.094360009 0.67400002
0.0032000002 0.094080009 0.67200005
0.0044800001 0.094080009 0.67200005
0.0057514291 0.093940005 0.671
0.0070295241 0.093940005 0.671
0.00830762 0.093940005 0.671
0.0096285725 0.094360009 0.67400002
0.010928572 0.094500005 0.67500001
0.012232382 0.094640009 0.67600006
0.013560001 0.094920009 0.67800003
0.014873334 0.095060006 0.67900002
0.01609524 0.094640009 0.67600006
-0.028216192 0.09777239 0.68900001
-0.026903812 0.09777239 0.68900001
-0.025591429 0.09777239 0.68900001
-0.024208574 0.097488575 0.68700004
-0.022900002 0.097488575 0.68700004
-0.021434287 0.096779056 0.68200004
-0.020017143 0.096211433 0.67800003
-0.018725716 0.096211433 0.67800003
-0.017434286 0.096211433 0.67800003
-0.016142858 0.096211433 0.67800003
-0.01480762 0.095927626 0.67600006
-0.013520001 0.095927626 0.67600006
-0.012214286 0.095785722 0.67500001
-0.010912382 0.095643818 0.67400002
-0.0096285725 0.095643818 0.67400002
-0.008344762 0.095643818 0.67400002
-0.007060953 0.095643818 0.67400002
-0.0057771434 0.095643818 0.67400002
-0.0044933334 0.095643818 0.67400002
-0.0032095241 0.095643818 0.67400002
-0.0019257144 0.095643818 0.67400002
-0.00064190483 0.095643818 0.67400002
0.00064000004 0.095360003 0.67200005
0.001917143 0.0952181 0.671
0.0031952383 0.0952181 0.671
0.0044733337 0.0952181 0.671
0.0057428577 0.095076196 0.67000002
0.0070190481 0.095076196 0.67000002
0.0082952389 0.095076196 0.67000002
0.0095857149 0.0952181 0.671
0.010912382 0.095643818 0.67400002
0.012214286 0.095785722 0.67500001
0.013520001 0.095927626 0.67600006
0.014851429 0.096211433 0.67800003
0.016071429 0.095785722 0.67500001
-0.028216192 0.099084765 0.68900001
-0.026903812 0.099084765 0.68900001
-0.025591429 0.099084765 0.68900001
-0.024173334 0.098653339 0.68600005
-0.022800002 0.098365724 0.68400002
-0.02137143 0.09779048 0.68000001
-0.020017143 0.097502865 0.67800003
-0.018725716 0.097502865 0.67800003
-0.017434286 0.097502865 0.67800003
-0.01609524 0.097215243 0.67600006
-0.014785715 0.097071432 0.67500001
-0.013500001 0.097071432 0.67500001
-0.01216 0.096640006 0.67200005
-0.010880001 0.096640006 0.67200005
-0.0096000005 0.096640006 0.67200005
-0.00830762 0.096496195 0.671
-0.0070400005 0.096640006 0.67200005
-0.0057514291 0.096496195 0.671
-0.0044733337 0.096496195 0.671
-0.0031952383 0.096496195 0.671
-0.0019200002 0.096640006 0.67200005
-0.00064000004 0.096640006 0.67200005
0.00063904765 0.096496195 0.671
0.001917143 0.096496195 0.671
0.0031952383 0.096496195 0.671
0.0044666668 0.096352391 0.67000002
0.0057428577 0.096352391 0.67000002
0.0070190481 0.096352391 0.67000002
0.0082952389 0.096352391 0.67000002
0.0095857149 0.096496195 0.671
0.010880001 0.096640006 0.67200005
0.012196192 0.096927628 0.67400002
0.013500001 0.097071432 0.67500001
0.01480762 0.097215243 0.67600006
-0.028216192 0.10039715 0.68900001
-0.026825717 0.10010572 0.68700004
-0.025591429 0.10039715 0.68900001
-0.024173334 0.099960007 0.68600005
-0.022800002 0.099668577 0.68400002
-0.021340001 0.098940007 0.67900002
-0.020017143 0.098794289 0.67800003
-0.018670477 0.098502867 0.67600006
-0.017382858 0.098502867 0.67600006
-0.016071429 0.098357148 0.67500001
-0.014763811 0.098211437 0.67400002
-0.013480001 0.098211437 0.67400002
-0.012141906 0.09777429 0.671
-0.01086381 0.09777429 0.671
-0.0095857149 0.09777429 0.671
-0.00830762 0.09777429 0.671
-0.0070295241 0.09777429 0.671
-0.0057514291 0.09777429 0.671
-0.0044733337 0.09777429 0.671
-0.0031952383 0.09777429 0.671
-0.001917143 0.09777429 0.671
-0.00063904765 0.09777429 0.671
0.00063904765 0.09777429 0.671
0.0019142858 0.097628579 0.67000002
0.0031904764 0.097628579 0.67000002
0.0044666668 0.097628579 0.67000002
0.0057428577 0.097628579 0.67000002
0.0070190481 0.097628579 0.67000002
0.0082952389 0.097628579 0.67000002
0.0095714293 0.097628579 0.67000002
0.01086381 0.09777429 0.671
0.012196192 0.098211437 0.67400002
0.013480001 0.098211437 0.67400002
-0.026552383 0.10038096 0.68000001
-0.025257144 0.10038096 0.68000001
-0.023961907 0.10038096 0.68000001
-0.022633335 0.10023334 0.67900002
-0.021308573 0.10008572 0.67800003
-0.019958096 0.099790484 0.67600006
-0.01861524 0.099495247 0.67400002
-0.017331429 0.099495247 0.67400002
-0.016000001 0.099200003 0.67200005
-0.014720001 0.099200003 0.67200005
-0.013400001 0.098904766 0.67000002
-0.01212381 0.098904766 0.67000002
-0.01084762 0.098904766 0.67000002
-0.0095714293 0.098904766 0.67000002
-0.0082952389 0.098904766 0.67000002
-0.0070190481 0.098904766 0.67000002
-0.0057428577 0.098904766 0.67000002
-0.0044666668 0.098904766 0.67000002
-0.0031904764 0.098904766 0.67000002
-0.0019142858 0.098904766 0.67000002
-0.00063714292 0.098757148 0.66900003
0.00063714292 0.098757148 0.66900003
0.0019114286 0.098757148 0.66900003
0.0031761907 0.098461911 0.66700006
0.0044466672 0.098461911 0.66700006
0.0057171434 0.098461911 0.66700006
0.0069876197 0.098461911 0.66700006
0.0082828579 0.098757148 0.66900003
0.0095285717 0.098461911 0.66700006
0.010799048 0.098461911 0.66700006
0.012069524 0.098461911 0.66700006
0.013400001 0.098904766 0.67000002
-0.02801143 0.10227429 0.68400002
-0.026630478 0.10197525 0.68200004
-0.025257144 0.1016762 0.68000001
-0.023961907 0.1016762 0.68000001
-0.022633335 0.10152667 0.67900002
-0.021245716 0.1010781 0.67600006
-0.019928573 0.10092857 0.67500001
-0.01861524 0.10077906 0.67400002
-0.017280001 0.10048001 0.67200005
-0.015976192 0.10033048 0.671
-0.014698097 0.10033048 0.671
-0.013400001 0.10018096 0.67000002
-0.01212381 0.10018096 0.67000002
-0.01084762 0.10018096 0.67000002
-0.0095714293 0.10018096 0.67000002
-0.0082952389 0.10018096 0.67000002
-0.0070190481 0.10018096 0.67000002
-0.0057342863 0.10003144 0.66900003
-0.0044666668 0.10018096 0.67000002
-0.0031904764 0.10018096 0.67000002
-0.0019114286 0.10003144 0.66900003
-0.00063523813 0.099732384 0.66700006
0.00063523813 0.099732384 0.66700006
0.0019057144 0.099732384 0.66700006
0.0031714288 0.099582866 0.66600001
0.0044333334 0.09943334 0.66500002
0.0057000006 0.09943334 0.66500002
0.0069666672 0.09943334 0.66500002
0.0082457149 0.099582866 0.66600001
0.0095000006 0.09943334 0.66500002
0.010766667 0.09943334 0.66500002
-0.026552383 0.10297143 0.68000001
-0.025257144 0.10297143 0.68000001
-0.023926668 0.10282001 0.67900002
-0.022600001 0.10266858 0.67800003
-0.021245716 0.10236572 0.67600006
-0.01989905 0.10206287 0.67400002
-0.018560002 0.10176001 0.67200005
-0.017254287 0.10160857 0.671
-0.015976192 0.10160857 0.671
-0.014698097 0.10160857 0.671
-0.013400001 0.10145715 0.67000002
-0.01212381 0.10145715 0.67000002
-0.01084762 0.10145715 0.67000002
-0.0095714293 0.10145715 0.67000002
-0.0082952389 0.10145715 0.67000002
-0.0070085721 0.10130572 0.66900003
-0.0057342863 0.10130572 0.66900003
-0.0044600004 0.10130572 0.66900003
-0.0031857146 0.10130572 0.66900003
-0.0019114286 0.10130572 0.66900003
-0.00063523813 0.10100286 0.66700006
0.00063142861 0.10039715 0.66300005
0.0018942858 0.10039715 0.66300005
0.0031523812 0.10024572 0.66200006
0.0044066668 0.10009429 0.66100001
0.0056742863 0.10024572 0.66200006
0.0069352384 0.10024572 0.66200006
0.0082085719 0.10039715 0.66300005
0.0094714295 0.10039715 0.66300005
0.010734286 0.10039715 0.66300005
-0.026552383 0.10426667 0.68000001
-0.025257144 0.10426667 0.68000001
-0.023926668 0.10411334 0.67900002
-0.022600001 0.10396001 0.67800003
-0.021214288 0.10350001 0.67500001
-0.019840002 0.10304001 0.67200005
-0.018532382 0.10288668 0.671
-0.017254287 0.10288668 0.671
-0.015952382 0.10273334 0.67000002
-0.014676192 0.10273334 0.67000002
-0.013380001 0.10258 0.66900003
-0.012105715 0.10258 0.66900003
-0.01083143 0.10258 0.66900003
-0.0095571438 0.10258 0.66900003
-0.0082828579 0.10258 0.66900003
-0.0070085721 0.10258 0.66900003
-0.0057342863 0.10258 0.66900003
-0.0044600004 0.10258 0.66900003
-0.0031857146 0.10258 0.66900003
-0.0019000001 0.10196667 0.66500002
-0.0006333334 0.10196667 0.66500002
0.00062952383 0.10135334 0.66100001
0.0018885715 0.10135334 0.66100001
0.0031476193 0.10135334 0.66100001
0.0044000004 0.10120001 0.66000003
0.0056657149 0.10135334 0.66100001
0.0069247624 0.10135334 0.66100001
0.0081961909 0.10150667 0.66200006
0.0094714295 0.10166001 0.66300005
0.010734286 0.10166001 0.66300005
0.011979048 0.10150667 0.66200006
0.017119048 0.11024667 0.71900004
0.018488573 0.11024667 0.71900004
-0.023820953 0.10494096 0.67600006
-0.022533335 0.10494096 0.67600006
-0.021120001 0.10432 0.67200005
-0.019810477 0.10416477 0.671
-0.018504763 0.10400953 0.67000002
-0.017228572 0.10400953 0.67000002
-0.015952382 0.10400953 0.67000002
-0.014676192 0.10400953 0.67000002
-0.013380001 0.10385429 0.66900003
-0.012105715 0.10385429 0.66900003
-0.01083143 0.10385429 0.66900003
-0.0095571438 0.10385429 0.66900003
-0.0082828579 0.10385429 0.66900003
-0.0069876197 0.10354382 0.66700006
-0.0057171434 0.10354382 0.66700006
-0.0044400003 0.10338858 0.66600001
-0.0031523812 0.10276762 0.66200006
-0.0018914287 0.10276762 0.66200006
-0.00062952383 0.10261239 0.66100001
0.00062857149 0.10245715 0.66000003
0.0018857144 0.10245715 0.66000003
0.0031428575 0.10245715 0.66000003
0.0044000004 0.10245715 0.66000003
0.0056571434 0.10245715 0.66000003
0.0069142859 0.10245715 0.66000003
0.0081838099 0.10261239 0.66100001
0.009457143 0.10276762 0.66200006
0.010718096 0.10276762 0.66200006
0.011979048 0.10276762 0.66200006
0.017119048 0.11161619 0.71900004
0.018488573 0.11161619 0.71900004
-0.025034288 0.10591429 0.67400002
-0.023750478 0.10591429 0.67400002
-0.022466669 0.10591429 0.67400002
-0.021025715 0.10512858 0.66900003
-0.01975143 0.10512858 0.66900003
-0.018477144 0.10512858 0.66900003
-0.017202858 0.10512858 0.66900003
-0.015928572 0.10512858 0.66900003
-0.014610477 0.10481429 0.66700006
-0.013340001 0.10481429 0.66700006
-0.012069524 0.10481429 0.66700006
-0.010799048 0.10481429 0.66700006
-0.0095142862 0.10465715 0.66600001
-0.0082457149 0.10465715 0.66600001
-0.0069666672 0.1045 0.66500002
-0.0056828577 0.10418572 0.66300005
-0.0044133337 0.10402858 0.66200006
-0.0031476193 0.10387143 0.66100001
-0.0018885715 0.10387143 0.66100001
-0.00062857149 0.10371429 0.66000003
0.00062857149 0.10371429 0.66000003
0.0018857144 0.10371429 0.66000003
0.0031428575 0.10371429 0.66000003
0.0044000004 0.10371429 0.66000003
0.0056571434 0.10371429 0.66000003
0.0069142859 0.10371429 0.66000003
0.0081714289 0.10371429 0.66000003
0.0094428575 0.10387143 0.66100001
0.010718096 0.10402858 0.66200006
0.01577143 0.11314286 0.72000003
0.017119048 0.11298572 0.71900004
0.018488573 0.11298572 0.71900004
0.01977524 0.11251429 0.71600002
0.02113905 0.11251429 0.71600002
-0.023644764 0.10672096 0.671
-0.022366669 0.10672096 0.671
-0.020962859 0.10608477 0.66700006
-0.019692382 0.10608477 0.66700006
-0.018421905 0.10608477 0.66700006
-0.01715143 0.10608477 0.66700006
-0.015880954 0.10608477 0.66700006
-0.014566667 0.10576668 0.66500002
-0.013300001 0.10576668 0.66500002
-0.012033334 0.10576668 0.66500002
-0.010718096 0.10528953 0.66200006
-0.009457143 0.10528953 0.66200006
-0.0081961909 0.10528953 0.66200006
-0.0069352384 0.10528953 0.66200006
-0.0056742863 0.10528953 0.66200006
-0.0044066668 0.10513049 0.66100001
-0.0031476193 0.10513049 0.66100001
-0.0018885715 0.10513049 0.66100001
-0.00062952383 0.10513049 0.66100001
0.00062952383 0.10513049 0.66100001
0.0018857144 0.10497144 0.66000003
0.0031428575 0.10497144 0.66000003
0.0044000004 0.10497144 0.66000003
0.0056571434 0.10497144 0.66000003
0.0069142859 0.10497144 0.66000003
0.0081838099 0.10513049 0.66100001
0.0094428575 0.10513049 0.66100001
0.010701905 0.10513049 0.66100001
0.011960953 0.10513049 0.66100001
0.013240001 0.10528953 0.66200006
0.014500953 0.10528953 0.66200006
0.015738096 0.10513049 0.66100001
0.01697143 0.10497144 0.66000003
0.02113905 0.1138781 0.71600002
0.022440001 0.11356001 0.71400005
0.023800002 0.11356001 0.71400005
0.025124764 0.11340096 0.71300006
-0.022166668 0.10703334 0.66500002
-0.02093143 0.10719429 0.66600001
-0.019662859 0.10719429 0.66600001
-0.018394288 0.10719429 0.66600001
-0.017125715 0.10719429 0.66600001
-0.015785715 0.10671143 0.66300005
-0.014500953 0.10655048 0.66200006
-0.013240001 0.10655048 0.66200006
-0.011960953 0.10638953 0.66100001
-0.010701905 0.10638953 0.66100001
-0.0094428575 0.10638953 0.66100001
-0.0081838099 0.10638953 0.66100001
-0.0069247624 0.10638953 0.66100001
-0.0056657149 0.10638953 0.66100001
-0.0044133337 0.10655048 0.66200006
-0.0031476193 0.10638953 0.66100001
-0.0018885715 0.10638953 0.66100001
-0.00062952383 0.10638953 0.66100001
0.00062952383 0.10638953 0.66100001
0.0018857144 0.10622858 0.66000003
0.0031428575 0.10622858 0.66000003
0.0044000004 0.10622858 0.66000003
0.0056571434 0.10622858 0.66000003
0.0069142859 0.10622858 0.66000003
0.0081714289 0.10622858 0.66000003
0.0094285719 0.10622858 0.66000003
0.010685715 0.10622858 0.66000003
0.011942858 0.10622858 0.66000003
0.013220001 0.10638953 0.66100001
0.014479049 0.10638953 0.66100001
0.015714286 0.10622858 0.66000003
0.01697143 0.10622858 0.66000003
0.018228572 0.10622858 0.66000003
0.019515239 0.10638953 0.66100001
0.020805717 0.10655048 0.66200006
0.022100002 0.10671143 0.66300005
0.023433335 0.10703334 0.66500002
-0.020900002 0.10830001 0.66500002
-0.019633334 0.10830001 0.66500002
-0.01831143 0.10797429 0.66300005
-0.017100001 0.10830001 0.66500002
-0.015761906 0.10781144 0.66200006
-0.014457144 0.10748572 0.66000003
-0.013200001 0.10748572 0.66000003
-0.011960953 0.10764858 0.66100001
-0.010685715 0.10748572 0.66000003
-0.0094428575 0.10764858 0.66100001
-0.0081838099 0.10764858 0.66100001
-0.0069247624 0.10764858 0.66100001
-0.0056657149 0.10764858 0.66100001
-0.0044066668 0.10764858 0.66100001
-0.0031476193 0.10764858 0.66100001
-0.0018885715 0.10764858 0.66100001
-0.00062952383 0.10764858 0.66100001
0.00062857149 0.10748572 0.66000003
0.0018857144 0.10748572 0.66000003
0.0031333335 0.10716001 0.65800005
0.0043866672 0.10716001 0.65800005
0.0056571434 0.10748572 0.66000003
0.006893334 0.10716001 0.65800005
0.0081714289 0.10748572 0.66000003
0.0094285719 0.10748572 0.66000003
0.010685715 0.10748572 0.66000003
0.011942858 0.10748572 0.66000003
0.013200001 0.10748572 0.66000003
0.014457144 0.10748572 0.66000003
0.015714286 0.10748572 0.66000003
0.01697143 0.10748572 0.66000003
0.018256191 0.10764858 0.66100001
0.019515239 0.10764858 0.66100001
0.020805717 0.10781144 0.66200006
0.022100002 0.10797429 0.66300005
0.023433335 0.10830001 0.66500002
0.024700001 0.10830001 0.66500002
-0.020837145 0.10923715 0.66300005
-0.019574286 0.10923715 0.66300005
-0.01828381 0.10907239 0.66200006
-0.017048573 0.10923715 0.66300005
-0.015738096 0.10890763 0.66100001
-0.014457144 0.10874286 0.66000003
-0.013200001 0.10874286 0.66000003
-0.011942858 0.10874286 0.66000003
-0.010685715 0.10874286 0.66000003
-0.0094285719 0.10874286 0.66000003
-0.0081714289 0.10874286 0.66000003
-0.0069142859 0.10874286 0.66000003
-0.0056571434 0.10874286 0.66000003
-0.0044000004 0.10874286 0.66000003
-0.0031428575 0.10874286 0.66000003
-0.0018857144 0.10874286 0.66000003
-0.00062857149 0.10874286 0.66000003
0.0006266667 0.10841334 0.65800005
0.0018800001 0.10841334 0.65800005
0.0031333335 0.10841334 0.65800005
0.0043800003 0.10824858 0.65700001
0.0056400006 0.10841334 0.65800005
0.0068828575 0.10824858 0.65700001
0.0081466669 0.10841334 0.65800005
0.0094000008 0.10841334 0.65800005
0.010653334 0.10841334 0.65800005
0.011906668 0.10841334 0.65800005
0.013200001 0.10874286 0.66000003
0.014457144 0.10874286 0.66000003
0.015714286 0.10874286 0.66000003
