# .PCD v0.7 - Point Cloud Data file format
VERSION 0.7
FIELDS x y z
SIZE 4 4 4
TYPE F F F
COUNT 1 1 1
WIDTH 1406
HEIGHT 1
VIEWPOINT 0 0 0 1 0 0 0
POINTS 1406
DATA ascii
0.0080723818 0.10369905 0.65200001
0.0093285721 0.1038581 0.65300006
0.010556191 0.10369905 0.65200001
0.011816191 0.1038581 0.65300006
0.013100001 0.1041762 0.65500003
0.01434762 0.1041762 0.65500003
0.015619049 0.10433525 0.65600002
0.016868573 0.10433525 0.65600002
0.018118097 0.10433525 0.65600002
0.01936762 0.10433525 0.65600002
0.020648573 0.1044943 0.65700001
0.021900002 0.1044943 0.65700001
0.023186669 0.10465334 0.65800005
0.024402859 0.1044943 0.65700001
0.025654288 0.1044943 0.65700001
0.026905715 0.1044943 0.65700001
0.028200002 0.10465334 0.65800005
0.029453335 0.10465334 0.65800005
0.030706668 0.10465334 0.65800005
0.031960003 0.10465334 0.65800005
0.033213336 0.10465334 0.65800005
0.034676194 0.10528953 0.66200006
0.035937145 0.10528953 0.66200006
0.037141908 0.10513049 0.66100001
0.038400955 0.10513049 0.66100001
0.039660003 0.10513049 0.66100001
0.040919051 0.10513049 0.66100001
0.042305715 0.10544858 0.66300005
0.043568574 0.10544858 0.66300005
0.044831432 0.10544858 0.66300005
0.046094287 0.10544858 0.66300005
0.047357146 0.10544858 0.66300005
0.048620004 0.10544858 0.66300005
0.049882859 0.10544858 0.66300005
0.051300004 0.10576668 0.66500002
0.05256667 0.10576668 0.66500002
0.053833336 0.10576668 0.66500002
0.055100005 0.10576668 0.66500002
0.056705717 0.10640287 0.66900003
0.057980005 0.10640287 0.66900003
0.059254289 0.10640287 0.66900003
0.060528576 0.10640287 0.66900003
0.06180286 0.10640287 0.66900003
0.063077144 0.10640287 0.66900003
0.064351432 0.10640287 0.66900003
0.065723814 0.10656191 0.67000002
0.067000002 0.10656191 0.67000002
0.068378098 0.10672096 0.671
0.069656193 0.10672096 0.671
0.071040004 0.10688001 0.67200005
0.072320007 0.10688001 0.67200005
0.073600002 0.10688001 0.67200005
0.075102866 0.1071981 0.67400002
0.076613337 0.1075162 0.67600006
0.077900961 0.1075162 0.67600006
0.079188578 0.1075162 0.67600006
0.080833338 0.10799334 0.67900002
0.082005717 0.10783429 0.67800003
0.083420008 0.10799334 0.67900002
0.085337147 0.10878858 0.68400002
0.087020002 0.10926572 0.68700004
0.087685719 0.10847048 0.68200004
-0.083571434 0.10461906 0.65000004
-0.082080007 0.10429715 0.648
-0.081095241 0.10461906 0.65000004
-0.079611436 0.10429715 0.648
-0.07837715 0.10429715 0.648
-0.077142864 0.10429715 0.648
-0.075908579 0.10429715 0.648
-0.074443817 0.10397524 0.64600003
-0.073213339 0.10397524 0.64600003
-0.071982861 0.10397524 0.64600003
-0.070752382 0.10397524 0.64600003
-0.069414288 0.10381429 0.64500004
-0.068291433 0.10397524 0.64600003
-0.067060955 0.10397524 0.64600003
-0.065932386 0.1041362 0.64700001
-0.064600006 0.10397524 0.64600003
-0.063369527 0.10397524 0.64600003
-0.062139053 0.10397524 0.64600003
-0.060908575 0.10397524 0.64600003
-0.0596781 0.10397524 0.64600003
-0.058447622 0.10397524 0.64600003
-0.057217147 0.10397524 0.64600003
-0.055986669 0.10397524 0.64600003
-0.054756194 0.10397524 0.64600003
-0.053525716 0.10397524 0.64600003
-0.052295242 0.10397524 0.64600003
-0.051064767 0.10397524 0.64600003
-0.049834289 0.10397524 0.64600003
-0.048528574 0.10381429 0.64500004
-0.047300003 0.10381429 0.64500004
-0.046142861 0.10397524 0.64600003
-0.044842862 0.10381429 0.64500004
-0.043681908 0.10397524 0.64600003
-0.04245143 0.10397524 0.64600003
-0.041220956 0.10397524 0.64600003
-0.039990477 0.10397524 0.64600003
-0.038760003 0.10397524 0.64600003
-0.037529524 0.10397524 0.64600003
-0.03629905 0.10397524 0.64600003
-0.035068575 0.10397524 0.64600003
-0.033890478 0.1041362 0.64700001
-0.032658096 0.1041362 0.64700001
-0.031425714 0.1041362 0.64700001
-0.030193334 0.1041362 0.64700001
-0.028960954 0.1041362 0.64700001
-0.027728572 0.1041362 0.64700001
-0.026496192 0.1041362 0.64700001
-0.025263811 0.1041362 0.64700001
-0.023994287 0.10397524 0.64600003
-0.022763811 0.10397524 0.64600003
-0.021533335 0.10397524 0.64600003
-0.020334287 0.1041362 0.64700001
-0.019101907 0.1041362 0.64700001
-0.017897144 0.10429715 0.648
-0.016662858 0.10429715 0.648
-0.015428573 0.10429715 0.648
-0.014194286 0.10429715 0.648
-0.012960001 0.10429715 0.648
-0.011725715 0.10429715 0.648
-0.010491429 0.10429715 0.648
-0.0092571434 0.10429715 0.648
-0.0080476198 0.10461906 0.65000004
-0.0068095243 0.10461906 0.65000004
-0.0055800006 0.10478 0.65100002
-0.0043400005 0.10478 0.65100002
-0.0031047622 0.10494096 0.65200001
-0.0018628573 0.10494096 0.65200001
-0.0006209524 0.10494096 0.65200001
0.0006209524 0.10494096 0.65200001
0.0018628573 0.10494096 0.65200001
0.0031047622 0.10494096 0.65200001
0.0043466669 0.10494096 0.65200001
0.0055800006 0.10478 0.65100002
0.0068200002 0.10478 0.65100002
0.0080723818 0.10494096 0.65200001
0.0093142865 0.10494096 0.65200001
0.010556191 0.10494096 0.65200001
0.011798096 0.10494096 0.65200001
0.013060001 0.10510191 0.65300006
0.014303811 0.10510191 0.65300006
0.015595239 0.10542382 0.65500003
0.016842859 0.10542382 0.65500003
0.018090477 0.10542382 0.65500003
0.019338097 0.10542382 0.65500003
0.020617144 0.10558477 0.65600002
0.021866668 0.10558477 0.65600002
0.023151429 0.10574572 0.65700001
0.024365716 0.10558477 0.65600002
0.02561524 0.10558477 0.65600002
0.026864763 0.10558477 0.65600002
0.028157145 0.10574572 0.65700001
0.029453335 0.10590667 0.65800005
0.030706668 0.10590667 0.65800005
0.031911429 0.10574572 0.65700001
0.033162858 0.10574572 0.65700001
0.034466669 0.10590667 0.65800005
0.03588286 0.10638953 0.66100001
0.037141908 0.10638953 0.66100001
0.03834286 0.10622858 0.66000003
0.039600004 0.10622858 0.66000003
0.040733337 0.10590667 0.65800005
0.042114288 0.10622858 0.66000003
0.04350286 0.10655048 0.66200006
0.044763811 0.10655048 0.66200006
0.046024766 0.10655048 0.66200006
0.047285717 0.10655048 0.66200006
0.048546668 0.10655048 0.66200006
0.049882859 0.10671143 0.66300005
0.051145718 0.10671143 0.66300005
0.052408576 0.10671143 0.66300005
0.053671431 0.10671143 0.66300005
0.055100005 0.10703334 0.66500002
0.056366671 0.10703334 0.66500002
0.057633337 0.10703334 0.66500002
0.058900002 0.10703334 0.66500002
0.060166672 0.10703334 0.66500002
0.061525717 0.10719429 0.66600001
0.06279429 0.10719429 0.66600001
0.064159051 0.10735524 0.66700006
0.06562572 0.10767715 0.66900003
0.066900007 0.10767715 0.66900003
0.068174288 0.10767715 0.66900003
0.069552384 0.1078381 0.67000002
0.070828579 0.1078381 0.67000002
0.072104767 0.1078381 0.67000002
0.073490478 0.10799906 0.671
0.074880004 0.10816 0.67200005
0.076500006 0.10864286 0.67500001
0.077900961 0.10880382 0.67600006
0.079188578 0.10880382 0.67600006
0.080476195 0.10880382 0.67600006
0.082005717 0.10912572 0.67800003
0.083297148 0.10912572 0.67800003
0.0848381 0.10944763 0.68000001
0.086386673 0.10976953 0.68200004
0.087685719 0.10976953 0.68200004
0.089115247 0.10993049 0.68300003
-0.080845721 0.10553144 0.648
-0.079611436 0.10553144 0.648
-0.078256197 0.10536858 0.64700001
-0.077023812 0.10536858 0.64700001
-0.075674288 0.10520572 0.64600003
-0.074328579 0.10504287 0.64500004
-0.073100008 0.10504287 0.64500004
-0.07187143 0.10504287 0.64500004
-0.070642859 0.10504287 0.64500004
-0.069414288 0.10504287 0.64500004
-0.068185717 0.10504287 0.64500004
-0.066957146 0.10504287 0.64500004
-0.065728575 0.10504287 0.64500004
-0.064500004 0.10504287 0.64500004
-0.063271433 0.10504287 0.64500004
-0.062042862 0.10504287 0.64500004
-0.060814291 0.10504287 0.64500004
-0.0596781 0.10520572 0.64600003
-0.058447622 0.10520572 0.64600003
-0.057217147 0.10520572 0.64600003
-0.055900004 0.10504287 0.64500004
-0.054756194 0.10520572 0.64600003
-0.053525716 0.10520572 0.64600003
-0.052295242 0.10520572 0.64600003
-0.051064767 0.10520572 0.64600003
-0.049757145 0.10504287 0.64500004
-0.048528574 0.10504287 0.64500004
-0.047300003 0.10504287 0.64500004
-0.046071433 0.10504287 0.64500004
-0.044842862 0.10504287 0.64500004
-0.043614287 0.10504287 0.64500004
-0.04245143 0.10520572 0.64600003
-0.041220956 0.10520572 0.64600003
-0.039990477 0.10520572 0.64600003
-0.038760003 0.10520572 0.64600003
-0.037529524 0.10520572 0.64600003
-0.036242861 0.10504287 0.64500004
-0.035068575 0.10520572 0.64600003
-0.033838097 0.10520572 0.64600003
-0.032607622 0.10520572 0.64600003
-0.031377144 0.10520572 0.64600003
-0.030146668 0.10520572 0.64600003
-0.028916193 0.10520572 0.64600003
-0.027685717 0.10520572 0.64600003
-0.02645524 0.10520572 0.64600003
-0.025224764 0.10520572 0.64600003
-0.023994287 0.10520572 0.64600003
-0.022728574 0.10504287 0.64500004
-0.021500001 0.10504287 0.64500004
-0.020302858 0.10520572 0.64600003
-0.019072382 0.10520572 0.64600003
-0.017869525 0.10536858 0.64700001
-0.016637145 0.10536858 0.64700001
-0.015428573 0.10553144 0.648
-0.014194286 0.10553144 0.648
-0.012960001 0.10553144 0.648
-0.011725715 0.10553144 0.648
-0.010491429 0.10553144 0.648
-0.0092571434 0.10553144 0.648
-0.0080228578 0.10553144 0.648
-0.0067885718 0.10553144 0.648
-0.0055714292 0.10585715 0.65000004
-0.0043333336 0.10585715 0.65000004
-0.0031000001 0.10602 0.65100002
-0.0018600001 0.10602 0.65100002
-0.00062000006 0.10602 0.65100002
0.00062000006 0.10602 0.65100002
0.0018628573 0.10618287 0.65200001
0.0031000001 0.10602 0.65100002
0.0043400005 0.10602 0.65100002
0.0055800006 0.10602 0.65100002
0.0068200002 0.10602 0.65100002
0.0080600008 0.10602 0.65100002
0.009300001 0.10602 0.65100002
0.010540001 0.10602 0.65100002
0.011780001 0.10602 0.65100002
0.013040001 0.10618287 0.65200001
0.014281905 0.10618287 0.65200001
0.015523811 0.10618287 0.65200001
0.016791429 0.10634572 0.65300006
0.018035239 0.10634572 0.65300006
0.01927905 0.10634572 0.65300006
0.020585716 0.10667144 0.65500003
0.021833334 0.10667144 0.65500003
0.023116192 0.10683429 0.65600002
0.024365716 0.10683429 0.65600002
0.025576193 0.10667144 0.65500003
0.026823811 0.10667144 0.65500003
0.028114287 0.10683429 0.65600002
0.029408574 0.10699715 0.65700001
0.030660002 0.10699715 0.65700001
0.031911429 0.10699715 0.65700001
0.033112384 0.10683429 0.65600002
0.034571432 0.10748572 0.66000003
0.035828575 0.10748572 0.66000003
0.037085716 0.10748572 0.66000003
0.038226668 0.10716001 0.65800005
0.039480001 0.10716001 0.65800005
0.040733337 0.10716001 0.65800005
0.042114288 0.10748572 0.66000003
0.043371432 0.10748572 0.66000003
0.044696193 0.10764858 0.66100001
0.045955241 0.10764858 0.66100001
0.047214288 0.10764858 0.66100001
0.048473336 0.10764858 0.66100001
0.049807623 0.10781144 0.66200006
0.051068574 0.10781144 0.66200006
0.052329529 0.10781144 0.66200006
0.053671431 0.10797429 0.66300005
0.054934289 0.10797429 0.66300005
0.056197148 0.10797429 0.66300005
0.057460003 0.10797429 0.66300005
0.058722861 0.10797429 0.66300005
0.05998572 0.10797429 0.66300005
0.061433338 0.10830001 0.66500002
0.062700003 0.10830001 0.66500002
0.063966669 0.10830001 0.66500002
0.065429531 0.10862572 0.66700006
0.066700004 0.10862572 0.66700006
0.067970477 0.10862572 0.66700006
0.069448575 0.10895143 0.66900003
0.070722863 0.10895143 0.66900003
0.071997151 0.10895143 0.66900003
0.073380955 0.10911429 0.67000002
0.07465715 0.10911429 0.67000002
0.076160006 0.10944001 0.67200005
0.077785723 0.10992858 0.67500001
0.079071432 0.10992858 0.67500001
0.080357149 0.10992858 0.67500001
0.081763811 0.11009143 0.67600006
0.083051436 0.11009143 0.67600006
0.08471334 0.11058 0.67900002
0.086133339 0.11074287 0.68000001
0.087428577 0.11074287 0.68000001
0.089115247 0.11123144 0.68300003
0.090416193 0.11123144 0.68300003
-0.080845721 0.10676572 0.648
-0.079488575 0.10660096 0.64700001
-0.078135245 0.1064362 0.64600003
-0.076904766 0.1064362 0.64600003
-0.07555715 0.10627144 0.64500004
-0.074328579 0.10627144 0.64500004
-0.073100008 0.10627144 0.64500004
-0.07187143 0.10627144 0.64500004
-0.070642859 0.10627144 0.64500004
-0.069414288 0.10627144 0.64500004
-0.068080008 0.10610668 0.64400005
-0.066957146 0.10627144 0.64500004
-0.065728575 0.10627144 0.64500004
-0.064500004 0.10627144 0.64500004
-0.063271433 0.10627144 0.64500004
-0.062042862 0.10627144 0.64500004
-0.060814291 0.10627144 0.64500004
-0.059585717 0.10627144 0.64500004
-0.058357146 0.10627144 0.64500004
-0.057128575 0.10627144 0.64500004
-0.055900004 0.10627144 0.64500004
-0.054671433 0.10627144 0.64500004
-0.053442862 0.10627144 0.64500004
-0.052214291 0.10627144 0.64500004
-0.050985716 0.10627144 0.64500004
-0.049680002 0.10610668 0.64400005
-0.048453335 0.10610668 0.64400005
-0.047226671 0.10610668 0.64400005
-0.046000004 0.10610668 0.64400005
-0.044773336 0.10610668 0.64400005
-0.043614287 0.10627144 0.64500004
-0.042385716 0.10627144 0.64500004
-0.041157145 0.10627144 0.64500004
-0.039928574 0.10627144 0.64500004
-0.038700003 0.10627144 0.64500004
-0.037471432 0.10627144 0.64500004
-0.036242861 0.10627144 0.64500004
-0.035014287 0.10627144 0.64500004
-0.033785716 0.10627144 0.64500004
-0.032557145 0.10627144 0.64500004
-0.031377144 0.1064362 0.64600003
-0.030146668 0.1064362 0.64600003
-0.02887143 0.10627144 0.64500004
-0.027642859 0.10627144 0.64500004
-0.026414288 0.10627144 0.64500004
-0.025185715 0.10627144 0.64500004
-0.023957144 0.10627144 0.64500004
-0.022728574 0.10627144 0.64500004
-0.021500001 0.10627144 0.64500004
-0.02027143 0.10627144 0.64500004
-0.019042859 0.10627144 0.64500004
-0.017869525 0.10660096 0.64700001
-0.016637145 0.10660096 0.64700001
-0.015404763 0.10660096 0.64700001
-0.014172382 0.10660096 0.64700001
-0.012940001 0.10660096 0.64700001
-0.011725715 0.10676572 0.648
-0.010475239 0.10660096 0.64700001
-0.0092428578 0.10660096 0.64700001
-0.0080104768 0.10660096 0.64700001
-0.0067885718 0.10676572 0.648
-0.0055542863 0.10676572 0.648
-0.0043200003 0.10676572 0.648
-0.0030857145 0.10676572 0.648
-0.001857143 0.10709524 0.65000004
-0.00061904767 0.10709524 0.65000004
0.00061904767 0.10709524 0.65000004
0.0018600001 0.10726 0.65100002
0.0030952382 0.10709524 0.65000004
0.0043333336 0.10709524 0.65000004
0.0055714292 0.10709524 0.65000004
0.0068095243 0.10709524 0.65000004
0.0080476198 0.10709524 0.65000004
0.0092857145 0.10709524 0.65000004
0.01052381 0.10709524 0.65000004
0.011761906 0.10709524 0.65000004
0.01302 0.10726 0.65100002
0.014260001 0.10726 0.65100002
0.015500001 0.10726 0.65100002
0.016765716 0.10742477 0.65200001
0.018007619 0.10742477 0.65200001
0.01927905 0.10758953 0.65300006
0.020522859 0.10758953 0.65300006
0.021766668 0.10758953 0.65300006
0.023080954 0.10791905 0.65500003
0.024328573 0.10791905 0.65500003
0.025498098 0.10758953 0.65300006
0.026741907 0.10758953 0.65300006
0.027985716 0.10758953 0.65300006
0.02931905 0.10791905 0.65500003
0.030566668 0.10791905 0.65500003
0.031717144 0.10758953 0.65300006
0.032910477 0.10742477 0.65200001
0.034152385 0.10742477 0.65200001
0.035720002 0.10841334 0.65800005
0.036973335 0.10841334 0.65800005
0.038168576 0.10824858 0.65700001
0.039360002 0.10808381 0.65600002
0.040671431 0.10824858 0.65700001
0.04192286 0.10824858 0.65700001
0.043174289 0.10824858 0.65700001
0.044493336 0.10841334 0.65800005
0.045885716 0.10874286 0.66000003
0.04714286 0.10874286 0.66000003
0.048400003 0.10874286 0.66000003
0.049732383 0.10890763 0.66100001
0.051068574 0.10907239 0.66200006
0.052329529 0.10907239 0.66200006
0.05359048 0.10907239 0.66200006
0.054851431 0.10907239 0.66200006
0.056112386 0.10907239 0.66200006
0.057460003 0.10923715 0.66300005
0.058722861 0.10923715 0.66300005
0.05998572 0.10923715 0.66300005
0.061248574 0.10923715 0.66300005
0.062511429 0.10923715 0.66300005
0.063966669 0.10956667 0.66500002
0.065331429 0.10973144 0.66600001
0.066600002 0.10973144 0.66600001
0.067868575 0.10973144 0.66600001
0.069240957 0.1098962 0.66700006
0.070511431 0.1098962 0.66700006
0.071781911 0.1098962 0.66700006
0.073271431 0.11022572 0.66900003
0.074545719 0.11022572 0.66900003
0.075933337 0.11039048 0.67000002
0.077440009 0.11072001 0.67200005
0.078954294 0.11104953 0.67400002
0.080238104 0.11104953 0.67400002
0.081642866 0.1112143 0.67500001
0.083051436 0.11137906 0.67600006
0.08458858 0.11170858 0.67800003
0.086006671 0.11187334 0.67900002
0.087300003 0.11187334 0.67900002
0.088984765 0.11236763 0.68200004
0.090283819 0.11236763 0.68200004
0.091582865 0.11236763 0.68200004
-0.080720961 0.10783334 0.64700001
-0.079120003 0.10733334 0.64400005
-0.077893339 0.10733334 0.64400005
-0.076666668 0.10733334 0.64400005
-0.075440004 0.10733334 0.64400005
-0.074213341 0.10733334 0.64400005
-0.07298667 0.10733334 0.64400005
-0.071760006 0.10733334 0.64400005
-0.070533335 0.10733334 0.64400005
-0.069306672 0.10733334 0.64400005
-0.068080008 0.10733334 0.64400005
-0.066853337 0.10733334 0.64400005
-0.065626673 0.10733334 0.64400005
-0.064400002 0.10733334 0.64400005
-0.063173339 0.10733334 0.64400005
-0.061946671 0.10733334 0.64400005
-0.060720004 0.10733334 0.64400005
-0.059493337 0.10733334 0.64400005
-0.05826667 0.10733334 0.64400005
-0.057040002 0.10733334 0.64400005
-0.055813339 0.10733334 0.64400005
-0.054586671 0.10733334 0.64400005
-0.053360004 0.10733334 0.64400005
-0.052133337 0.10733334 0.64400005
-0.050906669 0.10733334 0.64400005
-0.049680002 0.10733334 0.64400005
-0.048453335 0.10733334 0.64400005
-0.047226671 0.10733334 0.64400005
-0.046000004 0.10733334 0.64400005
-0.044773336 0.10733334 0.64400005
-0.043546669 0.10733334 0.64400005
-0.042320002 0.10733334 0.64400005
-0.041093335 0.10733334 0.64400005
-0.039866671 0.10733334 0.64400005
-0.038640004 0.10733334 0.64400005
-0.037413336 0.10733334 0.64400005
-0.036186669 0.10733334 0.64400005
-0.034960002 0.10733334 0.64400005
-0.033785716 0.10750001 0.64500004
-0.032557145 0.10750001 0.64500004
-0.031328574 0.10750001 0.64500004
-0.030100003 0.10750001 0.64500004
-0.028826669 0.10733334 0.64400005
-0.027600002 0.10733334 0.64400005
-0.026373334 0.10733334 0.64400005
-0.025146669 0.10733334 0.64400005
-0.023920001 0.10733334 0.64400005
-0.022693334 0.10733334 0.64400005
-0.021466669 0.10733334 0.64400005
-0.020240001 0.10733334 0.64400005
-0.019013334 0.10733334 0.64400005
-0.017814286 0.10750001 0.64500004
-0.016611429 0.10766667 0.64600003
-0.015380953 0.10766667 0.64600003
-0.014150477 0.10766667 0.64600003
-0.012920001 0.10766667 0.64600003
-0.011689524 0.10766667 0.64600003
-0.010459049 0.10766667 0.64600003
-0.0092285722 0.10766667 0.64600003
-0.0079980958 0.10766667 0.64600003
-0.0067676194 0.10766667 0.64600003
-0.0055371434 0.10766667 0.64600003
-0.0043133334 0.10783334 0.64700001
-0.0030761906 0.10766667 0.64600003
-0.0018485716 0.10783334 0.64700001
-0.00061619049 0.10783334 0.64700001
0.00061619049 0.10783334 0.64700001
0.0018514286 0.10800001 0.648
0.0030809527 0.10783334 0.64700001
0.0043133334 0.10783334 0.64700001
0.0055542863 0.10800001 0.648
0.0067780958 0.10783334 0.64700001
0.0080228578 0.10800001 0.648
0.0092428578 0.10783334 0.64700001
0.010491429 0.10800001 0.648
0.011725715 0.10800001 0.648
0.012960001 0.10800001 0.648
0.014194286 0.10800001 0.648
0.015428573 0.10800001 0.648
0.016714286 0.10833334 0.65000004
0.017952383 0.10833334 0.65000004
0.019190477 0.10833334 0.65000004
0.020460002 0.1085 0.65100002
0.021700002 0.1085 0.65100002
0.02297524 0.10866667 0.65200001
0.024217144 0.10866667 0.65200001
0.025459049 0.10866667 0.65200001
0.026660001 0.1085 0.65100002
0.027900001 0.1085 0.65100002
0.029140001 0.1085 0.65100002
0.030380001 0.1085 0.65100002
0.031571429 0.10833334 0.65000004
0.032809526 0.10833334 0.65000004
0.03394286 0.10800001 0.648
0.035177145 0.10800001 0.648
0.036411431 0.10800001 0.648
0.037820004 0.1085 0.65100002
0.039120004 0.10866667 0.65200001
0.040547621 0.10916667 0.65500003
0.041795243 0.10916667 0.65500003
0.043042861 0.10916667 0.65500003
0.044290479 0.10916667 0.65500003
0.045538098 0.10916667 0.65500003
0.046857145 0.10933334 0.65600002
0.048180003 0.10950001 0.65700001
0.049506672 0.10966668 0.65800005
0.050760005 0.10966668 0.65800005
0.052171431 0.11000001 0.66000003
0.053428575 0.11000001 0.66000003
0.054685719 0.11000001 0.66000003
0.05594286 0.11000001 0.66000003
0.057286669 0.11016668 0.66100001
0.05854572 0.11016668 0.66100001
0.059804767 0.11016668 0.66100001
0.061063815 0.11016668 0.66100001
0.062322862 0.11016668 0.66100001
0.063678101 0.11033334 0.66200006
0.064939052 0.11033334 0.66200006
0.066300005 0.11050001 0.66300005
0.067562863 0.11050001 0.66300005
0.068825722 0.11050001 0.66300005
0.070088573 0.11050001 0.66300005
0.071351431 0.11050001 0.66300005
0.072833337 0.11083334 0.66500002
0.074100003 0.11083334 0.66500002
0.075140007 0.11050001 0.66300005
0.07674858 0.11100001 0.66600001
0.078368574 0.11150001 0.66900003
0.07988096 0.11183334 0.671
0.081280008 0.11200001 0.67200005
0.082805723 0.11233334 0.67400002
0.084214292 0.1125 0.67500001
0.085500002 0.1125 0.67500001
0.086785719 0.1125 0.67500001
0.08820191 0.11266667 0.67600006
0.089489527 0.11266667 0.67600006
0.090777151 0.11266667 0.67600006
0.092064768 0.11266667 0.67600006
-0.079120003 0.10856001 0.64400005
-0.077893339 0.10856001 0.64400005
-0.076666668 0.10856001 0.64400005
-0.075440004 0.10856001 0.64400005
-0.074213341 0.10856001 0.64400005
-0.07298667 0.10856001 0.64400005
-0.071760006 0.10856001 0.64400005
-0.070533335 0.10856001 0.64400005
-0.069306672 0.10856001 0.64400005
-0.068080008 0.10856001 0.64400005
-0.066853337 0.10856001 0.64400005
-0.065626673 0.10856001 0.64400005
-0.064400002 0.10856001 0.64400005
-0.063173339 0.10856001 0.64400005
-0.06175429 0.10822286 0.64200002
-0.060720004 0.10856001 0.64400005
-0.059493337 0.10856001 0.64400005
-0.05826667 0.10856001 0.64400005
-0.057040002 0.10856001 0.64400005
-0.055640005 0.10822286 0.64200002
-0.054586671 0.10856001 0.64400005
-0.053360004 0.10856001 0.64400005
-0.052133337 0.10856001 0.64400005
-0.050748575 0.10822286 0.64200002
-0.049680002 0.10856001 0.64400005
-0.048453335 0.10856001 0.64400005
-0.047226671 0.10856001 0.64400005
-0.046000004 0.10856001 0.64400005
-0.044773336 0.10856001 0.64400005
-0.043546669 0.10856001 0.64400005
-0.042320002 0.10856001 0.64400005
-0.041093335 0.10856001 0.64400005
-0.039866671 0.10856001 0.64400005
-0.038640004 0.10856001 0.64400005
-0.037413336 0.10856001 0.64400005
-0.036186669 0.10856001 0.64400005
-0.034960002 0.10856001 0.64400005
-0.033733334 0.10856001 0.64400005
-0.032506667 0.10856001 0.64400005
-0.031280003 0.10856001 0.64400005
-0.030053336 0.10856001 0.64400005
-0.028826669 0.10856001 0.64400005
-0.027600002 0.10856001 0.64400005
-0.026373334 0.10856001 0.64400005
-0.025146669 0.10856001 0.64400005
-0.023920001 0.10856001 0.64400005
-0.022693334 0.10856001 0.64400005
-0.021466669 0.10856001 0.64400005
-0.020240001 0.10856001 0.64400005
-0.019013334 0.10856001 0.64400005
-0.017814286 0.10872858 0.64500004
-0.016585715 0.10872858 0.64500004
-0.015380953 0.10889715 0.64600003
-0.014150477 0.10889715 0.64600003
-0.0129 0.10872858 0.64500004
-0.011689524 0.10889715 0.64600003
-0.010459049 0.10889715 0.64600003
-0.0092142867 0.10872858 0.64500004
-0.0079857148 0.10872858 0.64500004
-0.0067676194 0.10889715 0.64600003
-0.0055371434 0.10889715 0.64600003
-0.004306667 0.10889715 0.64600003
-0.0030761906 0.10889715 0.64600003
-0.0018457144 0.10889715 0.64600003
-0.00061523815 0.10889715 0.64600003
0.00061619049 0.10906572 0.64700001
0.0018485716 0.10906572 0.64700001
0.0030809527 0.10906572 0.64700001
0.0043133334 0.10906572 0.64700001
0.0055457149 0.10906572 0.64700001
0.0067780958 0.10906572 0.64700001
0.0080104768 0.10906572 0.64700001
0.0092428578 0.10906572 0.64700001
0.010475239 0.10906572 0.64700001
0.01170762 0.10906572 0.64700001
0.012940001 0.10906572 0.64700001
0.014172382 0.10906572 0.64700001
0.015428573 0.1092343 0.648
0.016662858 0.1092343 0.648
0.017952383 0.10957143 0.65000004
0.019190477 0.10957143 0.65000004
0.020428572 0.10957143 0.65000004
0.021666668 0.10957143 0.65000004
0.022940002 0.10974 0.65100002
0.02414286 0.10957143 0.65000004
0.025380954 0.10957143 0.65000004
0.026619049 0.10957143 0.65000004
0.02777143 0.1092343 0.648
0.029005716 0.1092343 0.648
0.030240001 0.1092343 0.648
0.031474289 0.1092343 0.648
0.032708574 0.1092343 0.648
0.034047622 0.10957143 0.65000004
0.035285715 0.10957143 0.65000004
0.036580004 0.10974 0.65100002
0.037820004 0.10974 0.65100002
0.039120004 0.10990858 0.65200001
0.040361907 0.10990858 0.65200001
0.041667622 0.11007715 0.65300006
0.042911433 0.11007715 0.65300006
0.04415524 0.11007715 0.65300006
0.045399051 0.11007715 0.65300006
0.046785716 0.1104143 0.65500003
0.04810667 0.11058287 0.65600002
0.049356192 0.11058287 0.65600002
0.050682861 0.11075144 0.65700001
0.051934291 0.11075144 0.65700001
0.053266671 0.11092 0.65800005
0.054520003 0.11092 0.65800005
0.055773336 0.11092 0.65800005
0.057200003 0.11125715 0.66000003
0.058457147 0.11125715 0.66000003
0.059533339 0.11092 0.65800005
0.060786672 0.11092 0.65800005
0.062228575 0.11125715 0.66000003
0.063485719 0.11125715 0.66000003
0.064742863 0.11125715 0.66000003
0.066100001 0.11142572 0.66100001
0.067460954 0.11159429 0.66200006
0.068618096 0.11142572 0.66100001
0.069982864 0.11159429 0.66200006
0.071243815 0.11159429 0.66200006
0.072504766 0.11159429 0.66200006
0.073654294 0.11142572 0.66100001
0.074913338 0.11142572 0.66100001
0.076057151 0.11125715 0.66000003
0.078017145 0.11226858 0.66600001
0.079761907 0.11294287 0.67000002
0.081159055 0.11311144 0.671
0.082560003 0.11328001 0.67200005
0.084089532 0.11361715 0.67400002
0.085373342 0.11361715 0.67400002
0.086785719 0.11378572 0.67500001
0.088071436 0.11378572 0.67500001
0.089489527 0.11395429 0.67600006
0.090777151 0.11395429 0.67600006
0.092064768 0.11395429 0.67600006
-0.080471434 0.10995715 0.64500004
-0.079120003 0.10978667 0.64400005
-0.077893339 0.10978667 0.64400005
-0.076666668 0.10978667 0.64400005
-0.075440004 0.10978667 0.64400005
-0.074213341 0.10978667 0.64400005
-0.07298667 0.10978667 0.64400005
-0.071760006 0.10978667 0.64400005
-0.070533335 0.10978667 0.64400005
-0.069306672 0.10978667 0.64400005
-0.068080008 0.10978667 0.64400005
-0.066853337 0.10978667 0.64400005
-0.065626673 0.10978667 0.64400005
-0.064400002 0.10978667 0.64400005
-0.063173339 0.10978667 0.64400005
-0.06175429 0.10944572 0.64200002
-0.060720004 0.10978667 0.64400005
-0.059493337 0.10978667 0.64400005
-0.05826667 0.10978667 0.64400005
-0.057040002 0.10978667 0.64400005
-0.055640005 0.10944572 0.64200002
-0.054417148 0.10944572 0.64200002
-0.053194288 0.10944572 0.64200002
-0.051971432 0.10944572 0.64200002
-0.050748575 0.10944572 0.64200002
-0.049525719 0.10944572 0.64200002
-0.048302859 0.10944572 0.64200002
-0.047080003 0.10944572 0.64200002
-0.046000004 0.10978667 0.64400005
-0.044773336 0.10978667 0.64400005
-0.043546669 0.10978667 0.64400005
-0.042320002 0.10978667 0.64400005
-0.041093335 0.10978667 0.64400005
-0.039866671 0.10978667 0.64400005
-0.038640004 0.10978667 0.64400005
-0.037413336 0.10978667 0.64400005
-0.036186669 0.10978667 0.64400005
-0.034960002 0.10978667 0.64400005
-0.033733334 0.10978667 0.64400005
-0.032506667 0.10978667 0.64400005
-0.031280003 0.10978667 0.64400005
-0.030053336 0.10978667 0.64400005
-0.028826669 0.10978667 0.64400005
-0.027600002 0.10978667 0.64400005
-0.026373334 0.10978667 0.64400005
-0.025146669 0.10978667 0.64400005
-0.023920001 0.10978667 0.64400005
-0.022693334 0.10978667 0.64400005
-0.021466669 0.10978667 0.64400005
-0.020240001 0.10978667 0.64400005
-0.019013334 0.10978667 0.64400005
-0.017814286 0.10995715 0.64500004
-0.016585715 0.10995715 0.64500004
-0.015357144 0.10995715 0.64500004
-0.014128572 0.10995715 0.64500004
-0.0129 0.10995715 0.64500004
-0.011671429 0.10995715 0.64500004
-0.010442858 0.10995715 0.64500004
-0.0092142867 0.10995715 0.64500004
-0.0079857148 0.10995715 0.64500004
-0.0067571434 0.10995715 0.64500004
-0.005528572 0.10995715 0.64500004
-0.0043000001 0.10995715 0.64500004
-0.0030714287 0.10995715 0.64500004
-0.0018428572 0.10995715 0.64500004
-0.00061428576 0.10995715 0.64500004
0.00061523815 0.11012763 0.64600003
0.0018457144 0.11012763 0.64600003
0.0030761906 0.11012763 0.64600003
0.004306667 0.11012763 0.64600003
0.0055457149 0.1102981 0.64700001
0.0067676194 0.11012763 0.64600003
0.0080104768 0.1102981 0.64700001
0.0092428578 0.1102981 0.64700001
0.010475239 0.1102981 0.64700001
0.011689524 0.11012763 0.64600003
0.012920001 0.11012763 0.64600003
0.014150477 0.11012763 0.64600003
0.015404763 0.1102981 0.64700001
0.016662858 0.11046858 0.648
0.017897144 0.11046858 0.648
0.019131429 0.11046858 0.648
0.020365715 0.11046858 0.648
0.021666668 0.11080953 0.65000004
0.022904763 0.11080953 0.65000004
0.024068573 0.11046858 0.648
0.025302859 0.11046858 0.648
0.026537145 0.11046858 0.648
0.02777143 0.11046858 0.648
0.029005716 0.11046858 0.648
0.030240001 0.11046858 0.648
0.031474289 0.11046858 0.648
0.032708574 0.11046858 0.648
0.03394286 0.11046858 0.648
0.03512286 0.1102981 0.64700001
0.036355242 0.1102981 0.64700001
0.03758762 0.1102981 0.64700001
0.038880002 0.11046858 0.648
0.040114287 0.11046858 0.648
0.041603811 0.11115048 0.65200001
0.042911433 0.11132096 0.65300006
0.04415524 0.11132096 0.65300006
0.045399051 0.11132096 0.65300006
0.046642859 0.11132096 0.65300006
0.048033338 0.11166191 0.65500003
0.049280956 0.11166191 0.65500003
0.050528575 0.11166191 0.65500003
0.05185524 0.11183239 0.65600002
0.053104766 0.11183239 0.65600002
0.054354288 0.11183239 0.65600002
0.055688575 0.11200286 0.65700001
0.057026669 0.11217334 0.65800005
0.058280002 0.11217334 0.65800005
0.059442863 0.11200286 0.65700001
0.060694288 0.11200286 0.65700001
0.061945718 0.11200286 0.65700001
0.063293338 0.11217334 0.65800005
0.064448573 0.11200286 0.65700001
0.065800004 0.11217334 0.65800005
0.067257144 0.11251429 0.66000003
0.068514287 0.11251429 0.66000003
0.069771431 0.11251429 0.66000003
0.071028575 0.11251429 0.66000003
0.072285719 0.11251429 0.66000003
0.073542863 0.11251429 0.66000003
0.074800007 0.11251429 0.66000003
0.076057151 0.11251429 0.66000003
0.077548578 0.11285525 0.66200006
0.079285719 0.11353715 0.66600001
0.080675244 0.11370762 0.66700006
0.08231429 0.11421905 0.67000002
0.083715245 0.11438953 0.671
0.08499334 0.11438953 0.671
0.086657152 0.11490096 0.67400002
0.087940961 0.11490096 0.67400002
0.089224771 0.11490096 0.67400002
0.09050858 0.11490096 0.67400002
0.091928579 0.11507144 0.67500001
-0.080471434 0.11118572 0.64500004
-0.079242863 0.11118572 0.64500004
-0.077651434 0.11066858 0.64200002
-0.076666668 0.11101334 0.64400005
-0.075440004 0.11101334 0.64400005
-0.074213341 0.11101334 0.64400005
-0.07298667 0.11101334 0.64400005
-0.071760006 0.11101334 0.64400005
-0.070533335 0.11101334 0.64400005
-0.069306672 0.11101334 0.64400005
-0.068080008 0.11101334 0.64400005
-0.066853337 0.11101334 0.64400005
-0.065626673 0.11101334 0.64400005
-0.064400002 0.11101334 0.64400005
-0.063173339 0.11101334 0.64400005
-0.061946671 0.11101334 0.64400005
-0.060720004 0.11101334 0.64400005
-0.059493337 0.11101334 0.64400005
-0.05826667 0.11101334 0.64400005
-0.057040002 0.11101334 0.64400005
-0.055640005 0.11066858 0.64200002
-0.054417148 0.11066858 0.64200002
-0.053194288 0.11066858 0.64200002
-0.051971432 0.11066858 0.64200002
-0.050748575 0.11066858 0.64200002
-0.049525719 0.11066858 0.64200002
-0.048302859 0.11066858 0.64200002
-0.047080003 0.11066858 0.64200002
-0.045857146 0.11066858 0.64200002
-0.04463429 0.11066858 0.64200002
-0.04341143 0.11066858 0.64200002
-0.042320002 0.11101334 0.64400005
-0.041093335 0.11101334 0.64400005
-0.039866671 0.11101334 0.64400005
-0.038520001 0.11066858 0.64200002
-0.037413336 0.11101334 0.64400005
-0.036186669 0.11101334 0.64400005
-0.034960002 0.11101334 0.64400005
-0.033733334 0.11101334 0.64400005
-0.032506667 0.11101334 0.64400005
-0.031280003 0.11101334 0.64400005
-0.030053336 0.11101334 0.64400005
-0.028826669 0.11101334 0.64400005
-0.027514288 0.11066858 0.64200002
-0.026373334 0.11101334 0.64400005
-0.025146669 0.11101334 0.64400005
-0.023920001 0.11101334 0.64400005
-0.022693334 0.11101334 0.64400005
-0.021466669 0.11101334 0.64400005
-0.020240001 0.11101334 0.64400005
-0.019013334 0.11101334 0.64400005
-0.017814286 0.11118572 0.64500004
-0.016585715 0.11118572 0.64500004
-0.015357144 0.11118572 0.64500004
-0.014128572 0.11118572 0.64500004
-0.0129 0.11118572 0.64500004
-0.011671429 0.11118572 0.64500004
-0.010442858 0.11118572 0.64500004
-0.0092000002 0.11101334 0.64400005
-0.0079733338 0.11101334 0.64400005
-0.0067571434 0.11118572 0.64500004
-0.005528572 0.11118572 0.64500004
-0.0043000001 0.11118572 0.64500004
-0.0030714287 0.11118572 0.64500004
-0.0018428572 0.11118572 0.64500004
-0.00061428576 0.11118572 0.64500004
0.00061428576 0.11118572 0.64500004
0.0018457144 0.11135811 0.64600003
0.0030761906 0.11135811 0.64600003
0.004306667 0.11135811 0.64600003
0.0055371434 0.11135811 0.64600003
0.0067676194 0.11135811 0.64600003
0.0079980958 0.11135811 0.64600003
0.0092285722 0.11135811 0.64600003
0.010459049 0.11135811 0.64600003
0.011689524 0.11135811 0.64600003
0.0129 0.11118572 0.64500004
0.014150477 0.11135811 0.64600003
0.015380953 0.11135811 0.64600003
0.016637145 0.11153048 0.64700001
0.017869525 0.11153048 0.64700001
0.019101907 0.11153048 0.64700001
0.020365715 0.11170287 0.648
0.021600001 0.11170287 0.648
0.022834288 0.11170287 0.648
0.02403143 0.11153048 0.64700001
0.025263811 0.11153048 0.64700001
0.026496192 0.11153048 0.64700001
0.027728572 0.11153048 0.64700001
0.028960954 0.11153048 0.64700001
0.030240001 0.11170287 0.648
0.031425714 0.11153048 0.64700001
0.032708574 0.11170287 0.648
0.033890478 0.11153048 0.64700001
0.035285715 0.11204763 0.65000004
0.036355242 0.11153048 0.64700001
0.03758762 0.11153048 0.64700001
0.038880002 0.11170287 0.648
0.040238097 0.11204763 0.65000004
0.041603811 0.11239239 0.65200001
0.042845719 0.11239239 0.65200001
0.044087622 0.11239239 0.65200001
0.045329526 0.11239239 0.65200001
0.04657143 0.11239239 0.65200001
0.047813337 0.11239239 0.65200001
0.049130481 0.11256477 0.65300006
0.050374288 0.11256477 0.65300006
0.051618099 0.11256477 0.65300006
0.053023811 0.11290953 0.65500003
0.054271434 0.11290953 0.65500003
0.055603813 0.11308191 0.65600002
0.056853335 0.11308191 0.65600002
0.058102861 0.11308191 0.65600002
0.059352383 0.11308191 0.65600002
0.060601909 0.11308191 0.65600002
0.061851434 0.11308191 0.65600002
0.063197143 0.11325429 0.65700001
0.064350478 0.11308191 0.65600002
0.065700002 0.11325429 0.65700001
0.06705334 0.11342667 0.65800005
0.06830667 0.11342667 0.65800005
0.069560006 0.11342667 0.65800005
0.071028575 0.11377144 0.66000003
0.072066672 0.11342667 0.65800005
0.073320001 0.11342667 0.65800005
0.074800007 0.11377144 0.66000003
0.076057151 0.11377144 0.66000003
0.077431433 0.11394382 0.66100001
0.07880953 0.1141162 0.66200006
0.080191433 0.11428858 0.66300005
0.081945717 0.1149781 0.66700006
0.083465718 0.11532287 0.66900003
0.084866673 0.11549524 0.67000002
0.086271435 0.11566763 0.671
0.087680005 0.11584001 0.67200005
0.088960007 0.11584001 0.67200005
0.09010572 0.11566763 0.671
0.091383815 0.11566763 0.671
0.09266191 0.11566763 0.671
-0.080471434 0.11241429 0.64500004
-0.079242863 0.11241429 0.64500004
-0.077893339 0.11224001 0.64400005
-0.076666668 0.11224001 0.64400005
-0.075205721 0.11189143 0.64200002
-0.074213341 0.11224001 0.64400005
-0.07298667 0.11224001 0.64400005
-0.071760006 0.11224001 0.64400005
-0.070533335 0.11224001 0.64400005
-0.069306672 0.11224001 0.64400005
-0.068080008 0.11224001 0.64400005
-0.066853337 0.11224001 0.64400005
-0.065626673 0.11224001 0.64400005
-0.064400002 0.11224001 0.64400005
-0.063173339 0.11224001 0.64400005
-0.061946671 0.11224001 0.64400005
-0.060720004 0.11224001 0.64400005
-0.059493337 0.11224001 0.64400005
-0.05826667 0.11224001 0.64400005
-0.057040002 0.11224001 0.64400005
-0.055640005 0.11189143 0.64200002
-0.054417148 0.11189143 0.64200002
-0.053194288 0.11189143 0.64200002
-0.051971432 0.11189143 0.64200002
-0.050748575 0.11189143 0.64200002
-0.049525719 0.11189143 0.64200002
-0.048302859 0.11189143 0.64200002
-0.047080003 0.11189143 0.64200002
-0.045857146 0.11189143 0.64200002
-0.04463429 0.11189143 0.64200002
-0.04341143 0.11189143 0.64200002
-0.042320002 0.11224001 0.64400005
-0.040965717 0.11189143 0.64200002
-0.039742861 0.11189143 0.64200002
-0.038520001 0.11189143 0.64200002
-0.037297145 0.11189143 0.64200002
-0.036074288 0.11189143 0.64200002
-0.034851432 0.11189143 0.64200002
-0.033628572 0.11189143 0.64200002
-0.032506667 0.11224001 0.64400005
-0.031280003 0.11224001 0.64400005
-0.030053336 0.11224001 0.64400005
-0.028826669 0.11224001 0.64400005
-0.027514288 0.11189143 0.64200002
-0.02629143 0.11189143 0.64200002
-0.025068574 0.11189143 0.64200002
-0.023920001 0.11224001 0.64400005
-0.022622859 0.11189143 0.64200002
-0.021400001 0.11189143 0.64200002
-0.020240001 0.11224001 0.64400005
-0.019013334 0.11224001 0.64400005
-0.017814286 0.11241429 0.64500004
-0.016585715 0.11241429 0.64500004
-0.015357144 0.11241429 0.64500004
-0.014128572 0.11241429 0.64500004
-0.0129 0.11241429 0.64500004
-0.011671429 0.11241429 0.64500004
-0.010442858 0.11241429 0.64500004
-0.0092000002 0.11224001 0.64400005
-0.0079733338 0.11224001 0.64400005
-0.006746667 0.11224001 0.64400005
-0.005528572 0.11241429 0.64500004
-0.0043000001 0.11241429 0.64500004
-0.0030714287 0.11241429 0.64500004
-0.0018428572 0.11241429 0.64500004
-0.00061428576 0.11241429 0.64500004
0.00061428576 0.11241429 0.64500004
0.0018428572 0.11241429 0.64500004
0.0030714287 0.11241429 0.64500004
0.0043000001 0.11241429 0.64500004
0.005528572 0.11241429 0.64500004
0.0067571434 0.11241429 0.64500004
0.0079857148 0.11241429 0.64500004
0.0092142867 0.11241429 0.64500004
0.010442858 0.11241429 0.64500004
0.011671429 0.11241429 0.64500004
0.0129 0.11241429 0.64500004
0.014128572 0.11241429 0.64500004
0.015357144 0.11241429 0.64500004
0.016585715 0.11241429 0.64500004
0.017841905 0.11258858 0.64600003
0.019072382 0.11258858 0.64600003
0.020334287 0.11276286 0.64700001
0.021566669 0.11276286 0.64700001
0.022799049 0.11276286 0.64700001
0.023994287 0.11258858 0.64600003
0.025224764 0.11258858 0.64600003
0.02645524 0.11258858 0.64600003
0.027685717 0.11258858 0.64600003
0.028960954 0.11276286 0.64700001
0.030193334 0.11276286 0.64700001
0.031425714 0.11276286 0.64700001
0.032658096 0.11276286 0.64700001
0.033890478 0.11276286 0.64700001
0.035177145 0.11293715 0.648
0.036355242 0.11276286 0.64700001
0.03758762 0.11276286 0.64700001
0.038820002 0.11276286 0.64700001
0.040052384 0.11276286 0.64700001
0.041348573 0.11293715 0.648
0.042582858 0.11293715 0.648
0.044020005 0.11346 0.65100002
0.045260005 0.11346 0.65100002
0.046500005 0.11346 0.65100002
0.047740005 0.11346 0.65100002
0.048980001 0.11346 0.65100002
0.050297145 0.1136343 0.65200001
0.051539052 0.1136343 0.65200001
0.052780956 0.1136343 0.65200001
0.054105718 0.11380858 0.65300006
0.055519052 0.11415715 0.65500003
0.05676667 0.11415715 0.65500003
0.058014289 0.11415715 0.65500003
0.059080955 0.11380858 0.65300006
0.060324766 0.11380858 0.65300006
0.061757147 0.11415715 0.65500003
0.063004769 0.11415715 0.65500003
0.064252384 0.11415715 0.65500003
0.065500006 0.11415715 0.65500003
0.06684953 0.11433144 0.65600002
0.068202861 0.11450572 0.65700001
0.06945429 0.11450572 0.65700001
0.070705719 0.11450572 0.65700001
0.071957149 0.11450572 0.65700001
0.073320001 0.11468001 0.65800005
0.074573338 0.11468001 0.65800005
0.076057151 0.11502858 0.66000003
0.077314287 0.11502858 0.66000003
0.078690484 0.11520287 0.66100001
0.080070481 0.11537715 0.66200006
0.081700005 0.11590001 0.66500002
0.083216198 0.11624858 0.66700006
0.084486671 0.11624858 0.66700006
0.086014293 0.11659715 0.66900003
0.087419055 0.11677144 0.67000002
0.088695243 0.11677144 0.67000002
0.089971438 0.11677144 0.67000002
0.091247626 0.11677144 0.67000002
0.092523813 0.11677144 0.67000002
-0.080346674 0.11346667 0.64400005
-0.079120003 0.11346667 0.64400005
-0.077651434 0.11311429 0.64200002
-0.076666668 0.11346667 0.64400005
-0.075205721 0.11311429 0.64200002
-0.073982865 0.11311429 0.64200002
-0.072760008 0.11311429 0.64200002
-0.071760006 0.11346667 0.64400005
-0.070533335 0.11346667 0.64400005
-0.069306672 0.11346667 0.64400005
-0.068080008 0.11346667 0.64400005
-0.066853337 0.11346667 0.64400005
-0.065626673 0.11346667 0.64400005
-0.064400002 0.11346667 0.64400005
-0.063173339 0.11346667 0.64400005
-0.061946671 0.11346667 0.64400005
-0.060720004 0.11346667 0.64400005
-0.059493337 0.11346667 0.64400005
-0.05826667 0.11346667 0.64400005
-0.057040002 0.11346667 0.64400005
-0.055640005 0.11311429 0.64200002
-0.054417148 0.11311429 0.64200002
-0.053194288 0.11311429 0.64200002
-0.051971432 0.11311429 0.64200002
-0.050748575 0.11311429 0.64200002
-0.049525719 0.11311429 0.64200002
-0.048302859 0.11311429 0.64200002
-0.047080003 0.11311429 0.64200002
-0.045857146 0.11311429 0.64200002
-0.04463429 0.11311429 0.64200002
-0.04341143 0.11311429 0.64200002
-0.042188574 0.11311429 0.64200002
-0.040965717 0.11311429 0.64200002
-0.039742861 0.11311429 0.64200002
-0.038520001 0.11311429 0.64200002
-0.037297145 0.11311429 0.64200002
-0.036074288 0.11311429 0.64200002
-0.034851432 0.11311429 0.64200002
-0.033628572 0.11311429 0.64200002
-0.032405715 0.11311429 0.64200002
-0.031182859 0.11311429 0.64200002
-0.029960003 0.11311429 0.64200002
-0.028737145 0.11311429 0.64200002
-0.027514288 0.11311429 0.64200002
-0.02629143 0.11311429 0.64200002
-0.025068574 0.11311429 0.64200002
-0.023845715 0.11311429 0.64200002
-0.022622859 0.11311429 0.64200002
-0.021400001 0.11311429 0.64200002
-0.020177145 0.11311429 0.64200002
-0.019013334 0.11346667 0.64400005
-0.017814286 0.11364286 0.64500004
-0.016585715 0.11364286 0.64500004
-0.015333334 0.11346667 0.64400005
-0.014106668 0.11346667 0.64400005
-0.012880001 0.11346667 0.64400005
-0.011671429 0.11364286 0.64500004
-0.010426668 0.11346667 0.64400005
-0.0092000002 0.11346667 0.64400005
-0.0079733338 0.11346667 0.64400005
-0.006746667 0.11346667 0.64400005
-0.005528572 0.11364286 0.64500004
-0.0043000001 0.11364286 0.64500004
-0.0030714287 0.11364286 0.64500004
-0.0018428572 0.11364286 0.64500004
-0.00061428576 0.11364286 0.64500004
0.00061428576 0.11364286 0.64500004
0.0018428572 0.11364286 0.64500004
0.0030714287 0.11364286 0.64500004
0.0043000001 0.11364286 0.64500004
0.005528572 0.11364286 0.64500004
0.0067571434 0.11364286 0.64500004
0.0079857148 0.11364286 0.64500004
0.0092142867 0.11364286 0.64500004
0.010442858 0.11364286 0.64500004
0.011671429 0.11364286 0.64500004
0.0129 0.11364286 0.64500004
0.014128572 0.11364286 0.64500004
0.015357144 0.11364286 0.64500004
0.016585715 0.11364286 0.64500004
0.017814286 0.11364286 0.64500004
0.019042859 0.11364286 0.64500004
0.020302858 0.11381906 0.64600003
0.021533335 0.11381906 0.64600003
0.022763811 0.11381906 0.64600003
0.023957144 0.11364286 0.64500004
0.025185715 0.11364286 0.64500004
0.026414288 0.11364286 0.64500004
0.027642859 0.11364286 0.64500004
0.02887143 0.11364286 0.64500004
0.030146668 0.11381906 0.64600003
0.031377144 0.11381906 0.64600003
0.032607622 0.11381906 0.64600003
0.033838097 0.11381906 0.64600003
0.035068575 0.11381906 0.64600003
0.03629905 0.11381906 0.64600003
0.03758762 0.11399525 0.64700001
0.038820002 0.11399525 0.64700001
0.040052384 0.11399525 0.64700001
0.041284766 0.11399525 0.64700001
0.04271429 0.11452382 0.65000004
0.043952383 0.11452382 0.65000004
0.04519048 0.11452382 0.65000004
0.046428576 0.11452382 0.65000004
0.047666669 0.11452382 0.65000004
0.048904765 0.11452382 0.65000004
0.050142862 0.11452382 0.65000004
0.051460002 0.1147 0.65100002
0.052700002 0.1147 0.65100002
0.053940002 0.1147 0.65100002
0.055264767 0.1148762 0.65200001
0.056506671 0.1148762 0.65200001
0.057660002 0.1147 0.65100002
0.058900002 0.1147 0.65100002
0.060232386 0.1148762 0.65200001
0.06147429 0.1148762 0.65200001
0.062812388 0.11505239 0.65300006
0.063958101 0.1148762 0.65200001
0.065300003 0.11505239 0.65300006
0.066543818 0.11505239 0.65300006
0.067995243 0.11540477 0.65500003
0.069242865 0.11540477 0.65500003
0.070598103 0.11558096 0.65600002
0.071847625 0.11558096 0.65600002
0.073208578 0.11575715 0.65700001
0.074460007 0.11575715 0.65700001
0.075826675 0.11593334 0.65800005
0.077314287 0.11628572 0.66000003
0.078571431 0.11628572 0.66000003
0.079949528 0.11646191 0.66100001
0.081454292 0.11681429 0.66300005
0.08296667 0.11716668 0.66500002
0.084360003 0.11734287 0.66600001
0.085757151 0.11751906 0.66700006
0.087027624 0.11751906 0.66700006
0.088562861 0.11787143 0.66900003
0.089837149 0.11787143 0.66900003
0.091111436 0.11787143 0.66900003
0.092385717 0.11787143 0.66900003
-0.079120003 0.11469334 0.64400005
-0.077893339 0.11469334 0.64400005
-0.076666668 0.11469334 0.64400005
-0.075205721 0.11433715 0.64200002
-0.073982865 0.11433715 0.64200002
-0.072760008 0.11433715 0.64200002
-0.071537144 0.11433715 0.64200002
-0.070314288 0.11433715 0.64200002
-0.069306672 0.11469334 0.64400005
-0.068080008 0.11469334 0.64400005
-0.066853337 0.11469334 0.64400005
-0.065626673 0.11469334 0.64400005
-0.064400002 0.11469334 0.64400005
-0.063173339 0.11469334 0.64400005
-0.061946671 0.11469334 0.64400005
-0.060720004 0.11469334 0.64400005
-0.059493337 0.11469334 0.64400005
-0.05826667 0.11469334 0.64400005
-0.057040002 0.11469334 0.64400005
-0.055640005 0.11433715 0.64200002
-0.054417148 0.11433715 0.64200002
-0.053194288 0.11433715 0.64200002
-0.051971432 0.11433715 0.64200002
-0.050748575 0.11433715 0.64200002
-0.049525719 0.11433715 0.64200002
-0.048302859 0.11433715 0.64200002
-0.047080003 0.11433715 0.64200002
-0.045857146 0.11433715 0.64200002
-0.04463429 0.11433715 0.64200002
-0.04341143 0.11433715 0.64200002
-0.042188574 0.11433715 0.64200002
-0.040965717 0.11433715 0.64200002
-0.039742861 0.11433715 0.64200002
-0.038520001 0.11433715 0.64200002
-0.037239049 0.11415906 0.64100003
-0.036074288 0.11433715 0.64200002
-0.034851432 0.11433715 0.64200002
-0.033628572 0.11433715 0.64200002
-0.032405715 0.11433715 0.64200002
-0.031182859 0.11433715 0.64200002
-0.029960003 0.11433715 0.64200002
-0.028737145 0.11433715 0.64200002
-0.027514288 0.11433715 0.64200002
-0.02629143 0.11433715 0.64200002
-0.025068574 0.11433715 0.64200002
-0.023845715 0.11433715 0.64200002
-0.022622859 0.11433715 0.64200002
-0.021400001 0.11433715 0.64200002
-0.020177145 0.11433715 0.64200002
-0.019013334 0.11469334 0.64400005
-0.017814286 0.11487143 0.64500004
-0.016560001 0.11469334 0.64400005
-0.015333334 0.11469334 0.64400005
-0.014106668 0.11469334 0.64400005
-0.012880001 0.11469334 0.64400005
-0.011653334 0.11469334 0.64400005
-0.010426668 0.11469334 0.64400005
-0.0092000002 0.11469334 0.64400005
-0.0079733338 0.11469334 0.64400005
-0.006746667 0.11469334 0.64400005
-0.0055200006 0.11469334 0.64400005
-0.0043000001 0.11487143 0.64500004
-0.0030714287 0.11487143 0.64500004
-0.0018428572 0.11487143 0.64500004
-0.00061428576 0.11487143 0.64500004
0.00061428576 0.11487143 0.64500004
0.0018428572 0.11487143 0.64500004
0.0030714287 0.11487143 0.64500004
0.0043000001 0.11487143 0.64500004
0.005528572 0.11487143 0.64500004
0.0067571434 0.11487143 0.64500004
0.0079857148 0.11487143 0.64500004
0.0092142867 0.11487143 0.64500004
0.010442858 0.11487143 0.64500004
0.011671429 0.11487143 0.64500004
0.0129 0.11487143 0.64500004
0.014128572 0.11487143 0.64500004
0.015357144 0.11487143 0.64500004
0.016585715 0.11487143 0.64500004
0.017814286 0.11487143 0.64500004
0.019042859 0.11487143 0.64500004
0.02027143 0.11487143 0.64500004
0.021533335 0.11504953 0.64600003
0.022763811 0.11504953 0.64600003
0.023957144 0.11487143 0.64500004
0.025185715 0.11487143 0.64500004
0.026414288 0.11487143 0.64500004
0.027642859 0.11487143 0.64500004
0.02887143 0.11487143 0.64500004
0.030100003 0.11487143 0.64500004
0.031328574 0.11487143 0.64500004
0.032607622 0.11504953 0.64600003
0.033785716 0.11487143 0.64500004
0.035068575 0.11504953 0.64600003
0.03629905 0.11504953 0.64600003
0.037529524 0.11504953 0.64600003
0.038760003 0.11504953 0.64600003
0.039990477 0.11504953 0.64600003
0.041284766 0.11522762 0.64700001
0.042582858 0.11540572 0.648
0.043817144 0.11540572 0.648
0.045051433 0.11540572 0.648
0.046285719 0.11540572 0.648
0.047666669 0.11576191 0.65000004
