# .PCD v0.7 - Point Cloud Data file format
VERSION 0.7
FIELDS x y z
SIZE 4 4 4
TYPE F F F
COUNT 1 1 1
WIDTH 1364
HEIGHT 1
VIEWPOINT 0 0 0 1 0 0 0
POINTS 1364
DATA ascii
-0.086465716 0.029909525 0.57100004
-0.085378103 0.029909525 0.57100004
-0.084290482 0.029909525 0.57100004
-0.083202861 0.029909525 0.57100004
-0.08211524 0.029909525 0.57100004
-0.081027627 0.029909525 0.57100004
-0.080080003 0.029961906 0.57200003
-0.078990482 0.029961906 0.57200003
-0.07803715 0.030014288 0.57300001
-0.076945722 0.030014288 0.57300001
-0.075854294 0.030014288 0.57300001
-0.07489334 0.030066669 0.574
-0.073800005 0.030066669 0.574
-0.072833337 0.03011905 0.57500005
-0.071862862 0.03017143 0.57600003
-0.070520006 0.030066669 0.574
-0.069910482 0.030276192 0.57800001
-0.069047622 0.030380955 0.58000004
-0.068060003 0.030433334 0.58100003
-0.067068577 0.030485716 0.58200002
-0.065960005 0.030485716 0.58200002
-0.064962864 0.030538097 0.583
-0.063852385 0.030538097 0.583
-0.062849529 0.030590478 0.58400005
-0.061842863 0.03064286 0.58500004
-0.060936194 0.03074762 0.58700001
-0.0598181 0.03074762 0.58700001
-0.058900002 0.030852383 0.58900005
-0.057876196 0.030904764 0.59000003
-0.056848574 0.030957146 0.59100002
-0.055817146 0.031009525 0.59200001
-0.05487429 0.031114288 0.59400004
-0.05374286 0.031114288 0.59400004
-0.063334286 0.043004766 0.82100004
-0.06177048 0.043004766 0.82100004
-0.06020667 0.043004766 0.82100004
-0.088013336 0.031160003 0.574
-0.086768575 0.031105716 0.57300001
-0.085527621 0.031051431 0.57200003
-0.0844381 0.031051431 0.57200003
-0.083202861 0.030997144 0.57100004
-0.082402863 0.031105716 0.57300001
-0.081169531 0.031051431 0.57200003
-0.080080003 0.031051431 0.57200003
-0.079128578 0.031105716 0.57300001
-0.07803715 0.031105716 0.57300001
-0.076945722 0.031105716 0.57300001
-0.075854294 0.031105716 0.57300001
-0.07489334 0.031160003 0.574
-0.073800005 0.031160003 0.574
-0.072833337 0.031214288 0.57500005
-0.071613342 0.031160003 0.574
-0.070642859 0.031214288 0.57500005
-0.070031434 0.031431429 0.57900006
-0.069047622 0.031485718 0.58000004
-0.068177149 0.031594288 0.58200002
-0.067068577 0.031594288 0.58200002
-0.065960005 0.031594288 0.58200002
-0.064962864 0.031648573 0.583
-0.063852385 0.031648573 0.583
-0.062957145 0.031757146 0.58500004
-0.061948575 0.031811431 0.58600003
-0.060936194 0.031865716 0.58700001
-0.059920006 0.031920001 0.588
-0.058900002 0.03197429 0.58900005
-0.05797429 0.032082859 0.59100002
-0.056848574 0.032082859 0.59100002
-0.055911433 0.032191429 0.59300005
-0.05496667 0.032300003 0.59500003
-0.063334286 0.044568576 0.82100004
-0.06177048 0.044568576 0.82100004
-0.088166669 0.032309525 0.57500005
-0.086920008 0.032253336 0.574
-0.085826673 0.032253336 0.574
-0.084585719 0.032197144 0.57300001
-0.083494291 0.032197144 0.57300001
-0.082546674 0.032253336 0.574
-0.081311435 0.032197144 0.57300001
-0.080220006 0.032197144 0.57300001
-0.079266675 0.032253336 0.574
-0.078173339 0.032253336 0.574
-0.077080004 0.032253336 0.574
-0.075986668 0.032253336 0.574
-0.07489334 0.032253336 0.574
-0.073800005 0.032253336 0.574
-0.07270667 0.032253336 0.574
-0.071613342 0.032253336 0.574
-0.070642859 0.032309525 0.57500005
-0.070031434 0.032534286 0.57900006
-0.069047622 0.032590479 0.58000004
-0.068060003 0.032646667 0.58100003
-0.067068577 0.032702859 0.58200002
-0.065960005 0.032702859 0.58200002
-0.064962864 0.032759048 0.583
-0.063852385 0.032759048 0.583
-0.062957145 0.032871429 0.58500004
-0.061948575 0.032927621 0.58600003
-0.060936194 0.032983813 0.58700001
-0.059920006 0.033040002 0.588
-0.058900002 0.033096194 0.58900005
-0.05797429 0.033208575 0.59100002
-0.056944765 0.033264764 0.59200001
-0.088320009 0.03346286 0.57600003
-0.087071434 0.033404764 0.57500005
-0.085976198 0.033404764 0.57500005
-0.084733337 0.033346668 0.574
-0.08378572 0.033404764 0.57500005
-0.082546674 0.033346668 0.574
-0.081453338 0.033346668 0.574
-0.080360003 0.033346668 0.574
-0.079266675 0.033346668 0.574
-0.078173339 0.033346668 0.574
-0.077080004 0.033346668 0.574
-0.075986668 0.033346668 0.574
-0.07489334 0.033346668 0.574
-0.073800005 0.033346668 0.574
-0.07270667 0.033346668 0.574
-0.071738102 0.033404764 0.57500005
-0.070642859 0.033404764 0.57500005
-0.070031434 0.033637144 0.57900006
-0.069166668 0.033753335 0.58100003
-0.068177149 0.033811431 0.58200002
-0.067068577 0.033811431 0.58200002
-0.066073336 0.033869527 0.583
-0.064962864 0.033869527 0.583
-0.063961908 0.033927619 0.58400005
-0.063064769 0.034043811 0.58600003
-0.061948575 0.034043811 0.58600003
-0.060936194 0.034101907 0.58700001
-0.059920006 0.034160003 0.588
-0.058900002 0.034218099 0.58900005
-0.058072384 0.034392383 0.59200001
-0.089572385 0.034620002 0.57700002
-0.088473342 0.034620002 0.57700002
-0.087222859 0.034560002 0.57600003
-0.086125717 0.034560002 0.57600003
-0.084880956 0.034500003 0.57500005
-0.08378572 0.034500003 0.57500005
-0.082690485 0.034500003 0.57500005
-0.081595242 0.034500003 0.57500005
-0.080360003 0.034440003 0.574
-0.079404764 0.034500003 0.57500005
-0.078309529 0.034500003 0.57500005
-0.077214293 0.034500003 0.57500005
-0.07611905 0.034500003 0.57500005
-0.075023815 0.034500003 0.57500005
-0.07392858 0.034500003 0.57500005
-0.072833337 0.034500003 0.57500005
-0.071987621 0.034620002 0.57700002
-0.071011432 0.034680001 0.57800001
-0.070031434 0.034740001 0.57900006
-0.069166668 0.034860004 0.58100003
-0.068060003 0.034860004 0.58100003
-0.067068577 0.034920003 0.58200002
-0.065960005 0.034920003 0.58200002
-0.064962864 0.034980003 0.583
-0.063961908 0.035040002 0.58400005
-0.062957145 0.035100002 0.58500004
-0.061948575 0.035160001 0.58600003
-0.060936194 0.035220001 0.58700001
-0.059920006 0.035280004 0.588
-0.089727625 0.035780955 0.57800001
-0.088626675 0.035780955 0.57800001
-0.087374292 0.035719048 0.57700002
-0.086275242 0.035719048 0.57700002
-0.085028574 0.035657145 0.57600003
-0.08378572 0.035595242 0.57500005
-0.082690485 0.035595242 0.57500005
-0.081595242 0.035595242 0.57500005
-0.080500007 0.035595242 0.57500005
-0.079404764 0.035595242 0.57500005
-0.078309529 0.035595242 0.57500005
-0.077214293 0.035595242 0.57500005
-0.07611905 0.035595242 0.57500005
-0.075023815 0.035595242 0.57500005
-0.07392858 0.035595242 0.57500005
-0.072960004 0.035657145 0.57600003
-0.072112389 0.035780955 0.57800001
-0.071134292 0.035842858 0.57900006
-0.070152387 0.035904765 0.58000004
-0.069166668 0.035966668 0.58100003
-0.068177149 0.036028575 0.58200002
-0.067068577 0.036028575 0.58200002
-0.066073336 0.036090478 0.583
-0.064962864 0.036090478 0.583
-0.063852385 0.036090478 0.583
-0.062957145 0.036214288 0.58500004
-0.061948575 0.036276191 0.58600003
-0.060936194 0.036338098 0.58700001
-0.059920006 0.036400001 0.588
-0.089727625 0.036881909 0.57800001
-0.088626675 0.036881909 0.57800001
-0.087525718 0.036881909 0.57800001
-0.086275242 0.036818098 0.57700002
-0.0851762 0.036818098 0.57700002
-0.08407715 0.036818098 0.57700002
-0.082834288 0.036754288 0.57600003
-0.081737146 0.036754288 0.57600003
-0.080500007 0.036690477 0.57500005
-0.079404764 0.036690477 0.57500005
-0.078445718 0.036754288 0.57600003
-0.077348575 0.036754288 0.57600003
-0.07611905 0.036690477 0.57500005
-0.07515429 0.036754288 0.57600003
-0.074185722 0.036818098 0.57700002
-0.073086672 0.036818098 0.57700002
-0.072112389 0.036881909 0.57800001
-0.071134292 0.036945716 0.57900006
-0.07027334 0.037073337 0.58100003
-0.069166668 0.037073337 0.58100003
-0.068177149 0.037137147 0.58200002
-0.067068577 0.037137147 0.58200002
-0.066073336 0.037200954 0.583
-0.064962864 0.037200954 0.583
-0.063852385 0.037200954 0.583
-0.062849529 0.037264764 0.58400005
-0.061948575 0.037392382 0.58600003
-0.060832385 0.037392382 0.58600003
-0.089727625 0.037982859 0.57800001
-0.088626675 0.037982859 0.57800001
-0.087525718 0.037982859 0.57800001
-0.086424768 0.037982859 0.57800001
-0.0851762 0.037917145 0.57700002
-0.08407715 0.037917145 0.57700002
-0.0829781 0.037917145 0.57700002
-0.08187905 0.037917145 0.57700002
-0.080640003 0.03785143 0.57600003
-0.07954286 0.03785143 0.57600003
-0.078581907 0.037917145 0.57700002
-0.077348575 0.03785143 0.57600003
-0.076251432 0.03785143 0.57600003
-0.07515429 0.03785143 0.57600003
-0.074185722 0.037917145 0.57700002
-0.073213339 0.037982859 0.57800001
-0.072237149 0.038048573 0.57900006
-0.071257144 0.038114287 0.58000004
-0.07027334 0.038180001 0.58100003
-0.069285721 0.038245715 0.58200002
-0.068177149 0.038245715 0.58200002
-0.067068577 0.038245715 0.58200002
-0.066073336 0.038311429 0.583
-0.064962864 0.038311429 0.583
-0.063852385 0.038311429 0.583
-0.062849529 0.038377147 0.58400005
-0.061948575 0.038508575 0.58600003
-0.088626675 0.039083812 0.57800001
-0.087525718 0.039083812 0.57800001
-0.086424768 0.039083812 0.57800001
-0.0851762 0.039016195 0.57700002
-0.084222861 0.039083812 0.57800001
-0.0829781 0.039016195 0.57700002
-0.08187905 0.039016195 0.57700002
-0.080640003 0.038948573 0.57600003
-0.079680957 0.039016195 0.57700002
-0.078581907 0.039016195 0.57700002
-0.077482864 0.039016195 0.57700002
-0.076383814 0.039016195 0.57700002
-0.075284764 0.039016195 0.57700002
-0.074314289 0.039083812 0.57800001
-0.073213339 0.039083812 0.57800001
-0.072237149 0.03915143 0.57900006
-0.071257144 0.039219052 0.58000004
-0.07027334 0.039286669 0.58100003
-0.069285721 0.039354287 0.58200002
-0.068177149 0.039354287 0.58200002
-0.067068577 0.039354287 0.58200002
-0.066073336 0.039421909 0.583
-0.064962864 0.039421909 0.583
-0.063852385 0.039421909 0.583
-0.062849529 0.039489526 0.58400005
-0.061842863 0.039557144 0.58500004
-0.088626675 0.040184766 0.57800001
-0.087525718 0.040184766 0.57800001
-0.086424768 0.040184766 0.57800001
-0.085323818 0.040184766 0.57800001
-0.084222861 0.040184766 0.57800001
-0.083121911 0.040184766 0.57800001
-0.08187905 0.040115241 0.57700002
-0.080780007 0.040115241 0.57700002
-0.079680957 0.040115241 0.57700002
-0.078581907 0.040115241 0.57700002
-0.077482864 0.040115241 0.57700002
-0.076383814 0.040115241 0.57700002
-0.075284764 0.040115241 0.57700002
-0.074314289 0.040184766 0.57800001
-0.073213339 0.040184766 0.57800001
-0.072237149 0.040254287 0.57900006
-0.071134292 0.040254287 0.57900006
-0.070152387 0.040323813 0.58000004
-0.069166668 0.040393338 0.58100003
-0.068060003 0.040393338 0.58100003
-0.067068577 0.040462859 0.58200002
-0.066073336 0.040532384 0.583
-0.065074287 0.040601909 0.58400005
-0.063852385 0.040532384 0.583
-0.062849529 0.040601909 0.58400005
-0.061842863 0.040671431 0.58500004
-0.087980002 0.041500002 0.58100003
-0.086723812 0.041428573 0.58000004
-0.085471436 0.041357145 0.57900006
-0.084368579 0.041357145 0.57900006
-0.083265722 0.041357145 0.57900006
-0.082020961 0.041285716 0.57800001
-0.080920003 0.041285716 0.57800001
-0.079819053 0.041285716 0.57800001
-0.078718103 0.041285716 0.57800001
-0.077617146 0.041285716 0.57800001
-0.076516196 0.041285716 0.57800001
-0.075415246 0.041285716 0.57800001
-0.074442863 0.041357145 0.57900006
-0.073340006 0.041357145 0.57900006
-0.072237149 0.041357145 0.57900006
-0.071257144 0.041428573 0.58000004
-0.07027334 0.041500002 0.58100003
-0.069285721 0.041571431 0.58200002
-0.068177149 0.041571431 0.58200002
-0.067068577 0.041571431 0.58200002
-0.066073336 0.04164286 0.583
-0.065074287 0.041714288 0.58400005
-0.063961908 0.041714288 0.58400005
-0.087980002 0.04260667 0.58100003
-0.086873338 0.04260667 0.58100003
-0.085766673 0.04260667 0.58100003
-0.08451429 0.042533334 0.58000004
-0.083265722 0.042460002 0.57900006
-0.082162865 0.042460002 0.57900006
-0.081060007 0.042460002 0.57900006
-0.07995715 0.042460002 0.57900006
-0.078718103 0.04238667 0.57800001
-0.077751435 0.042460002 0.57900006
-0.076516196 0.04238667 0.57800001
-0.075415246 0.04238667 0.57800001
-0.074442863 0.042460002 0.57900006
-0.073340006 0.042460002 0.57900006
-0.072237149 0.042460002 0.57900006
-0.071257144 0.042533334 0.58000004
-0.07027334 0.04260667 0.58100003
-0.069285721 0.042680003 0.58200002
-0.068294287 0.042753335 0.583
-0.067183815 0.042753335 0.583
-0.066300005 0.042900003 0.58500004
-0.065297149 0.042973336 0.58600003
-0.064071432 0.042900003 0.58500004
-0.088131435 0.043788575 0.58200002
-0.087022863 0.043788575 0.58200002
-0.085766673 0.043713335 0.58100003
-0.084660009 0.043713335 0.58100003
-0.083409533 0.043638099 0.58000004
-0.082162865 0.043562859 0.57900006
-0.081060007 0.043562859 0.57900006
-0.07995715 0.043562859 0.57900006
-0.078854293 0.043562859 0.57900006
-0.077751435 0.043562859 0.57900006
-0.076648578 0.043562859 0.57900006
-0.075545721 0.043562859 0.57900006
-0.074571431 0.043638099 0.58000004
-0.073466673 0.043638099 0.58000004
-0.072237149 0.043562859 0.57900006
-0.071257144 0.043638099 0.58000004
-0.070394292 0.043788575 0.58200002
-0.069404766 0.043863811 0.583
-0.068294287 0.043863811 0.583
-0.067299053 0.04393905 0.58400005
-0.066300005 0.04401429 0.58500004
-0.065297149 0.044089526 0.58600003
-0.064180955 0.044089526 0.58600003
-0.088131435 0.044897147 0.58200002
-0.087022863 0.044897147 0.58200002
-0.085914291 0.044897147 0.58200002
-0.08480572 0.044897147 0.58200002
-0.083409533 0.04474286 0.58000004
-0.082304768 0.04474286 0.58000004
-0.081200004 0.04474286 0.58000004
-0.07995715 0.044665717 0.57900006
-0.078854293 0.044665717 0.57900006
-0.077751435 0.044665717 0.57900006
-0.076648578 0.044665717 0.57900006
-0.075545721 0.044665717 0.57900006
-0.074571431 0.04474286 0.58000004
-0.073466673 0.04474286 0.58000004
-0.072361909 0.04474286 0.58000004
-0.071257144 0.04474286 0.58000004
-0.070394292 0.044897147 0.58200002
-0.069523811 0.045051433 0.58400005
-0.068411432 0.045051433 0.58400005
-0.067414291 0.045128573 0.58500004
-0.066413336 0.045205716 0.58600003
-0.065408573 0.045282859 0.58700001
-0.064180955 0.045205716 0.58600003
-0.058366671 0.045900002 0.59500003
-0.057329528 0.045977145 0.59600002
-0.056194291 0.045977145 0.59600002
-0.055059053 0.045977145 0.59600002
-0.088282861 0.046084765 0.583
-0.087022863 0.046005718 0.58200002
-0.085914291 0.046005718 0.58200002
-0.08480572 0.046005718 0.58200002
-0.083553337 0.045926671 0.58100003
-0.082304768 0.045847621 0.58000004
-0.081200004 0.045847621 0.58000004
-0.080095246 0.045847621 0.58000004
-0.078990482 0.045847621 0.58000004
-0.077885717 0.045847621 0.58000004
-0.076648578 0.045768574 0.57900006
-0.075676195 0.045847621 0.58000004
-0.074700005 0.045926671 0.58100003
-0.073593341 0.045926671 0.58100003
-0.072361909 0.045847621 0.58000004
-0.071380004 0.045926671 0.58100003
-0.07027334 0.045926671 0.58100003
-0.069523811 0.046163812 0.58400005
-0.068411432 0.046163812 0.58400005
-0.067529529 0.046321906 0.58600003
-0.066526674 0.046400957 0.58700001
-0.065408573 0.046400957 0.58700001
-0.064180955 0.046321906 0.58600003
-0.058464766 0.047112383 0.59600002
-0.057329528 0.047112383 0.59600002
-0.056194291 0.047112383 0.59600002
-0.055336192 0.047349527 0.59900004
-0.054285716 0.047428574 0.60000002
-0.053231433 0.047507621 0.60100001
-0.052173335 0.047586668 0.60200006
-0.051111434 0.047665719 0.60300004
-0.04996286 0.047665719 0.60300004
-0.088282861 0.047195241 0.583
-0.087172389 0.047195241 0.583
-0.08606191 0.047195241 0.583
-0.084951431 0.047195241 0.583
-0.083697148 0.04711429 0.58200002
-0.082446672 0.047033336 0.58100003
-0.081340007 0.047033336 0.58100003
-0.080233335 0.047033336 0.58100003
-0.078990482 0.046952385 0.58000004
-0.078020006 0.047033336 0.58100003
-0.07678096 0.046952385 0.58000004
-0.07580667 0.047033336 0.58100003
-0.07482858 0.04711429 0.58200002
-0.073720008 0.04711429 0.58200002
-0.072486669 0.047033336 0.58100003
-0.071380004 0.047033336 0.58100003
-0.070515245 0.047195241 0.583
-0.069523811 0.047276195 0.58400005
-0.068411432 0.047276195 0.58400005
-0.067529529 0.0474381 0.58600003
-0.066526674 0.047519051 0.58700001
-0.065520003 0.047600005 0.588
-0.064290479 0.047519051 0.58700001
-0.061559051 0.048004765 0.59300005
-0.060429528 0.048004765 0.59300005
-0.059500005 0.04816667 0.59500003
-0.058366671 0.04816667 0.59500003
-0.057233337 0.04816667 0.59500003
-0.056194291 0.04824762 0.59600002
-0.055428576 0.04857143 0.60000002
-0.054376192 0.048652384 0.60100001
-0.053320002 0.048733335 0.60200006
-0.052260004 0.048814289 0.60300004
-0.051111434 0.048814289 0.60300004
-0.04996286 0.048814289 0.60300004
-0.088282861 0.048305716 0.583
-0.087172389 0.048305716 0.583
-0.08606191 0.048305716 0.583
-0.084951431 0.048305716 0.583
-0.083697148 0.048222858 0.58200002
-0.082446672 0.048140004 0.58100003
-0.081340007 0.048140004 0.58100003
-0.080233335 0.048140004 0.58100003
-0.079126671 0.048140004 0.58100003
-0.078020006 0.048140004 0.58100003
-0.076913342 0.048140004 0.58100003
-0.075937144 0.048222858 0.58200002
-0.07482858 0.048222858 0.58200002
-0.073720008 0.048222858 0.58200002
-0.072611436 0.048222858 0.58200002
-0.071502864 0.048222858 0.58200002
-0.070515245 0.048305716 0.583
-0.069642864 0.048471432 0.58500004
-0.068645716 0.04855429 0.58600003
-0.067529529 0.04855429 0.58600003
-0.066526674 0.048637144 0.58700001
-0.065520003 0.048720002 0.588
-0.064290479 0.048637144 0.58700001
-0.062900007 0.049300004 0.59500003
-0.061766669 0.049300004 0.59500003
-0.060633339 0.049300004 0.59500003
-0.059500005 0.049300004 0.59500003
-0.058366671 0.049300004 0.59500003
-0.057233337 0.049300004 0.59500003
-0.056477148 0.049631432 0.59900004
-0.055520955 0.049797148 0.60100001
-0.054466669 0.049880002 0.60200006
-0.053408574 0.04996286 0.60300004
-0.052260004 0.04996286 0.60300004
-0.051111434 0.04996286 0.60300004
-0.04996286 0.04996286 0.60300004
-0.087172389 0.049416192 0.583
-0.08606191 0.049416192 0.583
-0.084951431 0.049416192 0.583
-0.083840959 0.049416192 0.583
-0.082588576 0.04933143 0.58200002
-0.081480004 0.04933143 0.58200002
-0.080371432 0.04933143 0.58200002
-0.07926286 0.04933143 0.58200002
-0.078154288 0.04933143 0.58200002
-0.077045716 0.04933143 0.58200002
-0.075937144 0.04933143 0.58200002
-0.074957147 0.049416192 0.583
-0.073846668 0.049416192 0.583
-0.072611436 0.04933143 0.58200002
-0.071625717 0.049416192 0.583
-0.070636198 0.049500957 0.58400005
-0.069642864 0.049585719 0.58500004
-0.068645716 0.04967048 0.58600003
-0.067529529 0.04967048 0.58600003
-0.066526674 0.049755242 0.58700001
-0.065520003 0.049840003 0.588
-0.064290479 0.049755242 0.58700001
-0.062900007 0.050433338 0.59500003
-0.061766669 0.050433338 0.59500003
-0.060633339 0.050433338 0.59500003
-0.059600003 0.050518099 0.59600002
-0.058366671 0.050433338 0.59500003
-0.057521909 0.050687622 0.59800005
-0.056477148 0.050772384 0.59900004
-0.055520955 0.050941907 0.60100001
-0.054466669 0.051026668 0.60200006
-0.053408574 0.051111434 0.60300004
-0.052260004 0.051111434 0.60300004
-0.051111434 0.051111434 0.60300004
-0.050045718 0.051196195 0.60400003
-0.08606191 0.050526671 0.583
-0.084951431 0.050526671 0.583
-0.083840959 0.050526671 0.583
-0.08273048 0.050526671 0.583
-0.081620008 0.050526671 0.583
-0.080509529 0.050526671 0.583
-0.07926286 0.050440002 0.58200002
-0.078154288 0.050440002 0.58200002
-0.077045716 0.050440002 0.58200002
-0.076067626 0.050526671 0.583
-0.074957147 0.050526671 0.583
-0.073846668 0.050526671 0.583
-0.072736196 0.050526671 0.583
-0.071625717 0.050526671 0.583
-0.070757151 0.050700005 0.58500004
-0.06976191 0.05078667 0.58600003
-0.068645716 0.05078667 0.58600003
-0.067644767 0.050873335 0.58700001
-0.066526674 0.050873335 0.58700001
-0.065408573 0.050873335 0.58700001
-0.064838096 0.051306669 0.59200001
-0.063818097 0.051393338 0.59300005
-0.062688574 0.051393338 0.59300005
-0.061766669 0.051566672 0.59500003
-0.060633339 0.051566672 0.59500003
-0.059600003 0.051653337 0.59600002
-0.05856286 0.051740002 0.597
-0.057521909 0.051826671 0.59800005
-0.056477148 0.051913336 0.59900004
-0.055428576 0.052000005 0.60000002
-0.054466669 0.052173335 0.60200006
-0.053408574 0.052260004 0.60300004
-0.052260004 0.052260004 0.60300004
-0.051196195 0.052346669 0.60400003
-0.050045718 0.052346669 0.60400003
0.14087334 0.068553336 0.79100001
0.14238001 0.068553336 0.79100001
0.14388667 0.068553336 0.79100001
0.14690001 0.068553336 0.79100001
-0.087321907 0.051725719 0.58400005
-0.086209528 0.051725719 0.58400005
-0.08524286 0.051814288 0.58500004
-0.08398477 0.051725719 0.58400005
-0.082872383 0.051725719 0.58400005
-0.081620008 0.051637147 0.583
-0.080509529 0.051637147 0.583
-0.079399049 0.051637147 0.583
-0.078288577 0.051637147 0.583
-0.077178098 0.051637147 0.583
-0.076067626 0.051637147 0.583
-0.074957147 0.051637147 0.583
-0.073973335 0.051725719 0.58400005
-0.072736196 0.051637147 0.583
-0.071748577 0.051725719 0.58400005
-0.070757151 0.051814288 0.58500004
-0.069642864 0.051814288 0.58500004
-0.068645716 0.05190286 0.58600003
-0.067529529 0.05190286 0.58600003
-0.066413336 0.05190286 0.58600003
-0.064838096 0.052434288 0.59200001
-0.063710481 0.052434288 0.59200001
-0.062688574 0.05252286 0.59300005
-0.06166286 0.052611433 0.59400004
-0.060633339 0.052700002 0.59500003
-0.059600003 0.052788574 0.59600002
-0.058464766 0.052788574 0.59600002
-0.057521909 0.052965719 0.59800005
-0.056477148 0.053054288 0.59900004
-0.055428576 0.053142861 0.60000002
-0.054466669 0.053320002 0.60200006
-0.053408574 0.053408574 0.60300004
-0.052260004 0.053408574 0.60300004
-0.051111434 0.053408574 0.60300004
-0.086357147 0.052928574 0.58500004
-0.085388578 0.053019051 0.58600003
-0.084272385 0.053019051 0.58600003
-0.083014295 0.052928574 0.58500004
-0.081900008 0.052928574 0.58500004
-0.080785722 0.052928574 0.58500004
-0.079535246 0.052838098 0.58400005
-0.078288577 0.052747622 0.583
-0.077178098 0.052747622 0.583
-0.076067626 0.052747622 0.583
-0.075085722 0.052838098 0.58400005
-0.074100003 0.052928574 0.58500004
-0.072985716 0.052928574 0.58500004
-0.07187143 0.052928574 0.58500004
-0.070878103 0.053019051 0.58600003
-0.06976191 0.053019051 0.58600003
-0.068762861 0.053109527 0.58700001
-0.067644767 0.053109527 0.58700001
-0.066640005 0.053200003 0.588
-0.065854289 0.053471431 0.59100002
-0.065057144 0.05374286 0.59400004
-0.063925721 0.05374286 0.59400004
-0.062900007 0.053833336 0.59500003
-0.061766669 0.053833336 0.59500003
-0.060735241 0.053923812 0.59600002
-0.059600003 0.053923812 0.59600002
-0.05856286 0.054014288 0.597
-0.057521909 0.054104764 0.59800005
-0.056477148 0.05419524 0.59900004
-0.055428576 0.054285716 0.60000002
-0.054466669 0.054466669 0.60200006
-0.053408574 0.054557145 0.60300004
-0.052260004 0.054557145 0.60300004
-0.051196195 0.054647624 0.60400003
-0.086504765 0.054135241 0.58600003
-0.085388578 0.054135241 0.58600003
-0.084272385 0.054135241 0.58600003
-0.083156198 0.054135241 0.58600003
-0.081900008 0.054042861 0.58500004
-0.080785722 0.054042861 0.58500004
-0.079535246 0.053950481 0.58400005
-0.078288577 0.053858098 0.583
-0.077178098 0.053858098 0.583
-0.076067626 0.053858098 0.583
-0.075085722 0.053950481 0.58400005
-0.074100003 0.054042861 0.58500004
-0.072985716 0.054042861 0.58500004
-0.07199429 0.054135241 0.58600003
-0.070878103 0.054135241 0.58600003
-0.069880955 0.054227624 0.58700001
-0.068762861 0.054227624 0.58700001
-0.067760006 0.054320004 0.588
-0.066640005 0.054320004 0.588
-0.065854289 0.054597147 0.59100002
-0.064728573 0.054597147 0.59100002
-0.063925721 0.05487429 0.59400004
-0.062900007 0.05496667 0.59500003
-0.061766669 0.05496667 0.59500003
-0.060633339 0.05496667 0.59500003
-0.059600003 0.055059053 0.59600002
-0.05856286 0.055151433 0.597
-0.057521909 0.055243813 0.59800005
-0.056477148 0.055336192 0.59900004
-0.055428576 0.055428576 0.60000002
-0.054376192 0.055520955 0.60100001
-0.053408574 0.055705719 0.60300004
-0.052260004 0.055705719 0.60300004
-0.051196195 0.055798098 0.60400003
-0.086504765 0.055251431 0.58600003
-0.085534289 0.055345718 0.58700001
-0.084416196 0.055345718 0.58700001
-0.083156198 0.055251431 0.58600003
-0.082040004 0.055251431 0.58600003
-0.080785722 0.055157147 0.58500004
-0.079671435 0.055157147 0.58500004
-0.078422859 0.05506286 0.58400005
-0.07731048 0.05506286 0.58400005
-0.076198101 0.05506286 0.58400005
-0.075085722 0.05506286 0.58400005
-0.074100003 0.055157147 0.58500004
-0.073110484 0.055251431 0.58600003
-0.07199429 0.055251431 0.58600003
-0.070999049 0.055345718 0.58700001
-0.069880955 0.055345718 0.58700001
-0.068762861 0.055345718 0.58700001
-0.067760006 0.055440005 0.588
-0.066753335 0.055534288 0.58900005
-0.065854289 0.055722862 0.59100002
-0.064838096 0.055817146 0.59200001
-0.063925721 0.056005716 0.59400004
-0.06279429 0.056005716 0.59400004
-0.06166286 0.056005716 0.59400004
-0.060633339 0.056100003 0.59500003
-0.059600003 0.056194291 0.59600002
-0.05856286 0.056288574 0.597
-0.057521909 0.056382861 0.59800005
-0.056477148 0.056477148 0.59900004
-0.055428576 0.056571431 0.60000002
-0.054376192 0.056665719 0.60100001
-0.053408574 0.056854289 0.60300004
-0.052260004 0.056854289 0.60300004
-0.051196195 0.056948576 0.60400003
-0.086652383 0.056463812 0.58700001
-0.085534289 0.056463812 0.58700001
-0.084416196 0.056463812 0.58700001
-0.083298102 0.056463812 0.58700001
-0.082040004 0.056367625 0.58600003
-0.080923818 0.056367625 0.58600003
-0.079671435 0.056271434 0.58500004
-0.078557149 0.056271434 0.58500004
-0.077442862 0.056271434 0.58500004
-0.076328576 0.056271434 0.58500004
-0.075214289 0.056271434 0.58500004
-0.07422667 0.056367625 0.58600003
-0.073110484 0.056367625 0.58600003
-0.07211715 0.056463812 0.58700001
-0.070999049 0.056463812 0.58700001
-0.069880955 0.056463812 0.58700001
-0.068762861 0.056463812 0.58700001
-0.067760006 0.056560002 0.588
-0.066866674 0.056752384 0.59000003
-0.065854289 0.056848574 0.59100002
-0.06494762 0.057040956 0.59300005
-0.063925721 0.057137147 0.59400004
-0.06279429 0.057137147 0.59400004
-0.06166286 0.057137147 0.59400004
-0.060633339 0.057233337 0.59500003
-0.059600003 0.057329528 0.59600002
-0.05856286 0.057425719 0.597
-0.057521909 0.057521909 0.59800005
-0.056477148 0.0576181 0.59900004
-0.055336192 0.0576181 0.59900004
-0.054376192 0.057810482 0.60100001
-0.053408574 0.058002859 0.60300004
-0.052346669 0.05809905 0.60400003
-0.051280957 0.058195241 0.60500002
-0.050211433 0.058291432 0.60600001
-0.086652383 0.057581909 0.58700001
-0.085680008 0.057680003 0.588
-0.084560007 0.057680003 0.588
-0.083298102 0.057581909 0.58700001
-0.082180008 0.057581909 0.58700001
-0.080923818 0.057483815 0.58600003
-0.079807624 0.057483815 0.58600003
-0.07869143 0.057483815 0.58600003
-0.077575244 0.057483815 0.58600003
-0.07645905 0.057483815 0.58600003
-0.075342864 0.057483815 0.58600003
-0.07422667 0.057483815 0.58600003
-0.073235244 0.057581909 0.58700001
-0.07211715 0.057581909 0.58700001
-0.070999049 0.057581909 0.58700001
-0.069880955 0.057581909 0.58700001
-0.068762861 0.057581909 0.58700001
-0.067760006 0.057680003 0.588
-0.066753335 0.057778098 0.58900005
-0.065854289 0.05797429 0.59100002
-0.064838096 0.058072384 0.59200001
-0.063925721 0.058268577 0.59400004
-0.062900007 0.058366671 0.59500003
-0.061766669 0.058366671 0.59500003
-0.060735241 0.058464766 0.59600002
-0.059700005 0.05856286 0.597
-0.058660958 0.058660958 0.59800005
-0.057521909 0.058660958 0.59800005
-0.056477148 0.058759052 0.59900004
-0.055428576 0.058857147 0.60000002
-0.054376192 0.058955241 0.60100001
-0.053408574 0.059151433 0.60300004
-0.052346669 0.059249528 0.60400003
-0.051280957 0.059347622 0.60500002
-0.050211433 0.059445716 0.60600001
-0.086800009 0.058800004 0.588
-0.085680008 0.058800004 0.588
-0.084560007 0.058800004 0.588
-0.083440006 0.058800004 0.588
-0.082320005 0.058800004 0.588
-0.081061907 0.058700003 0.58700001
-0.079943813 0.058700003 0.58700001
-0.07869143 0.058600005 0.58600003
-0.077575244 0.058600005 0.58600003
-0.07645905 0.058600005 0.58600003
-0.075342864 0.058600005 0.58600003
-0.074353337 0.058700003 0.58700001
-0.073235244 0.058700003 0.58700001
-0.07211715 0.058700003 0.58700001
-0.070999049 0.058700003 0.58700001
-0.069880955 0.058700003 0.58700001
-0.068762861 0.058700003 0.58700001
-0.067760006 0.058800004 0.588
-0.066640005 0.058800004 0.588
-0.065742858 0.059000004 0.59000003
-0.064838096 0.059200004 0.59200001
-0.063925721 0.059400003 0.59400004
-0.062900007 0.059500005 0.59500003
-0.061766669 0.059500005 0.59500003
-0.060837146 0.059700005 0.597
-0.059700005 0.059700005 0.597
-0.058660958 0.059800003 0.59800005
-0.0576181 0.059900004 0.59900004
-0.056571431 0.060000002 0.60000002
-0.055520955 0.060100004 0.60100001
-0.054466669 0.060200006 0.60200006
-0.053497147 0.060400005 0.60400003
-0.052433338 0.060500003 0.60500002
-0.051280957 0.060500003 0.60500002
-0.050211433 0.060600005 0.60600001
-0.087095246 0.060123812 0.59000003
-0.085825719 0.060021907 0.58900005
-0.084703818 0.060021907 0.58900005
-0.083440006 0.059920006 0.588
-0.082320005 0.059920006 0.588
-0.081061907 0.0598181 0.58700001
-0.079943813 0.0598181 0.58700001
-0.07882572 0.0598181 0.58700001
-0.077575244 0.059716195 0.58600003
-0.07645905 0.059716195 0.58600003
-0.075471431 0.0598181 0.58700001
-0.074353337 0.0598181 0.58700001
-0.073235244 0.0598181 0.58700001
-0.072240002 0.059920006 0.588
-0.071120001 0.059920006 0.588
-0.069880955 0.0598181 0.58700001
-0.068762861 0.0598181 0.58700001
-0.067644767 0.0598181 0.58700001
-0.066640005 0.059920006 0.588
-0.065742858 0.060123812 0.59000003
-0.064838096 0.060327623 0.59200001
-0.063925721 0.060531434 0.59400004
-0.062900007 0.060633339 0.59500003
-0.061870482 0.060735241 0.59600002
-0.060837146 0.060837146 0.597
-0.059700005 0.060837146 0.597
-0.058660958 0.060939051 0.59800005
-0.0576181 0.061040957 0.59900004
-0.056571431 0.061142862 0.60000002
-0.055520955 0.061244767 0.60100001
-0.054557145 0.061448574 0.60300004
-0.053585719 0.061652385 0.60500002
-0.052520003 0.06175429 0.60600001
-0.051365718 0.06175429 0.60600001
-0.050294288 0.061856195 0.60700005
-0.087242864 0.061351433 0.59100002
-0.085971437 0.061247624 0.59000003
-0.084847622 0.061247624 0.59000003
-0.083723813 0.061247624 0.59000003
-0.082600005 0.061247624 0.59000003
-0.0813381 0.061143812 0.58900005
-0.080080003 0.061040003 0.588
-0.078960001 0.061040003 0.588
-0.077707626 0.060936194 0.58700001
-0.076589532 0.060936194 0.58700001
-0.075600006 0.061040003 0.588
-0.074606672 0.061143812 0.58900005
-0.073484764 0.061143812 0.58900005
-0.072240002 0.061040003 0.588
-0.071120001 0.061040003 0.588
-0.069880955 0.060936194 0.58700001
-0.068880007 0.061040003 0.588
-0.067644767 0.060936194 0.58700001
-0.066640005 0.061040003 0.588
-0.065742858 0.061247624 0.59000003
-0.064838096 0.061455242 0.59200001
-0.063925721 0.06166286 0.59400004
-0.062900007 0.061766669 0.59500003
-0.061870482 0.061870482 0.59600002
-0.060837146 0.061974291 0.597
-0.059700005 0.061974291 0.597
-0.058660958 0.0620781 0.59800005
-0.0576181 0.062181909 0.59900004
-0.056571431 0.062285718 0.60000002
-0.055520955 0.062389527 0.60100001
-0.054557145 0.062597148 0.60300004
-0.053585719 0.062804766 0.60500002
-0.052520003 0.062908575 0.60600001
-0.05145048 0.063012384 0.60700005
-0.050294288 0.063012384 0.60700005
-0.087242864 0.062477145 0.59100002
-0.086117148 0.062477145 0.59100002
-0.084991433 0.062477145 0.59100002
-0.083865717 0.062477145 0.59100002
-0.082600005 0.062371433 0.59000003
-0.081476197 0.062371433 0.59000003
-0.080352388 0.062371433 0.59000003
-0.079094291 0.06226572 0.58900005
-0.07797239 0.06226572 0.58900005
-0.076850481 0.06226572 0.58900005
-0.075857148 0.062371433 0.59000003
-0.074733339 0.062371433 0.59000003
-0.073609531 0.062371433 0.59000003
-0.072240002 0.062160004 0.588
-0.071120001 0.062160004 0.588
-0.069880955 0.062054291 0.58700001
-0.068880007 0.062160004 0.588
-0.067644767 0.062054291 0.58700001
-0.066866674 0.062371433 0.59000003
-0.065854289 0.062477145 0.59100002
-0.064838096 0.062582858 0.59200001
-0.063818097 0.062688574 0.59300005
-0.062900007 0.062900007 0.59500003
-0.061974291 0.063111432 0.597
-0.060939051 0.063217148 0.59800005
-0.059800003 0.063217148 0.59800005
-0.058660958 0.063217148 0.59800005
-0.0576181 0.063322864 0.59900004
-0.056571431 0.063428573 0.60000002
-0.055613335 0.063640006 0.60200006
-0.054647624 0.063851431 0.60400003
-0.053674288 0.064062864 0.60600001
-0.052606668 0.064168572 0.60700005
-0.05145048 0.064168572 0.60700005
-0.050377145 0.064274289 0.60800004
-0.088966675 0.064033337 0.59500003
-0.087390482 0.063710481 0.59200001
-0.086117148 0.063602865 0.59100002
-0.085135244 0.063710481 0.59200001
-0.083865717 0.063602865 0.59100002
-0.082740009 0.063602865 0.59100002
-0.081476197 0.063495241 0.59000003
-0.080352388 0.063495241 0.59000003
-0.07922858 0.063495241 0.59000003
-0.078104764 0.063495241 0.59000003
-0.076980956 0.063495241 0.59000003
-0.075857148 0.063495241 0.59000003
-0.074733339 0.063495241 0.59000003
-0.073609531 0.063495241 0.59000003
-0.072362863 0.063387625 0.58900005
-0.071120001 0.063280001 0.588
-0.069880955 0.063172385 0.58700001
-0.068880007 0.063280001 0.588
-0.067644767 0.063172385 0.58700001
-0.066866674 0.063495241 0.59000003
-0.065854289 0.063602865 0.59100002
-0.064838096 0.063710481 0.59200001
-0.063710481 0.063710481 0.59200001
-0.063111432 0.064248577 0.597
-0.0620781 0.064356193 0.59800005
-0.060939051 0.064356193 0.59800005
-0.059800003 0.064356193 0.59800005
-0.058759052 0.064463817 0.59900004
-0.0576181 0.064463817 0.59900004
-0.056571431 0.064571433 0.60000002
-0.055613335 0.064786673 0.60200006
-0.054738101 0.065109529 0.60500002
-0.053674288 0.065217145 0.60600001
-0.052693337 0.065432385 0.60800004
-0.051535241 0.065432385 0.60800004
-0.050460003 0.065540001 0.60900003
-0.049461909 0.065755241 0.611
-0.088966675 0.065166675 0.59500003
-0.087685719 0.065057144 0.59400004
-0.086554289 0.065057144 0.59400004
-0.085422866 0.065057144 0.59400004
-0.084149532 0.06494762 0.59300005
-0.083020009 0.06494762 0.59300005
-0.08175239 0.064838096 0.59200001
-0.080624767 0.064838096 0.59200001
-0.079362862 0.064728573 0.59100002
-0.078369528 0.064838096 0.59200001
-0.07711143 0.064728573 0.59100002
-0.075857148 0.064619049 0.59000003
-0.074860007 0.064728573 0.59100002
-0.073609531 0.064619049 0.59000003
-0.072731435 0.064838096 0.59200001
-0.07148286 0.064728573 0.59100002
-0.070476197 0.064838096 0.59200001
-0.069348574 0.064838096 0.59200001
-0.068220958 0.064838096 0.59200001
-0.067093335 0.064838096 0.59200001
-0.06607715 0.06494762 0.59300005
-0.065057144 0.065057144 0.59400004
-0.064033337 0.065166675 0.59500003
-0.063111432 0.065385722 0.597
-0.0620781 0.065495245 0.59800005
-0.061040957 0.065604769 0.59900004
-0.059900004 0.065604769 0.59900004
-0.058759052 0.065604769 0.59900004
-0.057714291 0.065714292 0.60000002
-0.056760002 0.065933339 0.60200006
-0.055798098 0.066152386 0.60400003
-0.054828577 0.066371433 0.60600001
-0.053762861 0.066480957 0.60700005
-0.052693337 0.066590481 0.60800004
-0.051620003 0.066700004 0.60900003
-0.050625719 0.066919051 0.611
-0.049542859 0.067028575 0.61200005
-0.088966675 0.066300005 0.59500003
-0.087833337 0.066300005 0.59500003
-0.086554289 0.066188574 0.59400004
-0.08556667 0.066300005 0.59500003
-0.084291436 0.066188574 0.59400004
-0.083160006 0.066188574 0.59400004
-0.081890479 0.06607715 0.59300005
-0.080760956 0.06607715 0.59300005
-0.079497151 0.06596572 0.59200001
-0.078369528 0.06596572 0.59200001
-0.077241912 0.06596572 0.59200001
-0.076114289 0.06596572 0.59200001
-0.075113341 0.06607715 0.59300005
-0.073983811 0.06607715 0.59300005
-0.072854288 0.06607715 0.59300005
-0.071724765 0.06607715 0.59300005
-0.070595242 0.06607715 0.59300005
-0.069348574 0.06596572 0.59200001
-0.068336196 0.06607715 0.59300005
-0.067206673 0.06607715 0.59300005
-0.066188574 0.066188574 0.59400004
-0.065166675 0.066300005 0.59500003
-0.064140953 0.066411436 0.59600002
-0.063217148 0.06663429 0.59800005
-0.0620781 0.06663429 0.59800005
-0.061040957 0.066745721 0.59900004
-0.059900004 0.066745721 0.59900004
-0.058857147 0.066857144 0.60000002
-0.057810482 0.066968575 0.60100001
-0.056760002 0.067080006 0.60200006
-0.055798098 0.06730286 0.60400003
-0.054828577 0.067525722 0.60600001
-0.053762861 0.067637146 0.60700005
-0.052780002 0.067860007 0.60900003
-0.051620003 0.067860007 0.60900003
-0.050708573 0.068194292 0.61200005
-0.049542859 0.068194292 0.61200005
-0.087980956 0.067546673 0.59600002
-0.086700007 0.067433335 0.59500003
-0.085710481 0.067546673 0.59600002
-0.08443334 0.067433335 0.59500003
-0.083300002 0.067433335 0.59500003
-0.082028575 0.067320004 0.59400004
-0.080897145 0.067320004 0.59400004
-0.079631433 0.067206673 0.59300005
-0.07850191 0.067206673 0.59300005
-0.077372387 0.067206673 0.59300005
-0.076242864 0.067206673 0.59300005
-0.075113341 0.067206673 0.59300005
-0.073983811 0.067206673 0.59300005
-0.072854288 0.067206673 0.59300005
-0.071724765 0.067206673 0.59300005
-0.070595242 0.067206673 0.59300005
-0.069465719 0.067206673 0.59300005
-0.068451434 0.067320004 0.59400004
-0.067320004 0.067320004 0.59400004
-0.066300005 0.067433335 0.59500003
-0.065166675 0.067433335 0.59500003
-0.064140953 0.067546673 0.59600002
-0.063217148 0.067773335 0.59800005
-0.062181909 0.067886673 0.59900004
-0.061040957 0.067886673 0.59900004
-0.060000002 0.068000004 0.60000002
-0.058857147 0.068000004 0.60000002
-0.057810482 0.068113334 0.60100001
-0.056760002 0.068226673 0.60200006
-0.055798098 0.068453334 0.60400003
-0.054828577 0.068680003 0.60600001
-0.053851433 0.068906672 0.60800004
-0.052953336 0.069246672 0.611
-0.051789526 0.069246672 0.611
-0.050791431 0.069473341 0.61300004
-0.049623813 0.069473341 0.61300004
-0.085710481 0.068681911 0.59600002
-0.084575243 0.068681911 0.59600002
-0.083300002 0.068566673 0.59500003
-0.082166672 0.068566673 0.59500003
-0.080897145 0.068451434 0.59400004
-0.079631433 0.068336196 0.59300005
-0.07850191 0.068336196 0.59300005
-0.077372387 0.068336196 0.59300005
-0.076242864 0.068336196 0.59300005
-0.075113341 0.068336196 0.59300005
-0.073983811 0.068336196 0.59300005
-0.072854288 0.068336196 0.59300005
-0.071845718 0.068451434 0.59400004
-0.070714287 0.068451434 0.59400004
-0.069582865 0.068451434 0.59400004
-0.068451434 0.068451434 0.59400004
-0.067433335 0.068566673 0.59500003
-0.066300005 0.068566673 0.59500003
-0.065276198 0.068681911 0.59600002
-0.064248577 0.068797149 0.597
-0.063217148 0.068912387 0.59800005
-0.062181909 0.069027625 0.59900004
-0.061040957 0.069027625 0.59900004
-0.060000002 0.069142863 0.60000002
-0.058955241 0.069258101 0.60100001
-0.057810482 0.069258101 0.60100001
-0.056854289 0.069488578 0.60300004
-0.055890478 0.069719054 0.60500002
-0.054919053 0.06994953 0.60700005
-0.053940002 0.070180006 0.60900003
-0.053040005 0.070525721 0.61200005
-0.051874287 0.070525721 0.61200005
-0.050791431 0.070640959 0.61300004
-0.049623813 0.070640959 0.61300004
-0.087574288 0.070402861 0.60100001
-0.086141914 0.070168577 0.59900004
-0.084859051 0.070051432 0.59800005
-0.083580002 0.069934294 0.597
-0.082304768 0.069817148 0.59600002
-0.081033342 0.069700003 0.59500003
-0.079765722 0.069582865 0.59400004
-0.07850191 0.069465719 0.59300005
-0.077372387 0.069465719 0.59300005
-0.076242864 0.069465719 0.59300005
-0.075113341 0.069465719 0.59300005
-0.074108578 0.069582865 0.59400004
-0.072977148 0.069582865 0.59400004
-0.071845718 0.069582865 0.59400004
-0.070714287 0.069582865 0.59400004
-0.069700003 0.069700003 0.59500003
-0.068566673 0.069700003 0.59500003
-0.067546673 0.069817148 0.59600002
-0.066411436 0.069817148 0.59600002
-0.065385722 0.069934294 0.597
-0.064356193 0.070051432 0.59800005
-0.063217148 0.070051432 0.59800005
-0.062181909 0.070168577 0.59900004
-0.061142862 0.070285723 0.60000002
-0.060000002 0.070285723 0.60000002
-0.058955241 0.070402861 0.60100001
-0.057906669 0.070520006 0.60200006
-0.056854289 0.070637144 0.60300004
-0.056075241 0.071105719 0.60700005
-0.055009529 0.071222864 0.60800004
-0.053940002 0.071340002 0.60900003
-0.052953336 0.071574293 0.611
-0.051874287 0.071691431 0.61200005
-0.050791431 0.071808577 0.61300004
-0.049623813 0.071808577 0.61300004
-0.088571437 0.071428575 0.60000002
-0.087574288 0.071547627 0.60100001
-0.086141914 0.071309529 0.59900004
-0.085000955 0.071309529 0.59900004
-0.083860002 0.071309529 0.59900004
-0.082580961 0.071190484 0.59800005
-0.081169531 0.070952386 0.59600002
-0.079900004 0.07083334 0.59500003
-0.07850191 0.070595242 0.59300005
-0.077372387 0.070595242 0.59300005
-0.076242864 0.070595242 0.59300005
-0.075113341 0.070595242 0.59300005
-0.074108578 0.070714287 0.59400004
-0.072977148 0.070714287 0.59400004
-0.071845718 0.070714287 0.59400004
-0.07083334 0.07083334 0.59500003
-0.069700003 0.07083334 0.59500003
-0.068566673 0.07083334 0.59500003
-0.067546673 0.070952386 0.59600002
-0.066522859 0.071071431 0.597
-0.065385722 0.071071431 0.597
-0.064356193 0.071190484 0.59800005
-0.063322864 0.071309529 0.59900004
-0.062181909 0.071309529 0.59900004
-0.061142862 0.071428575 0.60000002
-0.060000002 0.071428575 0.60000002
-0.059053339 0.071666673 0.60200006
-0.058002859 0.071785718 0.60300004
-0.057042859 0.072023816 0.60500002
-0.056075241 0.072261907 0.60700005
-0.055009529 0.07238096 0.60800004
-0.053940002 0.072500005 0.60900003
-0.052953336 0.072738104 0.611
-0.051874287 0.072857149 0.61200005
-0.050791431 0.072976194 0.61300004
-0.049623813 0.072976194 0.61300004
-0.087428577 0.072571434 0.60000002
-0.086141914 0.072450481 0.59900004
-0.085000955 0.072450481 0.59900004
-0.083860002 0.072450481 0.59900004
-0.082580961 0.072329529 0.59800005
-0.08130572 0.072208576 0.597
-0.080034293 0.072087623 0.59600002
-0.078634292 0.071845718 0.59400004
-0.077502862 0.071845718 0.59400004
-0.076371431 0.071845718 0.59400004
-0.075240009 0.071845718 0.59400004
-0.074233338 0.07196667 0.59500003
-0.073100008 0.07196667 0.59500003
-0.07196667 0.07196667 0.59500003
-0.07083334 0.07196667 0.59500003
-0.069700003 0.07196667 0.59500003
-0.068681911 0.072087623 0.59600002
-0.067660004 0.072208576 0.597
-0.066522859 0.072208576 0.597
-0.065385722 0.072208576 0.597
-0.064356193 0.072329529 0.59800005
-0.063322864 0.072450481 0.59900004
-0.062181909 0.072450481 0.59900004
-0.061142862 0.072571434 0.60000002
-0.060100004 0.072692387 0.60100001
-0.059151433 0.072934292 0.60300004
-0.058002859 0.072934292 0.60300004
-0.057137147 0.07329715 0.60600001
-0.056075241 0.073418103 0.60700005
-0.055009529 0.073539056 0.60800004
-0.053940002 0.073660001 0.60900003
-0.052953336 0.073901907 0.611
-0.051874287 0.074022859 0.61200005
-0.050791431 0.074143812 0.61300004
-0.049623813 0.074143812 0.61300004
-0.087574288 0.073837146 0.60100001
-0.086141914 0.073591433 0.59900004
-0.085000955 0.073591433 0.59900004
-0.083860002 0.073591433 0.59900004
-0.082580961 0.073468573 0.59800005
-0.08130572 0.073345721 0.597
-0.080034293 0.073222861 0.59600002
-0.078766674 0.073100008 0.59500003
-0.077633336 0.073100008 0.59500003
-0.076500006 0.073100008 0.59500003
-0.075366668 0.073100008 0.59500003
-0.074233338 0.073100008 0.59500003
-0.073222861 0.073222861 0.59600002
-0.07196667 0.073100008 0.59500003
-0.070952386 0.073222861 0.59600002
-0.069817148 0.073222861 0.59600002
-0.068797149 0.073345721 0.597
-0.067773335 0.073468573 0.59800005
-0.06663429 0.073468573 0.59800005
-0.065495245 0.073468573 0.59800005
-0.064463817 0.073591433 0.59900004
-0.063428573 0.073714294 0.60000002
-0.062285718 0.073714294 0.60000002
-0.061244767 0.073837146 0.60100001
-0.060200006 0.073960006 0.60200006
-0.059151433 0.074082859 0.60300004
-0.058002859 0.074082859 0.60300004
-0.057042859 0.074328579 0.60500002
-0.056075241 0.074574292 0.60700005
-0.055100005 0.074820004 0.60900003
-0.053940002 0.074820004 0.60900003
-0.052953336 0.075065717 0.611
-0.051874287 0.075188577 0.61200005
-0.050874289 0.07543429 0.61400002
-0.049704764 0.07543429 0.61400002
-0.087574288 0.074981913 0.60100001
-0.086285718 0.074857146 0.60000002
-0.085000955 0.074732386 0.59900004
-0.083860002 0.074732386 0.59900004
-0.082580961 0.074607626 0.59800005
-0.08130572 0.074482866 0.597
-0.080168575 0.074482866 0.597
-0.07903143 0.074482866 0.597
-0.077633336 0.074233338 0.59500003
-0.076500006 0.074233338 0.59500003
-0.075366668 0.074233338 0.59500003
-0.074358098 0.074358098 0.59600002
-0.073222861 0.074358098 0.59600002
-0.072087623 0.074358098 0.59600002
-0.070952386 0.074358098 0.59600002
-0.069934294 0.074482866 0.597
-0.068912387 0.074607626 0.59800005
-0.067773335 0.074607626 0.59800005
-0.06663429 0.074607626 0.59800005
-0.065495245 0.074607626 0.59800005
-0.064571433 0.074857146 0.60000002
-0.063428573 0.074857146 0.60000002
-0.062285718 0.074857146 0.60000002
-0.061244767 0.074981913 0.60100001
-0.060200006 0.075106673 0.60200006
-0.059151433 0.075231433 0.60300004
-0.05809905 0.075356193 0.60400003
-0.057042859 0.07548096 0.60500002
-0.056075241 0.07573048 0.60700005
-0.055009529 0.07585524 0.60800004
-0.053940002 0.075980008 0.60900003
-0.053040005 0.076354288 0.61200005
-0.051874287 0.076354288 0.61200005
-0.050708573 0.076354288 0.61200005
-0.087574288 0.076126672 0.60100001
-0.086285718 0.076000005 0.60000002
-0.085000955 0.075873338 0.59900004
-0.083860002 0.075873338 0.59900004
-0.08271905 0.075873338 0.59900004
-0.081441909 0.07574667 0.59800005
-0.080302864 0.07574667 0.59800005
-0.079163812 0.07574667 0.59800005
-0.077763818 0.075493336 0.59600002
-0.076628573 0.075493336 0.59600002
-0.075493336 0.075493336 0.59600002
-0.074482866 0.075620003 0.597
-0.073345721 0.075620003 0.597
-0.072208576 0.075620003 0.597
-0.070952386 0.075493336 0.59600002
-0.069934294 0.075620003 0.597
-0.068912387 0.07574667 0.59800005
-0.067773335 0.07574667 0.59800005
-0.06663429 0.07574667 0.59800005
-0.065604769 0.075873338 0.59900004
-0.064571433 0.076000005 0.60000002
-0.063428573 0.076000005 0.60000002
-0.062389527 0.076126672 0.60100001
-0.061346672 0.07625334 0.60200006
-0.060200006 0.07625334 0.60200006
-0.059249528 0.076506674 0.60400003
-0.058195241 0.076633342 0.60500002
-0.057137147 0.076760001 0.60600001
-0.056075241 0.076886669 0.60700005
-0.055100005 0.077140003 0.60900003
-0.054117147 0.077393338 0.611
-0.053040005 0.077520005 0.61200005
-0.051959053 0.077646673 0.61300004
-0.050791431 0.077646673 0.61300004
-0.049542859 0.077520005 0.61200005
-0.087574288 0.077271432 0.60100001
-0.086285718 0.077142864 0.60000002
-0.085000955 0.07701429 0.59900004
-0.083860002 0.07701429 0.59900004
-0.08271905 0.07701429 0.59900004
-0.081441909 0.076885723 0.59800005
-0.080302864 0.076885723 0.59800005
-0.079163812 0.076885723 0.59800005
-0.077763818 0.076628573 0.59600002
-0.076628573 0.076628573 0.59600002
-0.075493336 0.076628573 0.59600002
-0.074482866 0.076757148 0.597
-0.073345721 0.076757148 0.597
-0.072208576 0.076757148 0.597
-0.071071431 0.076757148 0.597
-0.070051432 0.076885723 0.59800005
-0.069027625 0.07701429 0.59900004
-0.067886673 0.07701429 0.59900004
-0.066745721 0.07701429 0.59900004
-0.065604769 0.07701429 0.59900004
-0.064571433 0.077142864 0.60000002
-0.06353429 0.077271432 0.60100001
-0.062493339 0.077400006 0.60200006
-0.061346672 0.077400006 0.60200006
-0.060300004 0.077528574 0.60300004
-0.059347622 0.077785723 0.60500002
-0.058291432 0.07791429 0.60600001
-0.057231434 0.078042865 0.60700005
-0.056167621 0.078171432 0.60800004
-0.055100005 0.078300007 0.60900003
-0.053940002 0.078300007 0.60900003
-0.052953336 0.078557149 0.611
-0.051874287 0.078685716 0.61200005
-0.050708573 0.078685716 0.61200005
-0.049542859 0.078685716 0.61200005
-0.083860002 0.078155242 0.59900004
-0.08271905 0.078155242 0.59900004
-0.081578098 0.078155242 0.59900004
-0.080302864 0.078024767 0.59800005
-0.079163812 0.078024767 0.59800005
-0.077894293 0.077894293 0.597
-0.076757148 0.077894293 0.597
-0.075620003 0.077894293 0.597
-0.074482866 0.077894293 0.597
-0.073345721 0.077894293 0.597
-0.07196667 0.077633336 0.59500003
-0.07083334 0.077633336 0.59500003
-0.070168577 0.078155242 0.59900004
-0.069142863 0.078285716 0.60000002
-0.068000004 0.078285716 0.60000002
-0.066857144 0.078285716 0.60000002
-0.065823816 0.078416198 0.60100001
-0.064679049 0.078416198 0.60100001
-0.063640006 0.078546673 0.60200006
-0.062597148 0.078677148 0.60300004
-0.061448574 0.078677148 0.60300004
-0.060400005 0.078807622 0.60400003
