# .PCD v0.7 - Point Cloud Data file format
VERSION 0.7
FIELDS x y z
SIZE 4 4 4
TYPE F F F
COUNT 1 1 1
WIDTH 1405
HEIGHT 1
VIEWPOINT 0 0 0 1 0 0 0
POINTS 1405
DATA ascii
0.0083057145 0.028825717 0.51300001
0.0092828581 0.028825717 0.51300001
0.010260001 0.028825717 0.51300001
0.011237144 0.028825717 0.51300001
0.012238096 0.028881907 0.514
0.01319143 0.028825717 0.51300001
0.014196191 0.028881907 0.514
0.015175239 0.028881907 0.514
0.016185716 0.028938098 0.51500005
0.017200001 0.028994288 0.51600003
0.018182859 0.028994288 0.51600003
0.019165715 0.028994288 0.51600003
0.020148573 0.028994288 0.51600003
0.02113143 0.028994288 0.51600003
0.022157144 0.029050479 0.51700002
0.02323143 0.02916286 0.51900005
0.024220001 0.02916286 0.51900005
0.025257144 0.02921905 0.52000004
0.02639905 0.029387621 0.523
0.027395239 0.029387621 0.523
0.02839143 0.029387621 0.523
0.029443812 0.029443812 0.52400005
0.030500002 0.029500002 0.52500004
0.031560004 0.029556192 0.52600002
0.032623813 0.029612383 0.52700001
0.033691432 0.029668573 0.528
0.034697145 0.029668573 0.528
0.03577048 0.029724764 0.52900004
0.036847621 0.029780954 0.53000003
0.037928574 0.029837145 0.53100002
0.038940001 0.029837145 0.53100002
0.040026668 0.029893335 0.53200001
0.041040003 0.029893335 0.53200001
0.042132385 0.029949525 0.53300005
0.043147624 0.029949525 0.53300005
0.044245716 0.030005716 0.53400004
0.045347624 0.030061906 0.53500003
0.046366669 0.030061906 0.53500003
0.047474287 0.030118097 0.53600001
0.048495241 0.030118097 0.53600001
0.049516194 0.030118097 0.53600001
0.050537147 0.030118097 0.53600001
0.051942859 0.030342858 0.54000002
0.052971434 0.030342858 0.54000002
0.054000005 0.030342858 0.54000002
0.055028576 0.030342858 0.54000002
0.010260001 0.029802859 0.51300001
0.011237144 0.029802859 0.51300001
0.012238096 0.029860955 0.514
0.013217144 0.029860955 0.514
0.014196191 0.029860955 0.514
0.015175239 0.029860955 0.514
0.016185716 0.029919049 0.51500005
0.017166669 0.029919049 0.51500005
0.018182859 0.029977145 0.51600003
0.019165715 0.029977145 0.51600003
0.020148573 0.029977145 0.51600003
0.02113143 0.029977145 0.51600003
0.022200001 0.030093335 0.51800001
0.02323143 0.030151431 0.51900005
0.024220001 0.030151431 0.51900005
0.025257144 0.030209526 0.52000004
0.02639905 0.030383812 0.523
0.027395239 0.030383812 0.523
0.028445717 0.030441906 0.52400005
0.029443812 0.030441906 0.52400005
0.030558098 0.030558098 0.52600002
0.031620003 0.030616192 0.52700001
0.032623813 0.030616192 0.52700001
0.033627622 0.030616192 0.52700001
0.034697145 0.030674288 0.528
0.03577048 0.030732382 0.52900004
0.036847621 0.030790478 0.53000003
0.037928574 0.030848574 0.53100002
0.039013337 0.030906668 0.53200001
0.040026668 0.030906668 0.53200001
0.041040003 0.030906668 0.53200001
0.042132385 0.030964764 0.53300005
0.043147624 0.030964764 0.53300005
0.044245716 0.03102286 0.53400004
0.045347624 0.031080954 0.53500003
0.046453338 0.03113905 0.53600001
0.047474287 0.03113905 0.53600001
0.048495241 0.03113905 0.53600001
0.050820004 0.031313334 0.53900003
0.051942859 0.03137143 0.54000002
0.053069528 0.031429525 0.54100001
0.054100003 0.031429525 0.54100001
0.055130478 0.031429525 0.54100001
0.012238096 0.030840002 0.514
0.013217144 0.030840002 0.514
0.014196191 0.030840002 0.514
0.015204763 0.030900002 0.51500005
0.016185716 0.030900002 0.51500005
0.017166669 0.030900002 0.51500005
0.018182859 0.030960003 0.51600003
0.019165715 0.030960003 0.51600003
0.020148573 0.030960003 0.51600003
0.021172382 0.031020002 0.51700002
0.022242859 0.031140001 0.51900005
0.02323143 0.031140001 0.51900005
0.024266668 0.031200003 0.52000004
0.025305716 0.031260002 0.52100003
0.02639905 0.031380001 0.523
0.027395239 0.031380001 0.523
0.02839143 0.031380001 0.523
0.029443812 0.031440001 0.52400005
0.030558098 0.031560004 0.52600002
0.031620003 0.031620003 0.52700001
0.032623813 0.031620003 0.52700001
0.033627622 0.031620003 0.52700001
0.034697145 0.031680003 0.528
0.035702858 0.031680003 0.528
0.036847621 0.031800002 0.53000003
0.037928574 0.031860001 0.53100002
0.039013337 0.031920001 0.53200001
0.040026668 0.031920001 0.53200001
0.041040003 0.031920001 0.53200001
0.042053334 0.031920001 0.53200001
0.043147624 0.03198 0.53300005
0.044245716 0.032040004 0.53400004
0.045262858 0.032040004 0.53400004
0.046453338 0.032160003 0.53600001
0.047474287 0.032160003 0.53600001
0.048495241 0.032160003 0.53600001
0.049608573 0.032220002 0.537
0.050820004 0.032340001 0.53900003
0.051942859 0.032400001 0.54000002
0.053069528 0.03246 0.54100001
0.054200005 0.032520004 0.54200006
0.055232383 0.032520004 0.54200006
0.012261906 0.031880956 0.51500005
0.013217144 0.031819049 0.514
0.01422381 0.031880956 0.51500005
0.015175239 0.031819049 0.514
0.016185716 0.031880956 0.51500005
0.017166669 0.031880956 0.51500005
0.018182859 0.031942859 0.51600003
0.019165715 0.031942859 0.51600003
0.02018762 0.032004762 0.51700002
0.021172382 0.032004762 0.51700002
0.022242859 0.032128572 0.51900005
0.023276191 0.032190479 0.52000004
0.024313334 0.032252382 0.52100003
0.025354287 0.032314289 0.52200001
0.02639905 0.032376193 0.523
0.027395239 0.032376193 0.523
0.02839143 0.032376193 0.523
0.029387621 0.032376193 0.523
0.030558098 0.032561906 0.52600002
0.031620003 0.032623813 0.52700001
0.032623813 0.032623813 0.52700001
0.033627622 0.032623813 0.52700001
0.034697145 0.032685716 0.528
0.035702858 0.032685716 0.528
0.036847621 0.032809526 0.53000003
0.037857145 0.032809526 0.53000003
0.039013337 0.032933336 0.53200001
0.040026668 0.032933336 0.53200001
0.041040003 0.032933336 0.53200001
0.042132385 0.032995239 0.53300005
0.043147624 0.032995239 0.53300005
0.044245716 0.033057146 0.53400004
0.045347624 0.033119049 0.53500003
0.046453338 0.033180956 0.53600001
0.047474287 0.033180956 0.53600001
0.048495241 0.033180956 0.53600001
0.049608573 0.033242859 0.537
0.050914288 0.033428572 0.54000002
0.05203905 0.033490479 0.54100001
0.053069528 0.033490479 0.54100001
0.054200005 0.033552382 0.54200006
0.055334289 0.033614289 0.54300004
0.013242858 0.032861907 0.51500005
0.01422381 0.032861907 0.51500005
0.015204763 0.032861907 0.51500005
0.016185716 0.032861907 0.51500005
0.017200001 0.032925718 0.51600003
0.018182859 0.032925718 0.51600003
0.019165715 0.032925718 0.51600003
0.02018762 0.032989524 0.51700002
0.021213334 0.033053335 0.51800001
0.022242859 0.033117145 0.51900005
0.023276191 0.033180956 0.52000004
0.024313334 0.033244763 0.52100003
0.025354287 0.033308573 0.52200001
0.02639905 0.033372384 0.523
0.027395239 0.033372384 0.523
0.02839143 0.033372384 0.523
0.029387621 0.033372384 0.523
0.030558098 0.033563811 0.52600002
0.031620003 0.033627622 0.52700001
0.032623813 0.033627622 0.52700001
0.033627622 0.033627622 0.52700001
0.034697145 0.033691432 0.528
0.035702858 0.033691432 0.528
0.036847621 0.03381905 0.53000003
0.037857145 0.03381905 0.53000003
0.039013337 0.033946671 0.53200001
0.040026668 0.033946671 0.53200001
0.041040003 0.033946671 0.53200001
0.042132385 0.034010477 0.53300005
0.043147624 0.034010477 0.53300005
0.044245716 0.034074288 0.53400004
0.045432385 0.034201909 0.53600001
0.046453338 0.034201909 0.53600001
0.047474287 0.034201909 0.53600001
0.048585717 0.034265716 0.537
0.049793337 0.034393337 0.53900003
0.050914288 0.034457143 0.54000002
0.05203905 0.034520954 0.54100001
0.053167623 0.034584764 0.54200006
0.054300003 0.034648575 0.54300004
0.055334289 0.034648575 0.54300004
0.01422381 0.033842858 0.51500005
0.015234287 0.033908572 0.51600003
0.016217144 0.033908572 0.51600003
0.017200001 0.033908572 0.51600003
0.018182859 0.033908572 0.51600003
0.019202858 0.033974286 0.51700002
0.02018762 0.033974286 0.51700002
0.021213334 0.034040004 0.51800001
0.022242859 0.034105718 0.51900005
0.02323143 0.034105718 0.51900005
0.024266668 0.034171432 0.52000004
0.025354287 0.03430286 0.52200001
0.02639905 0.034368575 0.523
0.027395239 0.034368575 0.523
0.02839143 0.034368575 0.523
0.029387621 0.034368575 0.523
0.030558098 0.034565717 0.52600002
0.031620003 0.034631431 0.52700001
0.032623813 0.034631431 0.52700001
0.033627622 0.034631431 0.52700001
0.034697145 0.034697145 0.528
0.03577048 0.034762859 0.52900004
0.036847621 0.034828573 0.53000003
0.037857145 0.034828573 0.53000003
0.039013337 0.034960002 0.53200001
0.040026668 0.034960002 0.53200001
0.041040003 0.034960002 0.53200001
0.042132385 0.035025716 0.53300005
0.043228574 0.03509143 0.53400004
0.044328574 0.035157144 0.53500003
0.045432385 0.035222858 0.53600001
0.046453338 0.035222858 0.53600001
0.04756286 0.035288572 0.537
0.048676193 0.035354286 0.53800005
0.049885716 0.035485718 0.54000002
0.050914288 0.035485718 0.54000002
0.05203905 0.035551433 0.54100001
0.053167623 0.035617147 0.54200006
0.054200005 0.035617147 0.54200006
0.055232383 0.035617147 0.54200006
0.013268572 0.03489143 0.51600003
0.01425143 0.03489143 0.51600003
0.015263811 0.034959052 0.51700002
0.016217144 0.03489143 0.51600003
0.017233334 0.034959052 0.51700002
0.018218096 0.034959052 0.51700002
0.019202858 0.034959052 0.51700002
0.020226669 0.03502667 0.51800001
0.021254288 0.035094287 0.51900005
0.022242859 0.035094287 0.51900005
0.023276191 0.035161909 0.52000004
0.024313334 0.035229526 0.52100003
0.025354287 0.035297144 0.52200001
0.026348574 0.035297144 0.52200001
0.027395239 0.035364766 0.523
0.02839143 0.035364766 0.523
0.029387621 0.035364766 0.523
0.030558098 0.035567623 0.52600002
0.031620003 0.03563524 0.52700001
0.032623813 0.03563524 0.52700001
0.033627622 0.03563524 0.52700001
0.034697145 0.035702858 0.528
0.035838097 0.035838097 0.53000003
0.036847621 0.035838097 0.53000003
0.037928574 0.035905715 0.53100002
0.039013337 0.035973337 0.53200001
0.040026668 0.035973337 0.53200001
0.041117147 0.036040954 0.53300005
0.042132385 0.036040954 0.53300005
0.043228574 0.036108572 0.53400004
0.044328574 0.036176194 0.53500003
0.045432385 0.036243811 0.53600001
0.046453338 0.036243811 0.53600001
0.04756286 0.036311433 0.537
0.048857145 0.03651429 0.54000002
0.049885716 0.03651429 0.54000002
0.051008575 0.036581907 0.54100001
0.05203905 0.036581907 0.54100001
0.053167623 0.036649525 0.54200006
0.054200005 0.036649525 0.54200006
0.055232383 0.036649525 0.54200006
0.056264766 0.036649525 0.54200006
0.013294287 0.035943814 0.51700002
0.014279049 0.035943814 0.51700002
0.015263811 0.035943814 0.51700002
0.016248573 0.035943814 0.51700002
0.017233334 0.035943814 0.51700002
0.018218096 0.035943814 0.51700002
0.019240001 0.036013335 0.51800001
0.020265715 0.03608286 0.51900005
0.021254288 0.03608286 0.51900005
0.022242859 0.03608286 0.51900005
0.023276191 0.036152385 0.52000004
0.024313334 0.036221907 0.52100003
0.025354287 0.036291432 0.52200001
0.026348574 0.036291432 0.52200001
0.027395239 0.036360953 0.523
0.02839143 0.036360953 0.523
0.029387621 0.036360953 0.523
0.030558098 0.036569525 0.52600002
0.031620003 0.03663905 0.52700001
0.032623813 0.03663905 0.52700001
0.033755239 0.036778096 0.52900004
0.034762859 0.036778096 0.52900004
0.035838097 0.036847621 0.53000003
0.036847621 0.036847621 0.53000003
0.037928574 0.036917146 0.53100002
0.039013337 0.036986668 0.53200001
0.040026668 0.036986668 0.53200001
0.041117147 0.037056193 0.53300005
0.042211432 0.037125718 0.53400004
0.043228574 0.037125718 0.53400004
0.044328574 0.037195239 0.53500003
0.045432385 0.037264764 0.53600001
0.046453338 0.037264764 0.53600001
0.047828574 0.037542861 0.54000002
0.048857145 0.037542861 0.54000002
0.0499781 0.037612382 0.54100001
0.051102862 0.037681907 0.54200006
0.05213524 0.037681907 0.54200006
0.053167623 0.037681907 0.54200006
0.054200005 0.037681907 0.54200006
0.055232383 0.037681907 0.54200006
0.056160957 0.037612382 0.54100001
0.012357144 0.037071429 0.51900005
0.013320001 0.037000004 0.51800001
0.014306667 0.037000004 0.51800001
0.015293335 0.037000004 0.51800001
0.016280001 0.037000004 0.51800001
0.017266668 0.037000004 0.51800001
0.018288573 0.037071429 0.51900005
0.019277144 0.037071429 0.51900005
0.020265715 0.037071429 0.51900005
0.02129524 0.037142858 0.52000004
0.022285717 0.037142858 0.52000004
0.023276191 0.037142858 0.52000004
0.024360001 0.037285715 0.52200001
0.025402859 0.037357144 0.523
0.026348574 0.037285715 0.52200001
0.027395239 0.037357144 0.523
0.02839143 0.037357144 0.523
0.029500002 0.037500001 0.52500004
0.030558098 0.03757143 0.52600002
0.031620003 0.037642859 0.52700001
0.032685716 0.037714288 0.528
0.033755239 0.037785716 0.52900004
0.034828573 0.037857145 0.53000003
0.035905715 0.037928574 0.53100002
0.036917146 0.037928574 0.53100002
0.038000003 0.038000003 0.53200001
0.039013337 0.038000003 0.53200001
0.040101908 0.038071431 0.53300005
0.041117147 0.038071431 0.53300005
0.042211432 0.03814286 0.53400004
0.043309528 0.038214289 0.53500003
0.044411432 0.038285717 0.53600001
0.045432385 0.038285717 0.53600001
0.046540003 0.038357146 0.537
0.047828574 0.038571432 0.54000002
0.048947621 0.038642861 0.54100001
0.0499781 0.038642861 0.54100001
0.051102862 0.03871429 0.54200006
0.05213524 0.03871429 0.54200006
0.053167623 0.03871429 0.54200006
0.054100003 0.038642861 0.54100001
0.055130478 0.038642861 0.54100001
0.056057148 0.038571432 0.54000002
0.012357144 0.038060002 0.51900005
0.013345716 0.038060002 0.51900005
0.014334287 0.038060002 0.51900005
0.015322858 0.038060002 0.51900005
0.016311429 0.038060002 0.51900005
0.0173 0.038060002 0.51900005
0.018288573 0.038060002 0.51900005
0.019277144 0.038060002 0.51900005
0.020265715 0.038060002 0.51900005
0.02129524 0.038133334 0.52000004
0.022285717 0.038133334 0.52000004
0.023276191 0.038133334 0.52000004
0.024406668 0.038353335 0.523
0.025402859 0.038353335 0.523
0.02639905 0.038353335 0.523
0.027395239 0.038353335 0.523
0.02839143 0.038353335 0.523
0.029500002 0.038500004 0.52500004
0.030558098 0.038573336 0.52600002
0.031620003 0.038646668 0.52700001
0.032685716 0.038720004 0.528
0.033755239 0.038793337 0.52900004
0.034828573 0.038866669 0.53000003
0.035905715 0.038940001 0.53100002
0.036917146 0.038940001 0.53100002
0.038000003 0.039013337 0.53200001
0.039013337 0.039013337 0.53200001
0.040101908 0.03908667 0.53300005
0.04119429 0.039160002 0.53400004
0.042211432 0.039160002 0.53400004
0.043309528 0.039233334 0.53500003
0.044411432 0.03930667 0.53600001
0.045432385 0.03930667 0.53600001
0.046453338 0.03930667 0.53600001
0.047828574 0.039600004 0.54000002
0.048947621 0.039673336 0.54100001
0.0499781 0.039673336 0.54100001
0.051102862 0.039746668 0.54200006
0.05213524 0.039746668 0.54200006
0.053167623 0.039746668 0.54200006
0.054100003 0.039673336 0.54100001
0.055028576 0.039600004 0.54000002
0.055953339 0.039526667 0.53900003
0.012357144 0.039048575 0.51900005
0.013345716 0.039048575 0.51900005
0.014334287 0.039048575 0.51900005
0.015322858 0.039048575 0.51900005
0.016311429 0.039048575 0.51900005
0.0173 0.039048575 0.51900005
0.018288573 0.039048575 0.51900005
0.019277144 0.039048575 0.51900005
0.020265715 0.039048575 0.51900005
0.021254288 0.039048575 0.51900005
0.022242859 0.039048575 0.51900005
0.023276191 0.039123811 0.52000004
0.024360001 0.039274286 0.52200001
0.025402859 0.039349526 0.523
0.02639905 0.039349526 0.523
0.027395239 0.039349526 0.523
0.02839143 0.039349526 0.523
0.029500002 0.039500002 0.52500004
0.030558098 0.039575242 0.52600002
0.031620003 0.039650477 0.52700001
0.032685716 0.039725717 0.528
0.033755239 0.039800957 0.52900004
0.034828573 0.039876193 0.53000003
0.035905715 0.039951432 0.53100002
0.036986668 0.040026668 0.53200001
0.038000003 0.040026668 0.53200001
0.039013337 0.040026668 0.53200001
0.040101908 0.040101908 0.53300005
0.04119429 0.040177144 0.53400004
0.042211432 0.040177144 0.53400004
0.043309528 0.040252384 0.53500003
0.044411432 0.040327623 0.53600001
0.045432385 0.040327623 0.53600001
0.046453338 0.040327623 0.53600001
0.047740005 0.040553335 0.53900003
0.048947621 0.040703811 0.54100001
0.05007048 0.04077905 0.54200006
0.051102862 0.04077905 0.54200006
0.052231431 0.04085429 0.54300004
0.053167623 0.04077905 0.54200006
0.054100003 0.040703811 0.54100001
0.055028576 0.040628575 0.54000002
0.01046 0.040345717 0.523
0.011434287 0.040268574 0.52200001
0.012380953 0.040114287 0.52000004
0.013345716 0.040037144 0.51900005
0.014334287 0.040037144 0.51900005
0.015322858 0.040037144 0.51900005
0.016311429 0.040037144 0.51900005
0.0173 0.040037144 0.51900005
0.018288573 0.040037144 0.51900005
0.019277144 0.040037144 0.51900005
0.020304764 0.040114287 0.52000004
0.02129524 0.040114287 0.52000004
0.022328572 0.040191431 0.52100003
0.023365716 0.040268574 0.52200001
0.024406668 0.040345717 0.523
0.025402859 0.040345717 0.523
0.02639905 0.040345717 0.523
0.027395239 0.040345717 0.523
0.02839143 0.040345717 0.523
0.029500002 0.040500004 0.52500004
0.030558098 0.040577147 0.52600002
0.031560004 0.040577147 0.52600002
0.032623813 0.040654287 0.52700001
0.033755239 0.040808573 0.52900004
0.034828573 0.040885717 0.53000003
0.035905715 0.04096286 0.53100002
0.036986668 0.041040003 0.53200001
0.038000003 0.041040003 0.53200001
0.03908667 0.041117147 0.53300005
0.040177144 0.04119429 0.53400004
0.04119429 0.04119429 0.53400004
0.042290479 0.04127143 0.53500003
0.043390479 0.041348573 0.53600001
0.044411432 0.041348573 0.53600001
0.045432385 0.041348573 0.53600001
0.046453338 0.041348573 0.53600001
0.048005719 0.041811433 0.54200006
0.049128573 0.041888576 0.54300004
0.050162859 0.041888576 0.54300004
0.051197145 0.041888576 0.54300004
0.052327622 0.041965716 0.54400003
0.053265717 0.041888576 0.54300004
0.054300003 0.041888576 0.54300004
0.01044 0.041262861 0.52200001
0.011390476 0.041104764 0.52000004
0.012357144 0.041025717 0.51900005
0.013345716 0.041025717 0.51900005
0.014334287 0.041025717 0.51900005
0.015322858 0.041025717 0.51900005
0.016311429 0.041025717 0.51900005
0.0173 0.041025717 0.51900005
0.018323811 0.041104764 0.52000004
0.019314287 0.041104764 0.52000004
0.020304764 0.041104764 0.52000004
0.021336192 0.041183811 0.52100003
0.022328572 0.041183811 0.52100003
0.023365716 0.041262861 0.52200001
0.024406668 0.041341908 0.523
0.025402859 0.041341908 0.523
0.02639905 0.041341908 0.523
0.027395239 0.041341908 0.523
0.028445717 0.041420955 0.52400005
0.029500002 0.041500002 0.52500004
0.030558098 0.041579049 0.52600002
0.031620003 0.0416581 0.52700001
0.032685716 0.041737147 0.528
0.033755239 0.041816194 0.52900004
0.034828573 0.041895241 0.53000003
0.035905715 0.041974287 0.53100002
0.036986668 0.042053334 0.53200001
0.038000003 0.042053334 0.53200001
0.03908667 0.042132385 0.53300005
0.040177144 0.042211432 0.53400004
0.04127143 0.042290479 0.53500003
0.042369526 0.042369526 0.53600001
0.043390479 0.042369526 0.53600001
0.044411432 0.042369526 0.53600001
0.045432385 0.042369526 0.53600001
0.046453338 0.042369526 0.53600001
0.047740005 0.04260667 0.53900003
0.049038097 0.042843811 0.54200006
0.050162859 0.042922858 0.54300004
0.051291432 0.043001909 0.54400003
0.052327622 0.043001909 0.54400003
0.053461909 0.043080956 0.54500002
0.054400004 0.043001909 0.54400003
0.01044 0.042257145 0.52200001
0.011390476 0.04209524 0.52000004
0.012380953 0.04209524 0.52000004
0.013397144 0.042176194 0.52100003
0.014361906 0.04209524 0.52000004
0.015352382 0.04209524 0.52000004
0.016342858 0.04209524 0.52000004
0.017333334 0.04209524 0.52000004
0.018323811 0.04209524 0.52000004
0.019314287 0.04209524 0.52000004
0.02034381 0.042176194 0.52100003
0.021377144 0.042257145 0.52200001
0.02237143 0.042257145 0.52200001
0.023410479 0.042338099 0.523
0.024406668 0.042338099 0.523
0.025402859 0.042338099 0.523
0.02639905 0.042338099 0.523
0.027395239 0.042338099 0.523
0.028445717 0.04241905 0.52400005
0.029500002 0.042500004 0.52500004
0.030558098 0.042580955 0.52600002
0.031620003 0.042661909 0.52700001
0.032685716 0.04274286 0.528
0.03381905 0.042904764 0.53000003
0.034894288 0.042985719 0.53100002
0.035905715 0.042985719 0.53100002
0.036986668 0.043066669 0.53200001
0.038071431 0.043147624 0.53300005
0.03908667 0.043147624 0.53300005
0.040252384 0.043309528 0.53500003
0.04127143 0.043309528 0.53500003
0.042369526 0.043390479 0.53600001
0.043390479 0.043390479 0.53600001
0.044411432 0.043390479 0.53600001
0.045517147 0.043471433 0.537
0.046540003 0.043471433 0.537
0.047740005 0.043633334 0.53900003
0.049038097 0.043876193 0.54200006
0.050162859 0.043957144 0.54300004
0.051197145 0.043957144 0.54300004
0.052327622 0.044038098 0.54400003
0.053461909 0.044119049 0.54500002
0.054400004 0.044038098 0.54400003
-0.0052000005 0.064628579 0.78000003
0.01044 0.043251432 0.52200001
0.011434287 0.043251432 0.52200001
0.012428572 0.043251432 0.52200001
0.013422858 0.043251432 0.52200001
0.014389525 0.043168575 0.52100003
0.015381906 0.043168575 0.52100003
0.016342858 0.043085717 0.52000004
0.017366668 0.043168575 0.52100003
0.018359048 0.043168575 0.52100003
0.01935143 0.043168575 0.52100003
0.020382859 0.043251432 0.52200001
0.021418096 0.04333429 0.523
0.022414288 0.04333429 0.523
0.023410479 0.04333429 0.523
0.024406668 0.04333429 0.523
0.025402859 0.04333429 0.523
0.026449526 0.043417145 0.52400005
0.02744762 0.043417145 0.52400005
0.028500002 0.043500002 0.52500004
0.029556192 0.04358286 0.52600002
0.030616192 0.043665718 0.52700001
0.031680003 0.043748572 0.528
0.032685716 0.043748572 0.528
0.033755239 0.04383143 0.52900004
0.034894288 0.043997146 0.53100002
0.035905715 0.043997146 0.53100002
0.036986668 0.044080004 0.53200001
0.038071431 0.044162858 0.53300005
0.03908667 0.044162858 0.53300005
0.040252384 0.044328574 0.53500003
0.041348573 0.044411432 0.53600001
0.042369526 0.044411432 0.53600001
0.043390479 0.044411432 0.53600001
0.04449429 0.04449429 0.537
0.045601908 0.044577144 0.53800005
0.046713337 0.044660002 0.53900003
0.047740005 0.044660002 0.53900003
0.049038097 0.044908576 0.54200006
0.05007048 0.044908576 0.54200006
0.051197145 0.04499143 0.54300004
0.052327622 0.045074288 0.54400003
0.053560004 0.045240004 0.546
0.054400004 0.045074288 0.54400003
-0.0051933336 0.066029526 0.77900004
-0.0037095239 0.066029526 0.77900004
0.01046 0.044330478 0.523
0.011456192 0.044330478 0.523
0.012452382 0.044330478 0.523
0.013448573 0.044330478 0.523
0.014417144 0.044245716 0.52200001
0.01541143 0.044245716 0.52200001
0.016374286 0.044160955 0.52100003
0.0174 0.044245716 0.52200001
0.018394288 0.044245716 0.52200001
0.01935143 0.044160955 0.52100003
0.020382859 0.044245716 0.52200001
0.021418096 0.044330478 0.523
0.022414288 0.044330478 0.523
0.023410479 0.044330478 0.523
0.024406668 0.044330478 0.523
0.025402859 0.044330478 0.523
0.026449526 0.044415239 0.52400005
0.02744762 0.044415239 0.52400005
0.028554287 0.044584766 0.52600002
0.029556192 0.044584766 0.52600002
0.030674288 0.044754289 0.528
0.031740002 0.044839051 0.52900004
0.032747623 0.044839051 0.52900004
0.03381905 0.044923812 0.53000003
0.034828573 0.044923812 0.53000003
0.035905715 0.045008574 0.53100002
0.037056193 0.045178097 0.53300005
0.038071431 0.045178097 0.53300005
0.03908667 0.045178097 0.53300005
0.040252384 0.045347624 0.53500003
0.041348573 0.045432385 0.53600001
0.042369526 0.045432385 0.53600001
0.043390479 0.045432385 0.53600001
0.044577144 0.045601908 0.53800005
0.045601908 0.045601908 0.53800005
0.046800002 0.045771431 0.54000002
0.047828574 0.045771431 0.54000002
0.049038097 0.045940954 0.54200006
0.05007048 0.045940954 0.54200006
0.051197145 0.046025716 0.54300004
0.052327622 0.046110481 0.54400003
0.053560004 0.046280004 0.546
0.054400004 0.046110481 0.54400003
0.14274001 0.067216195 0.79300004
0.14425048 0.067216195 0.79300004
0.14576097 0.067216195 0.79300004
0.14727144 0.067216195 0.79300004
0.01046 0.045326669 0.523
0.011456192 0.045326669 0.523
0.012452382 0.045326669 0.523
0.013448573 0.045326669 0.523
0.014444763 0.045326669 0.523
0.015440953 0.045326669 0.523
0.016405715 0.045240004 0.52200001
0.0174 0.045240004 0.52200001
0.018394288 0.045240004 0.52200001
0.019388573 0.045240004 0.52200001
0.020421905 0.045326669 0.523
0.021418096 0.045326669 0.523
0.022414288 0.045326669 0.523
0.023410479 0.045326669 0.523
0.024406668 0.045326669 0.523
0.025402859 0.045326669 0.523
0.026449526 0.045413338 0.52400005
0.027500002 0.045500003 0.52500004
0.028554287 0.045586668 0.52600002
0.029612383 0.045673337 0.52700001
0.030674288 0.045760002 0.528
0.031740002 0.045846671 0.52900004
0.032747623 0.045846671 0.52900004
0.03381905 0.045933336 0.53000003
0.034894288 0.046020001 0.53100002
0.035905715 0.046020001 0.53100002
0.037056193 0.046193335 0.53300005
0.038214289 0.046366669 0.53500003
0.039160002 0.046280004 0.53400004
0.040327623 0.046453338 0.53600001
0.041348573 0.046453338 0.53600001
0.042369526 0.046453338 0.53600001
0.043471433 0.046540003 0.537
0.044577144 0.046626668 0.53800005
0.04568667 0.046713337 0.53900003
0.046800002 0.046800002 0.54000002
0.047917146 0.046886671 0.54100001
0.049038097 0.046973336 0.54200006
0.050162859 0.047060002 0.54300004
0.051291432 0.047146671 0.54400003
0.052327622 0.047146671 0.54400003
0.053560004 0.047320005 0.546
0.054500002 0.047233336 0.54500002
0.13786002 0.068553336 0.79100001
0.13936667 0.068553336 0.79100001
0.14087334 0.068553336 0.79100001
0.14238001 0.068553336 0.79100001
0.14388667 0.068553336 0.79100001
0.14539334 0.068553336 0.79100001
0.14690001 0.068553336 0.79100001
0.14840667 0.068553336 0.79100001
0.01046 0.04632286 0.523
0.011456192 0.04632286 0.523
0.012452382 0.04632286 0.523
0.013448573 0.04632286 0.523
0.014444763 0.04632286 0.523
0.015440953 0.04632286 0.523
0.016437143 0.04632286 0.523
0.017433334 0.04632286 0.523
0.018429525 0.04632286 0.523
0.019425716 0.04632286 0.523
0.020421905 0.04632286 0.523
0.021418096 0.04632286 0.523
0.022457145 0.046411432 0.52400005
0.02345524 0.046411432 0.52400005
0.024453335 0.046411432 0.52400005
0.025451431 0.046411432 0.52400005
0.026500002 0.046500005 0.52500004
0.027500002 0.046500005 0.52500004
0.028554287 0.046588574 0.52600002
0.029612383 0.046677146 0.52700001
0.030674288 0.046765719 0.528
0.031740002 0.046854287 0.52900004
0.032809526 0.04694286 0.53000003
0.03381905 0.04694286 0.53000003
0.034894288 0.047031432 0.53100002
0.035973337 0.047120005 0.53200001
0.037125718 0.047297146 0.53400004
0.038214289 0.047385719 0.53500003
0.03930667 0.047474287 0.53600001
0.040327623 0.047474287 0.53600001
0.041425716 0.04756286 0.537
0.042448573 0.04756286 0.537
0.043471433 0.04756286 0.537
0.044660002 0.047740005 0.53900003
0.045771431 0.047828574 0.54000002
0.046886671 0.047917146 0.54100001
0.047917146 0.047917146 0.54100001
0.049038097 0.048005719 0.54200006
0.050255243 0.04818286 0.54400003
0.051385719 0.048271433 0.54500002
0.052423812 0.048271433 0.54500002
0.053560004 0.048360005 0.546
0.054500002 0.048271433 0.54500002
0.055640005 0.048360005 0.546
0.011500001 0.047500003 0.52500004
0.012476191 0.047409527 0.52400005
0.013474287 0.047409527 0.52400005
0.014472382 0.047409527 0.52400005
0.015470477 0.047409527 0.52400005
0.016437143 0.047319051 0.523
0.017433334 0.047319051 0.523
0.018429525 0.047319051 0.523
0.019425716 0.047319051 0.523
0.020421905 0.047319051 0.523
0.021418096 0.047319051 0.523
0.022500001 0.047500003 0.52500004
0.023500001 0.047500003 0.52500004
0.024500001 0.047500003 0.52500004
0.025548574 0.047590479 0.52600002
0.026550477 0.047590479 0.52600002
0.027604764 0.047680955 0.52700001
0.028608574 0.047680955 0.52700001
0.029668573 0.047771432 0.528
0.030732382 0.047861908 0.52900004
0.031800002 0.047952384 0.53000003
0.032809526 0.047952384 0.53000003
0.03388286 0.04804286 0.53100002
0.034960002 0.048133336 0.53200001
0.035973337 0.048133336 0.53200001
0.037195239 0.048404764 0.53500003
0.038285717 0.048495241 0.53600001
0.03930667 0.048495241 0.53600001
0.040478099 0.048676193 0.53800005
0.041502859 0.048676193 0.53800005
0.04260667 0.048766669 0.53900003
0.043633334 0.048766669 0.53900003
0.04474286 0.048857145 0.54000002
0.045771431 0.048857145 0.54000002
0.046973336 0.049038097 0.54200006
0.048005719 0.049038097 0.54200006
0.04921905 0.04921905 0.54400003
0.050347622 0.049309526 0.54500002
0.051480003 0.049400002 0.546
0.052520003 0.049400002 0.546
0.053658098 0.049490478 0.54700005
0.054700002 0.049490478 0.54700005
0.05574191 0.049490478 0.54700005
0.011521906 0.048592385 0.52600002
0.012500001 0.048500001 0.52500004
0.013500001 0.048500001 0.52500004
0.014500001 0.048500001 0.52500004
0.015470477 0.048407622 0.52400005
0.016468573 0.048407622 0.52400005
0.017466668 0.048407622 0.52400005
0.018429525 0.048315242 0.523
0.019425716 0.048315242 0.523
0.020460954 0.048407622 0.52400005
0.021459049 0.048407622 0.52400005
0.022500001 0.048500001 0.52500004
0.023500001 0.048500001 0.52500004
0.024500001 0.048500001 0.52500004
0.025548574 0.048592385 0.52600002
0.026600955 0.048684765 0.52700001
0.027604764 0.048684765 0.52700001
0.028608574 0.048684765 0.52700001
0.029724764 0.048869528 0.52900004
0.030732382 0.048869528 0.52900004
0.031800002 0.048961908 0.53000003
0.032871429 0.049054287 0.53100002
0.033946671 0.049146671 0.53200001
0.034960002 0.049146671 0.53200001
0.036040954 0.049239051 0.53300005
0.037264764 0.049516194 0.53600001
0.038285717 0.049516194 0.53600001
0.039380003 0.049608573 0.537
0.040478099 0.049700957 0.53800005
0.041580003 0.049793337 0.53900003
0.04260667 0.049793337 0.53900003
0.043714289 0.049885716 0.54000002
0.044825718 0.0499781 0.54100001
0.045940954 0.05007048 0.54200006
0.046973336 0.05007048 0.54200006
0.04818286 0.050255243 0.54400003
0.049309526 0.050347622 0.54500002
0.050440002 0.050440002 0.546
0.051480003 0.050440002 0.546
0.052520003 0.050440002 0.546
0.053658098 0.050532386 0.54700005
0.054700002 0.050532386 0.54700005
0.05574191 0.050532386 0.54700005
0.01254762 0.049688574 0.52700001
0.01355143 0.049688574 0.52700001
0.01452762 0.049594291 0.52600002
0.015529525 0.049594291 0.52600002
0.016500002 0.049500003 0.52500004
0.017500002 0.049500003 0.52500004
0.018464763 0.049405716 0.52400005
0.019462859 0.049405716 0.52400005
0.020460954 0.049405716 0.52400005
0.022542858 0.049594291 0.52600002
0.023500001 0.049500003 0.52500004
0.024500001 0.049500003 0.52500004
0.025548574 0.049594291 0.52600002
0.026600955 0.049688574 0.52700001
0.027604764 0.049688574 0.52700001
0.028608574 0.049688574 0.52700001
0.029724764 0.049877144 0.52900004
0.030790478 0.049971431 0.53000003
0.031800002 0.049971431 0.53000003
0.032871429 0.050065719 0.53100002
0.033946671 0.050160002 0.53200001
0.035025716 0.050254289 0.53300005
0.036176194 0.05044286 0.53500003
0.037264764 0.050537147 0.53600001
0.038285717 0.050537147 0.53600001
0.039453335 0.050725717 0.53800005
0.040553335 0.050820004 0.53900003
0.041657146 0.050914288 0.54000002
0.042685717 0.050914288 0.54000002
0.043795239 0.051008575 0.54100001
0.044908576 0.051102862 0.54200006
0.045940954 0.051102862 0.54200006
0.047060002 0.051197145 0.54300004
0.048271433 0.051385719 0.54500002
0.049400002 0.051480003 0.546
0.050440002 0.051480003 0.546
0.05157429 0.05157429 0.54700005
0.052616194 0.05157429 0.54700005
0.053756192 0.051668573 0.54800004
0.054800004 0.051668573 0.54800004
-0.0036428573 0.073585719 0.76500005
0.01254762 0.050692383 0.52700001
0.01355143 0.050692383 0.52700001
0.014555239 0.050692383 0.52700001
0.015559048 0.050692383 0.52700001
0.01653143 0.050596192 0.52600002
0.017533334 0.050596192 0.52600002
0.018500002 0.050500002 0.52500004
0.0195 0.050500002 0.52500004
0.020500001 0.050500002 0.52500004
0.021500001 0.050500002 0.52500004
0.022500001 0.050500002 0.52500004
0.023544764 0.050596192 0.52600002
0.024546668 0.050596192 0.52600002
0.025597144 0.050692383 0.52700001
0.026600955 0.050692383 0.52700001
0.027604764 0.050692383 0.52700001
0.028717145 0.050884765 0.52900004
0.029780954 0.050980955 0.53000003
0.030790478 0.050980955 0.53000003
0.031860001 0.051077146 0.53100002
0.032871429 0.051077146 0.53100002
0.033946671 0.051173337 0.53200001
0.035025716 0.051269528 0.53300005
0.036176194 0.051461909 0.53500003
0.037264764 0.0515581 0.53600001
0.038285717 0.0515581 0.53600001
0.039380003 0.05165429 0.537
0.040628575 0.051942859 0.54000002
0.041657146 0.051942859 0.54000002
0.042764764 0.05203905 0.54100001
0.043876193 0.05213524 0.54200006
0.044908576 0.05213524 0.54200006
0.046025716 0.052231431 0.54300004
0.047060002 0.052231431 0.54300004
0.048360005 0.052520003 0.546
0.049490478 0.052616194 0.54700005
0.050532386 0.052616194 0.54700005
0.051668573 0.052712385 0.54800004
0.052712385 0.052712385 0.54800004
0.053756192 0.052712385 0.54800004
0.054900005 0.052808575 0.54900002
-0.0036333336 0.07484667 0.76300001
0.01158762 0.051892385 0.52900004
0.01257143 0.051794291 0.528
0.013577144 0.051794291 0.528
0.014555239 0.051696192 0.52700001
0.015559048 0.051696192 0.52700001
0.016562859 0.051696192 0.52700001
0.017533334 0.051598098 0.52600002
0.01853524 0.051598098 0.52600002
0.0195 0.051500004 0.52500004
0.020539049 0.051598098 0.52600002
0.021540955 0.051598098 0.52600002
0.022542858 0.051598098 0.52600002
0.023544764 0.051598098 0.52600002
0.024546668 0.051598098 0.52600002
0.025548574 0.051598098 0.52600002
0.026600955 0.051696192 0.52700001
0.027657144 0.051794291 0.528
0.028717145 0.051892385 0.52900004
0.029780954 0.051990479 0.53000003
0.030790478 0.051990479 0.53000003
0.031860001 0.052088574 0.53100002
0.032933336 0.052186672 0.53200001
0.033946671 0.052186672 0.53200001
0.035025716 0.052284766 0.53300005
0.036243811 0.052579053 0.53600001
0.037264764 0.052579053 0.53600001
0.038357146 0.052677147 0.537
0.039380003 0.052677147 0.537
0.040553335 0.052873336 0.53900003
0.041734289 0.053069528 0.54100001
0.042764764 0.053069528 0.54100001
0.043876193 0.053167623 0.54200006
0.044908576 0.053167623 0.54200006
0.046025716 0.053265717 0.54300004
0.047146671 0.053363811 0.54400003
0.048360005 0.053560004 0.546
0.049490478 0.053658098 0.54700005
0.050624765 0.053756192 0.54800004
0.051668573 0.053756192 0.54800004
0.052712385 0.053756192 0.54800004
0.05385429 0.05385429 0.54900002
0.054900005 0.05385429 0.54900002
0.056149527 0.054050479 0.551
0.011609524 0.053000003 0.53000003
0.012595239 0.052900005 0.52900004
0.013602858 0.052900005 0.52900004
0.014582858 0.052800003 0.528
0.015588572 0.052800003 0.528
0.016562859 0.052700002 0.52700001
0.017566668 0.052700002 0.52700001
0.01853524 0.052600004 0.52600002
0.019537143 0.052600004 0.52600002
0.020539049 0.052600004 0.52600002
0.021540955 0.052600004 0.52600002
0.022542858 0.052600004 0.52600002
0.023544764 0.052600004 0.52600002
0.024593335 0.052700002 0.52700001
0.025597144 0.052700002 0.52700001
0.026600955 0.052700002 0.52700001
0.027709525 0.052900005 0.52900004
0.028717145 0.052900005 0.52900004
0.029780954 0.053000003 0.53000003
0.030848574 0.053100005 0.53100002
0.031860001 0.053100005 0.53100002
0.032933336 0.053200003 0.53200001
0.033946671 0.053200003 0.53200001
0.035157144 0.053500004 0.53500003
0.036243811 0.053600002 0.53600001
0.037264764 0.053600002 0.53600001
0.038285717 0.053600002 0.53600001
0.039380003 0.053700004 0.537
0.040553335 0.053900003 0.53900003
0.041734289 0.054100003 0.54100001
0.042764764 0.054100003 0.54100001
0.043876193 0.054200005 0.54200006
0.044908576 0.054200005 0.54200006
0.046025716 0.054300003 0.54300004
0.047233336 0.054500002 0.54500002
0.048360005 0.054600004 0.546
0.049490478 0.054700002 0.54700005
0.050532386 0.054700002 0.54700005
0.051668573 0.054800004 0.54800004
0.052712385 0.054800004 0.54800004
0.053756192 0.054800004 0.54800004
0.054900005 0.054900005 0.54900002
0.056149527 0.055100005 0.551
0.011609524 0.054009527 0.53000003
0.012619048 0.054009527 0.53000003
0.013602858 0.053907622 0.52900004
0.014610477 0.053907622 0.52900004
0.015588572 0.053805716 0.528
0.016562859 0.053703815 0.52700001
0.017566668 0.053703815 0.52700001
0.018570477 0.053703815 0.52700001
0.019574286 0.053703815 0.52700001
0.020578096 0.053703815 0.52700001
0.021581907 0.053703815 0.52700001
0.022585716 0.053703815 0.52700001
0.023589525 0.053703815 0.52700001
0.024593335 0.053703815 0.52700001
0.025597144 0.053703815 0.52700001
0.026600955 0.053703815 0.52700001
0.027709525 0.053907622 0.52900004
0.028717145 0.053907622 0.52900004
0.029780954 0.054009527 0.53000003
0.030848574 0.054111432 0.53100002
0.031920001 0.054213338 0.53200001
0.032933336 0.054213338 0.53200001
0.034074288 0.054417148 0.53400004
0.035157144 0.05451905 0.53500003
0.036243811 0.054620955 0.53600001
0.037264764 0.054620955 0.53600001
0.038285717 0.054620955 0.53600001
0.039380003 0.05472286 0.537
0.040628575 0.055028576 0.54000002
0.041734289 0.055130478 0.54100001
0.042843811 0.055232383 0.54200006
0.043876193 0.055232383 0.54200006
0.044908576 0.055232383 0.54200006
0.046025716 0.055334289 0.54300004
0.047146671 0.055436194 0.54400003
0.048448574 0.05574191 0.54700005
0.049580954 0.055843811 0.54800004
0.050624765 0.055843811 0.54800004
0.051668573 0.055843811 0.54800004
0.052712385 0.055843811 0.54800004
0.05385429 0.055945717 0.54900002
0.054900005 0.055945717 0.54900002
0.011609524 0.055019051 0.53000003
0.012619048 0.055019051 0.53000003
0.013602858 0.054915242 0.52900004
0.014610477 0.054915242 0.52900004
0.015618096 0.054915242 0.52900004
0.016594287 0.054811433 0.528
0.017600002 0.054811433 0.528
0.018605715 0.054811433 0.528
0.019574286 0.054707624 0.52700001
0.020578096 0.054707624 0.52700001
0.021581907 0.054707624 0.52700001
0.022585716 0.054707624 0.52700001
0.023589525 0.054707624 0.52700001
0.024593335 0.054707624 0.52700001
0.025597144 0.054707624 0.52700001
0.026651431 0.054811433 0.528
0.027709525 0.054915242 0.52900004
0.02877143 0.055019051 0.53000003
0.029780954 0.055019051 0.53000003
0.030906668 0.055226669 0.53200001
0.031920001 0.055226669 0.53200001
0.032995239 0.055330481 0.53300005
0.034138098 0.055538099 0.53500003
0.035157144 0.055538099 0.53500003
0.036243811 0.055641908 0.53600001
0.037264764 0.055641908 0.53600001
0.038285717 0.055641908 0.53600001
0.039380003 0.055745717 0.537
0.041811433 0.056264766 0.54200006
0.042843811 0.056264766 0.54200006
0.043876193 0.056264766 0.54200006
0.04499143 0.056368575 0.54300004
0.046025716 0.056368575 0.54300004
0.047146671 0.056472383 0.54400003
0.048448574 0.056783814 0.54700005
0.049580954 0.056887623 0.54800004
0.050624765 0.056887623 0.54800004
0.051668573 0.056887623 0.54800004
0.052712385 0.056887623 0.54800004
0.05385429 0.056991432 0.54900002
0.055000003 0.057095241 0.55000001
0.011631429 0.056134291 0.53100002
0.012642858 0.056134291 0.53100002
0.013628572 0.056028575 0.53000003
0.014610477 0.055922862 0.52900004
0.015618096 0.055922862 0.52900004
0.016625715 0.055922862 0.52900004
0.017633334 0.055922862 0.52900004
0.018605715 0.055817146 0.528
0.019611429 0.055817146 0.528
0.020578096 0.055711433 0.52700001
0.021581907 0.055711433 0.52700001
0.022585716 0.055711433 0.52700001
0.023589525 0.055711433 0.52700001
0.024593335 0.055711433 0.52700001
0.025597144 0.055711433 0.52700001
0.026651431 0.055817146 0.528
0.027761906 0.056028575 0.53000003
0.02877143 0.056028575 0.53000003
0.029837145 0.056134291 0.53100002
0.030906668 0.056240004 0.53200001
0.031920001 0.056240004 0.53200001
0.032995239 0.05634572 0.53300005
0.034138098 0.056557145 0.53500003
0.035222858 0.056662861 0.53600001
0.036243811 0.056662861 0.53600001
0.037264764 0.056662861 0.53600001
0.038285717 0.056662861 0.53600001
0.039380003 0.056768574 0.537
0.041734289 0.057191432 0.54100001
0.042843811 0.057297148 0.54200006
0.043876193 0.057297148 0.54200006
0.04499143 0.05740286 0.54300004
0.046110481 0.057508577 0.54400003
0.047320005 0.057720006 0.546
0.048537146 0.057931431 0.54800004
0.049580954 0.057931431 0.54800004
0.050624765 0.057931431 0.54800004
0.051668573 0.057931431 0.54800004
0.052712385 0.057931431 0.54800004
0.05385429 0.058037147 0.54900002
0.054900005 0.058037147 0.54900002
0.011631429 0.057145718 0.53100002
0.012642858 0.057145718 0.53100002
0.013628572 0.057038099 0.53000003
0.014638096 0.057038099 0.53000003
0.01564762 0.057038099 0.53000003
0.016625715 0.056930479 0.52900004
0.017633334 0.056930479 0.52900004
0.018640954 0.056930479 0.52900004
0.019611429 0.056822862 0.528
0.020617144 0.056822862 0.528
0.021622859 0.056822862 0.528
0.022628574 0.056822862 0.528
0.023634287 0.056822862 0.528
0.024686668 0.056930479 0.52900004
0.025694288 0.056930479 0.52900004
0.026752383 0.057038099 0.53000003
0.027814288 0.057145718 0.53100002
0.028880002 0.057253338 0.53200001
0.029893335 0.057253338 0.53200001
0.030906668 0.057253338 0.53200001
0.03198 0.057360955 0.53300005
0.033057146 0.057468574 0.53400004
0.034074288 0.057468574 0.53400004
0.035157144 0.057576194 0.53500003
0.036243811 0.057683814 0.53600001
0.037264764 0.057683814 0.53600001
0.038285717 0.057683814 0.53600001
0.039380003 0.057791434 0.537
0.040553335 0.05800667 0.53900003
0.041734289 0.05822191 0.54100001
0.042843811 0.058329526 0.54200006
0.043876193 0.058329526 0.54200006
0.04499143 0.058437146 0.54300004
0.046195243 0.058652386 0.54500002
0.04740667 0.058867622 0.54700005
0.048537146 0.058975242 0.54800004
0.049580954 0.058975242 0.54800004
0.050717145 0.059082862 0.54900002
0.05176286 0.059082862 0.54900002
0.052808575 0.059082862 0.54900002
0.05385429 0.059082862 0.54900002
0.011653334 0.05826667 0.53200001
0.012690477 0.058376193 0.53300005
0.013680001 0.05826667 0.53200001
0.014693335 0.05826667 0.53200001
0.015706668 0.05826667 0.53200001
0.016688572 0.058157146 0.53100002
0.017666668 0.058047622 0.53000003
0.018676192 0.058047622 0.53000003
0.019685715 0.058047622 0.53000003
0.020695239 0.058047622 0.53000003
0.021663811 0.057938099 0.52900004
0.022714287 0.058047622 0.53000003
0.023723811 0.058047622 0.53000003
0.024733335 0.058047622 0.53000003
0.025791431 0.058157146 0.53100002
0.026853336 0.05826667 0.53200001
0.027866669 0.05826667 0.53200001
0.028880002 0.05826667 0.53200001
0.029893335 0.05826667 0.53200001
0.030964764 0.058376193 0.53300005
0.03198 0.058376193 0.53300005
0.033057146 0.058485717 0.53400004
0.034138098 0.05859524 0.53500003
0.035222858 0.058704767 0.53600001
0.036243811 0.058704767 0.53600001
0.037264764 0.058704767 0.53600001
0.038357146 0.058814291 0.537
0.039453335 0.058923814 0.53800005
0.040553335 0.059033338 0.53900003
0.041734289 0.059252385 0.54100001
0.042843811 0.059361909 0.54200006
0.043957144 0.059471432 0.54300004
0.045074288 0.059580956 0.54400003
0.046280004 0.059800003 0.546
0.04740667 0.059909526 0.54700005
0.048537146 0.06001905 0.54800004
0.04967143 0.060128577 0.54900002
0.050717145 0.060128577 0.54900002
0.05176286 0.060128577 0.54900002
0.052808575 0.060128577 0.54900002
0.05385429 0.060128577 0.54900002
0.011675239 0.059391432 0.53300005
0.012714286 0.059502862 0.53400004
0.013705716 0.059391432 0.53300005
0.014693335 0.059280004 0.53200001
0.015706668 0.059280004 0.53200001
0.016720001 0.059280004 0.53200001
0.017733334 0.059280004 0.53200001
0.018711429 0.059168573 0.53100002
0.019722858 0.059168573 0.53100002
0.020695239 0.059057146 0.53000003
0.021704763 0.059057146 0.53000003
0.022757145 0.059168573 0.53100002
0.023723811 0.059057146 0.53000003
0.024780001 0.059168573 0.53100002
0.025840001 0.059280004 0.53200001
0.026853336 0.059280004 0.53200001
0.027866669 0.059280004 0.53200001
0.028880002 0.059280004 0.53200001
0.029949525 0.059391432 0.53300005
0.030964764 0.059391432 0.53300005
0.032040004 0.059502862 0.53400004
0.033119049 0.05961429 0.53500003
0.034201909 0.059725717 0.53600001
0.035222858 0.059725717 0.53600001
0.036243811 0.059725717 0.53600001
0.037264764 0.059725717 0.53600001
0.038357146 0.059837148 0.537
0.039526667 0.060060006 0.53900003
0.040628575 0.060171433 0.54000002
0.041811433 0.060394291 0.54200006
0.042922858 0.060505718 0.54300004
0.043957144 0.060505718 0.54300004
0.045157146 0.060728576 0.54500002
0.046364766 0.060951434 0.54700005
0.047493335 0.061062861 0.54800004
0.048537146 0.061062861 0.54800004
0.04967143 0.061174288 0.54900002
0.050809529 0.061285719 0.55000001
0.051857147 0.061285719 0.55000001
0.052904766 0.061285719 0.55000001
0.053952385 0.061285719 0.55000001
0.012738097 0.060633339 0.53500003
0.013705716 0.06040667 0.53300005
0.014693335 0.060293335 0.53200001
0.015736191 0.06040667 0.53300005
0.016720001 0.060293335 0.53200001
0.017733334 0.060293335 0.53200001
0.018746668 0.060293335 0.53200001
0.019722858 0.060180005 0.53100002
0.020734288 0.060180005 0.53100002
0.021745715 0.060180005 0.53100002
0.022800002 0.060293335 0.53200001
0.023768572 0.060180005 0.53100002
0.024826668 0.060293335 0.53200001
0.025840001 0.060293335 0.53200001
0.026853336 0.060293335 0.53200001
0.02791905 0.06040667 0.53300005
0.028934287 0.06040667 0.53300005
0.029949525 0.06040667 0.53300005
0.03102286 0.060520004 0.53400004
0.032100003 0.060633339 0.53500003
0.033119049 0.060633339 0.53500003
0.034201909 0.06074667 0.53600001
0.035222858 0.06074667 0.53600001
0.036243811 0.06074667 0.53600001
0.037334289 0.060860004 0.537
0.038428575 0.060973339 0.53800005
0.039526667 0.06108667 0.53900003
0.040628575 0.061200004 0.54000002
0.041734289 0.061313339 0.54100001
0.042922858 0.061540004 0.54300004
0.044038098 0.061653338 0.54400003
0.045240004 0.061880004 0.546
0.046364766 0.061993338 0.54700005
0.047493335 0.062106669 0.54800004
0.048537146 0.062106669 0.54800004
0.04967143 0.062220003 0.54900002
0.050809529 0.062333338 0.55000001
0.051857147 0.062333338 0.55000001
0.052904766 0.062333338 0.55000001
0.053952385 0.062333338 0.55000001
0.011740953 0.061767623 0.53600001
0.012738097 0.061652385 0.53500003
0.013731429 0.061537147 0.53400004
0.014748572 0.061537147 0.53400004
0.015706668 0.06130667 0.53200001
0.016751429 0.061421908 0.53300005
0.017733334 0.06130667 0.53200001
0.018746668 0.06130667 0.53200001
0.019760001 0.06130667 0.53200001
0.020773334 0.06130667 0.53200001
0.021786667 0.06130667 0.53200001
0.022800002 0.06130667 0.53200001
0.023813335 0.06130667 0.53200001
0.024826668 0.06130667 0.53200001
0.025840001 0.06130667 0.53200001
0.026903812 0.061421908 0.53300005
0.02791905 0.061421908 0.53300005
0.028934287 0.061421908 0.53300005
0.030005716 0.061537147 0.53400004
0.03102286 0.061537147 0.53400004
0.032100003 0.061652385 0.53500003
0.033180956 0.061767623 0.53600001
0.034201909 0.061767623 0.53600001
0.035222858 0.061767623 0.53600001
0.036311433 0.061882861 0.537
0.037403811 0.061998099 0.53800005
0.038500004 0.062113337 0.53900003
0.039600004 0.062228575 0.54000002
0.040628575 0.062228575 0.54000002
0.041734289 0.062343813 0.54100001
0.042922858 0.06257429 0.54300004
0.044119049 0.062804766 0.54500002
0.045240004 0.062920004 0.546
0.046364766 0.063035242 0.54700005
0.047493335 0.06315048 0.54800004
0.048537146 0.06315048 0.54800004
0.04967143 0.063265719 0.54900002
0.050809529 0.063380957 0.55000001
0.051951431 0.063496195 0.551
0.053000957 0.063496195 0.551
0.054246671 0.063726671 0.55300003
0.055300005 0.063726671 0.55300003
0.012761906 0.062788576 0.53600001
0.013757144 0.06267143 0.53500003
0.014776192 0.06267143 0.53500003
0.015736191 0.062437147 0.53300005
0.016782857 0.062554292 0.53400004
0.017766668 0.062437147 0.53300005
0.018781906 0.062437147 0.53300005
0.019760001 0.062320005 0.53200001
0.020773334 0.062320005 0.53200001
0.021786667 0.062320005 0.53200001
0.022800002 0.062320005 0.53200001
0.023813335 0.062320005 0.53200001
0.024826668 0.062320005 0.53200001
0.025888573 0.062437147 0.53300005
0.026903812 0.062437147 0.53300005
0.02791905 0.062437147 0.53300005
0.028988574 0.062554292 0.53400004
0.030005716 0.062554292 0.53400004
0.03102286 0.062554292 0.53400004
0.032160003 0.062788576 0.53600001
0.033180956 0.062788576 0.53600001
0.034201909 0.062788576 0.53600001
0.035222858 0.062788576 0.53600001
0.036311433 0.062905721 0.537
0.037473336 0.063140005 0.53900003
0.038500004 0.063140005 0.53900003
0.039600004 0.06325715 0.54000002
0.040628575 0.06325715 0.54000002
0.041811433 0.063491434 0.54200006
0.042922858 0.063608572 0.54300004
0.044119049 0.063842863 0.54500002
0.045322862 0.064077146 0.54700005
0.046364766 0.064077146 0.54700005
0.047493335 0.064194292 0.54800004
0.048625719 0.06431143 0.54900002
0.04967143 0.06431143 0.54900002
0.050809529 0.064428575 0.55000001
0.051951431 0.064545721 0.551
