# .PCD v0.7 - Point Cloud Data file format
VERSION 0.7
FIELDS x y z
SIZE 4 4 4
TYPE F F F
COUNT 1 1 1
WIDTH 1367
HEIGHT 1
VIEWPOINT 0 0 0 1 0 0 0
POINTS 1367
DATA ascii
0.0079114288 0.043208573 0.63900006
0.0091285724 0.043208573 0.63900006
0.010345715 0.043208573 0.63900006
0.011544763 0.043140955 0.63800001
0.012760001 0.043140955 0.63800001
0.013975239 0.043140955 0.63800001
0.015190477 0.043140955 0.63800001
0.016405715 0.043140955 0.63800001
0.017565716 0.043005716 0.63600004
0.018777143 0.043005716 0.63600004
0.019988572 0.043005716 0.63600004
0.021200001 0.043005716 0.63600004
0.02241143 0.043005716 0.63600004
0.023622859 0.043005716 0.63600004
0.024834286 0.043005716 0.63600004
0.026045715 0.043005716 0.63600004
0.027257144 0.043005716 0.63600004
0.028468573 0.043005716 0.63600004
0.029680002 0.043005716 0.63600004
0.030988574 0.043140955 0.63800001
0.032203812 0.043140955 0.63800001
0.03341905 0.043140955 0.63800001
0.034688573 0.043208573 0.63900006
0.035961907 0.043276194 0.64000005
0.037239049 0.043343812 0.64100003
0.038520001 0.04341143 0.64200002
0.039866671 0.043546669 0.64400005
0.041093335 0.043546669 0.64400005
0.042320002 0.043546669 0.64400005
0.043614287 0.043614287 0.64500004
0.044842862 0.043614287 0.64500004
0.04621429 0.043749526 0.64700001
0.047813337 0.044087622 0.65200001
0.049055241 0.044087622 0.65200001
-0.0094000008 0.045746669 0.65800005
-0.0081342859 0.045677144 0.65700001
-0.0068304767 0.045329526 0.65200001
-0.0055800006 0.045260005 0.65100002
-0.0043333336 0.04519048 0.65000004
-0.0030857145 0.045051433 0.648
-0.0018514286 0.045051433 0.648
-0.00061619049 0.044981908 0.64700001
0.00061619049 0.044981908 0.64700001
0.0018400002 0.044773336 0.64400005
0.003057143 0.04463429 0.64200002
0.0042800005 0.04463429 0.64200002
0.0054857144 0.04449524 0.64000005
0.0067047626 0.04449524 0.64000005
0.0079114288 0.044425718 0.63900006
0.0091285724 0.044425718 0.63900006
0.010345715 0.044425718 0.63900006
0.011544763 0.044356193 0.63800001
0.012760001 0.044356193 0.63800001
0.013975239 0.044356193 0.63800001
0.015190477 0.044356193 0.63800001
0.016405715 0.044356193 0.63800001
0.017620953 0.044356193 0.63800001
0.018836191 0.044356193 0.63800001
0.020051429 0.044356193 0.63800001
0.021266667 0.044356193 0.63800001
0.02241143 0.044217147 0.63600004
0.023622859 0.044217147 0.63600004
0.024834286 0.044217147 0.63600004
0.026045715 0.044217147 0.63600004
0.027257144 0.044217147 0.63600004
0.028558098 0.044356193 0.63800001
0.029773336 0.044356193 0.63800001
0.030988574 0.044356193 0.63800001
0.032254286 0.044425718 0.63900006
0.033471432 0.044425718 0.63900006
0.034742858 0.04449524 0.64000005
0.036018096 0.044564765 0.64100003
0.037297145 0.04463429 0.64200002
0.038520001 0.04463429 0.64200002
0.039866671 0.044773336 0.64400005
0.041093335 0.044773336 0.64400005
0.042385716 0.044842862 0.64500004
0.043614287 0.044842862 0.64500004
0.044842862 0.044842862 0.64500004
0.046285719 0.045051433 0.648
0.047740005 0.045260005 0.65100002
0.049055241 0.045329526 0.65200001
-0.0094714295 0.047357146 0.66300005
-0.0081961909 0.047285717 0.66200006
-0.0068409527 0.046642859 0.65300006
-0.005588572 0.04657143 0.65200001
-0.0043333336 0.046428576 0.65000004
-0.0030952382 0.046428576 0.65000004
-0.0018514286 0.046285719 0.648
-0.00061714288 0.046285719 0.648
0.00061619049 0.04621429 0.64700001
0.0018428572 0.046071433 0.64500004
0.0030666669 0.046000004 0.64400005
0.0042800005 0.045857146 0.64200002
0.0055028577 0.045857146 0.64200002
0.0067152386 0.045785718 0.64100003
0.0079238098 0.045714289 0.64000005
0.009142858 0.045714289 0.64000005
0.010361905 0.045714289 0.64000005
0.011580953 0.045714289 0.64000005
0.01278 0.04564286 0.63900006
0.013997144 0.04564286 0.63900006
0.015214287 0.04564286 0.63900006
0.01643143 0.04564286 0.63900006
0.017648572 0.04564286 0.63900006
0.018865716 0.04564286 0.63900006
0.020082859 0.04564286 0.63900006
0.021266667 0.045571432 0.63800001
0.022481907 0.045571432 0.63800001
0.023697145 0.045571432 0.63800001
0.024912383 0.045571432 0.63800001
0.026127622 0.045571432 0.63800001
0.02734286 0.045571432 0.63800001
0.028602859 0.04564286 0.63900006
0.029820003 0.04564286 0.63900006
0.031085717 0.045714289 0.64000005
0.032304764 0.045714289 0.64000005
0.033576194 0.045785718 0.64100003
0.034797147 0.045785718 0.64100003
0.036074288 0.045857146 0.64200002
0.037297145 0.045857146 0.64200002
0.038640004 0.046000004 0.64400005
0.039866671 0.046000004 0.64400005
0.041220956 0.046142861 0.64600003
0.04245143 0.046142861 0.64600003
0.043749526 0.04621429 0.64700001
0.044981908 0.04621429 0.64700001
0.046500005 0.046500005 0.65100002
0.04788667 0.046642859 0.65300006
0.049280956 0.046785716 0.65500003
-0.0094285719 0.048400003 0.66000003
-0.0081838099 0.048473336 0.66100001
-0.0068409527 0.04788667 0.65300006
-0.0055971434 0.04788667 0.65300006
-0.0043400005 0.047740005 0.65100002
-0.0031000001 0.047740005 0.65100002
-0.001857143 0.047666669 0.65000004
-0.00061714288 0.047520004 0.648
0.00061714288 0.047520004 0.648
0.0018485716 0.047446668 0.64700001
0.0030714287 0.047300003 0.64500004
0.0042933337 0.047226671 0.64400005
0.0055028577 0.047080003 0.64200002
0.0067257145 0.047080003 0.64200002
0.0079361908 0.04700667 0.64100003
0.009142858 0.046933338 0.64000005
0.010361905 0.046933338 0.64000005
0.011580953 0.046933338 0.64000005
0.01278 0.046860002 0.63900006
0.013997144 0.046860002 0.63900006
0.015214287 0.046860002 0.63900006
0.01643143 0.046860002 0.63900006
0.017648572 0.046860002 0.63900006
0.018865716 0.046860002 0.63900006
0.020082859 0.046860002 0.63900006
0.021300001 0.046860002 0.63900006
0.022517145 0.046860002 0.63900006
0.023734286 0.046860002 0.63900006
0.024912383 0.04678667 0.63800001
0.026127622 0.04678667 0.63800001
0.027385715 0.046860002 0.63900006
0.028602859 0.046860002 0.63900006
0.029866669 0.046933338 0.64000005
0.031134287 0.04700667 0.64100003
0.032355241 0.04700667 0.64100003
0.033628572 0.047080003 0.64200002
0.034851432 0.047080003 0.64200002
0.036186669 0.047226671 0.64400005
0.037413336 0.047226671 0.64400005
0.038640004 0.047226671 0.64400005
0.039928574 0.047300003 0.64500004
0.041220956 0.047373336 0.64600003
0.04245143 0.047373336 0.64600003
0.043749526 0.047446668 0.64700001
0.044981908 0.047446668 0.64700001
0.04657143 0.047813337 0.65200001
0.048033338 0.048033338 0.65500003
0.049356192 0.04810667 0.65600002
-0.012033334 0.050033338 0.66500002
-0.010718096 0.049807623 0.66200006
-0.0094285719 0.049657147 0.66000003
-0.0081714289 0.049657147 0.66000003
-0.0068828575 0.049431432 0.65700001
-0.0056142863 0.049280956 0.65500003
-0.0043466669 0.049055241 0.65200001
-0.0031047622 0.049055241 0.65200001
-0.001857143 0.048904765 0.65000004
-0.00061904767 0.048904765 0.65000004
0.00061714288 0.04875429 0.648
0.0018485716 0.04867905 0.64700001
0.0030761906 0.048603814 0.64600003
0.0043000001 0.048528574 0.64500004
0.0055028577 0.048302859 0.64200002
0.0067257145 0.048302859 0.64200002
0.0079485718 0.048302859 0.64200002
0.0091714291 0.048302859 0.64200002
0.010378096 0.048227623 0.64100003
0.011599048 0.048227623 0.64100003
0.012800001 0.048152383 0.64000005
0.014019049 0.048152383 0.64000005
0.015214287 0.048077147 0.63900006
0.016457144 0.048152383 0.64000005
0.017648572 0.048077147 0.63900006
0.018865716 0.048077147 0.63900006
0.020082859 0.048077147 0.63900006
0.021300001 0.048077147 0.63900006
0.022517145 0.048077147 0.63900006
0.023734286 0.048077147 0.63900006
0.02495143 0.048077147 0.63900006
0.026168574 0.048077147 0.63900006
0.027428573 0.048152383 0.64000005
0.02864762 0.048152383 0.64000005
0.029913336 0.048227623 0.64100003
0.031182859 0.048302859 0.64200002
0.032405715 0.048302859 0.64200002
0.033733334 0.048453335 0.64400005
0.034960002 0.048453335 0.64400005
0.036186669 0.048453335 0.64400005
0.037413336 0.048453335 0.64400005
0.038640004 0.048453335 0.64400005
0.039928574 0.048528574 0.64500004
0.041220956 0.048603814 0.64600003
0.042517144 0.04867905 0.64700001
0.043749526 0.04867905 0.64700001
0.044981908 0.04867905 0.64700001
0.04657143 0.049055241 0.65200001
0.048033338 0.049280956 0.65500003
0.049356192 0.049356192 0.65600002
-0.0094000008 0.050760005 0.65800005
-0.0081466669 0.050760005 0.65800005
-0.0068828575 0.050682861 0.65700001
-0.0056142863 0.050528575 0.65500003
-0.0043533337 0.050374288 0.65300006
-0.0031047622 0.050297145 0.65200001
-0.0018600001 0.050220001 0.65100002
-0.00061904767 0.050142862 0.65000004
0.00061904767 0.050142862 0.65000004
0.0018514286 0.049988575 0.648
0.0030809527 0.049911432 0.64700001
0.004306667 0.049834289 0.64600003
0.0055200006 0.049680002 0.64400005
0.006746667 0.049680002 0.64400005
0.0079733338 0.049680002 0.64400005
0.0091714291 0.049525719 0.64200002
0.010394286 0.049525719 0.64200002
0.011617144 0.049525719 0.64200002
0.012800001 0.049371433 0.64000005
0.014019049 0.049371433 0.64000005
0.015238096 0.049371433 0.64000005
0.016457144 0.049371433 0.64000005
0.017676191 0.049371433 0.64000005
0.018865716 0.049294289 0.63900006
0.020082859 0.049294289 0.63900006
0.021300001 0.049294289 0.63900006
0.022517145 0.049294289 0.63900006
0.023734286 0.049294289 0.63900006
0.02495143 0.049294289 0.63900006
0.026168574 0.049294289 0.63900006
0.027471431 0.049448576 0.64100003
0.028692383 0.049448576 0.64100003
0.029960003 0.049525719 0.64200002
0.031182859 0.049525719 0.64200002
0.032405715 0.049525719 0.64200002
0.033733334 0.049680002 0.64400005
0.034960002 0.049680002 0.64400005
0.036242861 0.049757145 0.64500004
0.037471432 0.049757145 0.64500004
0.038700003 0.049757145 0.64500004
0.039990477 0.049834289 0.64600003
0.041220956 0.049834289 0.64600003
0.042517144 0.049911432 0.64700001
0.043817144 0.049988575 0.648
0.044981908 0.049911432 0.64700001
0.04657143 0.050297145 0.65200001
0.048033338 0.050528575 0.65500003
0.049356192 0.050605718 0.65600002
0.050605718 0.050605718 0.65600002
-0.0094000008 0.052013338 0.65800005
-0.0081466669 0.052013338 0.65800005
-0.0068828575 0.051934291 0.65700001
-0.0056142863 0.051776193 0.65500003
-0.0043533337 0.051618099 0.65300006
-0.0031047622 0.051539052 0.65200001
-0.0018628573 0.051539052 0.65200001
-0.00062000006 0.051460002 0.65100002
0.00061904767 0.051380955 0.65000004
0.0018514286 0.051222861 0.648
0.0030809527 0.051143814 0.64700001
0.004306667 0.051064767 0.64600003
0.005528572 0.050985716 0.64500004
0.0067571434 0.050985716 0.64500004
0.0079857148 0.050985716 0.64500004
0.0092000002 0.050906669 0.64400005
0.010426668 0.050906669 0.64400005
0.011617144 0.050748575 0.64200002
0.012820001 0.050669529 0.64100003
0.014019049 0.050590478 0.64000005
0.015238096 0.050590478 0.64000005
0.016482858 0.050669529 0.64100003
0.017676191 0.050590478 0.64000005
0.018895239 0.050590478 0.64000005
0.020114288 0.050590478 0.64000005
0.021333335 0.050590478 0.64000005
0.022552382 0.050590478 0.64000005
0.023734286 0.050511431 0.63900006
0.02495143 0.050511431 0.63900006
0.026209526 0.050590478 0.64000005
0.027471431 0.050669529 0.64100003
0.028692383 0.050669529 0.64100003
0.029960003 0.050748575 0.64200002
0.031182859 0.050748575 0.64200002
0.032506667 0.050906669 0.64400005
0.033733334 0.050906669 0.64400005
0.034960002 0.050906669 0.64400005
0.036242861 0.050985716 0.64500004
0.037471432 0.050985716 0.64500004
0.038760003 0.051064767 0.64600003
0.040052384 0.051143814 0.64700001
0.041284766 0.051143814 0.64700001
0.042582858 0.051222861 0.648
0.043817144 0.051222861 0.648
0.04519048 0.051380955 0.65000004
0.046785716 0.051776193 0.65500003
0.04810667 0.05185524 0.65600002
0.049431432 0.051934291 0.65700001
0.050682861 0.051934291 0.65700001
-0.0094428575 0.053509526 0.66100001
-0.0081714289 0.053428575 0.66000003
-0.006893334 0.053266671 0.65800005
-0.0056228577 0.053104766 0.65600002
-0.004366667 0.053023811 0.65500003
-0.003109524 0.052861907 0.65300006
-0.0018628573 0.052780956 0.65200001
-0.00062000006 0.052700002 0.65100002
0.00061904767 0.052619051 0.65000004
0.001857143 0.052619051 0.65000004
0.0030809527 0.052376192 0.64700001
0.0043133334 0.052376192 0.64700001
0.0055371434 0.052295242 0.64600003
0.0067676194 0.052295242 0.64600003
0.0079980958 0.052295242 0.64600003
0.0092142867 0.052214291 0.64500004
0.010442858 0.052214291 0.64500004
0.011653334 0.052133337 0.64400005
0.012840001 0.051971432 0.64200002
0.014062858 0.051971432 0.64200002
0.015261906 0.051890481 0.64100003
0.016482858 0.051890481 0.64100003
0.017703811 0.051890481 0.64100003
0.018924763 0.051890481 0.64100003
0.020145716 0.051890481 0.64100003
0.021366669 0.051890481 0.64100003
0.02258762 0.051890481 0.64100003
0.023771429 0.051809527 0.64000005
0.024990479 0.051809527 0.64000005
0.026250478 0.051890481 0.64100003
0.027471431 0.051890481 0.64100003
0.028737145 0.051971432 0.64200002
0.029960003 0.051971432 0.64200002
0.031280003 0.052133337 0.64400005
0.032506667 0.052133337 0.64400005
0.033785716 0.052214291 0.64500004
0.035014287 0.052214291 0.64500004
0.03629905 0.052295242 0.64600003
0.037529524 0.052295242 0.64600003
0.038820002 0.052376192 0.64700001
0.040052384 0.052376192 0.64700001
0.041348573 0.052457146 0.648
0.04271429 0.052619051 0.65000004
0.044020005 0.052700002 0.65100002
0.045399051 0.052861907 0.65300006
0.046857145 0.053104766 0.65600002
0.04810667 0.053104766 0.65600002
0.049431432 0.053185716 0.65700001
0.050682861 0.053185716 0.65700001
0.051934291 0.053185716 0.65700001
-0.009457143 0.054851431 0.66200006
-0.0081714289 0.054685719 0.66000003
-0.006893334 0.054520003 0.65800005
-0.0056228577 0.054354288 0.65600002
-0.004366667 0.054271434 0.65500003
-0.003109524 0.054105718 0.65300006
-0.0018657144 0.054105718 0.65300006
-0.0006209524 0.05402286 0.65200001
0.00062000006 0.053940002 0.65100002
0.001857143 0.053857148 0.65000004
0.0030857145 0.053691432 0.648
0.0043133334 0.053608574 0.64700001
0.0055457149 0.053608574 0.64700001
0.0067676194 0.053525716 0.64600003
0.0079980958 0.053525716 0.64600003
0.0092285722 0.053525716 0.64600003
0.010442858 0.053442862 0.64500004
0.011653334 0.053360004 0.64400005
0.012880001 0.053360004 0.64400005
0.014062858 0.053194288 0.64200002
0.015285715 0.053194288 0.64200002
0.016508572 0.053194288 0.64200002
0.01773143 0.053194288 0.64200002
0.018954286 0.053194288 0.64200002
0.020145716 0.05311143 0.64100003
0.021400001 0.053194288 0.64200002
0.02258762 0.05311143 0.64100003
0.023808572 0.05311143 0.64100003
0.025029525 0.05311143 0.64100003
0.026250478 0.05311143 0.64100003
0.027514288 0.053194288 0.64200002
0.028737145 0.053194288 0.64200002
0.029960003 0.053194288 0.64200002
0.031280003 0.053360004 0.64400005
0.032506667 0.053360004 0.64400005
0.033785716 0.053442862 0.64500004
0.035014287 0.053442862 0.64500004
0.03629905 0.053525716 0.64600003
0.037529524 0.053525716 0.64600003
0.038820002 0.053608574 0.64700001
0.040114287 0.053691432 0.648
0.041348573 0.053691432 0.648
0.04271429 0.053857148 0.65000004
0.044087622 0.05402286 0.65200001
0.045607623 0.054354288 0.65600002
0.046857145 0.054354288 0.65600002
0.048180003 0.054437146 0.65700001
0.049431432 0.054437146 0.65700001
0.050682861 0.054437146 0.65700001
0.051934291 0.054437146 0.65700001
-0.0094714295 0.056197148 0.66300005
-0.0081961909 0.056112386 0.66200006
-0.0069142859 0.05594286 0.66000003
-0.0056314291 0.055688575 0.65700001
-0.0043800003 0.055688575 0.65700001
-0.0031190477 0.055519052 0.65500003
-0.0018657144 0.055349529 0.65300006
-0.0006209524 0.055264767 0.65200001
0.0006209524 0.055264767 0.65200001
0.0018600001 0.055180002 0.65100002
0.0030857145 0.054925717 0.648
0.0043200003 0.054925717 0.648
0.0055457149 0.054840956 0.64700001
0.0067780958 0.054840956 0.64700001
0.0080104768 0.054840956 0.64700001
0.0092285722 0.054756194 0.64600003
0.010459049 0.054756194 0.64600003
0.011671429 0.054671433 0.64500004
0.0129 0.054671433 0.64500004
0.014106668 0.054586671 0.64400005
0.015285715 0.054417148 0.64200002
0.016508572 0.054417148 0.64200002
0.01773143 0.054417148 0.64200002
0.018954286 0.054417148 0.64200002
0.020145716 0.054332383 0.64100003
0.021366669 0.054332383 0.64100003
0.02258762 0.054332383 0.64100003
0.023808572 0.054332383 0.64100003
0.025029525 0.054332383 0.64100003
0.02629143 0.054417148 0.64200002
0.027514288 0.054417148 0.64200002
0.028737145 0.054417148 0.64200002
0.030053336 0.054586671 0.64400005
0.031280003 0.054586671 0.64400005
0.032557145 0.054671433 0.64500004
0.033785716 0.054671433 0.64500004
0.035014287 0.054671433 0.64500004
0.03629905 0.054756194 0.64600003
0.03758762 0.054840956 0.64700001
0.038820002 0.054840956 0.64700001
0.040114287 0.054925717 0.648
0.041476194 0.05509524 0.65000004
0.042780004 0.055180002 0.65100002
0.044087622 0.055264767 0.65200001
0.046928573 0.055688575 0.65700001
0.048180003 0.055688575 0.65700001
0.049431432 0.055688575 0.65700001
0.050682861 0.055688575 0.65700001
0.051934291 0.055688575 0.65700001
-0.0081961909 0.057373337 0.66200006
-0.0069142859 0.057200003 0.66000003
-0.0056571434 0.057200003 0.66000003
-0.0043800003 0.056940004 0.65700001
-0.0031238098 0.056853335 0.65600002
-0.0018742859 0.056853335 0.65600002
-0.00062190479 0.056593336 0.65300006
0.0006209524 0.056506671 0.65200001
0.0018600001 0.056420002 0.65100002
0.0031000001 0.056420002 0.65100002
0.0043200003 0.056160003 0.648
0.0055542863 0.056160003 0.648
0.0067780958 0.056073338 0.64700001
0.0080104768 0.056073338 0.64700001
0.0092428578 0.056073338 0.64700001
0.010459049 0.055986669 0.64600003
0.011689524 0.055986669 0.64600003
0.012920001 0.055986669 0.64600003
0.014128572 0.055900004 0.64500004
0.015333334 0.055813339 0.64400005
0.016560001 0.055813339 0.64400005
0.01773143 0.055640005 0.64200002
0.018954286 0.055640005 0.64200002
0.020177145 0.055640005 0.64200002
0.021400001 0.055640005 0.64200002
0.022622859 0.055640005 0.64200002
0.023845715 0.055640005 0.64200002
0.025068574 0.055640005 0.64200002
0.02629143 0.055640005 0.64200002
0.027600002 0.055813339 0.64400005
0.028826669 0.055813339 0.64400005
0.030053336 0.055813339 0.64400005
0.031280003 0.055813339 0.64400005
0.032557145 0.055900004 0.64500004
0.033785716 0.055900004 0.64500004
0.035068575 0.055986669 0.64600003
0.036355242 0.056073338 0.64700001
0.03758762 0.056073338 0.64700001
0.038880002 0.056160003 0.648
0.040238097 0.056333337 0.65000004
0.041476194 0.056333337 0.65000004
0.042780004 0.056420002 0.65100002
0.04415524 0.056593336 0.65300006
0.045607623 0.056853335 0.65600002
0.046928573 0.056940004 0.65700001
0.048180003 0.056940004 0.65700001
0.049431432 0.056940004 0.65700001
0.050760005 0.057026669 0.65800005
0.052013338 0.057026669 0.65800005
-0.0094714295 0.058722861 0.66300005
-0.0081961909 0.058634289 0.66200006
-0.0069247624 0.05854572 0.66100001
-0.0056571434 0.058457147 0.66000003
-0.0043866672 0.058280002 0.65800005
-0.0031285717 0.058191434 0.65700001
-0.0018742859 0.058102861 0.65600002
-0.00062380958 0.058014289 0.65500003
0.00062190479 0.057837147 0.65300006
0.0018628573 0.057748575 0.65200001
0.0031000001 0.057660002 0.65100002
0.0043333336 0.057571433 0.65000004
0.0055542863 0.057394288 0.648
0.0067885718 0.057394288 0.648
0.0080104768 0.05730572 0.64700001
0.0092428578 0.05730572 0.64700001
0.010475239 0.05730572 0.64700001
0.011689524 0.057217147 0.64600003
0.012920001 0.057217147 0.64600003
0.014150477 0.057217147 0.64600003
0.015357144 0.057128575 0.64500004
0.016585715 0.057128575 0.64500004
0.017786669 0.057040002 0.64400005
0.019013334 0.057040002 0.64400005
0.020240001 0.057040002 0.64400005
0.021400001 0.056862861 0.64200002
0.022622859 0.056862861 0.64200002
0.023845715 0.056862861 0.64200002
0.025146669 0.057040002 0.64400005
0.026373334 0.057040002 0.64400005
0.027600002 0.057040002 0.64400005
0.028826669 0.057040002 0.64400005
0.030100003 0.057128575 0.64500004
0.031328574 0.057128575 0.64500004
0.032557145 0.057128575 0.64500004
0.033838097 0.057217147 0.64600003
0.035068575 0.057217147 0.64600003
0.036355242 0.05730572 0.64700001
0.037645716 0.057394288 0.648
0.039000001 0.057571433 0.65000004
0.040300004 0.057660002 0.65100002
0.041540004 0.057660002 0.65100002
0.042845719 0.057748575 0.65200001
0.04415524 0.057837147 0.65300006
0.045607623 0.058102861 0.65600002
0.046928573 0.058191434 0.65700001
0.048180003 0.058191434 0.65700001
0.049506672 0.058280002 0.65800005
0.050760005 0.058280002 0.65800005
0.052013338 0.058280002 0.65800005
-0.0056571434 0.059714291 0.66000003
-0.0044000004 0.059714291 0.66000003
-0.0031333335 0.059533339 0.65800005
-0.0018771429 0.059442863 0.65700001
-0.00062571431 0.059442863 0.65700001
0.00062476192 0.059352383 0.65600002
0.0018657144 0.059080955 0.65300006
0.0031047622 0.058990479 0.65200001
0.0043333336 0.058809526 0.65000004
0.0055714292 0.058809526 0.65000004
0.0067885718 0.058628574 0.648
0.0080228578 0.058628574 0.648
0.0092571434 0.058628574 0.648
0.010475239 0.058538098 0.64700001
0.01170762 0.058538098 0.64700001
0.012940001 0.058538098 0.64700001
0.014172382 0.058538098 0.64700001
0.015380953 0.058447622 0.64600003
0.016611429 0.058447622 0.64600003
0.017841905 0.058447622 0.64600003
0.019042859 0.058357146 0.64500004
0.020240001 0.05826667 0.64400005
0.021466669 0.05826667 0.64400005
0.022693334 0.05826667 0.64400005
0.023920001 0.05826667 0.64400005
0.025146669 0.05826667 0.64400005
0.026414288 0.058357146 0.64500004
0.027600002 0.05826667 0.64400005
0.02887143 0.058357146 0.64500004
0.030146668 0.058447622 0.64600003
0.031377144 0.058447622 0.64600003
0.032658096 0.058538098 0.64700001
0.033890478 0.058538098 0.64700001
0.03512286 0.058538098 0.64700001
0.036411431 0.058628574 0.648
0.037761908 0.058809526 0.65000004
0.039060004 0.058900002 0.65100002
0.040361907 0.058990479 0.65200001
0.041603811 0.058990479 0.65200001
0.042911433 0.059080955 0.65300006
0.044290479 0.059261907 0.65500003
0.045677144 0.059442863 0.65700001
0.047000002 0.059533339 0.65800005
0.048473336 0.059804767 0.66100001
0.049732383 0.059804767 0.66100001
0.051068574 0.059895243 0.66200006
-0.0044000004 0.060971431 0.66000003
-0.0031333335 0.060786672 0.65800005
-0.0018800001 0.060786672 0.65800005
-0.00062571431 0.060694288 0.65700001
0.00062476192 0.060601909 0.65600002
0.0018657144 0.060324766 0.65300006
0.0031047622 0.060232386 0.65200001
0.0043333336 0.060047623 0.65000004
0.0055714292 0.060047623 0.65000004
0.0067885718 0.05986286 0.648
0.0080228578 0.05986286 0.648
0.0092571434 0.05986286 0.648
0.010491429 0.05986286 0.648
0.01170762 0.05977048 0.64700001
0.012940001 0.05977048 0.64700001
0.014172382 0.05977048 0.64700001
0.015404763 0.05977048 0.64700001
0.016637145 0.05977048 0.64700001
0.017841905 0.0596781 0.64600003
0.019072382 0.0596781 0.64600003
0.02027143 0.059585717 0.64500004
0.021500001 0.059585717 0.64500004
0.022728574 0.059585717 0.64500004
0.023920001 0.059493337 0.64400005
0.025185715 0.059585717 0.64500004
0.026414288 0.059585717 0.64500004
0.027642859 0.059585717 0.64500004
0.028916193 0.0596781 0.64600003
0.030146668 0.0596781 0.64600003
0.031425714 0.05977048 0.64700001
0.032658096 0.05977048 0.64700001
0.033890478 0.05977048 0.64700001
0.035177145 0.05986286 0.648
0.036523812 0.060047623 0.65000004
0.037820004 0.060140003 0.65100002
0.039120004 0.060232386 0.65200001
0.040361907 0.060232386 0.65200001
0.041667622 0.060324766 0.65300006
0.043042861 0.060509529 0.65500003
0.044358097 0.060601909 0.65600002
0.045677144 0.060694288 0.65700001
0.047000002 0.060786672 0.65800005
0.048473336 0.061063815 0.66100001
0.049807623 0.061156195 0.66200006
0.051145718 0.061248574 0.66300005
-0.0044000004 0.062228575 0.66000003
-0.0031333335 0.062040005 0.65800005
-0.0018800001 0.062040005 0.65800005
-0.00062571431 0.061945718 0.65700001
0.00062476192 0.061851434 0.65600002
0.0018714287 0.061757147 0.65500003
0.003109524 0.061568577 0.65300006
0.0043466669 0.06147429 0.65200001
0.0055714292 0.061285719 0.65000004
0.0068095243 0.061285719 0.65000004
0.0080476198 0.061285719 0.65000004
0.0092857145 0.061285719 0.65000004
0.010491429 0.061097145 0.648
0.011725715 0.061097145 0.648
0.012940001 0.061002862 0.64700001
0.014172382 0.061002862 0.64700001
0.015404763 0.061002862 0.64700001
0.016637145 0.061002862 0.64700001
0.017869525 0.061002862 0.64700001
0.019072382 0.060908575 0.64600003
0.020302858 0.060908575 0.64600003
0.021500001 0.060814291 0.64500004
0.022728574 0.060814291 0.64500004
0.023957144 0.060814291 0.64500004
0.025185715 0.060814291 0.64500004
0.026414288 0.060814291 0.64500004
0.027685717 0.060908575 0.64600003
0.028960954 0.061002862 0.64700001
0.030193334 0.061002862 0.64700001
0.031425714 0.061002862 0.64700001
0.032708574 0.061097145 0.648
0.03394286 0.061097145 0.648
0.035285715 0.061285719 0.65000004
0.036580004 0.061380003 0.65100002
0.037878096 0.06147429 0.65200001
0.039180003 0.061568577 0.65300006
0.04042381 0.061568577 0.65300006
0.041667622 0.061568577 0.65300006
0.043108575 0.061851434 0.65600002
0.044425718 0.061945718 0.65700001
0.045746669 0.062040005 0.65800005
0.04714286 0.062228575 0.66000003
0.048546668 0.062417146 0.66200006
0.049882859 0.062511429 0.66300005
0.051300004 0.062700003 0.66500002
-0.0044133337 0.063678101 0.66200006
-0.0031428575 0.063485719 0.66000003
-0.0018800001 0.063293338 0.65800005
-0.0006266667 0.063293338 0.65800005
0.00062571431 0.063197143 0.65700001
0.0018742859 0.063100956 0.65600002
0.003109524 0.062812388 0.65300006
0.0043533337 0.062812388 0.65300006
0.0055800006 0.062620007 0.65100002
0.0068200002 0.062620007 0.65100002
0.0080476198 0.062523812 0.65000004
0.0092857145 0.062523812 0.65000004
0.01052381 0.062523812 0.65000004
0.011725715 0.062331434 0.648
0.012960001 0.062331434 0.648
0.014194286 0.062331434 0.648
0.015404763 0.062235244 0.64700001
0.016637145 0.062235244 0.64700001
0.017869525 0.062235244 0.64700001
0.019101907 0.062235244 0.64700001
0.020302858 0.062139053 0.64600003
0.021533335 0.062139053 0.64600003
0.022763811 0.062139053 0.64600003
0.023994287 0.062139053 0.64600003
0.025224764 0.062139053 0.64600003
0.02645524 0.062139053 0.64600003
0.027728572 0.062235244 0.64700001
0.028960954 0.062235244 0.64700001
0.030240001 0.062331434 0.648
0.031474289 0.062331434 0.648
0.032708574 0.062331434 0.648
0.034047622 0.062523812 0.65000004
0.035394289 0.062716193 0.65200001
0.036636192 0.062716193 0.65200001
0.037878096 0.062716193 0.65200001
0.039180003 0.062812388 0.65300006
0.040547621 0.063004769 0.65500003
0.041795243 0.063004769 0.65500003
0.043174289 0.063197143 0.65700001
0.044425718 0.063197143 0.65700001
0.045885716 0.063485719 0.66000003
0.047214288 0.063581906 0.66100001
0.048620004 0.063774288 0.66300005
0.050033338 0.063966669 0.66500002
0.051377147 0.064062864 0.66600001
-0.0044200001 0.065037146 0.66300005
-0.0031428575 0.064742863 0.66000003
-0.0018800001 0.064546674 0.65800005
-0.0006266667 0.064546674 0.65800005
0.00062571431 0.064448573 0.65700001
0.0018742859 0.064350478 0.65600002
0.0031190477 0.064252384 0.65500003
0.0043533337 0.064056195 0.65300006
0.005588572 0.063958101 0.65200001
0.0068200002 0.063860007 0.65100002
0.0080600008 0.063860007 0.65100002
0.009300001 0.063860007 0.65100002
0.01052381 0.063761912 0.65000004
0.011761906 0.063761912 0.65000004
0.012960001 0.063565716 0.648
0.014194286 0.063565716 0.648
0.015404763 0.063467622 0.64700001
0.016637145 0.063467622 0.64700001
0.017869525 0.063467622 0.64700001
0.019101907 0.063467622 0.64700001
0.020334287 0.063467622 0.64700001
0.021566669 0.063467622 0.64700001
0.022763811 0.063369527 0.64600003
0.023994287 0.063369527 0.64600003
0.025224764 0.063369527 0.64600003
0.026496192 0.063467622 0.64700001
0.027728572 0.063467622 0.64700001
0.028960954 0.063467622 0.64700001
0.030240001 0.063565716 0.648
0.031474289 0.063565716 0.648
0.032809526 0.063761912 0.65000004
0.034100004 0.063860007 0.65100002
0.035340004 0.063860007 0.65100002
0.036636192 0.063958101 0.65200001
0.037936192 0.064056195 0.65300006
0.039300002 0.064252384 0.65500003
0.040609527 0.064350478 0.65600002
0.041859049 0.064350478 0.65600002
0.043174289 0.064448573 0.65700001
0.044493336 0.064546674 0.65800005
0.045885716 0.064742863 0.66000003
0.047285717 0.064939052 0.66200006
0.048620004 0.065037146 0.66300005
0.050108574 0.065331429 0.66600001
0.051377147 0.065331429 0.66600001
-0.0044200001 0.066300005 0.66300005
-0.0031476193 0.066100001 0.66100001
-0.0018857144 0.066000007 0.66000003
-0.00062857149 0.066000007 0.66000003
0.0006266667 0.065800004 0.65800005
0.0018771429 0.065700002 0.65700001
0.0031238098 0.065600008 0.65600002
0.0043533337 0.065300003 0.65300006
0.005588572 0.065200001 0.65200001
0.0068304767 0.065200001 0.65200001
0.0080600008 0.065100007 0.65100002
0.009300001 0.065100007 0.65100002
0.010540001 0.065100007 0.65100002
0.011761906 0.065000005 0.65000004
0.013000001 0.065000005 0.65000004
0.014238096 0.065000005 0.65000004
0.015428573 0.064800002 0.648
0.016662858 0.064800002 0.648
0.017869525 0.064700007 0.64700001
0.019101907 0.064700007 0.64700001
0.020334287 0.064700007 0.64700001
0.021566669 0.064700007 0.64700001
0.022799049 0.064700007 0.64700001
0.02403143 0.064700007 0.64700001
0.025263811 0.064700007 0.64700001
0.026496192 0.064700007 0.64700001
0.02777143 0.064800002 0.648
0.029005716 0.064800002 0.648
0.030333335 0.065000005 0.65000004
0.031668574 0.065200001 0.65200001
0.032910477 0.065200001 0.65200001
0.034204762 0.065300003 0.65300006
0.035394289 0.065200001 0.65200001
0.036692385 0.065300003 0.65300006
0.037936192 0.065300003 0.65300006
0.039360002 0.065600008 0.65600002
0.040609527 0.065600008 0.65600002
0.04192286 0.065700002 0.65700001
0.043240003 0.065800004 0.65800005
0.044628575 0.066000007 0.66000003
0.045955241 0.066100001 0.66100001
0.047285717 0.066200003 0.66200006
0.048766669 0.066500001 0.66500002
0.050108574 0.066600002 0.66600001
0.051454291 0.066700004 0.66700006
-0.0031523812 0.067460954 0.66200006
-0.0018885715 0.067359053 0.66100001
-0.00062952383 0.067359053 0.66100001
0.0006266667 0.06705334 0.65800005
0.0018771429 0.066951431 0.65700001
0.0031285717 0.066951431 0.65700001
0.0043733334 0.06684953 0.65600002
0.0055971434 0.066543818 0.65300006
0.0068304767 0.066441908 0.65200001
0.0080723818 0.066441908 0.65200001
0.0093142865 0.066441908 0.65200001
0.010540001 0.066340007 0.65100002
0.011780001 0.066340007 0.65100002
0.01302 0.066340007 0.65100002
0.014238096 0.066238098 0.65000004
0.015428573 0.066034287 0.648
0.016662858 0.066034287 0.648
0.017897144 0.066034287 0.648
0.019131429 0.066034287 0.648
0.020334287 0.065932386 0.64700001
0.021566669 0.065932386 0.64700001
0.022799049 0.065932386 0.64700001
0.02403143 0.065932386 0.64700001
0.025263811 0.065932386 0.64700001
0.026537145 0.066034287 0.648
0.02777143 0.066034287 0.648
0.02909524 0.066238098 0.65000004
0.030380001 0.066340007 0.65100002
0.031668574 0.066441908 0.65200001
0.032960955 0.066543818 0.65300006
0.034152385 0.066441908 0.65200001
0.035394289 0.066441908 0.65200001
0.036692385 0.066543818 0.65300006
0.03811048 0.06684953 0.65600002
0.039420001 0.066951431 0.65700001
0.040671431 0.066951431 0.65700001
0.04192286 0.066951431 0.65700001
0.043240003 0.06705334 0.65800005
0.044628575 0.067257144 0.66000003
0.045955241 0.067359053 0.66100001
0.047285717 0.067460954 0.66200006
0.048840005 0.067868575 0.66600001
0.050183814 0.067970477 0.66700006
0.051454291 0.067970477 0.66700006
0.052882861 0.068174288 0.66900003
-0.0044333334 0.06903334 0.66500002
-0.0031523812 0.068721913 0.66200006
-0.0018914287 0.068721913 0.66200006
-0.00062952383 0.068618096 0.66100001
0.00062857149 0.068514287 0.66000003
0.0018800001 0.06830667 0.65800005
0.0031285717 0.068202861 0.65700001
0.0043733334 0.068099052 0.65600002
0.0055971434 0.067787625 0.65300006
0.0068304767 0.067683816 0.65200001
0.0080723818 0.067683816 0.65200001
0.0093142865 0.067683816 0.65200001
0.010556191 0.067683816 0.65200001
0.011780001 0.067580007 0.65100002
0.01302 0.067580007 0.65100002
0.014260001 0.067580007 0.65100002
0.015476191 0.067476198 0.65000004
0.016662858 0.067268573 0.648
0.017897144 0.067268573 0.648
0.019131429 0.067268573 0.648
0.020365715 0.067268573 0.648
0.021566669 0.067164764 0.64700001
0.022799049 0.067164764 0.64700001
0.024068573 0.067268573 0.648
0.025302859 0.067268573 0.648
0.026537145 0.067268573 0.648
0.027857145 0.067476198 0.65000004
0.029140001 0.067580007 0.65100002
0.030380001 0.067580007 0.65100002
0.031668574 0.067683816 0.65200001
0.032960955 0.067787625 0.65300006
0.034152385 0.067683816 0.65200001
0.035557143 0.067995243 0.65500003
0.036804765 0.067995243 0.65500003
0.03811048 0.068099052 0.65600002
0.039420001 0.068202861 0.65700001
0.040671431 0.068202861 0.65700001
0.04198667 0.06830667 0.65800005
0.043240003 0.06830667 0.65800005
0.044628575 0.068514287 0.66000003
0.046024766 0.068721913 0.66200006
0.047357146 0.068825722 0.66300005
0.048840005 0.069137149 0.66600001
0.050183814 0.069240957 0.66700006
0.051454291 0.069240957 0.66700006
-0.0057171434 0.070511431 0.66700006
-0.0044400003 0.070405722 0.66600001
-0.003157143 0.070088573 0.66300005
-0.0018914287 0.069982864 0.66200006
-0.00062952383 0.069877148 0.66100001
0.00062857149 0.069771431 0.66000003
0.0018800001 0.069560006 0.65800005
0.0031333335 0.069560006 0.65800005
0.0043800003 0.06945429 0.65700001
0.0056228577 0.069348574 0.65600002
0.0068409527 0.069031432 0.65300006
0.0080847628 0.069031432 0.65300006
0.0093285721 0.069031432 0.65300006
0.010556191 0.068925716 0.65200001
0.011798096 0.068925716 0.65200001
0.013040001 0.068925716 0.65200001
0.014260001 0.068820007 0.65100002
0.015476191 0.068714291 0.65000004
0.016714286 0.068714291 0.65000004
0.017897144 0.068502858 0.648
0.019131429 0.068502858 0.648
0.020365715 0.068502858 0.648
0.021600001 0.068502858 0.648
0.022834288 0.068502858 0.648
0.024068573 0.068502858 0.648
0.025302859 0.068502858 0.648
0.026619049 0.068714291 0.65000004
0.027900001 0.068820007 0.65100002
0.029140001 0.068820007 0.65100002
0.030426668 0.068925716 0.65200001
0.031668574 0.068925716 0.65200001
0.032960955 0.069031432 0.65300006
0.034309525 0.069242865 0.65500003
0.035557143 0.069242865 0.65500003
0.036860954 0.069348574 0.65600002
0.038168576 0.06945429 0.65700001
0.039420001 0.06945429 0.65700001
0.040733337 0.069560006 0.65800005
0.04198667 0.069560006 0.65800005
0.043371432 0.069771431 0.66000003
0.044696193 0.069877148 0.66100001
0.046094287 0.070088573 0.66300005
0.047571432 0.070405722 0.66600001
0.048913337 0.070511431 0.66700006
0.050183814 0.070511431 0.66700006
0.051454291 0.070511431 0.66700006
-0.0082828579 0.071997151 0.66900003
-0.0069876197 0.071781911 0.66700006
-0.0057171434 0.071781911 0.66700006
-0.0044400003 0.071674287 0.66600001
-0.003157143 0.071351431 0.66300005
-0.0018914287 0.071243815 0.66200006
-0.00063047622 0.071243815 0.66200006
0.00062952383 0.071136191 0.66100001
0.0018800001 0.070813335 0.65800005
0.0031333335 0.070813335 0.65800005
0.0043800003 0.070705719 0.65700001
0.0056314291 0.070705719 0.65700001
0.0068619051 0.070490479 0.65500003
0.0081095239 0.070490479 0.65500003
0.0093285721 0.07027524 0.65300006
0.010572381 0.07027524 0.65300006
0.011798096 0.070167623 0.65200001
0.013040001 0.070167623 0.65200001
0.014281905 0.070167623 0.65200001
0.015500001 0.070060007 0.65100002
0.016765716 0.070167623 0.65200001
0.017952383 0.069952384 0.65000004
0.019190477 0.069952384 0.65000004
0.020428572 0.069952384 0.65000004
0.021600001 0.069737144 0.648
0.022834288 0.069737144 0.648
0.02414286 0.069952384 0.65000004
0.025380954 0.069952384 0.65000004
0.026660001 0.070060007 0.65100002
0.027900001 0.070060007 0.65100002
0.029184764 0.070167623 0.65200001
0.030426668 0.070167623 0.65200001
0.031717144 0.07027524 0.65300006
0.032960955 0.07027524 0.65300006
0.034309525 0.070490479 0.65500003
0.035611432 0.070598103 0.65600002
0.036860954 0.070598103 0.65600002
0.038168576 0.070705719 0.65700001
0.039480001 0.070813335 0.65800005
0.040733337 0.070813335 0.65800005
0.042114288 0.071028575 0.66000003
0.043437146 0.071136191 0.66100001
0.044763811 0.071243815 0.66200006
0.046094287 0.071351431 0.66300005
0.047642861 0.071781911 0.66700006
0.048913337 0.071781911 0.66700006
0.05033429 0.071997151 0.66900003
0.051608574 0.071997151 0.66900003
0.052882861 0.071997151 0.66900003
-0.0082828579 0.073271431 0.66900003
-0.0070085721 0.073271431 0.66900003
-0.0057171434 0.073052384 0.66700006
-0.0044466672 0.073052384 0.66700006
-0.0031714288 0.07294286 0.66600001
-0.0018942858 0.07261429 0.66300005
-0.00063142861 0.07261429 0.66300005
0.00063047622 0.072504766 0.66200006
0.0018885715 0.072395243 0.66100001
0.0031428575 0.072285719 0.66000003
0.0043866672 0.072066672 0.65800005
0.0056400006 0.072066672 0.65800005
0.0068828575 0.071957149 0.65700001
0.0081219049 0.071847625 0.65600002
0.0093714288 0.071847625 0.65600002
0.010604762 0.071738102 0.65500003
0.011816191 0.071519054 0.65300006
0.013060001 0.071519054 0.65300006
0.014303811 0.071519054 0.65300006
0.01554762 0.071519054 0.65300006
0.016791429 0.071519054 0.65300006
0.018035239 0.071519054 0.65300006
0.019249525 0.071409531 0.65200001
0.020491431 0.071409531 0.65200001
0.021733334 0.071409531 0.65200001
0.02297524 0.071409531 0.65200001
0.024180003 0.071300007 0.65100002
0.025459049 0.071409531 0.65200001
0.026700955 0.071409531 0.65200001
0.027942859 0.071409531 0.65200001
0.029229525 0.071519054 0.65300006
0.030473335 0.071519054 0.65300006
0.031717144 0.071519054 0.65300006
0.033061907 0.071738102 0.65500003
0.034361906 0.071847625 0.65600002
0.035665717 0.071957149 0.65700001
0.036917146 0.071957149 0.65700001
0.038226668 0.072066672 0.65800005
0.039480001 0.072066672 0.65800005
0.040857144 0.072285719 0.66000003
0.042114288 0.072285719 0.66000003
0.043437146 0.072395243 0.66100001
0.044831432 0.07261429 0.66300005
0.046302859 0.07294286 0.66600001
0.047642861 0.073052384 0.66700006
0.049060002 0.073271431 0.66900003
0.05033429 0.073271431 0.66900003
0.051685717 0.073380955 0.67000002
-0.010928572 0.075214289 0.67500001
-0.0096428581 0.075214289 0.67500001
-0.008320001 0.074880004 0.67200005
-0.0070295241 0.074768573 0.671
-0.0057342863 0.074545719 0.66900003
-0.0044600004 0.074545719 0.66900003
-0.0031761907 0.074322864 0.66700006
-0.0019000001 0.074100003 0.66500002
-0.00063142861 0.073877148 0.66300005
0.00063047622 0.073765717 0.66200006
0.0018885715 0.073654294 0.66100001
0.0031428575 0.073542863 0.66000003
0.0043866672 0.073320001 0.65800005
0.0056400006 0.073320001 0.65800005
0.0068828575 0.073208578 0.65700001
0.0081342859 0.073208578 0.65700001
0.0093714288 0.073097147 0.65600002
0.010620954 0.073097147 0.65600002
0.011852382 0.072985716 0.65500003
0.013100001 0.072985716 0.65500003
0.01434762 0.072985716 0.65500003
0.01554762 0.072762862 0.65300006
0.016791429 0.072762862 0.65300006
0.018035239 0.072762862 0.65300006
0.01927905 0.072762862 0.65300006
0.020491431 0.072651431 0.65200001
0.021733334 0.072651431 0.65200001
0.02297524 0.072651431 0.65200001
0.024217144 0.072651431 0.65200001
0.025498098 0.072762862 0.65300006
0.026741907 0.072762862 0.65300006
0.027985716 0.072762862 0.65300006
0.029229525 0.072762862 0.65300006
0.030473335 0.072762862 0.65300006
0.031814288 0.072985716 0.65500003
0.033112384 0.073097147 0.65600002
0.034414288 0.073208578 0.65700001
0.035665717 0.073208578 0.65700001
0.036973335 0.073320001 0.65800005
0.038226668 0.073320001 0.65800005
0.039600004 0.073542863 0.66000003
0.040857144 0.073542863 0.66000003
0.042178098 0.073654294 0.66100001
0.04350286 0.073765717 0.66200006
0.044831432 0.073877148 0.66300005
0.046372384 0.074322864 0.66700006
0.047785718 0.074545719 0.66900003
0.049060002 0.074545719 0.66900003
0.05033429 0.074545719 0.66900003
-0.010928572 0.076500006 0.67500001
-0.0096285725 0.076386675 0.67400002
-0.008344762 0.076386675 0.67400002
-0.0070295241 0.076046668 0.671
-0.0057428577 0.075933337 0.67000002
-0.0044600004 0.075820006 0.66900003
-0.0031761907 0.075593337 0.66700006
-0.0019000001 0.075366668 0.66500002
-0.00063142861 0.075140007 0.66300005
0.00063142861 0.075140007 0.66300005
0.0018914287 0.075026669 0.66200006
0.0031428575 0.074800007 0.66000003
0.0044000004 0.074800007 0.66000003
0.0056400006 0.074573338 0.65800005
0.006893334 0.074573338 0.65800005
0.0081342859 0.074460007 0.65700001
0.0093857152 0.074460007 0.65700001
0.010620954 0.074346669 0.65600002
0.011870477 0.074346669 0.65600002
0.013120001 0.074346669 0.65600002
0.014369525 0.074346669 0.65600002
0.015595239 0.074233338 0.65500003
0.016842859 0.074233338 0.65500003
0.018090477 0.074233338 0.65500003
0.01927905 0.074006669 0.65300006
0.020522859 0.074006669 0.65300006
0.021766668 0.074006669 0.65300006
0.023010477 0.074006669 0.65300006
0.024254287 0.074006669 0.65300006
0.025498098 0.074006669 0.65300006
0.026741907 0.074006669 0.65300006
0.027985716 0.074006669 0.65300006
0.029229525 0.074006669 0.65300006
0.030473335 0.074006669 0.65300006
0.031814288 0.074233338 0.65500003
0.033112384 0.074346669 0.65600002
0.034414288 0.074460007 0.65700001
0.035720002 0.074573338 0.65800005
0.036973335 0.074573338 0.65800005
0.038226668 0.074573338 0.65800005
0.039660003 0.074913338 0.66100001
0.040919051 0.074913338 0.66100001
0.042178098 0.074913338 0.66100001
0.043568574 0.075140007 0.66300005
0.045034289 0.075480007 0.66600001
0.046372384 0.075593337 0.66700006
0.047785718 0.075820006 0.66900003
0.049060002 0.075820006 0.66900003
-0.010928572 0.077785723 0.67500001
-0.0096285725 0.077670485 0.67400002
-0.008344762 0.077670485 0.67400002
-0.0070400005 0.077440009 0.67200005
-0.0057428577 0.077209532 0.67000002
-0.0044600004 0.077094294 0.66900003
-0.0031857146 0.077094294 0.66900003
-0.0019028572 0.07674858 0.66600001
-0.0006333334 0.076633342 0.66500002
0.00063142861 0.076402865 0.66300005
0.0018914287 0.076287627 0.66200006
0.0031476193 0.076172389 0.66100001
0.0044000004 0.076057151 0.66000003
0.0056400006 0.075826675 0.65800005
0.006893334 0.075826675 0.65800005
0.0081342859 0.075711437 0.65700001
0.0093857152 0.075711437 0.65700001
0.010637144 0.075711437 0.65700001
0.011870477 0.075596198 0.65600002
0.013120001 0.075596198 0.65600002
0.014369525 0.075596198 0.65600002
0.015619049 0.075596198 0.65600002
0.016868573 0.075596198 0.65600002
0.018118097 0.075596198 0.65600002
0.019338097 0.07548096 0.65500003
0.020585716 0.07548096 0.65500003
0.021833334 0.07548096 0.65500003
0.023080954 0.07548096 0.65500003
0.024328573 0.07548096 0.65500003
0.025498098 0.075250484 0.65300006
0.026741907 0.075250484 0.65300006
0.027985716 0.075250484 0.65300006
0.029363811 0.075596198 0.65600002
0.030613335 0.075596198 0.65600002
0.031911429 0.075711437 0.65700001
0.033162858 0.075711437 0.65700001
0.034414288 0.075711437 0.65700001
0.035720002 0.075826675 0.65800005
0.037085716 0.076057151 0.66000003
0.038400955 0.076172389 0.66100001
0.039660003 0.076172389 0.66100001
0.040980954 0.076287627 0.66200006
0.042241909 0.076287627 0.66200006
0.043568574 0.076402865 0.66300005
0.045101907 0.076863818 0.66700006
0.046372384 0.076863818 0.66700006
0.047785718 0.077094294 0.66900003
0.049060002 0.077094294 0.66900003
-0.010912382 0.078954294 0.67400002
-0.0096285725 0.078954294 0.67400002
-0.008344762 0.078954294 0.67400002
-0.0070400005 0.078720003 0.67200005
-0.0057514291 0.078602865 0.671
-0.0044666668 0.07848572 0.67000002
-0.0031857146 0.078368574 0.66900003
-0.0019028572 0.078017145 0.66600001
-0.00063428574 0.078017145 0.66600001
0.0006333334 0.077900007 0.66500002
0.0018942858 0.077665716 0.66300005
0.0031523812 0.077548578 0.66200006
0.0044066668 0.077431433 0.66100001
0.0056571434 0.077314287 0.66000003
0.0069142859 0.077314287 0.66000003
0.0081466669 0.077080004 0.65800005
0.0093857152 0.076962866 0.65700001
0.010637144 0.076962866 0.65700001
0.011888572 0.076962866 0.65700001
0.01314 0.076962866 0.65700001
0.01439143 0.076962866 0.65700001
0.015642859 0.076962866 0.65700001
0.016868573 0.07684572 0.65600002
0.018118097 0.07684572 0.65600002
0.01936762 0.07684572 0.65600002
0.020617144 0.07684572 0.65600002
0.021866668 0.07684572 0.65600002
0.023080954 0.076728575 0.65500003
0.024365716 0.07684572 0.65600002
0.02561524 0.07684572 0.65600002
0.026864763 0.07684572 0.65600002
0.028114287 0.07684572 0.65600002
0.029363811 0.07684572 0.65600002
0.030660002 0.076962866 0.65700001
0.031911429 0.076962866 0.65700001
0.033162858 0.076962866 0.65700001
0.034466669 0.077080004 0.65800005
0.035828575 0.077314287 0.66000003
0.037085716 0.077314287 0.66000003
0.038459051 0.077548578 0.66200006
0.039720003 0.077548578 0.66200006
0.040980954 0.077548578 0.66200006
0.042305715 0.077665716 0.66300005
0.043765716 0.078017145 0.66600001
0.045101907 0.078134291 0.66700006
0.046372384 0.078134291 0.66700006
0.047785718 0.078368574 0.66900003
0.049060002 0.078368574 0.66900003
0.050710481 0.078954294 0.67400002
-0.012232382 0.080476195 0.67600006
-0.010912382 0.080238104 0.67400002
-0.0096285725 0.080238104 0.67400002
-0.008344762 0.080238104 0.67400002
-0.0070400005 0.080000006 0.67200005
-0.0057514291 0.07988096 0.671
-0.0044733337 0.07988096 0.671
-0.0031904764 0.079761907 0.67000002
-0.0019114286 0.079642862 0.66900003
-0.00063428574 0.079285719 0.66600001
0.00063428574 0.079285719 0.66600001
0.0018942858 0.078928575 0.66300005
0.0031523812 0.07880953 0.66200006
0.0044066668 0.078690484 0.66100001
0.0056657149 0.078690484 0.66100001
0.0069247624 0.078690484 0.66100001
0.0081466669 0.078333341 0.65800005
0.0094000008 0.078333341 0.65800005
0.010637144 0.078214288 0.65700001
0.011888572 0.078214288 0.65700001
0.01314 0.078214288 0.65700001
0.01439143 0.078214288 0.65700001
0.015642859 0.078214288 0.65700001
0.016894286 0.078214288 0.65700001
0.018145716 0.078214288 0.65700001
0.01936762 0.078095242 0.65600002
0.020617144 0.078095242 0.65600002
0.021866668 0.078095242 0.65600002
0.023116192 0.078095242 0.65600002
0.024365716 0.078095242 0.65600002
0.02561524 0.078095242 0.65600002
0.026905715 0.078214288 0.65700001
0.028157145 0.078214288 0.65700001
0.029408574 0.078214288 0.65700001
0.030660002 0.078214288 0.65700001
0.031911429 0.078214288 0.65700001
0.033213336 0.078333341 0.65800005
0.034466669 0.078333341 0.65800005
0.035828575 0.078571431 0.66000003
0.037141908 0.078690484 0.66100001
0.038459051 0.07880953 0.66200006
0.039780002 0.078928575 0.66300005
0.041042861 0.078928575 0.66300005
0.042433336 0.079166673 0.66500002
0.043765716 0.079285719 0.66600001
0.045101907 0.079404764 0.66700006
0.04651143 0.079642862 0.66900003
0.047785718 0.079642862 0.66900003
0.049426671 0.080238104 0.67400002
0.050710481 0.080238104 0.67400002
0.052071434 0.080357149 0.67500001
-0.010928572 0.081642866 0.67500001
-0.0096285725 0.081521913 0.67400002
-0.008344762 0.081521913 0.67400002
-0.007060953 0.081521913 0.67400002
-0.0057600006 0.081280008 0.67200005
-0.0044733337 0.081159055 0.671
-0.0031904764 0.081038103 0.67000002
-0.0019114286 0.08091715 0.66900003
-0.00063523813 0.080675244 0.66700006
0.00063428574 0.080554292 0.66600001
0.0019000001 0.080433339 0.66500002
0.003157143 0.080191433 0.66300005
0.0044133337 0.080070481 0.66200006
0.0056742863 0.080070481 0.66200006
0.0069352384 0.080070481 0.66200006
0.0081838099 0.079949528 0.66100001
0.0094000008 0.07958667 0.65800005
0.010653334 0.07958667 0.65800005
0.011906668 0.07958667 0.65800005
0.013160001 0.07958667 0.65800005
0.014413334 0.07958667 0.65800005
0.015642859 0.079465717 0.65700001
0.016894286 0.079465717 0.65700001
0.018145716 0.079465717 0.65700001
0.019397143 0.079465717 0.65700001
0.020648573 0.079465717 0.65700001
0.021900002 0.079465717 0.65700001
0.023151429 0.079465717 0.65700001
0.024402859 0.079465717 0.65700001
0.025654288 0.079465717 0.65700001
0.026905715 0.079465717 0.65700001
0.028157145 0.079465717 0.65700001
0.029408574 0.079465717 0.65700001
0.030660002 0.079465717 0.65700001
0.031960003 0.07958667 0.65800005
0.033213336 0.07958667 0.65800005
0.034466669 0.07958667 0.65800005
0.035828575 0.079828575 0.66000003
0.037141908 0.079949528 0.66100001
0.038459051 0.080070481 0.66200006
0.039780002 0.080191433 0.66300005
0.041042861 0.080191433 0.66300005
0.042433336 0.080433339 0.66500002
0.043765716 0.080554292 0.66600001
