# .PCD v0.7 - Point Cloud Data file format
VERSION 0.7
FIELDS x y z
SIZE 4 4 4
TYPE F F F
COUNT 1 1 1
WIDTH 1316
HEIGHT 1
VIEWPOINT 0 0 0 1 0 0 0
POINTS 1316
DATA ascii
0.016919049 -0.016919049 0.93500006
0.020480953 -0.016919049 0.93500006
0.022261906 -0.016919049 0.93500006
0.023965716 -0.016864764 0.93200004
0.025823811 -0.016919049 0.93500006
0.027604764 -0.016919049 0.93500006
0.029385716 -0.016919049 0.93500006
0.031166669 -0.016919049 0.93500006
0.032947622 -0.016919049 0.93500006
0.034728575 -0.016919049 0.93500006
0.036509525 -0.016919049 0.93500006
0.041852385 -0.016919049 0.93500006
0.043633334 -0.016919049 0.93500006
0.048976194 -0.016919049 0.93500006
0.050757147 -0.016919049 0.93500006
0.052538097 -0.016919049 0.93500006
0.061442859 -0.016919049 0.93500006
0.066785716 -0.016919049 0.93500006
0.068566673 -0.016919049 0.93500006
0.086099051 -0.016864764 0.93200004
0.087874293 -0.016864764 0.93200004
0.091424771 -0.016864764 0.93200004
0.093200006 -0.016864764 0.93200004
0.094975248 -0.016864764 0.93200004
0.11272763 -0.016864764 0.93200004
0.11425715 -0.016828572 0.93000007
0.1162781 -0.016864764 0.93200004
0.11982858 -0.016864764 0.93200004
-0.043633334 -0.015138096 0.93500006
-0.041852385 -0.015138096 0.93500006
-0.040071432 -0.015138096 0.93500006
-0.013314286 -0.015089525 0.93200004
-0.011539049 -0.015089525 0.93200004
-0.0097638099 -0.015089525 0.93200004
-0.0079885721 -0.015089525 0.93200004
-0.0062133339 -0.015089525 0.93200004
-0.0044380957 -0.015089525 0.93200004
-0.0026571429 -0.015057144 0.93000007
-0.0008876191 -0.015089525 0.93200004
0.00088571437 -0.015057144 0.93000007
0.0026571429 -0.015057144 0.93000007
0.0044285716 -0.015057144 0.93000007
0.0062000002 -0.015057144 0.93000007
0.0079885721 -0.015089525 0.93200004
0.016864764 -0.015089525 0.93200004
0.01864 -0.015089525 0.93200004
0.020415239 -0.015089525 0.93200004
0.022190478 -0.015089525 0.93200004
0.023914287 -0.015057144 0.93000007
0.025685716 -0.015057144 0.93000007
0.027457144 -0.015057144 0.93000007
0.02929143 -0.015089525 0.93200004
0.031000001 -0.015057144 0.93000007
0.032841906 -0.015089525 0.93200004
0.034617145 -0.015089525 0.93200004
0.036392383 -0.015089525 0.93200004
0.041718099 -0.015089525 0.93200004
0.043493338 -0.015089525 0.93200004
0.045268573 -0.015089525 0.93200004
0.047043812 -0.015089525 0.93200004
0.04881905 -0.015089525 0.93200004
0.050594289 -0.015089525 0.93200004
0.052369528 -0.015089525 0.93200004
0.054144766 -0.015089525 0.93200004
0.091228575 -0.015057144 0.93000007
0.09300001 -0.015057144 0.93000007
0.094771437 -0.015057144 0.93000007
0.11071429 -0.015057144 0.93000007
0.11248572 -0.015057144 0.93000007
0.11388858 -0.015008572 0.92700005
0.11602858 -0.015057144 0.93000007
0.11918572 -0.015008572 0.92700005
0.12095144 -0.015008572 0.92700005
0.12271715 -0.015008572 0.92700005
-0.064796194 -0.013314286 0.93200004
-0.061245717 -0.013314286 0.93200004
-0.045268573 -0.013314286 0.93200004
-0.018600002 -0.013285715 0.93000007
-0.016828572 -0.013285715 0.93000007
-0.015057144 -0.013285715 0.93000007
-0.013285715 -0.013285715 0.93000007
-0.011514287 -0.013285715 0.93000007
-0.0097428579 -0.013285715 0.93000007
-0.0079714293 -0.013285715 0.93000007
-0.0062000002 -0.013285715 0.93000007
-0.004414286 -0.013242858 0.92700005
-0.0026485715 -0.013242858 0.92700005
-0.00088285719 -0.013242858 0.92700005
0.00088285719 -0.013242858 0.92700005
0.0026485715 -0.013242858 0.92700005
0.004414286 -0.013242858 0.92700005
0.0061800005 -0.013242858 0.92700005
0.0079457145 -0.013242858 0.92700005
0.0097428579 -0.013285715 0.93000007
0.023837144 -0.013242858 0.92700005
0.025602859 -0.013242858 0.92700005
0.027368573 -0.013242858 0.92700005
0.029134288 -0.013242858 0.92700005
0.030900002 -0.013242858 0.92700005
0.032665715 -0.013242858 0.92700005
0.034431431 -0.013242858 0.92700005
0.045025717 -0.013242858 0.92700005
0.046791431 -0.013242858 0.92700005
0.05032286 -0.013242858 0.92700005
0.052088574 -0.013242858 0.92700005
0.05385429 -0.013242858 0.92700005
0.067980006 -0.013242858 0.92700005
0.069745719 -0.013242858 0.92700005
0.071511433 -0.013242858 0.92700005
0.073277146 -0.013242858 0.92700005
0.075042859 -0.013242858 0.92700005
0.085637152 -0.013242858 0.92700005
0.087402865 -0.013242858 0.92700005
0.090934291 -0.013242858 0.92700005
0.092700005 -0.013242858 0.92700005
0.094465718 -0.013242858 0.92700005
0.11892858 -0.013214286 0.92500007
0.12069049 -0.013214286 0.92500007
0.12245239 -0.013214286 0.92500007
-0.064448573 -0.011477144 0.92700005
-0.018540001 -0.011477144 0.92700005
-0.016738096 -0.011452381 0.92500007
-0.015008572 -0.011477144 0.92700005
-0.013214286 -0.011452381 0.92500007
-0.011477144 -0.011477144 0.92700005
-0.0097114295 -0.011477144 0.92700005
-0.0079457145 -0.011477144 0.92700005
-0.0061800005 -0.011477144 0.92700005
-0.004414286 -0.011477144 0.92700005
-0.0026485715 -0.011477144 0.92700005
-0.00088095246 -0.011452381 0.92500007
0.00088095246 -0.011452381 0.92500007
0.0026428574 -0.011452381 0.92500007
0.0044047623 -0.011452381 0.92500007
0.0061666672 -0.011452381 0.92500007
0.0079285717 -0.011452381 0.92500007
0.030833336 -0.011452381 0.92500007
0.03259524 -0.011452381 0.92500007
0.034357145 -0.011452381 0.92500007
0.036119051 -0.011452381 0.92500007
0.037880953 -0.011452381 0.92500007
0.041404765 -0.011452381 0.92500007
0.043166671 -0.011452381 0.92500007
0.044782858 -0.011415238 0.92200005
0.04653905 -0.011415238 0.92200005
0.048452385 -0.011452381 0.92500007
0.050051432 -0.011415238 0.92200005
0.051807623 -0.011415238 0.92200005
0.053738099 -0.011452381 0.92500007
0.055500004 -0.011452381 0.92500007
0.071125716 -0.011415238 0.92200005
0.072881907 -0.011415238 0.92200005
0.074638098 -0.011415238 0.92200005
0.11854286 -0.011415238 0.92200005
0.12029906 -0.011415238 0.92200005
0.12205525 -0.011415238 0.92200005
0.12381144 -0.011415238 0.92200005
0.12556763 -0.011415238 0.92200005
-0.06430953 -0.0096904766 0.92500007
-0.062547624 -0.0096904766 0.92500007
-0.060785718 -0.0096904766 0.92500007
-0.059023812 -0.0096904766 0.92500007
-0.05726191 -0.0096904766 0.92500007
-0.055500004 -0.0096904766 0.92500007
-0.053738099 -0.0096904766 0.92500007
-0.050214291 -0.0096904766 0.92500007
-0.048452385 -0.0096904766 0.92500007
-0.046690479 -0.0096904766 0.92500007
-0.044928573 -0.0096904766 0.92500007
-0.043166671 -0.0096904766 0.92500007
-0.041404765 -0.0096904766 0.92500007
-0.039642859 -0.0096904766 0.92500007
-0.037880953 -0.0096904766 0.92500007
-0.032489527 -0.0096590482 0.92200005
-0.030733336 -0.0096590482 0.92200005
-0.027220953 -0.0096590482 0.92200005
-0.023708573 -0.0096590482 0.92200005
-0.021952383 -0.0096590482 0.92200005
-0.020152383 -0.0096380962 0.92000002
-0.0184 -0.0096380962 0.92000002
-0.01664762 -0.0096380962 0.92000002
-0.014895239 -0.0096380962 0.92000002
-0.013142858 -0.0096380962 0.92000002
-0.011415238 -0.0096590482 0.92200005
-0.0096590482 -0.0096590482 0.92200005
-0.0079028578 -0.0096590482 0.92200005
-0.0061466671 -0.0096590482 0.92200005
-0.0043904763 -0.0096590482 0.92200005
-0.0026285716 -0.0096380962 0.92000002
-0.00087619055 -0.0096380962 0.92000002
0.00087619055 -0.0096380962 0.92000002
0.0026200002 -0.0096066669 0.91700006
0.004366667 -0.0096066669 0.91700006
0.0061133336 -0.0096066669 0.91700006
0.007885715 -0.0096380962 0.92000002
0.0096380962 -0.0096380962 0.92000002
0.011353334 -0.0096066669 0.91700006
0.013142858 -0.0096380962 0.92000002
0.014895239 -0.0096380962 0.92000002
0.016683811 -0.0096590482 0.92200005
0.018440001 -0.0096590482 0.92200005
0.020196192 -0.0096590482 0.92200005
0.021952383 -0.0096590482 0.92200005
0.023708573 -0.0096590482 0.92200005
0.025464764 -0.0096590482 0.92200005
0.027220953 -0.0096590482 0.92200005
0.028914288 -0.0096380962 0.92000002
0.030666668 -0.0096380962 0.92000002
0.032419048 -0.0096380962 0.92000002
0.034171432 -0.0096380962 0.92000002
0.035923813 -0.0096380962 0.92000002
0.037676193 -0.0096380962 0.92000002
0.039428573 -0.0096380962 0.92000002
0.041180953 -0.0096380962 0.92000002
0.042793337 -0.0096066669 0.91700006
0.044540003 -0.0096066669 0.91700006
0.046286669 -0.0096066669 0.91700006
0.048033338 -0.0096066669 0.91700006
0.049780004 -0.0096066669 0.91700006
0.051526669 -0.0096066669 0.91700006
0.053273335 -0.0096066669 0.91700006
0.055020005 -0.0096066669 0.91700006
0.05676667 -0.0096066669 0.91700006
0.058704767 -0.0096380962 0.92000002
0.060457148 -0.0096380962 0.92000002
0.062209528 -0.0096380962 0.92000002
0.063961908 -0.0096380962 0.92000002
0.065714292 -0.0096380962 0.92000002
0.067246668 -0.0096066669 0.91700006
0.068993337 -0.0096066669 0.91700006
0.070740007 -0.0096066669 0.91700006
0.072486669 -0.0096066669 0.91700006
0.074233338 -0.0096066669 0.91700006
0.075814292 -0.0095857149 0.91500002
0.077557147 -0.0095857149 0.91500002
0.079473339 -0.0096066669 0.91700006
0.081220008 -0.0096066669 0.91700006
0.08296667 -0.0096066669 0.91700006
0.084990479 -0.0096380962 0.92000002
0.086742863 -0.0096380962 0.92000002
0.088495247 -0.0096380962 0.92000002
0.093752384 -0.0096380962 0.92000002
0.095504768 -0.0096380962 0.92000002
0.097257152 -0.0096380962 0.92000002
0.099009529 -0.0096380962 0.92000002
0.10076191 -0.0096380962 0.92000002
0.10251429 -0.0096380962 0.92000002
0.10426667 -0.0096380962 0.92000002
0.10601906 -0.0096380962 0.92000002
0.11302858 -0.0096380962 0.92000002
0.11615334 -0.0096066669 0.91700006
0.11790001 -0.0096066669 0.91700006
0.11964668 -0.0096066669 0.91700006
0.12139334 -0.0096066669 0.91700006
0.12314001 -0.0096066669 0.91700006
0.15807335 -0.0096066669 0.91700006
-0.064100958 -0.0079028578 0.92200005
-0.060588576 -0.0079028578 0.92200005
-0.058832385 -0.0079028578 0.92200005
-0.057076193 -0.0079028578 0.92200005
-0.055320002 -0.0079028578 0.92200005
-0.053563815 -0.0079028578 0.92200005
-0.051807623 -0.0079028578 0.92200005
-0.050051432 -0.0079028578 0.92200005
-0.048295241 -0.0079028578 0.92200005
-0.037676193 -0.007885715 0.92000002
-0.035923813 -0.007885715 0.92000002
-0.034171432 -0.007885715 0.92000002
-0.032419048 -0.007885715 0.92000002
-0.030666668 -0.007885715 0.92000002
-0.028914288 -0.007885715 0.92000002
-0.027161907 -0.007885715 0.92000002
-0.025409525 -0.007885715 0.92000002
-0.023657145 -0.007885715 0.92000002
-0.021904763 -0.007885715 0.92000002
-0.020086668 -0.0078600002 0.91700006
-0.018340001 -0.0078600002 0.91700006
-0.016593335 -0.0078600002 0.91700006
-0.014846668 -0.0078600002 0.91700006
-0.013100001 -0.0078600002 0.91700006
-0.011353334 -0.0078600002 0.91700006
-0.0096380962 -0.007885715 0.92000002
-0.0078600002 -0.0078600002 0.91700006
-0.0061333338 -0.007885715 0.92000002
-0.004366667 -0.0078600002 0.91700006
-0.0026200002 -0.0078600002 0.91700006
-0.00087333337 -0.0078600002 0.91700006
0.00087333337 -0.0078600002 0.91700006
0.0026200002 -0.0078600002 0.91700006
0.004366667 -0.0078600002 0.91700006
0.0061000003 -0.0078428574 0.91500002
0.0078428574 -0.0078428574 0.91500002
0.0095857149 -0.0078428574 0.91500002
0.011328572 -0.0078428574 0.91500002
0.013071429 -0.0078428574 0.91500002
0.014814286 -0.0078428574 0.91500002
0.016593335 -0.0078600002 0.91700006
0.018340001 -0.0078600002 0.91700006
0.020086668 -0.0078600002 0.91700006
0.021833334 -0.0078600002 0.91700006
0.027073335 -0.0078600002 0.91700006
0.028820002 -0.0078600002 0.91700006
0.030566668 -0.0078600002 0.91700006
0.032313336 -0.0078600002 0.91700006
0.034060001 -0.0078600002 0.91700006
0.035806671 -0.0078600002 0.91700006
0.037553336 -0.0078600002 0.91700006
0.039300002 -0.0078600002 0.91700006
0.041046668 -0.0078600002 0.91700006
0.042793337 -0.0078600002 0.91700006
0.044540003 -0.0078600002 0.91700006
0.046185717 -0.0078428574 0.91500002
0.047928575 -0.0078428574 0.91500002
0.04967143 -0.0078428574 0.91500002
0.051414289 -0.0078428574 0.91500002
0.053157147 -0.0078428574 0.91500002
0.054900005 -0.0078428574 0.91500002
0.05664286 -0.0078428574 0.91500002
0.058513336 -0.0078600002 0.91700006
0.060260005 -0.0078600002 0.91700006
0.062006671 -0.0078600002 0.91700006
0.063753337 -0.0078600002 0.91700006
0.065500006 -0.0078600002 0.91700006
0.067246668 -0.0078600002 0.91700006
0.068842858 -0.0078428574 0.91500002
0.07058572 -0.0078428574 0.91500002
0.072328575 -0.0078428574 0.91500002
0.074071437 -0.0078428574 0.91500002
0.075814292 -0.0078428574 0.91500002
0.077557147 -0.0078428574 0.91500002
0.079300009 -0.0078428574 0.91500002
0.080865718 -0.0078257145 0.91300005
0.082785718 -0.0078428574 0.91500002
0.08452858 -0.0078428574 0.91500002
0.086271435 -0.0078428574 0.91500002
0.088206671 -0.0078600002 0.91700006
0.093446672 -0.0078600002 0.91700006
0.095193341 -0.0078600002 0.91700006
0.096940003 -0.0078600002 0.91700006
0.098686673 -0.0078600002 0.91700006
0.10043334 -0.0078600002 0.91700006
0.10392667 -0.0078600002 0.91700006
0.1525 -0.0078428574 0.91500002
-0.037553336 -0.0061133336 0.91700006
-0.035806671 -0.0061133336 0.91700006
-0.034060001 -0.0061133336 0.91700006
-0.032313336 -0.0061133336 0.91700006
-0.030566668 -0.0061133336 0.91700006
-0.028820002 -0.0061133336 0.91700006
-0.027073335 -0.0061133336 0.91700006
-0.020042859 -0.0061000003 0.91500002
-0.018300001 -0.0061000003 0.91500002
-0.016557144 -0.0061000003 0.91500002
-0.014846668 -0.0061133336 0.91700006
-0.013071429 -0.0061000003 0.91500002
-0.011328572 -0.0061000003 0.91500002
-0.0095857149 -0.0061000003 0.91500002
-0.0078428574 -0.0061000003 0.91500002
-0.0061133336 -0.0061133336 0.91700006
-0.0043571433 -0.0061000003 0.91500002
-0.0026142858 -0.0061000003 0.91500002
-0.00087142864 -0.0061000003 0.91500002
0.00087142864 -0.0061000003 0.91500002
0.0026142858 -0.0061000003 0.91500002
0.0043571433 -0.0061000003 0.91500002
0.0060866671 -0.0060866671 0.91300005
0.0078257145 -0.0060866671 0.91300005
0.0095647629 -0.0060866671 0.91300005
0.01130381 -0.0060866671 0.91300005
0.013000001 -0.0060666669 0.91000003
0.014733334 -0.0060666669 0.91000003
0.016520953 -0.0060866671 0.91300005
0.018200001 -0.0060666669 0.91000003
0.019933335 -0.0060666669 0.91000003
0.021738097 -0.0060866671 0.91300005
0.023528572 -0.0061000003 0.91500002
0.025271431 -0.0061000003 0.91500002
0.027014287 -0.0061000003 0.91500002
0.028694287 -0.0060866671 0.91300005
0.030433334 -0.0060866671 0.91300005
0.032172382 -0.0060866671 0.91300005
0.033911429 -0.0060866671 0.91300005
0.035650477 -0.0060866671 0.91300005
0.037389528 -0.0060866671 0.91300005
0.039128575 -0.0060866671 0.91300005
0.040867623 -0.0060866671 0.91300005
0.04260667 -0.0060866671 0.91300005
0.044345718 -0.0060866671 0.91300005
0.046185717 -0.0061000003 0.91500002
0.047823813 -0.0060866671 0.91300005
0.04956286 -0.0060866671 0.91300005
0.051301908 -0.0060866671 0.91300005
0.053040955 -0.0060866671 0.91300005
0.054780003 -0.0060866671 0.91300005
0.05651905 -0.0060866671 0.91300005
0.058258098 -0.0060866671 0.91300005
0.060128577 -0.0061000003 0.91500002
0.061736196 -0.0060866671 0.91300005
0.063614286 -0.0061000003 0.91500002
0.065357149 -0.0061000003 0.91500002
0.068692386 -0.0060866671 0.91300005
0.070431434 -0.0060866671 0.91300005
0.072170481 -0.0060866671 0.91300005
0.073909529 -0.0060866671 0.91300005
0.075400002 -0.0060666669 0.91000003
0.077133335 -0.0060666669 0.91000003
0.079126671 -0.0060866671 0.91300005
0.080600008 -0.0060666669 0.91000003
0.082604766 -0.0060866671 0.91300005
0.084343813 -0.0060866671 0.91300005
0.086082861 -0.0060866671 0.91300005
0.11216858 -0.0060866671 0.91300005
-0.039214287 -0.0043571433 0.91500002
-0.037471432 -0.0043571433 0.91500002
-0.035728574 -0.0043571433 0.91500002
-0.01130381 -0.0043476191 0.91300005
-0.0095647629 -0.0043476191 0.91300005
-0.0078257145 -0.0043476191 0.91300005
-0.0026085717 -0.0043476191 0.91300005
-0.00086952385 -0.0043476191 0.91300005
0.00086952385 -0.0043476191 0.91300005
0.0026085717 -0.0043476191 0.91300005
0.0043476191 -0.0043476191 0.91300005
0.0060866671 -0.0043476191 0.91300005
0.0078000007 -0.0043333336 0.91000003
0.0095333336 -0.0043333336 0.91000003
0.011241905 -0.0043238099 0.90800005
0.012971429 -0.0043238099 0.90800005
0.014700953 -0.0043238099 0.90800005
0.016430477 -0.0043238099 0.90800005
0.01816 -0.0043238099 0.90800005
0.019889524 -0.0043238099 0.90800005
0.02161905 -0.0043238099 0.90800005
0.023348574 -0.0043238099 0.90800005
0.025133334 -0.0043333336 0.91000003
0.026866669 -0.0043333336 0.91000003
0.028537145 -0.0043238099 0.90800005
0.030266669 -0.0043238099 0.90800005
0.031996194 -0.0043238099 0.90800005
0.033725716 -0.0043238099 0.90800005
0.035455242 -0.0043238099 0.90800005
0.037266668 -0.0043333336 0.91000003
0.039000001 -0.0043333336 0.91000003
0.040733337 -0.0043333336 0.91000003
0.04246667 -0.0043333336 0.91000003
0.047666669 -0.0043333336 0.91000003
0.049400002 -0.0043333336 0.91000003
0.051133338 -0.0043333336 0.91000003
0.052750479 -0.0043238099 0.90800005
0.054600004 -0.0043333336 0.91000003
0.056333337 -0.0043333336 0.91000003
0.05806667 -0.0043333336 0.91000003
0.059800003 -0.0043333336 0.91000003
0.061533336 -0.0043333336 0.91000003
0.063266672 -0.0043333336 0.91000003
0.066733338 -0.0043333336 0.91000003
0.068466671 -0.0043333336 0.91000003
0.070200004 -0.0043333336 0.91000003
0.071933337 -0.0043333336 0.91000003
0.073666669 -0.0043333336 0.91000003
0.075234294 -0.0043238099 0.90800005
0.076963812 -0.0043238099 0.90800005
0.078866675 -0.0043333336 0.91000003
0.080422863 -0.0043238099 0.90800005
0.082333341 -0.0043333336 0.91000003
0.084066674 -0.0043333336 0.91000003
0.085800007 -0.0043333336 0.91000003
0.08753334 -0.0043333336 0.91000003
0.089266673 -0.0043333336 0.91000003
0.094466671 -0.0043333336 0.91000003
0.096200004 -0.0043333336 0.91000003
0.10140001 -0.0043333336 0.91000003
0.10313334 -0.0043333336 0.91000003
0.1046362 -0.0043238099 0.90800005
0.10660001 -0.0043333336 0.91000003
0.10833334 -0.0043333336 0.91000003
0.11006667 -0.0043333336 0.91000003
0.11180001 -0.0043333336 0.91000003
0.11353334 -0.0043333336 0.91000003
-0.011266667 -0.0026000002 0.91000003
-0.0095333336 -0.0026000002 0.91000003
-0.0078000007 -0.0026000002 0.91000003
-0.0060666669 -0.0026000002 0.91000003
-0.0043333336 -0.0026000002 0.91000003
-0.0026000002 -0.0026000002 0.91000003
-0.00086666673 -0.0026000002 0.91000003
0.00086666673 -0.0026000002 0.91000003
0.0026000002 -0.0026000002 0.91000003
0.0043333336 -0.0026000002 0.91000003
0.0060533336 -0.0025942859 0.90800005
0.0077828579 -0.0025942859 0.90800005
0.0095123816 -0.0025942859 0.90800005
0.011204762 -0.0025857145 0.90500003
0.012928572 -0.0025857145 0.90500003
0.014700953 -0.0025942859 0.90800005
0.016430477 -0.0025942859 0.90800005
0.01816 -0.0025942859 0.90800005
0.019889524 -0.0025942859 0.90800005
0.021547621 -0.0025857145 0.90500003
0.02327143 -0.0025857145 0.90500003
0.024995239 -0.0025857145 0.90500003
0.026719049 -0.0025857145 0.90500003
0.02844286 -0.0025857145 0.90500003
0.030166669 -0.0025857145 0.90500003
0.031890478 -0.0025857145 0.90500003
0.033614289 -0.0025857145 0.90500003
0.035338096 -0.0025857145 0.90500003
0.037184764 -0.0025942859 0.90800005
0.038914289 -0.0025942859 0.90800005
0.040643811 -0.0025942859 0.90800005
0.042373337 -0.0025942859 0.90800005
0.044102859 -0.0025942859 0.90800005
0.045832384 -0.0025942859 0.90800005
0.047561906 -0.0025942859 0.90800005
0.049291432 -0.0025942859 0.90800005
0.051020958 -0.0025942859 0.90800005
0.052576195 -0.0025857145 0.90500003
0.054300003 -0.0025857145 0.90500003
0.056209527 -0.0025942859 0.90800005
0.057939053 -0.0025942859 0.90800005
0.059668574 -0.0025942859 0.90800005
0.0613981 -0.0025942859 0.90800005
0.063127622 -0.0025942859 0.90800005
0.064857148 -0.0025942859 0.90800005
0.066586673 -0.0025942859 0.90800005
0.068316191 -0.0025942859 0.90800005
0.070045717 -0.0025942859 0.90800005
0.071775243 -0.0025942859 0.90800005
0.073504768 -0.0025942859 0.90800005
0.075234294 -0.0025942859 0.90800005
0.076963812 -0.0025942859 0.90800005
0.078693338 -0.0025942859 0.90800005
0.10084286 -0.0025857145 0.90500003
0.10256667 -0.0025857145 0.90500003
0.10429049 -0.0025857145 0.90500003
-0.019889524 -0.00086476194 0.90800005
-0.0043095243 -0.00086190482 0.90500003
-0.0025857145 -0.00086190482 0.90500003
-0.00086190482 -0.00086190482 0.90500003
0.00086190482 -0.00086190482 0.90500003
0.0025857145 -0.00086190482 0.90500003
0.0043095243 -0.00086190482 0.90500003
0.0060333339 -0.00086190482 0.90500003
0.0077571436 -0.00086190482 0.90500003
0.0094809532 -0.00086190482 0.90500003
0.011204762 -0.00086190482 0.90500003
0.012928572 -0.00086190482 0.90500003
0.014652382 -0.00086190482 0.90500003
0.016376192 -0.00086190482 0.90500003
0.018100001 -0.00086190482 0.90500003
0.01982381 -0.00086190482 0.90500003
0.021500001 -0.00086000003 0.90300006
0.023220001 -0.00086000003 0.90300006
0.024940001 -0.00086000003 0.90300006
0.026600955 -0.0008580953 0.90100002
0.028317144 -0.0008580953 0.90100002
0.030033335 -0.0008580953 0.90100002
0.031749524 -0.0008580953 0.90100002
0.033465717 -0.0008580953 0.90100002
0.035181906 -0.0008580953 0.90100002
0.036980003 -0.00086000003 0.90300006
0.038700003 -0.00086000003 0.90300006
0.040420003 -0.00086000003 0.90300006
0.042233337 -0.00086190482 0.90500003
0.043860003 -0.00086000003 0.90300006
0.045580003 -0.00086000003 0.90300006
0.047404766 -0.00086190482 0.90500003
0.049128573 -0.00086190482 0.90500003
0.050852384 -0.00086190482 0.90500003
0.052460004 -0.00086000003 0.90300006
0.054180004 -0.00086000003 0.90300006
0.056023814 -0.00086190482 0.90500003
0.057747621 -0.00086190482 0.90500003
0.059471432 -0.00086190482 0.90500003
0.061195243 -0.00086190482 0.90500003
0.062780008 -0.00086000003 0.90300006
0.064642861 -0.00086190482 0.90500003
0.066366673 -0.00086190482 0.90500003
0.068090484 -0.00086190482 0.90500003
0.069814287 -0.00086190482 0.90500003
0.071538098 -0.00086190482 0.90500003
0.095460005 -0.00086000003 0.90300006
0.098900005 -0.00086000003 0.90300006
0.10062001 -0.00086000003 0.90300006
0.10234001 -0.00086000003 0.90300006
-0.038785718 0.00086190482 0.90500003
-0.019780001 0.00086000003 0.90300006
-0.018060001 0.00086000003 0.90300006
-0.01118 0.00086000003 0.90300006
-0.0094600003 0.00086000003 0.90300006
-0.0077400007 0.00086000003 0.90300006
-0.0060200002 0.00086000003 0.90300006
-0.0042904764 0.0008580953 0.90100002
-0.0025800001 0.00086000003 0.90300006
-0.00086000003 0.00086000003 0.90300006
0.00086000003 0.00086000003 0.90300006
0.002574286 0.0008580953 0.90100002
0.0043000001 0.00086000003 0.90300006
0.0060066669 0.0008580953 0.90100002
0.0077400007 0.00086000003 0.90300006
0.0094600003 0.00086000003 0.90300006
0.01118 0.00086000003 0.90300006
0.0129 0.00086000003 0.90300006
0.01462 0.00086000003 0.90300006
0.016340001 0.00086000003 0.90300006
0.018060001 0.00086000003 0.90300006
0.019780001 0.00086000003 0.90300006
0.021452382 0.0008580953 0.90100002
0.023168573 0.0008580953 0.90100002
0.024884764 0.0008580953 0.90100002
0.026600955 0.0008580953 0.90100002
0.028222859 0.00085523818 0.89800006
0.030033335 0.0008580953 0.90100002
0.031643812 0.00085523818 0.89800006
0.033465717 0.0008580953 0.90100002
0.035181906 0.0008580953 0.90100002
0.036898099 0.0008580953 0.90100002
0.038614288 0.0008580953 0.90100002
0.040330477 0.0008580953 0.90100002
0.04204667 0.0008580953 0.90100002
0.043762859 0.0008580953 0.90100002
0.045479052 0.0008580953 0.90100002
0.047195241 0.0008580953 0.90100002
0.050627623 0.0008580953 0.90100002
0.052343812 0.0008580953 0.90100002
0.054060005 0.0008580953 0.90100002
0.055776194 0.0008580953 0.90100002
0.057492387 0.0008580953 0.90100002
0.059208576 0.0008580953 0.90100002
0.060924765 0.0008580953 0.90100002
0.062432386 0.00085523818 0.89800006
0.064357147 0.0008580953 0.90100002
0.066073336 0.0008580953 0.90100002
0.067789525 0.0008580953 0.90100002
0.091816194 0.0008580953 0.90100002
0.09524858 0.0008580953 0.90100002
0.096964769 0.0008580953 0.90100002
0.12743048 0.00085523818 0.89800006
-0.019670477 0.0025657145 0.89800006
-0.017960001 0.0025657145 0.89800006
-0.016249524 0.0025657145 0.89800006
-0.01458762 0.002574286 0.90100002
-0.012871429 0.002574286 0.90100002
-0.011155238 0.002574286 0.90100002
-0.0094390484 0.002574286 0.90100002
-0.0077228579 0.002574286 0.90100002
-0.0060066669 0.002574286 0.90100002
-0.0042761909 0.0025657145 0.89800006
-0.0025657145 0.0025657145 0.89800006
-0.0008580953 0.002574286 0.90100002
0.0025657145 0.0025657145 0.89800006
0.0042761909 0.0025657145 0.89800006
0.0059866672 0.0025657145 0.89800006
0.0076971436 0.0025657145 0.89800006
0.011118096 0.0025657145 0.89800006
0.012828573 0.0025657145 0.89800006
0.014539049 0.0025657145 0.89800006
0.016249524 0.0025657145 0.89800006
0.017960001 0.0025657145 0.89800006
0.019670477 0.0025657145 0.89800006
0.021380953 0.0025657145 0.89800006
0.02309143 0.0025657145 0.89800006
0.024801906 0.0025657145 0.89800006
0.026512383 0.0025657145 0.89800006
0.028222859 0.0025657145 0.89800006
0.029933335 0.0025657145 0.89800006
0.031643812 0.0025657145 0.89800006
0.033354286 0.0025657145 0.89800006
0.035064764 0.0025657145 0.89800006
0.040196192 0.0025657145 0.89800006
0.043617144 0.0025657145 0.89800006
0.045327622 0.0025657145 0.89800006
0.047038097 0.0025657145 0.89800006
0.048748575 0.0025657145 0.89800006
0.050346669 0.0025600002 0.89600003
0.052053336 0.0025600002 0.89600003
0.053760003 0.0025600002 0.89600003
0.055466671 0.0025600002 0.89600003
0.057300955 0.0025657145 0.89800006
0.058880005 0.0025600002 0.89600003
0.060721908 0.0025657145 0.89800006
0.062293336 0.0025600002 0.89600003
0.064000003 0.0025600002 0.89600003
0.065853335 0.0025657145 0.89800006
0.067563817 0.0025657145 0.89800006
0.069274291 0.0025657145 0.89800006
0.07269524 0.0025657145 0.89800006
0.091510482 0.0025657145 0.89800006
-0.024801906 0.0042761909 0.89800006
-0.021380953 0.0042761909 0.89800006
-0.019626668 0.0042666672 0.89600003
-0.01792 0.0042666672 0.89600003
-0.016213335 0.0042666672 0.89600003
-0.014506668 0.0042666672 0.89600003
-0.012800001 0.0042666672 0.89600003
-0.011093334 0.0042666672 0.89600003
-0.0093866671 0.0042666672 0.89600003
-0.0076971436 0.0042761909 0.89800006
-0.0059866672 0.0042761909 0.89800006
-0.0042666672 0.0042666672 0.89600003
-0.0025600002 0.0042666672 0.89600003
0.0059733335 0.0042666672 0.89600003
0.0076800007 0.0042666672 0.89600003
0.0093866671 0.0042666672 0.89600003
0.011093334 0.0042666672 0.89600003
0.012800001 0.0042666672 0.89600003
0.014474287 0.004257143 0.89400005
0.016213335 0.0042666672 0.89600003
0.01792 0.0042666672 0.89600003
0.023040002 0.0042666672 0.89600003
0.024746668 0.0042666672 0.89600003
0.028160002 0.0042666672 0.89600003
0.029866669 0.0042666672 0.89600003
0.031573337 0.0042666672 0.89600003
0.033280004 0.0042666672 0.89600003
0.043520004 0.0042666672 0.89600003
0.045226671 0.0042666672 0.89600003
0.046828575 0.004257143 0.89400005
0.048368573 0.0042428575 0.89100003
0.050065719 0.0042428575 0.89100003
0.05176286 0.0042428575 0.89100003
0.053460002 0.0042428575 0.89100003
0.055342861 0.004257143 0.89400005
0.057045717 0.004257143 0.89400005
0.058748577 0.004257143 0.89400005
0.060451433 0.004257143 0.89400005
0.062154289 0.004257143 0.89400005
0.063857146 0.004257143 0.89400005
0.067262858 0.004257143 0.89400005
-0.019517144 0.0059400005 0.89100003
-0.017880002 0.0059600002 0.89400005
-0.016177144 0.0059600002 0.89400005
-0.014474287 0.0059600002 0.89400005
-0.012771429 0.0059600002 0.89400005
-0.011068572 0.0059600002 0.89400005
-0.0093657151 0.0059600002 0.89400005
-0.0076628574 0.0059600002 0.89400005
-0.0059600002 0.0059600002 0.89400005
-0.004257143 0.0059600002 0.89400005
-0.0025542858 0.0059600002 0.89400005
-0.0008514286 0.0059600002 0.89400005
0.004257143 0.0059600002 0.89400005
0.0059400005 0.0059400005 0.89100003
0.0076628574 0.0059600002 0.89400005
0.0093657151 0.0059600002 0.89400005
0.011068572 0.0059600002 0.89400005
0.012771429 0.0059600002 0.89400005
0.014425715 0.0059400005 0.89100003
0.016177144 0.0059600002 0.89400005
0.017880002 0.0059600002 0.89400005
0.046671432 0.0059400005 0.89100003
0.048368573 0.0059400005 0.89100003
0.049953338 0.0059266672 0.88900006
0.05176286 0.0059400005 0.89100003
0.053340003 0.0059266672 0.88900006
0.055033337 0.0059266672 0.88900006
0.056854289 0.0059400005 0.89100003
0.058420002 0.0059266672 0.88900006
0.060248576 0.0059400005 0.89100003
0.061945718 0.0059400005 0.89100003
0.063642859 0.0059400005 0.89100003
0.065340005 0.0059400005 0.89100003
0.06703715 0.0059400005 0.89100003
0.068734288 0.0059400005 0.89100003
0.070431434 0.0059400005 0.89100003
0.072128579 0.0059400005 0.89100003
0.073825717 0.0059400005 0.89100003
-0.019473335 0.0076200003 0.88900006
-0.017820001 0.0076371431 0.89100003
-0.016122859 0.0076371431 0.89100003
-0.014425715 0.0076371431 0.89100003
-0.012728572 0.0076371431 0.89100003
-0.011031429 0.0076371431 0.89100003
-0.0093342867 0.0076371431 0.89100003
-0.0076371431 0.0076371431 0.89100003
-0.0059400005 0.0076371431 0.89100003
-0.0025457144 0.0076371431 0.89100003
-0.00084857148 0.0076371431 0.89100003
0.0025457144 0.0076371431 0.89100003
0.0042428575 0.0076371431 0.89100003
0.0059400005 0.0076371431 0.89100003
0.0076371431 0.0076371431 0.89100003
0.0093342867 0.0076371431 0.89100003
0.011031429 0.0076371431 0.89100003
0.012728572 0.0076371431 0.89100003
0.014425715 0.0076371431 0.89100003
0.016122859 0.0076371431 0.89100003
0.046566669 0.0076200003 0.88900006
0.048260003 0.0076200003 0.88900006
0.049953338 0.0076200003 0.88900006
0.051646668 0.0076200003 0.88900006
0.053340003 0.0076200003 0.88900006
0.055033337 0.0076200003 0.88900006
0.056726672 0.0076200003 0.88900006
0.058420002 0.0076200003 0.88900006
0.060113337 0.0076200003 0.88900006
0.061806671 0.0076200003 0.88900006
0.063500002 0.0076200003 0.88900006
0.06519334 0.0076200003 0.88900006
0.066886671 0.0076200003 0.88900006
0.068580002 0.0076200003 0.88900006
0.07027334 0.0076200003 0.88900006
0.07196667 0.0076200003 0.88900006
0.073660001 0.0076200003 0.88900006
0.075353339 0.0076200003 0.88900006
-0.055033337 0.0093133338 0.88900006
-0.044873334 0.0093133338 0.88900006
-0.043180004 0.0093133338 0.88900006
-0.041486669 0.0093133338 0.88900006
-0.039793335 0.0093133338 0.88900006
-0.038100004 0.0093133338 0.88900006
-0.019473335 0.0093133338 0.88900006
-0.01778 0.0093133338 0.88900006
0.0042238096 0.0092923818 0.88700002
0.0059133335 0.0092923818 0.88700002
0.0076028574 0.0092923818 0.88700002
0.0092923818 0.0092923818 0.88700002
0.010981905 0.0092923818 0.88700002
0.01267143 0.0092923818 0.88700002
0.014360953 0.0092923818 0.88700002
0.016050477 0.0092923818 0.88700002
0.017740002 0.0092923818 0.88700002
0.021119049 0.0092923818 0.88700002
0.022808572 0.0092923818 0.88700002
0.02441524 0.0092609534 0.88400006
0.026099049 0.0092609534 0.88400006
0.027782859 0.0092609534 0.88400006
0.029400002 0.0092400005 0.88200003
0.031080002 0.0092400005 0.88200003
0.032760002 0.0092400005 0.88200003
0.034440003 0.0092400005 0.88200003
0.036120001 0.0092400005 0.88200003
0.037800003 0.0092400005 0.88200003
0.039569527 0.0092609534 0.88400006
0.041393336 0.0092923818 0.88700002
0.043082859 0.0092923818 0.88700002
0.044772383 0.0092923818 0.88700002
0.051356193 0.0092609534 0.88400006
0.054723814 0.0092609534 0.88400006
0.056407623 0.0092609534 0.88400006
0.068194292 0.0092609534 0.88400006
0.081664771 0.0092609534 0.88400006
0.08334858 0.0092609534 0.88400006
0.085032389 0.0092609534 0.88400006
0.086716197 0.0092609534 0.88400006
0.088400006 0.0092609534 0.88400006
0.090083815 0.0092609534 0.88400006
0.096819051 0.0092609534 0.88400006
0.12039239 0.0092609534 0.88400006
-0.059978098 0.010981905 0.88700002
-0.058288574 0.010981905 0.88700002
-0.056407623 0.010944762 0.88400006
-0.054909527 0.010981905 0.88700002
-0.053220004 0.010981905 0.88700002
-0.05153048 0.010981905 0.88700002
0.0092609534 0.010944762 0.88400006
0.010944762 0.010944762 0.88400006
0.012628572 0.010944762 0.88400006
0.014312382 0.010944762 0.88400006
0.015996192 0.010944762 0.88400006
0.017680001 0.010944762 0.88400006
0.019363811 0.010944762 0.88400006
0.02104762 0.010944762 0.88400006
0.022731431 0.010944762 0.88400006
0.024360001 0.01092 0.88200003
0.026040001 0.01092 0.88200003
0.027720002 0.01092 0.88200003
0.029400002 0.01092 0.88200003
0.031009525 0.010895239 0.88000005
0.032685716 0.010895239 0.88000005
0.034361906 0.010895239 0.88000005
0.036038097 0.010895239 0.88000005
0.037714288 0.010895239 0.88000005
0.039480001 0.01092 0.88200003
0.041253336 0.010944762 0.88400006
0.054600004 0.01092 0.88200003
0.068040006 0.01092 0.88200003
0.086520009 0.01092 0.88200003
0.089880005 0.01092 0.88200003
0.096600004 0.01092 0.88200003
0.098280005 0.01092 0.88200003
0.099960007 0.01092 0.88200003
0.10164001 0.01092 0.88200003
-0.066510484 0.012628572 0.88400006
-0.064826667 0.012628572 0.88400006
-0.063142858 0.012628572 0.88400006
-0.061459053 0.012628572 0.88400006
-0.059640005 0.012600001 0.88200003
-0.058091432 0.012628572 0.88400006
-0.056407623 0.012628572 0.88400006
-0.054723814 0.012628572 0.88400006
-0.010685715 0.010685715 0.74800003
-0.007836191 0.010685715 0.74800003
-0.0063857147 0.010642858 0.74500006
-0.0049533336 0.010614286 0.74300003
-0.0035380954 0.010614286 0.74300003
-0.0021200001 0.010600001 0.74200004
-0.00070666673 0.010600001 0.74200004
0.00070476194 0.01057143 0.74000001
0.022628574 0.01257143 0.88000005
0.024304764 0.01257143 0.88000005
0.025980955 0.01257143 0.88000005
0.027657144 0.01257143 0.88000005
0.029333334 0.01257143 0.88000005
0.03093905 0.012542858 0.87800002
0.032685716 0.01257143 0.88000005
0.034283813 0.012542858 0.87800002
0.035956193 0.012542858 0.87800002
0.037714288 0.01257143 0.88000005
0.039390478 0.01257143 0.88000005
0.041066669 0.01257143 0.88000005
0.047771432 0.01257143 0.88000005
0.049447622 0.01257143 0.88000005
0.051123813 0.01257143 0.88000005
0.052800003 0.01257143 0.88000005
0.054476194 0.01257143 0.88000005
0.056152385 0.01257143 0.88000005
0.057828575 0.01257143 0.88000005
0.059504766 0.01257143 0.88000005
0.061180957 0.01257143 0.88000005
0.062857144 0.01257143 0.88000005
0.064533338 0.01257143 0.88000005
0.066209525 0.01257143 0.88000005
0.067885719 0.01257143 0.88000005
0.069561906 0.01257143 0.88000005
0.071238101 0.01257143 0.88000005
-0.010671429 0.012094286 0.74700004
-0.0092238104 0.012061905 0.74500006
-0.0078047626 0.012061905 0.74500006
-0.0063685719 0.012029525 0.74300003
-0.0049533336 0.012029525 0.74300003
-0.0035333335 0.012013334 0.74200004
-0.0021200001 0.012013334 0.74200004
-0.00070476194 0.011980954 0.74000001
0.00070380955 0.011964763 0.73900002
0.0021114287 0.011964763 0.73900002
0.017560001 0.014215239 0.87800002
0.020904763 0.014215239 0.87800002
0.022577144 0.014215239 0.87800002
0.024249526 0.014215239 0.87800002
0.025921907 0.014215239 0.87800002
0.027594287 0.014215239 0.87800002
0.029266668 0.014215239 0.87800002
0.03093905 0.014215239 0.87800002
0.03261143 0.014215239 0.87800002
0.034283813 0.014215239 0.87800002
0.035956193 0.014215239 0.87800002
0.037628572 0.014215239 0.87800002
0.039300956 0.014215239 0.87800002
0.054166671 0.014166668 0.87500006
0.057500005 0.014166668 0.87500006
0.05916667 0.014166668 0.87500006
0.060833339 0.014166668 0.87500006
0.062357146 0.014134287 0.87300003
0.064166673 0.014166668 0.87500006
0.065833338 0.014166668 0.87500006
-0.012061905 0.013480953 0.74500006
-0.010642858 0.013480953 0.74500006
-0.0091990484 0.013444763 0.74300003
-0.0077733337 0.013426668 0.74200004
-0.0063600005 0.013426668 0.74200004
-0.0049466668 0.013426668 0.74200004
-0.0035333335 0.013426668 0.74200004
-0.0021142859 0.013390477 0.74000001
-0.00070476194 0.013390477 0.74000001
0.00070380955 0.013372382 0.73900002
0.0021142859 0.013390477 0.74000001
0.0035238098 0.013390477 0.74000001
0.0049333335 0.013390477 0.74000001
0.022500001 0.015833335 0.87500006
0.024166668 0.015833335 0.87500006
0.025833335 0.015833335 0.87500006
0.030833336 0.015833335 0.87500006
0.032500003 0.015833335 0.87500006
0.034166668 0.015833335 0.87500006
0.035833336 0.015833335 0.87500006
0.037500001 0.015833335 0.87500006
0.03916667 0.015833335 0.87500006
0.054042861 0.015797144 0.87300003
0.057368577 0.015797144 0.87300003
0.059031431 0.015797144 0.87300003
0.060694288 0.015797144 0.87300003
0.062357146 0.015797144 0.87300003
0.064020008 0.015797144 0.87300003
0.065682858 0.015797144 0.87300003
0.067345716 0.015797144 0.87300003
0.069008574 0.015797144 0.87300003
-0.016034286 0.014640001 0.73200005
-0.014640001 0.014640001 0.73200005
-0.013318096 0.014720001 0.73600006
-0.012013334 0.014840001 0.74200004
-0.010600001 0.014840001 0.74200004
-0.0091619054 0.014800001 0.74000001
-0.0077419053 0.014780001 0.73900002
-0.0063342862 0.014780001 0.73900002
-0.0049333335 0.014800001 0.74000001
-0.0035190478 0.014780001 0.73900002
-0.0021114287 0.014780001 0.73900002
-0.00070380955 0.014780001 0.73900002
0.00070380955 0.014780001 0.73900002
0.0021142859 0.014800001 0.74000001
0.0035238098 0.014800001 0.74000001
0.0049333335 0.014800001 0.74000001
0.0063428576 0.014800001 0.74000001
0.0077523813 0.014800001 0.74000001
0.057237148 0.017420001 0.87100005
0.058896195 0.017420001 0.87100005
0.060555242 0.017420001 0.87100005
0.062214289 0.017420001 0.87100005
0.063873336 0.017420001 0.87100005
0.065532386 0.017420001 0.87100005
0.067191429 0.017420001 0.87100005
0.06885048 0.017420001 0.87100005
-0.023068573 0.016078096 0.73400003
-0.021670477 0.016078096 0.73400003
-0.020217145 0.016034286 0.73200005
-0.018797144 0.016012382 0.73100001
-0.017404763 0.016012382 0.73100001
-0.016034286 0.016034286 0.73200005
-0.014640001 0.016034286 0.73200005
-0.013318096 0.016121905 0.73600006
-0.011916191 0.016121905 0.73600006
-0.010557144 0.016187619 0.73900002
-0.0091495244 0.016187619 0.73900002
-0.0077419053 0.016187619 0.73900002
-0.0063342862 0.016187619 0.73900002
-0.0049266671 0.016187619 0.73900002
-0.0035190478 0.016187619 0.73900002
-0.0021114287 0.016187619 0.73900002
-0.00070380955 0.016187619 0.73900002
0.00070380955 0.016187619 0.73900002
0.0021114287 0.016187619 0.73900002
0.0035238098 0.016209524 0.74000001
0.0049333335 0.016209524 0.74000001
0.0063342862 0.016187619 0.73900002
0.0077523813 0.016209524 0.74000001
0.0091619054 0.016209524 0.74000001
0.01057143 0.016209524 0.74000001
0.011980954 0.016209524 0.74000001
0.083204769 0.01894762 0.86500007
0.085048579 0.018991429 0.86700004
0.086700007 0.018991429 0.86700004
0.090002865 0.018991429 0.86700004
-0.023005717 0.017428573 0.73200005
-0.02161143 0.017428573 0.73200005
-0.020189526 0.017404763 0.73100001
-0.018745715 0.017357145 0.72900003
-0.017404763 0.017404763 0.73100001
-0.016034286 0.017428573 0.73200005
-0.014640001 0.017428573 0.73200005
-0.013281906 0.017476192 0.73400003
-0.01188381 0.017476192 0.73400003
-0.010514286 0.01752381 0.73600006
-0.0091247624 0.01754762 0.73700005
-0.0077209529 0.01754762 0.73700005
-0.0063171433 0.01754762 0.73700005
-0.0049133338 0.01754762 0.73700005
-0.003509524 0.01754762 0.73700005
-0.0021057145 0.01754762 0.73700005
-0.00070190482 0.01754762 0.73700005
0.00070190482 0.01754762 0.73700005
0.0021114287 0.017595239 0.73900002
0.0035190478 0.017595239 0.73900002
0.0049266671 0.017595239 0.73900002
0.0063342862 0.017595239 0.73900002
0.0077419053 0.017595239 0.73900002
0.0091619054 0.017619049 0.74000001
0.010557144 0.017595239 0.73900002
0.011980954 0.017619049 0.74000001
0.013390477 0.017619049 0.74000001
0.026640002 0.018000001 0.75600004
0.082916193 0.020523811 0.86200005
0.086200006 0.020523811 0.86200005
-0.035505716 0.018797144 0.73100001
-0.034160003 0.018822858 0.73200005
-0.032765716 0.018822858 0.73200005
-0.031328574 0.018797144 0.73100001
-0.029936193 0.018797144 0.73100001
-0.028543811 0.018797144 0.73100001
-0.027040001 0.018720001 0.72800004
-0.025688574 0.018745715 0.72900003
-0.024400001 0.018822858 0.73200005
-0.023005717 0.018822858 0.73200005
-0.02161143 0.018822858 0.73200005
-0.020189526 0.018797144 0.73100001
-0.018745715 0.018745715 0.72900003
-0.017404763 0.018797144 0.73100001
-0.016012382 0.018797144 0.73100001
-0.01462 0.018797144 0.73100001
-0.013245715 0.018822858 0.73200005
-0.01188381 0.018874288 0.73400003
-0.010485715 0.018874288 0.73400003
-0.0091123814 0.018925715 0.73600006
-0.0077104769 0.018925715 0.73600006
-0.0063085719 0.018925715 0.73600006
-0.0049066669 0.018925715 0.73600006
-0.003509524 0.018951429 0.73700005
-0.0021028572 0.018925715 0.73600006
-0.00070190482 0.018951429 0.73700005
0.00070190482 0.018951429 0.73700005
0.0021057145 0.018951429 0.73700005
0.003509524 0.018951429 0.73700005
0.0049266671 0.019002859 0.73900002
0.0063342862 0.019002859 0.73900002
0.0077419053 0.019002859 0.73900002
0.0091495244 0.019002859 0.73900002
0.010557144 0.019002859 0.73900002
0.011964763 0.019002859 0.73900002
0.013336191 0.018951429 0.73700005
0.014720001 0.018925715 0.73600006
0.016121905 0.018925715 0.73600006
0.019542858 0.019542858 0.76000005
0.020935239 0.01949143 0.75800002
0.022320002 0.019440001 0.75600004
0.023760002 0.019440001 0.75600004
0.025266668 0.01949143 0.75800002
0.026710479 0.01949143 0.75800002
0.028080001 0.019440001 0.75600004
0.029520001 0.019440001 0.75600004
-0.039411429 0.020051429 0.72600001
-0.038290478 0.020189526 0.73100001
-0.036898099 0.020189526 0.73100001
-0.035505716 0.020189526 0.73100001
-0.034160003 0.020217145 0.73200005
-0.032765716 0.020217145 0.73200005
-0.03137143 0.020217145 0.73200005
-0.029936193 0.020189526 0.73100001
-0.028543811 0.020189526 0.73100001
-0.027077144 0.020134287 0.72900003
-0.025759049 0.020189526 0.73100001
-0.024366667 0.020189526 0.73100001
-0.023005717 0.020217145 0.73200005
-0.02161143 0.020217145 0.73200005
-0.020189526 0.020189526 0.73100001
-0.018745715 0.020134287 0.72900003
-0.017404763 0.020189526 0.73100001
-0.016012382 0.020189526 0.73100001
-0.01462 0.020189526 0.73100001
-0.01322762 0.020189526 0.73100001
-0.011851429 0.020217145 0.73200005
-0.010457143 0.020217145 0.73200005
-0.0090876194 0.020272382 0.73400003
-0.0076895244 0.020272382 0.73400003
-0.0063085719 0.02032762 0.73600006
-0.0049066669 0.02032762 0.73600006
-0.0035047622 0.02032762 0.73600006
-0.0021028572 0.02032762 0.73600006
-0.00070095243 0.02032762 0.73600006
0.00070095243 0.02032762 0.73600006
0.0021028572 0.02032762 0.73600006
0.0035047622 0.02032762 0.73600006
0.0049133338 0.02035524 0.73700005
0.0063085719 0.02032762 0.73600006
0.0077209529 0.02035524 0.73700005
0.0091247624 0.02035524 0.73700005
0.010528572 0.02035524 0.73700005
0.011932381 0.02035524 0.73700005
0.013318096 0.02032762 0.73600006
0.014720001 0.02032762 0.73600006
0.016121905 0.02032762 0.73600006
0.019542858 0.020990478 0.76000005
0.020990478 0.020990478 0.76000005
0.022379048 0.020935239 0.75800002
0.023822859 0.020935239 0.75800002
0.025266668 0.020935239 0.75800002
0.026710479 0.020935239 0.75800002
0.028080001 0.020880001 0.75600004
0.029520001 0.020880001 0.75600004
-0.047642861 0.021404764 0.72500002
-0.046134289 0.021345716 0.72300005
-0.044757146 0.021345716 0.72300005
-0.043500002 0.021404764 0.72500002
-0.042119049 0.021404764 0.72500002
-0.040794287 0.021434287 0.72600001
-0.039411429 0.021434287 0.72600001
-0.038185716 0.021522859 0.72900003
-0.036797144 0.021522859 0.72900003
-0.035408575 0.021522859 0.72900003
-0.034020003 0.021522859 0.72900003
-0.032720953 0.021581907 0.73100001
-0.031328574 0.021581907 0.73100001
-0.029936193 0.021581907 0.73100001
-0.028543811 0.021581907 0.73100001
-0.027077144 0.021522859 0.72900003
-0.025688574 0.021522859 0.72900003
-0.024366667 0.021581907 0.73100001
-0.022974288 0.021581907 0.73100001
-0.021581907 0.021581907 0.73100001
-0.020134287 0.021522859 0.72900003
-0.018745715 0.021522859 0.72900003
-0.017357145 0.021522859 0.72900003
-0.015968572 0.021522859 0.72900003
-0.014580001 0.021522859 0.72900003
-0.01319143 0.021522859 0.72900003
-0.011802858 0.021522859 0.72900003
-0.010414287 0.021522859 0.72900003
-0.0090504764 0.021581907 0.73100001
-0.0076580956 0.021581907 0.73100001
-0.0062742862 0.02161143 0.73200005
-0.0048800004 0.02161143 0.73200005
-0.0034857146 0.02161143 0.73200005
-0.0020914287 0.02161143 0.73200005
-0.00069714291 0.02161143 0.73200005
0.00069714291 0.02161143 0.73200005
0.0020914287 0.02161143 0.73200005
0.0034857146 0.02161143 0.73200005
0.0048933337 0.021670477 0.73400003
0.0062742862 0.02161143 0.73200005
0.0076895244 0.021670477 0.73400003
0.0091123814 0.021729525 0.73600006
0.010514286 0.021729525 0.73600006
0.011916191 0.021729525 0.73600006
0.013318096 0.021729525 0.73600006
0.014680001 0.021670477 0.73400003
0.016121905 0.021729525 0.73600006
0.01949143 0.022379048 0.75800002
0.020935239 0.022379048 0.75800002
0.022320002 0.022320002 0.75600004
0.023760002 0.022320002 0.75600004
0.025200002 0.022320002 0.75600004
0.026604764 0.022290478 0.75500005
0.028042858 0.022290478 0.75500005
0.029480955 0.022290478 0.75500005
0.030919049 0.022290478 0.75500005
0.032357145 0.022290478 0.75500005
0.033795241 0.022290478 0.75500005
0.035373334 0.022379048 0.75800002
0.036817145 0.022379048 0.75800002
0.07092572 0.025272382 0.85600007
0.077447623 0.025272382 0.85600007
0.079078101 0.025272382 0.85600007
0.080708578 0.025272382 0.85600007
0.082339056 0.025272382 0.85600007
-0.053166669 0.022785716 0.72500002
-0.051785719 0.022785716 0.72500002
-0.050265718 0.022722859 0.72300005
-0.048888575 0.022722859 0.72300005
-0.047511432 0.022722859 0.72300005
-0.046134289 0.022722859 0.72300005
-0.044757146 0.022722859 0.72300005
-0.043500002 0.022785716 0.72500002
-0.042119049 0.022785716 0.72500002
-0.040738098 0.022785716 0.72500002
-0.039357144 0.022785716 0.72500002
-0.038028575 0.022817144 0.72600001
-0.036645718 0.022817144 0.72600001
-0.03526286 0.022817144 0.72600001
-0.033973336 0.022880001 0.72800004
-0.032586668 0.022880001 0.72800004
-0.031242859 0.022911429 0.72900003
-0.029854288 0.022911429 0.72900003
-0.028465716 0.022911429 0.72900003
-0.027040001 0.022880001 0.72800004
-0.025653334 0.022880001 0.72800004
-0.024300002 0.022911429 0.72900003
-0.022911429 0.022911429 0.72900003
-0.021581907 0.022974288 0.73100001
-0.020106668 0.022880001 0.72800004
-0.018720001 0.022880001 0.72800004
-0.017357145 0.022911429 0.72900003
-0.015968572 0.022911429 0.72900003
-0.014580001 0.022911429 0.72900003
-0.01319143 0.022911429 0.72900003
-0.011786668 0.022880001 0.72800004
-0.010414287 0.022911429 0.72900003
-0.0090257153 0.022911429 0.72900003
-0.0076371431 0.022911429 0.72900003
-0.0062485719 0.022911429 0.72900003
-0.0048733335 0.022974288 0.73100001
-0.0034809527 0.022974288 0.73100001
-0.0020885717 0.022974288 0.73100001
-0.00069619052 0.022974288 0.73100001
0.00069619052 0.022974288 0.73100001
0.0020885717 0.022974288 0.73100001
0.0034809527 0.022974288 0.73100001
0.0048800004 0.023005717 0.73200005
0.0062742862 0.023005717 0.73200005
0.0076895244 0.023068573 0.73400003
0.0091123814 0.02313143 0.73600006
0.010485715 0.023068573 0.73400003
0.01188381 0.023068573 0.73400003
0.013281906 0.023068573 0.73400003
0.014680001 0.023068573 0.73400003
0.016121905 0.02313143 0.73600006
0.019671429 0.024042858 0.76500005
0.021073334 0.023980001 0.76300001
0.022379048 0.023822859 0.75800002
0.023760002 0.023760002 0.75600004
0.025166668 0.023728574 0.75500005
0.026604764 0.023728574 0.75500005
0.028042858 0.023728574 0.75500005
0.029480955 0.023728574 0.75500005
0.030919049 0.023728574 0.75500005
0.032400001 0.023760002 0.75600004
0.033929527 0.023822859 0.75800002
0.035466667 0.023885716 0.76000005
0.036817145 0.023822859 0.75800002
-0.055697147 0.024066668 0.72200006
-0.053020004 0.024100002 0.72300005
-0.051642861 0.024100002 0.72300005
-0.050265718 0.024100002 0.72300005
-0.048888575 0.024100002 0.72300005
-0.047511432 0.024100002 0.72300005
-0.046134289 0.024100002 0.72300005
-0.044757146 0.024100002 0.72300005
-0.043500002 0.024166668 0.72500002
-0.042119049 0.024166668 0.72500002
-0.040738098 0.024166668 0.72500002
-0.039248575 0.024100002 0.72300005
-0.037976194 0.024166668 0.72500002
-0.03659524 0.024166668 0.72500002
-0.03526286 0.024200002 0.72600001
-0.033880003 0.024200002 0.72600001
-0.032497145 0.024200002 0.72600001
-0.031114288 0.024200002 0.72600001
-0.029813336 0.024266668 0.72800004
