# .PCD v0.7 - Point Cloud Data file format
VERSION 0.7
FIELDS x y z
SIZE 4 4 4
TYPE F F F
COUNT 1 1 1
WIDTH 1340
HEIGHT 1
VIEWPOINT 0 0 0 1 0 0 0
POINTS 1340
DATA ascii
-0.047051433 0.040232383 0.71600002
-0.045560002 0.040120002 0.71400005
-0.0441381 0.040063813 0.71300006
-0.042600002 0.03989524 0.71000004
-0.041131433 0.039782859 0.708
-0.039726671 0.039726671 0.70700002
-0.038271431 0.03961429 0.70500004
-0.036928575 0.03961429 0.70500004
-0.035535239 0.039558098 0.70400006
-0.034145717 0.039501909 0.70300001
-0.032713335 0.039389525 0.70100003
-0.031378098 0.039389525 0.70100003
-0.030042859 0.039389525 0.70100003
-0.028666668 0.039333336 0.70000005
-0.027333336 0.039333336 0.70000005
-0.026000002 0.039333336 0.70000005
-0.024666669 0.039333336 0.70000005
-0.023366667 0.039389525 0.70100003
-0.022000002 0.039333336 0.70000005
-0.020666668 0.039333336 0.70000005
-0.019333335 0.039333336 0.70000005
-0.018000001 0.039333336 0.70000005
-0.016666668 0.039333336 0.70000005
-0.015289525 0.039220955 0.69800001
-0.014000001 0.039333336 0.70000005
-0.012720954 0.039501909 0.70300001
-0.011398096 0.039558098 0.70400006
-0.010057144 0.039558098 0.70400006
-0.0087285722 0.03961429 0.70500004
-0.0074066673 0.039726671 0.70700002
-0.0060857148 0.03989524 0.71000004
-0.0047400002 0.039951432 0.71100003
-0.0033952384 0.040063813 0.71300006
-0.0020400002 0.040120002 0.71400005
-0.00068190478 0.040232383 0.71600002
0.00068285718 0.040288575 0.71700001
0.002054286 0.040400956 0.71900004
0.0034285716 0.040457144 0.72000003
0.0048200004 0.040625717 0.72300005
0.0062142862 0.040738098 0.72500002
-0.049570478 0.041421909 0.71300006
-0.048280004 0.041480001 0.71400005
-0.046854287 0.041421909 0.71300006
-0.045496192 0.041421909 0.71300006
-0.04401429 0.041305717 0.71100003
-0.042480003 0.041131433 0.708
-0.040957145 0.040957145 0.70500004
-0.03961429 0.040957145 0.70500004
-0.038217146 0.040899049 0.70400006
-0.036876194 0.040899049 0.70400006
-0.035484765 0.040840954 0.70300001
-0.034048572 0.040724766 0.70100003
-0.032666668 0.04066667 0.70000005
-0.031333335 0.04066667 0.70000005
-0.030000001 0.04066667 0.70000005
-0.028584763 0.040550478 0.69800001
-0.027255239 0.040550478 0.69800001
-0.025925716 0.040550478 0.69800001
-0.024596192 0.040550478 0.69800001
-0.023333335 0.04066667 0.70000005
-0.022000002 0.04066667 0.70000005
-0.020666668 0.04066667 0.70000005
-0.019278096 0.040550478 0.69800001
-0.018000001 0.04066667 0.70000005
-0.016619049 0.040550478 0.69800001
-0.01526762 0.040492382 0.69700003
-0.013960001 0.040550478 0.69800001
-0.012630477 0.040550478 0.69800001
-0.011349524 0.040724766 0.70100003
-0.010014286 0.040724766 0.70100003
-0.0087038102 0.040840954 0.70300001
-0.0073752385 0.040899049 0.70400006
-0.0060600005 0.041073337 0.70700002
-0.0047333338 0.041247621 0.71000004
-0.0033857145 0.041305717 0.71100003
-0.0020371431 0.041421909 0.71300006
-0.00068000006 0.041480001 0.71400005
0.00068190478 0.041596193 0.71600002
0.002054286 0.041770481 0.71900004
0.0034238098 0.041770481 0.71900004
0.0048133335 0.041944765 0.72200006
0.0061885719 0.041944765 0.72200006
-0.050785717 0.042660002 0.71100003
-0.049361907 0.042600002 0.71000004
-0.048077147 0.042660002 0.71100003
-0.046722859 0.042660002 0.71100003
-0.045304764 0.042600002 0.71000004
-0.043828573 0.042480003 0.708
-0.042420004 0.042420004 0.70700002
-0.040899049 0.042240001 0.70400006
-0.039501909 0.042180002 0.70300001
-0.038162861 0.042180002 0.70300001
-0.03671905 0.042060003 0.70100003
-0.035383813 0.042060003 0.70100003
-0.034000002 0.042000003 0.70000005
-0.032526668 0.041820005 0.69700003
-0.031199049 0.041820005 0.69700003
-0.029785717 0.041700002 0.69500005
-0.028461907 0.041700002 0.69500005
-0.027216192 0.041820005 0.69700003
-0.025814287 0.041700002 0.69500005
-0.024560954 0.041820005 0.69700003
-0.023166668 0.041700002 0.69500005
-0.021905717 0.041820005 0.69700003
-0.020578096 0.041820005 0.69700003
-0.01919524 0.041700002 0.69500005
-0.01787143 0.041700002 0.69500005
-0.01652381 0.041640002 0.69400001
-0.015201906 0.041640002 0.69400001
-0.013900001 0.041700002 0.69500005
-0.012612382 0.041820005 0.69700003
-0.011300953 0.041880004 0.69800001
-0.010000001 0.042000003 0.70000005
-0.0086666672 0.042000003 0.70000005
-0.0073438101 0.042060003 0.70100003
-0.0060257148 0.042180002 0.70300001
-0.0047000004 0.042300005 0.70500004
-0.0033809526 0.042600002 0.71000004
-0.0020314287 0.042660002 0.71100003
-0.00067904766 0.042780004 0.71300006
0.00068000006 0.042840004 0.71400005
0.0020457145 0.042960003 0.71600002
0.0034142858 0.043020003 0.71700001
0.0047933338 0.043140002 0.71900004
0.0061714291 0.043200001 0.72000003
0.0075428574 0.043200001 0.72000003
-0.050785717 0.04401429 0.71100003
-0.049361907 0.043952383 0.71000004
-0.048009526 0.043952383 0.71000004
-0.046657145 0.043952383 0.71000004
-0.045177147 0.043828573 0.708
-0.04376667 0.04376667 0.70700002
-0.042300005 0.04364286 0.70500004
-0.040840954 0.04351905 0.70300001
-0.039389525 0.04339524 0.70100003
-0.038000003 0.043333337 0.70000005
-0.036666669 0.043333337 0.70000005
-0.035232384 0.043209527 0.69800001
-0.033854287 0.043147624 0.69700003
-0.032433335 0.043023814 0.69500005
-0.031109527 0.043023814 0.69500005
-0.029742859 0.042961907 0.69400001
-0.028420955 0.042961907 0.69400001
-0.027099049 0.042961907 0.69400001
-0.025777144 0.042961907 0.69400001
-0.02445524 0.042961907 0.69400001
-0.023133336 0.042961907 0.69400001
-0.021811429 0.042961907 0.69400001
-0.020489525 0.042961907 0.69400001
-0.019140001 0.042900003 0.69300002
-0.017820001 0.042900003 0.69300002
-0.016452381 0.042776193 0.69100004
-0.015136192 0.042776193 0.69100004
-0.013860001 0.042900003 0.69300002
-0.012558096 0.042961907 0.69400001
-0.011252382 0.043023814 0.69500005
-0.0099714296 0.043209527 0.69800001
-0.0086419052 0.043209527 0.69800001
-0.0073333336 0.043333337 0.70000005
-0.0060085719 0.04339524 0.70100003
-0.0046866671 0.04351905 0.70300001
-0.0033666668 0.04376667 0.70700002
-0.0020228573 0.043828573 0.708
-0.00067714287 0.04401429 0.71100003
0.00068000006 0.044200003 0.71400005
0.0020457145 0.044323813 0.71600002
0.0034142858 0.044385716 0.71700001
0.0047933338 0.044509526 0.71900004
0.0061628576 0.044509526 0.71900004
0.0075428574 0.044571433 0.72000003
-0.050785717 0.045368575 0.71100003
-0.049361907 0.045304764 0.71000004
-0.048009526 0.045304764 0.71000004
-0.046525717 0.045177147 0.708
-0.045113336 0.045113336 0.70700002
-0.04364286 0.044985719 0.70500004
-0.042060003 0.044730481 0.70100003
-0.04066667 0.04466667 0.70000005
-0.039220955 0.044539049 0.69800001
-0.037837144 0.044475242 0.69700003
-0.036509525 0.044475242 0.69700003
-0.035181906 0.044475242 0.69700003
-0.033757146 0.044347622 0.69500005
-0.032386668 0.044283811 0.69400001
-0.031064764 0.044283811 0.69400001
-0.029700002 0.044220004 0.69300002
-0.028380001 0.044220004 0.69300002
-0.027060002 0.044220004 0.69300002
-0.025740001 0.044220004 0.69300002
-0.024420002 0.044220004 0.69300002
-0.023100002 0.044220004 0.69300002
-0.021780001 0.044220004 0.69300002
-0.020460002 0.044220004 0.69300002
-0.019140001 0.044220004 0.69300002
-0.017820001 0.044220004 0.69300002
-0.016452381 0.044092383 0.69100004
-0.015136192 0.044092383 0.69100004
-0.013860001 0.044220004 0.69300002
-0.01254 0.044220004 0.69300002
-0.011236191 0.044283811 0.69400001
-0.009928572 0.044347622 0.69500005
-0.0086295241 0.044475242 0.69700003
-0.0073123816 0.044539049 0.69800001
-0.0059828577 0.044539049 0.69800001
-0.0046733338 0.044730481 0.70100003
-0.0033476192 0.044858098 0.70300001
-0.0020142859 0.044985719 0.70500004
-0.00067428575 0.045177147 0.708
0.00067714287 0.045368575 0.71100003
0.0020371431 0.045496192 0.71300006
0.0034000003 0.045560002 0.71400005
0.0047733337 0.045687623 0.71600002
0.0061457148 0.04575143 0.71700001
0.0075428574 0.045942862 0.72000003
0.0089761913 0.046261907 0.72500002
-0.050714288 0.046657145 0.71000004
-0.04922286 0.046525717 0.708
-0.04787429 0.046525717 0.708
-0.046460003 0.046460003 0.70700002
-0.044985719 0.046328574 0.70500004
-0.04351905 0.046197146 0.70300001
-0.042000003 0.046000004 0.70000005
-0.040492382 0.045802861 0.69700003
-0.039052382 0.045671433 0.69500005
-0.037674289 0.045605719 0.69400001
-0.036352385 0.045605719 0.69400001
-0.035030477 0.045605719 0.69400001
-0.033660002 0.045540001 0.69300002
-0.032246668 0.045408573 0.69100004
-0.030930478 0.045408573 0.69100004
-0.029614288 0.045408573 0.69100004
-0.028298097 0.045408573 0.69100004
-0.026981907 0.045408573 0.69100004
-0.025628572 0.045342859 0.69000006
-0.024314288 0.045342859 0.69000006
-0.023000002 0.045342859 0.69000006
-0.021717144 0.045408573 0.69100004
-0.02037143 0.045342859 0.69000006
-0.019057143 0.045342859 0.69000006
-0.017742859 0.045342859 0.69000006
-0.016428573 0.045342859 0.69000006
-0.015114287 0.045342859 0.69000006
-0.013800001 0.045342859 0.69000006
-0.01250381 0.045408573 0.69100004
-0.011220001 0.045540001 0.69300002
-0.0099142864 0.045605719 0.69400001
-0.0086047621 0.045671433 0.69500005
-0.0073019052 0.045802861 0.69700003
-0.0059742862 0.045802861 0.69700003
-0.0046533337 0.045868576 0.69800001
-0.0033333336 0.046000004 0.70000005
-0.0020028572 0.046065718 0.70100003
-0.00067333336 0.046460003 0.70700002
0.00067619054 0.046657145 0.71000004
0.0020314287 0.046722859 0.71100003
0.0033952384 0.046854287 0.71300006
0.0047533335 0.046854287 0.71300006
0.0061200005 0.046920002 0.71400005
-0.051920004 0.04787429 0.708
-0.05057143 0.04787429 0.708
-0.04922286 0.04787429 0.708
-0.047806669 0.047806669 0.70700002
-0.046460003 0.047806669 0.70700002
-0.044985719 0.047671434 0.70500004
-0.04351905 0.047536194 0.70300001
-0.042000003 0.047333337 0.70000005
-0.040318098 0.046927623 0.69400001
-0.038940001 0.046860002 0.69300002
-0.037620004 0.046860002 0.69300002
-0.036195241 0.046724766 0.69100004
-0.034879051 0.046724766 0.69100004
-0.033562858 0.046724766 0.69100004
-0.032246668 0.046724766 0.69100004
-0.030930478 0.046724766 0.69100004
-0.029614288 0.046724766 0.69100004
-0.028298097 0.046724766 0.69100004
-0.026942858 0.046657145 0.69000006
-0.025628572 0.046657145 0.69000006
-0.024314288 0.046657145 0.69000006
-0.022966668 0.046589527 0.68900001
-0.021654287 0.046589527 0.68900001
-0.020282859 0.046454288 0.68700004
-0.018974287 0.046454288 0.68700004
-0.017665716 0.046454288 0.68700004
-0.016357144 0.046454288 0.68700004
-0.015048573 0.046454288 0.68700004
-0.013780001 0.046589527 0.68900001
-0.01246762 0.046589527 0.68900001
-0.011171429 0.046657145 0.69000006
-0.0099142864 0.046927623 0.69400001
-0.0085923811 0.046927623 0.69400001
-0.0072809528 0.046995241 0.69500005
-0.0059571434 0.046995241 0.69500005
-0.0046466668 0.04713048 0.69700003
-0.0033238097 0.047198098 0.69800001
-0.0020000001 0.047333337 0.70000005
-0.00066952384 0.047536194 0.70300001
0.00067333336 0.047806669 0.70700002
0.0020228573 0.04787429 0.708
0.0033809526 0.048009526 0.71000004
0.0047533335 0.048212383 0.71300006
0.0061114291 0.048212383 0.71300006
-0.053193338 0.049153335 0.70700002
-0.051846672 0.049153335 0.70700002
-0.050500002 0.049153335 0.70700002
-0.049014289 0.049014289 0.70500004
-0.047671434 0.049014289 0.70500004
-0.045408573 0.048040956 0.69100004
-0.044092383 0.048040956 0.69100004
-0.042900003 0.048180003 0.69300002
-0.041460004 0.048040956 0.69100004
-0.040143814 0.048040956 0.69100004
-0.038771432 0.047971431 0.69000006
-0.037457146 0.047971431 0.69000006
-0.03614286 0.047971431 0.69000006
-0.034778096 0.047901906 0.68900001
-0.033465717 0.047901906 0.68900001
-0.032153334 0.047901906 0.68900001
-0.030840954 0.047901906 0.68900001
-0.029528573 0.047901906 0.68900001
-0.028134288 0.04776286 0.68700004
-0.026786668 0.047693338 0.68600005
-0.025405716 0.047554288 0.68400002
-0.02406762 0.047484767 0.68300003
-0.022800002 0.047554288 0.68400002
-0.021465715 0.047484767 0.68300003
-0.020164764 0.047484767 0.68300003
-0.01889143 0.047554288 0.68400002
-0.017588573 0.047554288 0.68400002
-0.016261905 0.047484767 0.68300003
-0.014982858 0.047554288 0.68400002
-0.013720001 0.047693338 0.68600005
-0.01243143 0.04776286 0.68700004
-0.011122858 0.04776286 0.68700004
-0.0098571433 0.047971431 0.69000006
-0.0085552391 0.048040956 0.69100004
-0.0072600003 0.048180003 0.69300002
-0.0059400005 0.048180003 0.69300002
-0.0046333335 0.048319049 0.69500005
-0.0033190479 0.048458099 0.69700003
-0.0019914287 0.048458099 0.69700003
-0.00066666672 0.048666671 0.70000005
0.00066952384 0.048875242 0.70300001
0.0020142859 0.049014289 0.70500004
0.0033571431 0.049014289 0.70500004
0.0047133337 0.049153335 0.70700002
0.0060600005 0.049153335 0.70700002
-0.052967623 0.050285719 0.70400006
-0.051846672 0.050500002 0.70700002
-0.050357144 0.050357144 0.70500004
-0.049014289 0.050357144 0.70500004
-0.047671434 0.050357144 0.70500004
-0.046328574 0.050357144 0.70500004
-0.044092383 0.049357146 0.69100004
-0.042776193 0.049357146 0.69100004
-0.041400004 0.049285717 0.69000006
-0.040085718 0.049285717 0.69000006
-0.03871524 0.049214289 0.68900001
-0.037402861 0.049214289 0.68900001
-0.035985716 0.049071431 0.68700004
-0.034677144 0.049071431 0.68700004
-0.033320002 0.049000002 0.68600005
-0.032013334 0.049000002 0.68600005
-0.030617144 0.048857145 0.68400002
-0.029314287 0.048857145 0.68400002
-0.027929526 0.048714288 0.68200004
-0.026630478 0.048714288 0.68200004
-0.025368573 0.048785716 0.68300003
-0.024032382 0.048714288 0.68200004
-0.022733334 0.048714288 0.68200004
-0.021434287 0.048714288 0.68200004
-0.020135239 0.048714288 0.68200004
-0.018836191 0.048714288 0.68200004
-0.017537143 0.048714288 0.68200004
-0.016190477 0.04857143 0.68000001
-0.014939048 0.048714288 0.68200004
-0.013660001 0.048785716 0.68300003
-0.012377144 0.048857145 0.68400002
-0.011106667 0.049000002 0.68600005
-0.0098142866 0.049071431 0.68700004
-0.0085428581 0.049285717 0.69000006
-0.0072390479 0.049357146 0.69100004
-0.0059400005 0.049500003 0.69300002
-0.0046266671 0.049571432 0.69400001
-0.0033095239 0.049642861 0.69500005
-0.0019914287 0.049785718 0.69700003
-0.00066761911 0.050071433 0.70100003
0.00067142863 0.050357144 0.70500004
0.0020142859 0.050357144 0.70500004
0.0033571431 0.050357144 0.70500004
0.0047000004 0.050357144 0.70500004
0.0060600005 0.050500002 0.70700002
-0.054231431 0.051553335 0.70300001
-0.052892383 0.051553335 0.70300001
-0.05140667 0.05140667 0.70100003
-0.050285719 0.051626671 0.70400006
-0.048736192 0.05140667 0.70100003
-0.047333337 0.051333338 0.70000005
-0.045408573 0.050673336 0.69100004
-0.044028573 0.050600003 0.69000006
-0.04271429 0.050600003 0.69000006
-0.041340001 0.050526671 0.68900001
-0.03991143 0.050380003 0.68700004
-0.038602859 0.050380003 0.68700004
-0.037240002 0.05030667 0.68600005
-0.035933334 0.05030667 0.68600005
-0.034525715 0.050160002 0.68400002
-0.033174288 0.05008667 0.68300003
-0.031873334 0.05008667 0.68300003
-0.030527622 0.050013337 0.68200004
-0.029228574 0.050013337 0.68200004
-0.027847622 0.049866669 0.68000001
-0.026552383 0.049866669 0.68000001
-0.025257144 0.049866669 0.68000001
-0.023961907 0.049866669 0.68000001
-0.022666669 0.049866669 0.68000001
-0.021340001 0.049793337 0.67900002
-0.020076191 0.049866669 0.68000001
-0.018780954 0.049866669 0.68000001
-0.017485715 0.049866669 0.68000001
-0.016166668 0.049793337 0.67900002
-0.014873334 0.049793337 0.67900002
-0.013600001 0.049866669 0.68000001
-0.012340954 0.050013337 0.68200004
-0.011058096 0.05008667 0.68300003
-0.009800001 0.05030667 0.68600005
-0.0085057151 0.050380003 0.68700004
-0.0072285719 0.050600003 0.69000006
-0.0059142862 0.050600003 0.69000006
-0.004606667 0.050673336 0.69100004
-0.0033047621 0.050893337 0.69400001
-0.0019857143 0.050966669 0.69500005
-0.00066190481 0.050966669 0.69500005
0.00067047623 0.051626671 0.70400006
0.0020114286 0.051626671 0.70400006
0.0033523813 0.051626671 0.70400006
0.0046933335 0.051626671 0.70400006
0.0060428577 0.051700003 0.70500004
-0.054231431 0.052892383 0.70300001
-0.052741908 0.052741908 0.70100003
-0.051333338 0.052666672 0.70000005
-0.049857147 0.052516192 0.69800001
-0.048458099 0.052440956 0.69700003
-0.046724766 0.051989526 0.69100004
-0.045408573 0.051989526 0.69100004
-0.044028573 0.05191429 0.69000006
-0.042652383 0.05183905 0.68900001
-0.041220002 0.051688574 0.68700004
-0.039853334 0.051613338 0.68600005
-0.03854667 0.051613338 0.68600005
-0.037240002 0.051613338 0.68600005
-0.035828575 0.051462859 0.68400002
-0.034424763 0.051312383 0.68200004
-0.033028573 0.051161908 0.68000001
-0.031733334 0.051161908 0.68000001
-0.030393336 0.051086672 0.67900002
-0.029100003 0.051086672 0.67900002
-0.027765715 0.051011432 0.67800003
-0.026396193 0.050860956 0.67600006
-0.025108574 0.050860956 0.67600006
-0.02389143 0.051011432 0.67800003
-0.022600001 0.051011432 0.67800003
-0.021308573 0.051011432 0.67800003
-0.020017143 0.051011432 0.67800003
-0.018753335 0.051086672 0.67900002
-0.017460002 0.051086672 0.67900002
-0.016142858 0.051011432 0.67800003
-0.014851429 0.051011432 0.67800003
-0.013560001 0.051011432 0.67800003
-0.012286668 0.051086672 0.67900002
-0.011009525 0.051161908 0.68000001
-0.0097142868 0.051161908 0.68000001
-0.0084685721 0.051462859 0.68400002
-0.0071971435 0.051688574 0.68700004
-0.0059142862 0.05191429 0.69000006
-0.004606667 0.051989526 0.69100004
-0.0033000002 0.052140005 0.69300002
-0.0019828572 0.052215241 0.69400001
-0.00066190481 0.052290481 0.69500005
0.00066190481 0.052290481 0.69500005
0.0020085715 0.052892383 0.70300001
0.0033523813 0.052967623 0.70400006
0.0046933335 0.052967623 0.70400006
0.0060428577 0.053042859 0.70500004
-0.054231431 0.054231431 0.70300001
-0.052666672 0.054000005 0.70000005
-0.051333338 0.054000005 0.70000005
-0.049785718 0.053768575 0.69700003
-0.048180003 0.053460002 0.69300002
-0.046724766 0.053305719 0.69100004
-0.045342859 0.053228576 0.69000006
-0.043964766 0.053151432 0.68900001
-0.04246667 0.052920002 0.68600005
-0.041040003 0.05276572 0.68400002
-0.039737146 0.05276572 0.68400002
-0.038434289 0.05276572 0.68400002
-0.037131432 0.05276572 0.68400002
-0.035776194 0.052688576 0.68300003
-0.034323812 0.052457146 0.68000001
-0.032980002 0.052380003 0.67900002
-0.031686667 0.052380003 0.67900002
-0.030348573 0.05230286 0.67800003
-0.02897143 0.052148573 0.67600006
-0.027642859 0.052071434 0.67500001
-0.026357144 0.052071434 0.67500001
-0.025071431 0.052071434 0.67500001
-0.023785716 0.052071434 0.67500001
-0.022533335 0.052148573 0.67600006
-0.021245716 0.052148573 0.67600006
-0.019958096 0.052148573 0.67600006
-0.018670477 0.052148573 0.67600006
-0.017434286 0.05230286 0.67800003
-0.01609524 0.052148573 0.67600006
-0.01480762 0.052148573 0.67600006
-0.013520001 0.052148573 0.67600006
-0.012268572 0.05230286 0.67800003
-0.010993334 0.052380003 0.67900002
-0.0097000003 0.052380003 0.67900002
-0.008419048 0.052457146 0.68000001
-0.0071657146 0.05276572 0.68400002
-0.005888572 0.052997146 0.68700004
-0.0046000001 0.053228576 0.69000006
-0.0033000002 0.053460002 0.69300002
-0.0019828572 0.053537145 0.69400001
-0.00066095241 0.053537145 0.69400001
0.00066190481 0.053614289 0.69500005
0.0019942857 0.053845719 0.69800001
0.0033333336 0.054000005 0.70000005
0.0046733338 0.054077145 0.70100003
0.0060342862 0.054308575 0.70400006
-0.050820004 0.054780003 0.69300002
-0.049500003 0.054780003 0.69300002
-0.048040956 0.054621909 0.69100004
-0.046589527 0.054463815 0.68900001
-0.045277145 0.054463815 0.68900001
-0.043773334 0.05422667 0.68600005
-0.04234286 0.054068577 0.68400002
-0.040980004 0.053989526 0.68300003
-0.039620955 0.053910479 0.68200004
-0.038321909 0.053910479 0.68200004
-0.037022859 0.053910479 0.68200004
-0.035566669 0.053673338 0.67900002
-0.034071431 0.053357147 0.67500001
-0.032834288 0.053436194 0.67600006
-0.031500001 0.053357147 0.67500001
-0.030214287 0.053357147 0.67500001
-0.028928574 0.053357147 0.67500001
-0.027601907 0.0532781 0.67400002
-0.026318097 0.0532781 0.67400002
-0.024960002 0.053120002 0.67200005
-0.023750478 0.0532781 0.67400002
-0.022466669 0.0532781 0.67400002
-0.021214288 0.053357147 0.67500001
-0.019928573 0.053357147 0.67500001
-0.018642858 0.053357147 0.67500001
-0.017357145 0.053357147 0.67500001
-0.016071429 0.053357147 0.67500001
-0.014785715 0.053357147 0.67500001
-0.013500001 0.053357147 0.67500001
-0.012232382 0.053436194 0.67600006
-0.010944762 0.053436194 0.67600006
-0.0097000003 0.053673338 0.67900002
-0.008419048 0.053752385 0.68000001
-0.0071552387 0.053989526 0.68300003
-0.0058628577 0.054068577 0.68400002
-0.0045733335 0.05422667 0.68600005
-0.0032904765 0.054621909 0.69100004
-0.0019800002 0.054780003 0.69300002
-0.00066095241 0.05485905 0.69400001
0.00066190481 0.0549381 0.69500005
0.0019914287 0.055096194 0.69700003
0.0033238097 0.055175241 0.69800001
0.004666667 0.055333339 0.70000005
0.0060257148 0.055570479 0.70300001
-0.050673336 0.055938099 0.69100004
-0.049357146 0.055938099 0.69100004
-0.047971431 0.055857148 0.69000006
-0.04638667 0.055533338 0.68600005
-0.044948574 0.055371433 0.68400002
-0.043581907 0.055290479 0.68300003
-0.04221905 0.055209529 0.68200004
-0.040800001 0.055047624 0.68000001
-0.039446671 0.05496667 0.67900002
-0.038153335 0.05496667 0.67900002
-0.036588576 0.054561909 0.67400002
-0.035304762 0.054561909 0.67400002
-0.034020953 0.054561909 0.67400002
-0.032737143 0.054561909 0.67400002
-0.031453334 0.054561909 0.67400002
-0.030080002 0.054400004 0.67200005
-0.028800001 0.054400004 0.67200005
-0.027520001 0.054400004 0.67200005
-0.026240002 0.054400004 0.67200005
-0.024922859 0.05431905 0.671
-0.023644764 0.05431905 0.671
-0.022400001 0.054400004 0.67200005
-0.021120001 0.054400004 0.67200005
-0.01989905 0.054561909 0.67400002
-0.01861524 0.054561909 0.67400002
-0.017331429 0.054561909 0.67400002
-0.016047619 0.054561909 0.67400002
-0.014763811 0.054561909 0.67400002
-0.013480001 0.054561909 0.67400002
-0.012196192 0.054561909 0.67400002
-0.010928572 0.05464286 0.67500001
-0.0096571436 0.054723814 0.67600006
-0.008406667 0.05496667 0.67900002
-0.0071238098 0.055047624 0.68000001
-0.0058542863 0.055290479 0.68300003
-0.0045533339 0.055290479 0.68300003
-0.0032666668 0.055533338 0.68600005
-0.0019628573 0.055614289 0.68700004
-0.0006571429 0.055857148 0.69000006
0.00066095241 0.056180958 0.69400001
0.0019914287 0.056423813 0.69700003
0.0033238097 0.056504767 0.69800001
0.0046533337 0.056504767 0.69800001
-0.053305719 0.057254288 0.69100004
-0.051989526 0.057254288 0.69100004
-0.050600003 0.057171434 0.69000006
-0.049285717 0.057171434 0.69000006
-0.047901906 0.057088576 0.68900001
-0.046251431 0.05667429 0.68400002
-0.04488286 0.056591433 0.68300003
-0.043390479 0.056342863 0.68000001
-0.042033337 0.056260005 0.67900002
-0.040740002 0.056260005 0.67900002
-0.039272383 0.056011431 0.67600006
-0.037928574 0.055928577 0.67500001
-0.036425717 0.055597145 0.671
-0.035200004 0.055680003 0.67200005
-0.033869527 0.055597145 0.671
-0.032591432 0.055597145 0.671
-0.031313334 0.055597145 0.671
-0.030035241 0.055597145 0.671
-0.028757146 0.055597145 0.671
-0.027479049 0.055597145 0.671
-0.026161907 0.055514291 0.67000002
-0.024885716 0.055514291 0.67000002
-0.023609525 0.055514291 0.67000002
-0.022366669 0.055597145 0.671
-0.021088572 0.055597145 0.671
-0.019810477 0.055597145 0.671
-0.018560002 0.055680003 0.67200005
-0.017280001 0.055680003 0.67200005
-0.016000001 0.055680003 0.67200005
-0.014720001 0.055680003 0.67200005
-0.013440001 0.055680003 0.67200005
-0.012196192 0.055845719 0.67400002
-0.010912382 0.055845719 0.67400002
-0.0096428581 0.055928577 0.67500001
-0.008394286 0.056177147 0.67800003
-0.0071133338 0.056260005 0.67900002
-0.0058457148 0.056508575 0.68200004
-0.004546667 0.056508575 0.68200004
-0.0032571431 0.05667429 0.68400002
-0.00196 0.056840003 0.68600005
-0.00065428577 0.05692286 0.68700004
0.00065809529 0.057254288 0.69100004
0.0019857143 0.057585716 0.69500005
0.0033095239 0.057585716 0.69500005
0.0046466668 0.057751432 0.69700003
-0.054542862 0.058485717 0.69000006
-0.05191429 0.058485717 0.69000006
-0.050526671 0.058400955 0.68900001
-0.049285717 0.058485717 0.69000006
-0.047276195 0.057638098 0.68000001
-0.046116192 0.057807624 0.68200004
-0.044620004 0.057553336 0.67900002
-0.043262862 0.057468574 0.67800003
-0.04184762 0.057299051 0.67600006
-0.040560003 0.057299051 0.67600006
-0.039214287 0.05721429 0.67500001
-0.037760001 0.056960005 0.67200005
-0.036425717 0.05687524 0.671
-0.035147622 0.05687524 0.671
-0.033869527 0.05687524 0.671
-0.032542858 0.056790479 0.67000002
-0.031266667 0.056790479 0.67000002
-0.029990477 0.056790479 0.67000002
-0.028714288 0.056790479 0.67000002
-0.027438097 0.056790479 0.67000002
-0.026122859 0.056705717 0.66900003
-0.024848573 0.056705717 0.66900003
-0.023574287 0.056705717 0.66900003
-0.022333335 0.056790479 0.67000002
-0.021057144 0.056790479 0.67000002
-0.019780954 0.056790479 0.67000002
-0.018504763 0.056790479 0.67000002
-0.017254287 0.05687524 0.671
-0.015952382 0.056790479 0.67000002
-0.014698097 0.05687524 0.671
-0.013420001 0.05687524 0.671
-0.012141906 0.05687524 0.671
-0.010880001 0.056960005 0.67200005
-0.0096285725 0.057129528 0.67400002
-0.008369524 0.057299051 0.67600006
-0.0071028578 0.057468574 0.67800003
-0.0058200005 0.057553336 0.67900002
-0.0045333337 0.057638098 0.68000001
-0.0032476194 0.057807624 0.68200004
-0.0019542859 0.057977147 0.68400002
-0.00065428577 0.058231432 0.68700004
0.00065809529 0.058570482 0.69100004
0.0019857143 0.058909528 0.69500005
0.0033190479 0.059079051 0.69700003
0.0046466668 0.059079051 0.69700003
-0.053228576 0.059800003 0.69000006
-0.05183905 0.059713338 0.68900001
-0.050526671 0.059713338 0.68900001
-0.049214289 0.059713338 0.68900001
-0.047276195 0.058933336 0.68000001
-0.045913335 0.058846671 0.67900002
-0.044554289 0.058760002 0.67800003
-0.043262862 0.058760002 0.67800003
-0.04184762 0.058586672 0.67600006
-0.040500004 0.058500003 0.67500001
-0.039040003 0.058240004 0.67200005
-0.037760001 0.058240004 0.67200005
-0.036371432 0.05806667 0.67000002
-0.035095241 0.05806667 0.67000002
-0.03381905 0.05806667 0.67000002
-0.032542858 0.05806667 0.67000002
-0.031220002 0.057980005 0.66900003
-0.029945716 0.057980005 0.66900003
-0.02867143 0.057980005 0.66900003
-0.027397145 0.057980005 0.66900003
-0.026044764 0.057806671 0.66700006
-0.024774287 0.057806671 0.66700006
-0.02350381 0.057806671 0.66700006
-0.022300001 0.057980005 0.66900003
-0.020962859 0.057806671 0.66700006
-0.019692382 0.057806671 0.66700006
-0.018477144 0.057980005 0.66900003
-0.017202858 0.057980005 0.66900003
-0.015928572 0.057980005 0.66900003
-0.014676192 0.05806667 0.67000002
-0.013400001 0.05806667 0.67000002
-0.012141906 0.058153339 0.671
-0.01086381 0.058153339 0.671
-0.0096000005 0.058240004 0.67200005
-0.008344762 0.058413338 0.67400002
-0.0070819054 0.058586672 0.67600006
-0.0058114291 0.058760002 0.67800003
-0.0045266668 0.058846671 0.67900002
-0.0032380954 0.058933336 0.68000001
-0.0019428573 0.058933336 0.68000001
-0.00065142859 0.059280004 0.68400002
0.00065809529 0.059886672 0.69100004
0.0019828572 0.060146671 0.69400001
0.0033095239 0.060233336 0.69500005
0.0046466668 0.06040667 0.69700003
-0.053151432 0.06102572 0.68900001
-0.051613338 0.060760003 0.68600005
-0.05008667 0.060494289 0.68300003
-0.048500001 0.060140003 0.67900002
-0.047137145 0.060051434 0.67800003
-0.045710478 0.059874289 0.67600006
-0.044422861 0.059874289 0.67600006
-0.04307143 0.05978572 0.67500001
-0.041723814 0.059697147 0.67400002
-0.040320002 0.059520002 0.67200005
-0.038865715 0.059254289 0.66900003
-0.037591431 0.059254289 0.66900003
-0.036208574 0.059077147 0.66700006
-0.034938097 0.059077147 0.66700006
-0.033768572 0.059254289 0.66900003
-0.032397144 0.059077147 0.66700006
-0.031126669 0.059077147 0.66700006
-0.029856192 0.059077147 0.66700006
-0.028542859 0.058988575 0.66600001
-0.027233334 0.058900002 0.66500002
-0.025966669 0.058900002 0.66500002
-0.024700001 0.058900002 0.66500002
-0.023433335 0.058900002 0.66500002
-0.022166668 0.058900002 0.66500002
-0.020900002 0.058900002 0.66500002
-0.019633334 0.058900002 0.66500002
-0.018394288 0.058988575 0.66600001
-0.01715143 0.059077147 0.66700006
-0.015857143 0.058988575 0.66600001
-0.014610477 0.059077147 0.66700006
-0.013340001 0.059077147 0.66700006
-0.012105715 0.059254289 0.66900003
-0.01083143 0.059254289 0.66900003
-0.0095714293 0.059342861 0.67000002
-0.0082952389 0.059342861 0.67000002
-0.0070295241 0.059431434 0.671
-0.0057857148 0.05978572 0.67500001
-0.0045200004 0.060051434 0.67800003
-0.0032285717 0.060051434 0.67800003
-0.0019400001 0.060140003 0.67900002
-0.00064761908 0.060228575 0.68000001
0.00064952386 0.06040572 0.68200004
-0.051312383 0.061704766 0.68200004
-0.049793337 0.061433338 0.67900002
-0.048500001 0.061433338 0.67900002
-0.046998098 0.061161909 0.67600006
-0.04564286 0.061071433 0.67500001
-0.044357147 0.061071433 0.67500001
-0.043007623 0.060980957 0.67400002
-0.041600004 0.060800005 0.67200005
-0.040140003 0.060528576 0.66900003
-0.038749527 0.060347624 0.66700006
-0.037422858 0.060257148 0.66600001
-0.036100004 0.060166672 0.66500002
-0.034885716 0.060257148 0.66600001
-0.03366762 0.060347624 0.66700006
-0.032348573 0.060257148 0.66600001
-0.031033335 0.060166672 0.66500002
-0.029632382 0.059895243 0.66200006
-0.028414287 0.05998572 0.66300005
-0.027110478 0.059895243 0.66200006
-0.025888573 0.05998572 0.66300005
-0.024625717 0.05998572 0.66300005
-0.023327621 0.059895243 0.66200006
-0.022100002 0.05998572 0.66300005
-0.020837145 0.05998572 0.66300005
-0.019574286 0.05998572 0.66300005
-0.018366668 0.060166672 0.66500002
-0.017100001 0.060166672 0.66500002
-0.015833335 0.060166672 0.66500002
-0.014588572 0.060257148 0.66600001
-0.013320001 0.060257148 0.66600001
-0.012069524 0.060347624 0.66700006
-0.010799048 0.060347624 0.66700006
-0.0095571438 0.060528576 0.66900003
-0.0082828579 0.060528576 0.66900003
-0.0070190481 0.060619052 0.67000002
-0.0057600006 0.060800005 0.67200005
-0.0045066671 0.061161909 0.67600006
-0.0032190478 0.061161909 0.67600006
-0.001937143 0.061342862 0.67800003
-0.00064666668 0.061433338 0.67900002
0.00064666668 0.061433338 0.67900002
-0.051161908 0.062819049 0.68000001
-0.049720004 0.062634289 0.67800003
-0.048428576 0.062634289 0.67800003
-0.046928573 0.062357146 0.67500001
-0.045575242 0.062264767 0.67400002
-0.044160005 0.062080003 0.67200005
-0.042816192 0.061987624 0.671
-0.041228574 0.061525717 0.66600001
-0.039960004 0.061525717 0.66600001
-0.038633335 0.061433338 0.66500002
-0.037254289 0.061248574 0.66300005
-0.03599143 0.061248574 0.66300005
-0.034728575 0.061248574 0.66300005
-0.033415239 0.061156195 0.66200006
-0.032154288 0.061156195 0.66200006
-0.030846668 0.061063815 0.66100001
-0.02954286 0.060971431 0.66000003
-0.028328573 0.061063815 0.66100001
-0.027069526 0.061063815 0.66100001
-0.025810478 0.061063815 0.66100001
-0.024551431 0.061063815 0.66100001
-0.023292383 0.061063815 0.66100001
-0.022033336 0.061063815 0.66100001
-0.020805717 0.061156195 0.66200006
-0.019544763 0.061156195 0.66200006
-0.01831143 0.061248574 0.66300005
-0.017048573 0.061248574 0.66300005
-0.015785715 0.061248574 0.66300005
-0.014566667 0.061433338 0.66500002
-0.013300001 0.061433338 0.66500002
-0.01205143 0.061525717 0.66600001
-0.010782857 0.061525717 0.66600001
-0.0095285717 0.061618101 0.66700006
-0.0082580959 0.061618101 0.66700006
-0.0070085721 0.06180286 0.66900003
-0.0057514291 0.061987624 0.671
-0.0044933334 0.062264767 0.67400002
-0.0032095241 0.062264767 0.67400002
-0.0019314287 0.06244953 0.67600006
-0.00064571435 0.062634289 0.67800003
0.00064571435 0.062634289 0.67800003
0.0052733338 0.073073335 0.79100001
0.0067800004 0.073073335 0.79100001
-0.051161908 0.064114287 0.68000001
-0.049720004 0.063925721 0.67800003
-0.048285719 0.063737147 0.67600006
-0.046928573 0.063642859 0.67500001
-0.045575242 0.063548572 0.67400002
-0.044028573 0.063171431 0.67000002
-0.042688575 0.063077144 0.66900003
-0.041166671 0.062700003 0.66500002
-0.039780002 0.062511429 0.66300005
-0.038517144 0.062511429 0.66300005
-0.037198097 0.062417146 0.66200006
-0.035937145 0.062417146 0.66200006
-0.034623813 0.062322862 0.66100001
-0.033364765 0.062322862 0.66100001
-0.032057144 0.062228575 0.66000003
-0.030800002 0.062228575 0.66000003
-0.029453335 0.062040005 0.65800005
-0.028200002 0.062040005 0.65800005
-0.026946668 0.062040005 0.65800005
-0.025693335 0.062040005 0.65800005
-0.024440002 0.062040005 0.65800005
-0.023186669 0.062040005 0.65800005
-0.022000002 0.062228575 0.66000003
-0.020774286 0.062322862 0.66100001
-0.019515239 0.062322862 0.66100001
-0.018256191 0.062322862 0.66100001
-0.016997144 0.062322862 0.66100001
-0.015761906 0.062417146 0.66200006
-0.014522858 0.062511429 0.66300005
-0.013260001 0.062511429 0.66300005
-0.012033334 0.062700003 0.66500002
-0.010782857 0.06279429 0.66600001
-0.0095142862 0.06279429 0.66600001
-0.0082580959 0.062888578 0.66700006
-0.0069876197 0.062888578 0.66700006
-0.0057428577 0.063171431 0.67000002
-0.0044733337 0.063265719 0.671
-0.0032000002 0.063360006 0.67200005
-0.0019257144 0.063548572 0.67400002
-0.00064380956 0.063737147 0.67600006
0.00064285717 0.063642859 0.67500001
0.0019285716 0.063642859 0.67500001
0.0032095241 0.063548572 0.67400002
-0.05230286 0.065217145 0.67800003
-0.051011432 0.065217145 0.67800003
-0.049500003 0.064928576 0.67500001
-0.04821429 0.064928576 0.67500001
-0.04665048 0.064543813 0.671
-0.045304764 0.064447626 0.67000002
-0.04383143 0.064159051 0.66700006
-0.042497147 0.064062864 0.66600001
-0.041042861 0.063774288 0.66300005
-0.039720003 0.063678101 0.66200006
-0.038459051 0.063678101 0.66200006
-0.037198097 0.063678101 0.66200006
-0.03588286 0.063581906 0.66100001
-0.034571432 0.063485719 0.66000003
-0.033314288 0.063485719 0.66000003
-0.031960003 0.063293338 0.65800005
-0.030660002 0.063197143 0.65700001
-0.029408574 0.063197143 0.65700001
-0.028157145 0.063197143 0.65700001
-0.026864763 0.063100956 0.65600002
-0.02561524 0.063100956 0.65600002
-0.024365716 0.063100956 0.65600002
-0.023080954 0.063004769 0.65500003
-0.021900002 0.063197143 0.65700001
-0.020680001 0.063293338 0.65800005
-0.019397143 0.063197143 0.65700001
-0.018145716 0.063197143 0.65700001
-0.016894286 0.063197143 0.65700001
-0.015714286 0.063485719 0.66000003
-0.014479049 0.063581906 0.66100001
-0.013240001 0.063678101 0.66200006
-0.011979048 0.063678101 0.66200006
-0.010766667 0.063966669 0.66500002
-0.0094714295 0.063774288 0.66300005
-0.0082333339 0.063966669 0.66500002
-0.0069771432 0.064062864 0.66600001
-0.0057342863 0.064351432 0.66900003
-0.0044666668 0.064447626 0.67000002
-0.0031952383 0.064543813 0.671
-0.0019200002 0.064640008 0.67200005
-0.00064285717 0.064928576 0.67500001
0.00064190483 0.064832382 0.67400002
0.0019257144 0.064832382 0.67400002
-0.052148573 0.066312388 0.67600006
-0.050710481 0.066116191 0.67400002
-0.049426671 0.066116191 0.67400002
-0.048142862 0.066116191 0.67400002
-0.046580955 0.065723814 0.67000002
-0.045237146 0.06562572 0.66900003
-0.043765716 0.065331429 0.66600001
-0.042305715 0.065037146 0.66300005
-0.041042861 0.065037146 0.66300005
-0.039660003 0.064840958 0.66100001
-0.038400955 0.064840958 0.66100001
-0.037141908 0.064840958 0.66100001
-0.035828575 0.064742863 0.66000003
-0.034571432 0.064742863 0.66000003
-0.033213336 0.064546674 0.65800005
-0.031911429 0.064448573 0.65700001
-0.030613335 0.064350478 0.65600002
-0.02931905 0.064252384 0.65500003
-0.02807143 0.064252384 0.65500003
-0.026823811 0.064252384 0.65500003
-0.025576193 0.064252384 0.65500003
-0.024328573 0.064252384 0.65500003
-0.023010477 0.064056195 0.65300006
-0.021766668 0.064056195 0.65300006
-0.020585716 0.064252384 0.65500003
-0.019338097 0.064252384 0.65500003
-0.018118097 0.064350478 0.65600002
-0.016842859 0.064252384 0.65500003
-0.015595239 0.064252384 0.65500003
-0.01439143 0.064448573 0.65700001
-0.013160001 0.064546674 0.65800005
-0.011906668 0.064546674 0.65800005
-0.010701905 0.064840958 0.66100001
-0.0094428575 0.064840958 0.66100001
-0.0081961909 0.064939052 0.66200006
-0.0069457148 0.065037146 0.66300005
-0.0057171434 0.065429531 0.66700006
-0.0044600004 0.06562572 0.66900003
-0.0031952383 0.065821908 0.671
-0.0019200002 0.065920003 0.67200005
-0.00064190483 0.066116191 0.67400002
0.00064190483 0.066116191 0.67400002
0.0019257144 0.066116191 0.67400002
0.0032142859 0.066214293 0.67500001
-0.051840004 0.067200005 0.67200005
-0.050484765 0.067100003 0.671
-0.04920667 0.067100003 0.671
-0.047928575 0.067100003 0.671
-0.04651143 0.066900007 0.66900003
-0.045101907 0.066700004 0.66700006
-0.043700002 0.066500001 0.66500002
-0.042305715 0.066300005 0.66300005
-0.040980954 0.066200003 0.66200006
-0.039660003 0.066100001 0.66100001
-0.038400955 0.066100001 0.66100001
-0.037085716 0.066000007 0.66000003
-0.035720002 0.065800004 0.65800005
-0.034466669 0.065800004 0.65800005
-0.033162858 0.065700002 0.65700001
-0.031814288 0.065500006 0.65500003
-0.030566668 0.065500006 0.65500003
-0.029229525 0.065300003 0.65300006
-0.027985716 0.065300003 0.65300006
-0.026741907 0.065300003 0.65300006
-0.025498098 0.065300003 0.65300006
-0.024217144 0.065200001 0.65200001
-0.023010477 0.065300003 0.65300006
-0.021766668 0.065300003 0.65300006
-0.020491431 0.065200001 0.65200001
-0.019249525 0.065200001 0.65200001
-0.018035239 0.065300003 0.65300006
-0.016791429 0.065300003 0.65300006
-0.01554762 0.065300003 0.65300006
-0.01434762 0.065500006 0.65500003
-0.013100001 0.065500006 0.65500003
-0.011870477 0.065600008 0.65600002
-0.010637144 0.065700002 0.65700001
-0.0094000008 0.065800004 0.65800005
-0.0081466669 0.065800004 0.65800005
-0.0069142859 0.066000007 0.66000003
-0.0056657149 0.066100001 0.66100001
-0.0044400003 0.066600002 0.66600001
-0.0031904764 0.067000002 0.67000002
-0.001917143 0.067100003 0.671
-0.00064000004 0.067200005 0.67200005
0.00064000004 0.067200005 0.67200005
0.0019285716 0.067500003 0.67500001
0.0032142859 0.067500003 0.67500001
-0.05176286 0.068378098 0.671
-0.050409526 0.068276197 0.67000002
-0.049133338 0.068276197 0.67000002
-0.047785718 0.068174288 0.66900003
-0.046372384 0.067970477 0.66700006
-0.044966668 0.067766674 0.66500002
-0.043568574 0.067562863 0.66300005
-0.042241909 0.067460954 0.66200006
-0.040919051 0.067359053 0.66100001
-0.039600004 0.067257144 0.66000003
-0.03834286 0.067257144 0.66000003
-0.036973335 0.06705334 0.65800005
-0.035665717 0.066951431 0.65700001
-0.034361906 0.06684953 0.65600002
-0.033112384 0.06684953 0.65600002
-0.031717144 0.066543818 0.65300006
-0.030473335 0.066543818 0.65300006
-0.029184764 0.066441908 0.65200001
-0.027942859 0.066441908 0.65200001
-0.026700955 0.066441908 0.65200001
-0.025420001 0.066340007 0.65100002
-0.024180003 0.066340007 0.65100002
-0.022940002 0.066340007 0.65100002
-0.021700002 0.066340007 0.65100002
-0.020460002 0.066340007 0.65100002
-0.019220002 0.066340007 0.65100002
-0.018007619 0.066441908 0.65200001
-0.016740002 0.066340007 0.65100002
-0.015523811 0.066441908 0.65200001
-0.014281905 0.066441908 0.65200001
-0.013060001 0.066543818 0.65300006
-0.011816191 0.066543818 0.65300006
-0.010604762 0.066747621 0.65500003
-0.0093714288 0.06684953 0.65600002
-0.0081219049 0.06684953 0.65600002
-0.0068828575 0.066951431 0.65700001
-0.0056314291 0.066951431 0.65700001
-0.0043866672 0.06705334 0.65800005
-0.0031714288 0.067868575 0.66600001
-0.0019114286 0.068174288 0.66900003
-0.00064000004 0.068480007 0.67200005
0.00064190483 0.068683811 0.67400002
0.0019257144 0.068683811 0.67400002
0.0032190478 0.068887621 0.67600006
0.0045066671 0.068887621 0.67600006
-0.051608574 0.069448575 0.66900003
-0.05033429 0.069448575 0.66900003
-0.048913337 0.069240957 0.66700006
-0.047571432 0.069137149 0.66600001
-0.046233337 0.06903334 0.66500002
-0.044831432 0.068825722 0.66300005
-0.04350286 0.068721913 0.66200006
-0.042178098 0.068618096 0.66100001
-0.040857144 0.068514287 0.66000003
-0.039480001 0.06830667 0.65800005
-0.038226668 0.06830667 0.65800005
-0.036860954 0.068099052 0.65600002
-0.035557143 0.067995243 0.65500003
-0.034309525 0.067995243 0.65500003
-0.032960955 0.067787625 0.65300006
-0.031668574 0.067683816 0.65200001
-0.030426668 0.067683816 0.65200001
-0.029140001 0.067580007 0.65100002
-0.027900001 0.067580007 0.65100002
-0.026660001 0.067580007 0.65100002
-0.025380954 0.067476198 0.65000004
-0.02414286 0.067476198 0.65000004
-0.022904763 0.067476198 0.65000004
-0.021666668 0.067476198 0.65000004
-0.020428572 0.067476198 0.65000004
-0.019220002 0.067580007 0.65100002
-0.017980002 0.067580007 0.65100002
-0.016714286 0.067476198 0.65000004
-0.015476191 0.067476198 0.65000004
-0.014260001 0.067580007 0.65100002
-0.013040001 0.067683816 0.65200001
-0.011816191 0.067787625 0.65300006
-0.010572381 0.067787625 0.65300006
-0.0093571432 0.067995243 0.65500003
-0.0081095239 0.067995243 0.65500003
-0.0068723815 0.068099052 0.65600002
-0.0056228577 0.068099052 0.65600002
-0.0043866672 0.06830667 0.65800005
-0.0019057144 0.069240957 0.66700006
-0.00063904765 0.069656193 0.671
0.00064000004 0.069760002 0.67200005
0.0019257144 0.06996762 0.67400002
0.0032000002 0.069760002 0.67200005
0.0045066671 0.070175245 0.67600006
0.0057942863 0.070175245 0.67600006
-0.051454291 0.070511431 0.66700006
-0.050183814 0.070511431 0.66700006
-0.048913337 0.070511431 0.66700006
-0.047571432 0.070405722 0.66600001
-0.046233337 0.070300005 0.66500002
-0.044763811 0.069982864 0.66200006
-0.04350286 0.069982864 0.66200006
-0.042178098 0.069877148 0.66100001
-0.040733337 0.069560006 0.65800005
-0.039480001 0.069560006 0.65800005
-0.03811048 0.069348574 0.65600002
-0.036692385 0.069031432 0.65300006
-0.035448574 0.069031432 0.65300006
-0.034152385 0.068925716 0.65200001
-0.032860003 0.068820007 0.65100002
-0.031620003 0.068820007 0.65100002
-0.030380001 0.068820007 0.65100002
-0.02909524 0.068714291 0.65000004
-0.027857145 0.068714291 0.65000004
-0.026619049 0.068714291 0.65000004
-0.025380954 0.068714291 0.65000004
-0.02414286 0.068714291 0.65000004
-0.022904763 0.068714291 0.65000004
-0.021666668 0.068714291 0.65000004
-0.020428572 0.068714291 0.65000004
-0.019190477 0.068714291 0.65000004
-0.017952383 0.068714291 0.65000004
-0.016662858 0.068502858 0.648
-0.015476191 0.068714291 0.65000004
-0.014260001 0.068820007 0.65100002
-0.01302 0.068820007 0.65100002
-0.011798096 0.068925716 0.65200001
-0.010572381 0.069031432 0.65300006
-0.0093285721 0.069031432 0.65300006
-0.0080847628 0.069031432 0.65300006
-0.0068723815 0.069348574 0.65600002
-0.0056142863 0.069242865 0.65500003
-0.0043800003 0.06945429 0.65700001
-0.0031333335 0.069560006 0.65800005
-0.00063904765 0.070934288 0.671
0.00063904765 0.070934288 0.671
0.001917143 0.070934288 0.671
0.0031904764 0.070828579 0.67000002
0.0044933334 0.07125143 0.67400002
0.0057771434 0.07125143 0.67400002
-0.05399524 0.071781911 0.66700006
-0.052645717 0.071674287 0.66600001
-0.051377147 0.071674287 0.66600001
-0.050108574 0.071674287 0.66600001
-0.048766669 0.071566671 0.66500002
-0.047285717 0.071243815 0.66200006
-0.046024766 0.071243815 0.66200006
-0.044628575 0.071028575 0.66000003
-0.043174289 0.070705719 0.65700001
-0.041795243 0.070490479 0.65500003
-0.04042381 0.07027524 0.65300006
-0.039120004 0.070167623 0.65200001
-0.037878096 0.070167623 0.65200001
-0.036580004 0.070060007 0.65100002
-0.035340004 0.070060007 0.65100002
-0.034047622 0.069952384 0.65000004
-0.032809526 0.069952384 0.65000004
-0.031571429 0.069952384 0.65000004
-0.030333335 0.069952384 0.65000004
-0.029005716 0.069737144 0.648
-0.02777143 0.069737144 0.648
-0.026537145 0.069737144 0.648
-0.025302859 0.069737144 0.648
-0.024068573 0.069737144 0.648
-0.022834288 0.069737144 0.648
-0.021600001 0.069737144 0.648
-0.020428572 0.069952384 0.65000004
-0.019190477 0.069952384 0.65000004
-0.017952383 0.069952384 0.65000004
-0.016662858 0.069737144 0.648
-0.015428573 0.069737144 0.648
-0.014238096 0.069952384 0.65000004
-0.013000001 0.069952384 0.65000004
-0.011761906 0.069952384 0.65000004
-0.01052381 0.069952384 0.65000004
-0.009300001 0.070060007 0.65100002
-0.0080600008 0.070060007 0.65100002
-0.0068304767 0.070167623 0.65200001
-0.0055971434 0.07027524 0.65300006
-0.004366667 0.070490479 0.65500003
-0.0031238098 0.070598103 0.65600002
-0.0018742859 0.070598103 0.65600002
-0.0006333334 0.071566671 0.66500002
0.00063714292 0.071997151 0.66900003
0.001917143 0.072212383 0.671
0.0031952383 0.072212383 0.671
0.0044800001 0.072320007 0.67200005
0.0057600006 0.072320007 0.67200005
0.007060953 0.072535239 0.67400002
-0.05399524 0.073052384 0.66700006
-0.052645717 0.07294286 0.66600001
-0.051300004 0.072833337 0.66500002
-0.050033338 0.072833337 0.66500002
-0.048620004 0.07261429 0.66300005
-0.047214288 0.072395243 0.66100001
-0.045885716 0.072285719 0.66000003
-0.044425718 0.071957149 0.65700001
-0.043042861 0.071738102 0.65500003
-0.041667622 0.071519054 0.65300006
-0.040361907 0.071409531 0.65200001
-0.039060004 0.071300007 0.65100002
-0.037878096 0.071409531 0.65200001
-0.036580004 0.071300007 0.65100002
-0.035285715 0.071190484 0.65000004
-0.034047622 0.071190484 0.65000004
-0.032809526 0.071190484 0.65000004
-0.031474289 0.070971437 0.648
-0.030240001 0.070971437 0.648
-0.029005716 0.070971437 0.648
-0.02777143 0.070971437 0.648
-0.026537145 0.070971437 0.648
-0.025302859 0.070971437 0.648
-0.024068573 0.070971437 0.648
-0.022834288 0.070971437 0.648
-0.021600001 0.070971437 0.648
-0.020365715 0.070971437 0.648
-0.019190477 0.071190484 0.65000004
-0.017952383 0.071190484 0.65000004
-0.016662858 0.070971437 0.648
-0.015428573 0.070971437 0.648
-0.014194286 0.070971437 0.648
-0.012960001 0.070971437 0.648
-0.011761906 0.071190484 0.65000004
-0.01052381 0.071190484 0.65000004
-0.0092857145 0.071190484 0.65000004
-0.0080476198 0.071190484 0.65000004
-0.0068304767 0.071409531 0.65200001
-0.005588572 0.071409531 0.65200001
-0.0043533337 0.071519054 0.65300006
-0.0031190477 0.071738102 0.65500003
-0.0018714287 0.071738102 0.65500003
-0.00062952383 0.072395243 0.66100001
0.0006333334 0.072833337 0.66500002
0.0019114286 0.073271431 0.66900003
0.0031857146 0.073271431 0.66900003
0.0044733337 0.073490478 0.671
0.0057600006 0.073600002 0.67200005
0.0070400005 0.073600002 0.67200005
-0.054157145 0.074545719 0.66900003
-0.052882861 0.074545719 0.66900003
-0.051145718 0.073877148 0.66300005
-0.049882859 0.073877148 0.66300005
-0.048546668 0.073765717 0.66200006
-0.04714286 0.073542863 0.66000003
-0.045746669 0.073320001 0.65800005
-0.044290479 0.072985716 0.65500003
-0.042911433 0.072762862 0.65300006
-0.041603811 0.072651431 0.65200001
-0.040361907 0.072651431 0.65200001
-0.039060004 0.072540008 0.65100002
-0.037820004 0.072540008 0.65100002
-0.036523812 0.072428577 0.65000004
-0.035285715 0.072428577 0.65000004
-0.034047622 0.072428577 0.65000004
-0.032809526 0.072428577 0.65000004
-0.031474289 0.072205722 0.648
-0.030240001 0.072205722 0.648
-0.029005716 0.072205722 0.648
-0.02777143 0.072205722 0.648
-0.026537145 0.072205722 0.648
-0.025302859 0.072205722 0.648
-0.024068573 0.072205722 0.648
-0.022834288 0.072205722 0.648
-0.021600001 0.072205722 0.648
-0.020428572 0.072428577 0.65000004
-0.019190477 0.072428577 0.65000004
-0.017952383 0.072428577 0.65000004
-0.016662858 0.072205722 0.648
-0.015428573 0.072205722 0.648
-0.014194286 0.072205722 0.648
-0.012960001 0.072205722 0.648
-0.011725715 0.072205722 0.648
-0.01052381 0.072428577 0.65000004
-0.0092857145 0.072428577 0.65000004
-0.0080476198 0.072428577 0.65000004
-0.0068200002 0.072540008 0.65100002
-0.005588572 0.072651431 0.65200001
-0.0043533337 0.072762862 0.65300006
-0.003109524 0.072762862 0.65300006
-0.0018657144 0.072762862 0.65300006
-0.00062857149 0.073542863 0.66000003
0.00062952383 0.073654294 0.66100001
0.0018942858 0.073877148 0.66300005
0.0031761907 0.074322864 0.66700006
0.0044800001 0.074880004 0.67200005
0.0057600006 0.074880004 0.67200005
0.007060953 0.075102866 0.67400002
-0.051068574 0.075026669 0.66200006
-0.049732383 0.074913338 0.66100001
-0.048400003 0.074800007 0.66000003
-0.047000002 0.074573338 0.65800005
-0.045677144 0.074460007 0.65700001
-0.044290479 0.074233338 0.65500003
