# .PCD v0.7 - Point Cloud Data file format
VERSION 0.7
FIELDS x y z
SIZE 4 4 4
TYPE F F F
COUNT 1 1 1
WIDTH 1303
HEIGHT 1
VIEWPOINT 0 0 0 1 0 0 0
POINTS 1303
DATA ascii
-0.094195247 -0.034309525 0.65500003
-0.092947625 -0.034309525 0.65500003
-0.091420002 -0.034204762 0.65300006
-0.090176195 -0.034204762 0.65300006
-0.088932388 -0.034204762 0.65300006
-0.087554291 -0.034152385 0.65200001
-0.086180009 -0.034100004 0.65100002
-0.085070483 -0.034152385 0.65200001
-0.083828576 -0.034152385 0.65200001
-0.082713336 -0.034204762 0.65300006
-0.081469528 -0.034204762 0.65300006
-0.080225721 -0.034204762 0.65300006
-0.079223812 -0.034309525 0.65500003
-0.10638953 -0.033364765 0.66100001
-0.10497144 -0.033314288 0.66000003
-0.10340001 -0.033213336 0.65800005
-0.10214667 -0.033213336 0.65800005
-0.10120001 -0.033314288 0.66000003
-0.099942863 -0.033314288 0.66000003
-0.098386675 -0.033213336 0.65800005
-0.09698572 -0.033162858 0.65700001
-0.095442861 -0.033061907 0.65500003
-0.094195247 -0.033061907 0.65500003
-0.092947625 -0.033061907 0.65500003
-0.082713336 -0.032960955 0.65300006
-0.081469528 -0.032960955 0.65300006
-0.080225721 -0.032960955 0.65300006
-0.079223812 -0.033061907 0.65500003
-0.10622858 -0.032057144 0.66000003
-0.10497144 -0.032057144 0.66000003
-0.10340001 -0.031960003 0.65800005
-0.10214667 -0.031960003 0.65800005
-0.10120001 -0.032057144 0.66000003
-0.099942863 -0.032057144 0.66000003
-0.098685719 -0.032057144 0.66000003
-0.09698572 -0.031911429 0.65700001
-0.095442861 -0.031814288 0.65500003
-0.094195247 -0.031814288 0.65500003
-0.082713336 -0.031717144 0.65300006
-0.10371429 -0.030800002 0.66000003
-0.10261239 -0.030846668 0.66100001
-0.10135334 -0.030846668 0.66100001
-0.10024572 -0.030893335 0.66200006
-0.09898477 -0.030893335 0.66200006
-0.097428575 -0.030800002 0.66000003
-0.096171431 -0.030800002 0.66000003
-0.082713336 -0.030473335 0.65300006
-0.10276762 -0.029632382 0.66200006
-0.10150667 -0.029632382 0.66200006
-0.10039715 -0.029677145 0.66300005
-0.099134289 -0.029677145 0.66300005
-0.097723819 -0.029632382 0.66200006
-0.10292286 -0.028414287 0.66300005
-0.10166001 -0.028414287 0.66300005
-0.10039715 -0.028414287 0.66300005
-0.099134289 -0.028414287 0.66300005
-0.097871438 -0.028414287 0.66300005
-0.10338858 -0.027274288 0.66600001
-0.10196667 -0.027233334 0.66500002
-0.10070001 -0.027233334 0.66500002
-0.099134289 -0.02715143 0.66300005
-0.097871438 -0.02715143 0.66300005
-0.096608579 -0.02715143 0.66300005
-0.095345721 -0.02715143 0.66300005
-0.10385429 -0.026122859 0.66900003
-0.10212 -0.026005715 0.66600001
-0.10070001 -0.025966669 0.66500002
-0.09943334 -0.025966669 0.66500002
-0.097871438 -0.025888573 0.66300005
-0.096608579 -0.025888573 0.66300005
-0.095345721 -0.025888573 0.66300005
-0.094082862 -0.025888573 0.66300005
-0.071462862 -0.026396193 0.67600006
-0.084253341 -0.038813338 0.99400002
-0.082360007 -0.038813338 0.99400002
-0.10544287 -0.024922859 0.671
-0.10385429 -0.024848573 0.66900003
-0.10227334 -0.024774287 0.66700006
-0.10085143 -0.024737144 0.66600001
-0.09943334 -0.024700001 0.66500002
-0.098166674 -0.024700001 0.66500002
-0.096608579 -0.024625717 0.66300005
-0.095345721 -0.024625717 0.66300005
-0.094082862 -0.024625717 0.66300005
-0.072642863 -0.025071431 0.67500001
-0.071357146 -0.025071431 0.67500001
-0.070071436 -0.025071431 0.67500001
-0.066606671 -0.025220001 0.67900002
-0.083999053 -0.036808573 0.99100006
-0.082111433 -0.036808573 0.99100006
-0.10864286 -0.023785716 0.67500001
-0.10735715 -0.023785716 0.67500001
-0.10544287 -0.023644764 0.671
-0.10400953 -0.023609525 0.67000002
-0.10258 -0.023574287 0.66900003
-0.10085143 -0.023468573 0.66600001
-0.09943334 -0.023433335 0.66500002
-0.098166674 -0.023433335 0.66500002
-0.096900009 -0.023433335 0.66500002
-0.095633343 -0.023433335 0.66500002
-0.094082862 -0.023362858 0.66300005
-0.073819056 -0.023750478 0.67400002
-0.072535239 -0.023750478 0.67400002
-0.071357146 -0.023785716 0.67500001
-0.070071436 -0.023785716 0.67500001
-0.06878572 -0.023785716 0.67500001
-0.067800008 -0.02389143 0.67800003
-0.066606671 -0.023926668 0.67900002
-0.065313339 -0.023926668 0.67900002
-0.082111433 -0.034920953 0.99100006
-0.11187334 -0.022633335 0.67900002
-0.10864286 -0.022500001 0.67500001
-0.10735715 -0.022500001 0.67500001
-0.10591429 -0.022466669 0.67400002
-0.10400953 -0.022333335 0.67000002
-0.10273334 -0.022333335 0.67000002
-0.10100286 -0.022233335 0.66700006
-0.099582866 -0.022200001 0.66600001
-0.098166674 -0.022166668 0.66500002
-0.096900009 -0.022166668 0.66500002
-0.095633343 -0.022166668 0.66500002
-0.094082862 -0.022100002 0.66300005
-0.081454292 -0.022100002 0.66300005
-0.080191433 -0.022100002 0.66300005
-0.07880953 -0.022066668 0.66200006
-0.073819056 -0.022466669 0.67400002
-0.072535239 -0.022466669 0.67400002
-0.07125143 -0.022466669 0.67400002
-0.06996762 -0.022466669 0.67400002
-0.06878572 -0.022500001 0.67500001
-0.067600004 -0.022533335 0.67600006
-0.066508576 -0.022600001 0.67800003
-0.065217145 -0.022600001 0.67800003
-0.064020008 -0.022633335 0.67900002
-0.062726669 -0.022633335 0.67900002
-0.061523814 -0.022666669 0.68000001
-0.11496572 -0.021434287 0.68200004
-0.11333334 -0.02137143 0.68000001
-0.11187334 -0.021340001 0.67900002
-0.10992858 -0.021214288 0.67500001
-0.10848191 -0.021182859 0.67400002
-0.1071981 -0.021182859 0.67400002
-0.10544287 -0.021088572 0.671
-0.10400953 -0.021057144 0.67000002
-0.10258 -0.021025715 0.66900003
-0.10085143 -0.02093143 0.66600001
-0.099582866 -0.02093143 0.66600001
-0.098166674 -0.020900002 0.66500002
-0.096900009 -0.020900002 0.66500002
-0.095633343 -0.020900002 0.66500002
-0.094082862 -0.020837145 0.66300005
-0.08296667 -0.020900002 0.66500002
-0.081454292 -0.020837145 0.66300005
-0.080191433 -0.020837145 0.66300005
-0.078928575 -0.020837145 0.66300005
-0.077665716 -0.020837145 0.66300005
-0.073819056 -0.021182859 0.67400002
-0.072535239 -0.021182859 0.67400002
-0.07125143 -0.021182859 0.67400002
-0.06996762 -0.021182859 0.67400002
-0.068683811 -0.021182859 0.67400002
-0.067500003 -0.021214288 0.67500001
-0.066312388 -0.021245716 0.67600006
-0.065024763 -0.021245716 0.67600006
-0.063925721 -0.021308573 0.67800003
-0.062634289 -0.021308573 0.67800003
-0.061433338 -0.021340001 0.67900002
-0.11592381 -0.020076191 0.68000001
-0.11446001 -0.020046668 0.67900002
-0.11300001 -0.020017143 0.67800003
-0.11137906 -0.019958096 0.67600006
-0.10976572 -0.01989905 0.67400002
-0.10816 -0.019840002 0.67200005
-0.10672096 -0.019810477 0.671
-0.10528572 -0.019780954 0.67000002
-0.10385429 -0.01975143 0.66900003
-0.10227334 -0.019692382 0.66700006
-0.10085143 -0.019662859 0.66600001
-0.099582866 -0.019662859 0.66600001
-0.098166674 -0.019633334 0.66500002
-0.096900009 -0.019633334 0.66500002
-0.095633343 -0.019633334 0.66500002
-0.094082862 -0.019574286 0.66300005
-0.092820004 -0.019574286 0.66300005
-0.08524286 -0.019574286 0.66300005
-0.084233336 -0.019633334 0.66500002
-0.08296667 -0.019633334 0.66500002
-0.081454292 -0.019574286 0.66300005
-0.080191433 -0.019574286 0.66300005
-0.07880953 -0.019544763 0.66200006
-0.077431433 -0.019515239 0.66100001
-0.076172389 -0.019515239 0.66100001
-0.074913338 -0.019515239 0.66100001
-0.071040004 -0.019840002 0.67200005
-0.069760002 -0.019840002 0.67200005
-0.068480007 -0.019840002 0.67200005
-0.067400001 -0.01989905 0.67400002
-0.066116191 -0.01989905 0.67400002
-0.064832382 -0.01989905 0.67400002
-0.063642859 -0.019928573 0.67500001
-0.062357146 -0.019928573 0.67500001
-0.061161909 -0.019958096 0.67600006
-0.060140003 -0.020046668 0.67900002
-0.11756381 -0.018836191 0.68200004
-0.11575334 -0.018753335 0.67900002
-0.11429144 -0.018725716 0.67800003
-0.11266667 -0.018670477 0.67600006
-0.11104953 -0.01861524 0.67400002
-0.10944001 -0.018560002 0.67200005
-0.10799906 -0.018532382 0.671
-0.10656191 -0.018504763 0.67000002
-0.10512858 -0.018477144 0.66900003
-0.10385429 -0.018477144 0.66900003
-0.10227334 -0.018421905 0.66700006
-0.10085143 -0.018394288 0.66600001
-0.09943334 -0.018366668 0.66500002
-0.098166674 -0.018366668 0.66500002
-0.096608579 -0.01831143 0.66300005
-0.095633343 -0.018366668 0.66500002
-0.094082862 -0.01831143 0.66300005
-0.092680007 -0.01828381 0.66200006
-0.09128096 -0.018256191 0.66100001
-0.089885719 -0.018228572 0.66000003
-0.089031436 -0.01831143 0.66300005
-0.086375244 -0.01828381 0.66200006
-0.08524286 -0.01831143 0.66300005
-0.083980009 -0.01831143 0.66300005
-0.08296667 -0.018366668 0.66500002
-0.081454292 -0.01831143 0.66300005
-0.080191433 -0.01831143 0.66300005
-0.078928575 -0.01831143 0.66300005
-0.077548578 -0.01828381 0.66200006
-0.076287627 -0.01828381 0.66200006
-0.075026669 -0.01828381 0.66200006
-0.073654294 -0.018256191 0.66100001
-0.069656193 -0.018532382 0.671
-0.068378098 -0.018532382 0.671
-0.067200005 -0.018560002 0.67200005
-0.066116191 -0.01861524 0.67400002
-0.064640008 -0.018560002 0.67200005
-0.063548572 -0.01861524 0.67400002
-0.062264767 -0.01861524 0.67400002
-0.061071433 -0.018642858 0.67500001
-0.05978572 -0.018642858 0.67500001
-0.058500003 -0.018642858 0.67500001
-0.11721905 -0.017485715 0.68000001
-0.11558287 -0.017434286 0.67800003
-0.11395429 -0.017382858 0.67600006
-0.1125 -0.017357145 0.67500001
-0.11072001 -0.017280001 0.67200005
-0.10927715 -0.017254287 0.671
-0.1078381 -0.017228572 0.67000002
-0.10656191 -0.017228572 0.67000002
-0.10512858 -0.017202858 0.66900003
-0.10354382 -0.01715143 0.66700006
-0.10227334 -0.01715143 0.66700006
-0.10085143 -0.017125715 0.66600001
-0.09943334 -0.017100001 0.66500002
-0.097871438 -0.017048573 0.66300005
-0.096608579 -0.017048573 0.66300005
-0.095345721 -0.017048573 0.66300005
-0.093940958 -0.017022857 0.66200006
-0.092540003 -0.016997144 0.66100001
-0.09128096 -0.016997144 0.66100001
-0.089885719 -0.01697143 0.66000003
-0.088360004 -0.01692 0.65800005
-0.087503813 -0.016997144 0.66100001
-0.086244769 -0.016997144 0.66100001
-0.085114293 -0.017022857 0.66200006
-0.083980009 -0.017048573 0.66300005
-0.08271715 -0.017048573 0.66300005
-0.081454292 -0.017048573 0.66300005
-0.080191433 -0.017048573 0.66300005
-0.078928575 -0.017048573 0.66300005
-0.077665716 -0.017048573 0.66300005
-0.076287627 -0.017022857 0.66200006
-0.075140007 -0.017048573 0.66300005
-0.073765717 -0.017022857 0.66200006
-0.070722863 -0.017202858 0.66900003
-0.069552384 -0.017228572 0.67000002
-0.068276197 -0.017228572 0.67000002
-0.067100003 -0.017254287 0.671
-0.065920003 -0.017280001 0.67200005
-0.064640008 -0.017280001 0.67200005
-0.063548572 -0.017331429 0.67400002
-0.062264767 -0.017331429 0.67400002
-0.060980957 -0.017331429 0.67400002
-0.05978572 -0.017357145 0.67500001
-0.058500003 -0.017357145 0.67500001
-0.11687429 -0.016142858 0.67800003
-0.11524191 -0.01609524 0.67600006
-0.11378572 -0.016071429 0.67500001
-0.11200001 -0.016000001 0.67200005
-0.11055525 -0.015976192 0.671
-0.10911429 -0.015952382 0.67000002
-0.1078381 -0.015952382 0.67000002
-0.10608477 -0.015880954 0.66700006
-0.10481429 -0.015880954 0.66700006
-0.10338858 -0.015857143 0.66600001
-0.10212 -0.015857143 0.66600001
-0.10070001 -0.015833335 0.66500002
-0.09943334 -0.015833335 0.66500002
-0.097871438 -0.015785715 0.66300005
-0.096608579 -0.015785715 0.66300005
-0.09520191 -0.015761906 0.66200006
-0.093940958 -0.015761906 0.66200006
-0.092540003 -0.015738096 0.66100001
-0.09128096 -0.015738096 0.66100001
-0.089885719 -0.015714286 0.66000003
-0.088628575 -0.015714286 0.66000003
-0.087503813 -0.015738096 0.66100001
-0.086375244 -0.015761906 0.66200006
-0.085114293 -0.015761906 0.66200006
-0.083853342 -0.015761906 0.66200006
-0.08271715 -0.015785715 0.66300005
-0.081454292 -0.015785715 0.66300005
-0.080191433 -0.015785715 0.66300005
-0.078928575 -0.015785715 0.66300005
-0.077548578 -0.015761906 0.66200006
-0.076287627 -0.015761906 0.66200006
-0.075026669 -0.015761906 0.66200006
-0.073765717 -0.015761906 0.66200006
-0.072504766 -0.015761906 0.66200006
-0.071351431 -0.015785715 0.66300005
-0.070088573 -0.015785715 0.66300005
-0.069448575 -0.015928572 0.66900003
-0.068276197 -0.015952382 0.67000002
-0.067000002 -0.015952382 0.67000002
-0.065821908 -0.015976192 0.671
-0.064543813 -0.015976192 0.671
-0.063360006 -0.016000001 0.67200005
-0.062080003 -0.016000001 0.67200005
-0.060980957 -0.016047619 0.67400002
-0.059697147 -0.016047619 0.67400002
-0.058500003 -0.016071429 0.67500001
-0.11834001 -0.014873334 0.67900002
-0.11635715 -0.014785715 0.67500001
-0.11507144 -0.014785715 0.67500001
-0.11361715 -0.014763811 0.67400002
-0.11183334 -0.014698097 0.671
-0.11039048 -0.014676192 0.67000002
-0.10911429 -0.014676192 0.67000002
-0.10767715 -0.014654287 0.66900003
-0.10608477 -0.014610477 0.66700006
-0.10465715 -0.014588572 0.66600001
-0.10338858 -0.014588572 0.66600001
-0.10196667 -0.014566667 0.66500002
-0.10070001 -0.014566667 0.66500002
-0.099134289 -0.014522858 0.66300005
-0.097871438 -0.014522858 0.66300005
-0.096462861 -0.014500953 0.66200006
-0.09520191 -0.014500953 0.66200006
-0.093940958 -0.014500953 0.66200006
-0.092540003 -0.014479049 0.66100001
-0.09128096 -0.014479049 0.66100001
-0.090021908 -0.014479049 0.66100001
-0.088762864 -0.014479049 0.66100001
-0.087636195 -0.014500953 0.66200006
-0.086375244 -0.014500953 0.66200006
-0.085114293 -0.014500953 0.66200006
-0.083853342 -0.014500953 0.66200006
-0.082592383 -0.014500953 0.66200006
-0.081454292 -0.014522858 0.66300005
-0.080191433 -0.014522858 0.66300005
-0.078928575 -0.014522858 0.66300005
-0.077548578 -0.014500953 0.66200006
-0.076287627 -0.014500953 0.66200006
-0.075026669 -0.014500953 0.66200006
-0.073765717 -0.014500953 0.66200006
-0.072395243 -0.014479049 0.66100001
-0.071243815 -0.014500953 0.66200006
-0.069982864 -0.014500953 0.66200006
-0.069240957 -0.014610477 0.66700006
-0.068174288 -0.014654287 0.66900003
-0.067000002 -0.014676192 0.67000002
-0.065723814 -0.014676192 0.67000002
-0.064543813 -0.014698097 0.671
-0.063265719 -0.014698097 0.671
-0.062080003 -0.014720001 0.67200005
-0.060800005 -0.014720001 0.67200005
-0.059697147 -0.014763811 0.67400002
-0.058500003 -0.014785715 0.67500001
-0.057299051 -0.01480762 0.67600006
-0.11945715 -0.013560001 0.67800003
-0.11764286 -0.013500001 0.67500001
-0.11618477 -0.013480001 0.67400002
-0.11490096 -0.013480001 0.67400002
-0.11328001 -0.013440001 0.67200005
-0.11166667 -0.013400001 0.67000002
-0.11039048 -0.013400001 0.67000002
-0.10895143 -0.013380001 0.66900003
-0.10735524 -0.013340001 0.66700006
-0.10592572 -0.013320001 0.66600001
-0.10465715 -0.013320001 0.66600001
-0.10323334 -0.013300001 0.66500002
-0.10196667 -0.013300001 0.66500002
-0.10039715 -0.013260001 0.66300005
-0.099134289 -0.013260001 0.66300005
-0.097871438 -0.013260001 0.66300005
-0.096462861 -0.013240001 0.66200006
-0.09520191 -0.013240001 0.66200006
-0.093940958 -0.013240001 0.66200006
-0.092540003 -0.013220001 0.66100001
-0.09128096 -0.013220001 0.66100001
-0.090021908 -0.013220001 0.66100001
-0.088897146 -0.013240001 0.66200006
-0.087636195 -0.013240001 0.66200006
-0.086375244 -0.013240001 0.66200006
-0.085114293 -0.013240001 0.66200006
-0.083853342 -0.013240001 0.66200006
-0.082592383 -0.013240001 0.66200006
-0.081331432 -0.013240001 0.66200006
-0.080191433 -0.013260001 0.66300005
-0.07880953 -0.013240001 0.66200006
-0.077548578 -0.013240001 0.66200006
-0.076287627 -0.013240001 0.66200006
-0.075026669 -0.013240001 0.66200006
-0.073654294 -0.013220001 0.66100001
-0.072395243 -0.013220001 0.66100001
-0.071136191 -0.013220001 0.66100001
-0.069982864 -0.013240001 0.66200006
-0.069240957 -0.013340001 0.66700006
-0.068174288 -0.013380001 0.66900003
-0.066900007 -0.013380001 0.66900003
-0.065723814 -0.013400001 0.67000002
-0.064447626 -0.013400001 0.67000002
-0.063265719 -0.013420001 0.671
-0.061987624 -0.013420001 0.671
-0.060800005 -0.013440001 0.67200005
-0.059697147 -0.013480001 0.67400002
-0.058500003 -0.013500001 0.67500001
-0.05721429 -0.013500001 0.67500001
-0.11892858 -0.012214286 0.67500001
-0.11746858 -0.012196192 0.67400002
-0.11584001 -0.01216 0.67200005
-0.11438953 -0.012141906 0.671
-0.11294287 -0.01212381 0.67000002
-0.11150001 -0.012105715 0.66900003
-0.11022572 -0.012105715 0.66900003
-0.10862572 -0.012069524 0.66700006
-0.10735524 -0.012069524 0.66700006
-0.10576668 -0.012033334 0.66500002
-0.1045 -0.012033334 0.66500002
-0.10323334 -0.012033334 0.66500002
-0.10196667 -0.012033334 0.66500002
-0.10039715 -0.011997144 0.66300005
-0.099134289 -0.011997144 0.66300005
-0.097723819 -0.011979048 0.66200006
-0.096462861 -0.011979048 0.66200006
-0.095058098 -0.011960953 0.66100001
-0.093799055 -0.011960953 0.66100001
-0.092540003 -0.011960953 0.66100001
-0.09128096 -0.011960953 0.66100001
-0.090021908 -0.011960953 0.66100001
-0.088897146 -0.011979048 0.66200006
-0.087636195 -0.011979048 0.66200006
-0.086375244 -0.011979048 0.66200006
-0.085114293 -0.011979048 0.66200006
-0.083853342 -0.011979048 0.66200006
-0.082592383 -0.011979048 0.66200006
-0.081331432 -0.011979048 0.66200006
-0.080070481 -0.011979048 0.66200006
-0.07880953 -0.011979048 0.66200006
-0.077431433 -0.011960953 0.66100001
-0.076172389 -0.011960953 0.66100001
-0.074913338 -0.011960953 0.66100001
-0.073654294 -0.011960953 0.66100001
-0.072395243 -0.011960953 0.66100001
-0.071028575 -0.011942858 0.66000003
-0.069877148 -0.011960953 0.66100001
-0.069137149 -0.01205143 0.66600001
-0.068174288 -0.012105715 0.66900003
-0.066900007 -0.012105715 0.66900003
-0.065723814 -0.01212381 0.67000002
-0.064447626 -0.01212381 0.67000002
-0.063171431 -0.01212381 0.67000002
-0.061987624 -0.012141906 0.671
-0.060709529 -0.012141906 0.671
-0.059520002 -0.01216 0.67200005
-0.058413338 -0.012196192 0.67400002
-0.05721429 -0.012214286 0.67500001
-0.055928577 -0.012214286 0.67500001
-0.11892858 -0.010928572 0.67500001
-0.11712001 -0.010880001 0.67200005
-0.11584001 -0.010880001 0.67200005
-0.11438953 -0.01086381 0.671
-0.11294287 -0.01084762 0.67000002
-0.11150001 -0.01083143 0.66900003
-0.11022572 -0.01083143 0.66900003
-0.10862572 -0.010799048 0.66700006
-0.10703334 -0.010766667 0.66500002
-0.10576668 -0.010766667 0.66500002
-0.1045 -0.010766667 0.66500002
-0.10292286 -0.010734286 0.66300005
-0.10166001 -0.010734286 0.66300005
-0.10024572 -0.010718096 0.66200006
-0.09898477 -0.010718096 0.66200006
-0.097723819 -0.010718096 0.66200006
-0.09631715 -0.010701905 0.66100001
-0.095058098 -0.010701905 0.66100001
-0.093799055 -0.010701905 0.66100001
-0.092400007 -0.010685715 0.66000003
-0.09128096 -0.010701905 0.66100001
-0.090021908 -0.010701905 0.66100001
-0.088762864 -0.010701905 0.66100001
-0.087503813 -0.010701905 0.66100001
-0.086244769 -0.010701905 0.66100001
-0.084985718 -0.010701905 0.66100001
-0.083726674 -0.010701905 0.66100001
-0.082467623 -0.010701905 0.66100001
-0.081208579 -0.010701905 0.66100001
-0.079949528 -0.010701905 0.66100001
-0.078690484 -0.010701905 0.66100001
-0.077431433 -0.010701905 0.66100001
-0.076172389 -0.010701905 0.66100001
-0.074913338 -0.010701905 0.66100001
-0.073654294 -0.010701905 0.66100001
-0.072285719 -0.010685715 0.66000003
-0.071028575 -0.010685715 0.66000003
-0.069877148 -0.010701905 0.66100001
-0.068618096 -0.010701905 0.66100001
-0.068174288 -0.01083143 0.66900003
-0.066900007 -0.01083143 0.66900003
-0.065723814 -0.01084762 0.67000002
-0.064447626 -0.01084762 0.67000002
-0.063171431 -0.01084762 0.67000002
-0.061987624 -0.01086381 0.671
-0.060709529 -0.01086381 0.671
-0.059520002 -0.010880001 0.67200005
-0.058413338 -0.010912382 0.67400002
-0.057129528 -0.010912382 0.67400002
-0.055928577 -0.010928572 0.67500001
-0.12021429 -0.0096428581 0.67500001
-0.11840001 -0.0096000005 0.67200005
-0.11694572 -0.0095857149 0.671
-0.11566763 -0.0095857149 0.671
-0.11421905 -0.0095714293 0.67000002
-0.11277429 -0.0095571438 0.66900003
-0.11116667 -0.0095285717 0.66700006
-0.1098962 -0.0095285717 0.66700006
-0.10846286 -0.0095142862 0.66600001
-0.10703334 -0.0095000006 0.66500002
-0.10576668 -0.0095000006 0.66500002
-0.10418572 -0.0094714295 0.66300005
-0.10292286 -0.0094714295 0.66300005
-0.10166001 -0.0094714295 0.66300005
-0.10024572 -0.009457143 0.66200006
-0.09898477 -0.009457143 0.66200006
-0.097576194 -0.0094428575 0.66100001
-0.09631715 -0.0094428575 0.66100001
-0.094914295 -0.0094285719 0.66000003
-0.093657151 -0.0094285719 0.66000003
-0.092400007 -0.0094285719 0.66000003
-0.091142863 -0.0094285719 0.66000003
-0.090021908 -0.0094428575 0.66100001
-0.088762864 -0.0094428575 0.66100001
-0.087371431 -0.0094285719 0.66000003
-0.086114295 -0.0094285719 0.66000003
-0.084985718 -0.0094428575 0.66100001
-0.083726674 -0.0094428575 0.66100001
-0.082342863 -0.0094285719 0.66000003
-0.081208579 -0.0094428575 0.66100001
-0.079949528 -0.0094428575 0.66100001
-0.078690484 -0.0094428575 0.66100001
-0.077431433 -0.0094428575 0.66100001
-0.076172389 -0.0094428575 0.66100001
-0.074913338 -0.0094428575 0.66100001
-0.073654294 -0.0094428575 0.66100001
-0.072395243 -0.0094428575 0.66100001
-0.071028575 -0.0094285719 0.66000003
-0.069877148 -0.0094428575 0.66100001
-0.068825722 -0.0094714295 0.66300005
-0.067970477 -0.0095285717 0.66700006
-0.066900007 -0.0095571438 0.66900003
-0.06562572 -0.0095571438 0.66900003
-0.064447626 -0.0095714293 0.67000002
-0.063171431 -0.0095714293 0.67000002
-0.061987624 -0.0095857149 0.671
-0.060709529 -0.0095857149 0.671
-0.059520002 -0.0096000005 0.67200005
-0.058413338 -0.0096285725 0.67400002
-0.05721429 -0.0096428581 0.67500001
-0.055928577 -0.0096428581 0.67500001
-0.12021429 -0.008357143 0.67500001
-0.11840001 -0.008320001 0.67200005
-0.11694572 -0.00830762 0.671
-0.11549524 -0.0082952389 0.67000002
-0.11421905 -0.0082952389 0.67000002
-0.11277429 -0.0082828579 0.66900003
-0.11116667 -0.0082580959 0.66700006
-0.10973144 -0.0082457149 0.66600001
-0.10830001 -0.0082333339 0.66500002
-0.10671143 -0.0082085719 0.66300005
-0.10544858 -0.0082085719 0.66300005
-0.10418572 -0.0082085719 0.66300005
-0.10292286 -0.0082085719 0.66300005
-0.10166001 -0.0082085719 0.66300005
-0.10024572 -0.0081961909 0.66200006
-0.098835245 -0.0081838099 0.66100001
-0.097576194 -0.0081838099 0.66100001
-0.09631715 -0.0081838099 0.66100001
-0.094914295 -0.0081714289 0.66000003
-0.093657151 -0.0081714289 0.66000003
-0.092400007 -0.0081714289 0.66000003
-0.091142863 -0.0081714289 0.66000003
-0.089885719 -0.0081714289 0.66000003
-0.088628575 -0.0081714289 0.66000003
-0.087371431 -0.0081714289 0.66000003
-0.086114295 -0.0081714289 0.66000003
-0.084985718 -0.0081838099 0.66100001
-0.083600007 -0.0081714289 0.66000003
-0.082342863 -0.0081714289 0.66000003
-0.081085719 -0.0081714289 0.66000003
-0.079828575 -0.0081714289 0.66000003
-0.078571431 -0.0081714289 0.66000003
-0.077431433 -0.0081838099 0.66100001
-0.076172389 -0.0081838099 0.66100001
-0.074913338 -0.0081838099 0.66100001
-0.073654294 -0.0081838099 0.66100001
-0.072395243 -0.0081838099 0.66100001
-0.071136191 -0.0081838099 0.66100001
-0.069982864 -0.0081961909 0.66200006
-0.068825722 -0.0082085719 0.66300005
-0.067868575 -0.0082457149 0.66600001
-0.066700004 -0.0082580959 0.66700006
-0.06562572 -0.0082828579 0.66900003
-0.064351432 -0.0082828579 0.66900003
-0.063171431 -0.0082952389 0.67000002
-0.061895244 -0.0082952389 0.67000002
-0.060709529 -0.00830762 0.671
-0.059520002 -0.008320001 0.67200005
-0.058413338 -0.008344762 0.67400002
-0.057129528 -0.008344762 0.67400002
-0.055928577 -0.008357143 0.67500001
-0.12150001 -0.0070714289 0.67500001
-0.12021429 -0.0070714289 0.67500001
-0.11840001 -0.0070400005 0.67200005
-0.11694572 -0.0070295241 0.671
-0.11549524 -0.0070190481 0.67000002
-0.11404858 -0.0070085721 0.66900003
-0.11243715 -0.0069876197 0.66700006
-0.11100001 -0.0069771432 0.66600001
-0.10956667 -0.0069666672 0.66500002
-0.10830001 -0.0069666672 0.66500002
-0.10671143 -0.0069457148 0.66300005
-0.10544858 -0.0069457148 0.66300005
-0.10418572 -0.0069457148 0.66300005
-0.10276762 -0.0069352384 0.66200006
-0.10150667 -0.0069352384 0.66200006
-0.10009429 -0.0069247624 0.66100001
-0.098835245 -0.0069247624 0.66100001
-0.097428575 -0.0069142859 0.66000003
-0.096171431 -0.0069142859 0.66000003
-0.094914295 -0.0069142859 0.66000003
-0.093373336 -0.006893334 0.65800005
-0.092120007 -0.006893334 0.65800005
-0.09086667 -0.006893334 0.65800005
-0.089613341 -0.006893334 0.65800005
-0.088360004 -0.006893334 0.65800005
-0.086974293 -0.0068828575 0.65700001
-0.085722864 -0.0068828575 0.65700001
-0.084857151 -0.0069142859 0.66000003
-0.083600007 -0.0069142859 0.66000003
-0.082342863 -0.0069142859 0.66000003
-0.081085719 -0.0069142859 0.66000003
-0.079828575 -0.0069142859 0.66000003
-0.078571431 -0.0069142859 0.66000003
-0.077314287 -0.0069142859 0.66000003
-0.076057151 -0.0069142859 0.66000003
-0.074800007 -0.0069142859 0.66000003
-0.073542863 -0.0069142859 0.66000003
-0.072285719 -0.0069142859 0.66000003
-0.071028575 -0.0069142859 0.66000003
-0.069877148 -0.0069247624 0.66100001
-0.068721913 -0.0069352384 0.66200006
-0.067562863 -0.0069457148 0.66300005
-0.066600002 -0.0069771432 0.66600001
-0.06562572 -0.0070085721 0.66900003
-0.064351432 -0.0070085721 0.66900003
-0.063171431 -0.0070190481 0.67000002
-0.061987624 -0.0070295241 0.671
-0.060800005 -0.0070400005 0.67200005
-0.059520002 -0.0070400005 0.67200005
-0.058413338 -0.007060953 0.67400002
-0.057129528 -0.007060953 0.67400002
-0.12021429 -0.0057857148 0.67500001
-0.11840001 -0.0057600006 0.67200005
-0.11694572 -0.0057514291 0.671
-0.11549524 -0.0057428577 0.67000002
-0.11370762 -0.0057171434 0.66700006
-0.11226858 -0.005708572 0.66600001
-0.11083334 -0.0057000006 0.66500002
-0.10956667 -0.0057000006 0.66500002
-0.10797429 -0.0056828577 0.66300005
-0.10671143 -0.0056828577 0.66300005
-0.10544858 -0.0056828577 0.66300005
-0.10402858 -0.0056742863 0.66200006
-0.10276762 -0.0056742863 0.66200006
-0.10135334 -0.0056657149 0.66100001
-0.10009429 -0.0056657149 0.66100001
-0.098685719 -0.0056571434 0.66000003
-0.097428575 -0.0056571434 0.66000003
-0.095880009 -0.0056400006 0.65800005
-0.094626673 -0.0056400006 0.65800005
-0.093373336 -0.0056400006 0.65800005
-0.092120007 -0.0056400006 0.65800005
-0.090728581 -0.0056314291 0.65700001
-0.089477152 -0.0056314291 0.65700001
-0.088225722 -0.0056314291 0.65700001
-0.086974293 -0.0056314291 0.65700001
-0.085461907 -0.0056142863 0.65500003
-0.083346672 -0.0056400006 0.65800005
-0.082093336 -0.0056400006 0.65800005
-0.081085719 -0.0056571434 0.66000003
-0.079828575 -0.0056571434 0.66000003
-0.078571431 -0.0056571434 0.66000003
-0.077314287 -0.0056571434 0.66000003
-0.076057151 -0.0056571434 0.66000003
-0.074800007 -0.0056571434 0.66000003
-0.073542863 -0.0056571434 0.66000003
-0.072285719 -0.0056571434 0.66000003
-0.071028575 -0.0056571434 0.66000003
-0.069877148 -0.0056657149 0.66100001
-0.068618096 -0.0056657149 0.66100001
-0.067562863 -0.0056828577 0.66300005
-0.066700004 -0.0057171434 0.66700006
-0.065429531 -0.0057171434 0.66700006
-0.064351432 -0.0057342863 0.66900003
-0.063171431 -0.0057428577 0.67000002
-0.061895244 -0.0057428577 0.67000002
-0.060800005 -0.0057600006 0.67200005
-0.059520002 -0.0057600006 0.67200005
-0.058500003 -0.0057857148 0.67500001
-0.05721429 -0.0057857148 0.67500001
-0.1200362 -0.0044933334 0.67400002
-0.11840001 -0.0044800001 0.67200005
-0.11677144 -0.0044666668 0.67000002
-0.11532287 -0.0044600004 0.66900003
-0.11370762 -0.0044466672 0.66700006
-0.11226858 -0.0044400003 0.66600001
-0.11083334 -0.0044333334 0.66500002
-0.10956667 -0.0044333334 0.66500002
-0.10797429 -0.0044200001 0.66300005
-0.10671143 -0.0044200001 0.66300005
-0.10528953 -0.0044133337 0.66200006
-0.10402858 -0.0044133337 0.66200006
-0.10261239 -0.0044066668 0.66100001
-0.10135334 -0.0044066668 0.66100001
-0.099942863 -0.0044000004 0.66000003
-0.098685719 -0.0044000004 0.66000003
-0.097133338 -0.0043866672 0.65800005
-0.095880009 -0.0043866672 0.65800005
-0.094626673 -0.0043866672 0.65800005
-0.093373336 -0.0043866672 0.65800005
-0.092120007 -0.0043866672 0.65800005
-0.090728581 -0.0043800003 0.65700001
-0.089477152 -0.0043800003 0.65700001
-0.088225722 -0.0043800003 0.65700001
-0.086709529 -0.004366667 0.65500003
-0.084940009 -0.0043400005 0.65100002
-0.083346672 -0.0043866672 0.65800005
-0.082093336 -0.0043866672 0.65800005
-0.080840006 -0.0043866672 0.65800005
-0.07958667 -0.0043866672 0.65800005
-0.078333341 -0.0043866672 0.65800005
-0.077314287 -0.0044000004 0.66000003
-0.075826675 -0.0043866672 0.65800005
-0.074573338 -0.0043866672 0.65800005
-0.073542863 -0.0044000004 0.66000003
-0.072285719 -0.0044000004 0.66000003
-0.071028575 -0.0044000004 0.66000003
-0.069877148 -0.0044066668 0.66100001
-0.068721913 -0.0044133337 0.66200006
-0.067562863 -0.0044200001 0.66300005
-0.066600002 -0.0044400003 0.66600001
-0.065429531 -0.0044466672 0.66700006
-0.064351432 -0.0044600004 0.66900003
-0.063077144 -0.0044600004 0.66900003
-0.061987624 -0.0044733337 0.671
-0.060800005 -0.0044800001 0.67200005
-0.059697147 -0.0044933334 0.67400002
-0.058500003 -0.0045000003 0.67500001
-0.05721429 -0.0045000003 0.67500001
-0.12021429 -0.0032142859 0.67500001
-0.11840001 -0.0032000002 0.67200005
-0.11677144 -0.0031904764 0.67000002
-0.11532287 -0.0031857146 0.66900003
-0.11353715 -0.0031714288 0.66600001
-0.11226858 -0.0031714288 0.66600001
-0.11083334 -0.003166667 0.66500002
-0.10956667 -0.003166667 0.66500002
-0.10797429 -0.003157143 0.66300005
-0.10655048 -0.0031523812 0.66200006
-0.10528953 -0.0031523812 0.66200006
-0.10402858 -0.0031523812 0.66200006
-0.10261239 -0.0031476193 0.66100001
-0.10120001 -0.0031428575 0.66000003
-0.099942863 -0.0031428575 0.66000003
-0.098685719 -0.0031428575 0.66000003
-0.097133338 -0.0031333335 0.65800005
-0.095880009 -0.0031333335 0.65800005
-0.094626673 -0.0031333335 0.65800005
-0.093373336 -0.0031333335 0.65800005
-0.092120007 -0.0031333335 0.65800005
-0.090728581 -0.0031285717 0.65700001
-0.089477152 -0.0031285717 0.65700001
-0.088225722 -0.0031285717 0.65700001
-0.086841911 -0.0031238098 0.65600002
-0.084940009 -0.0031000001 0.65100002
-0.083700009 -0.0031000001 0.65100002
-0.083220005 -0.0031285717 0.65700001
-0.082342863 -0.0031428575 0.66000003
-0.080840006 -0.0031333335 0.65800005
-0.07958667 -0.0031333335 0.65800005
-0.078333341 -0.0031333335 0.65800005
-0.077080004 -0.0031333335 0.65800005
-0.075826675 -0.0031333335 0.65800005
-0.074573338 -0.0031333335 0.65800005
-0.073542863 -0.0031428575 0.66000003
-0.072285719 -0.0031428575 0.66000003
-0.071028575 -0.0031428575 0.66000003
-0.069877148 -0.0031476193 0.66100001
-0.068618096 -0.0031476193 0.66100001
-0.067766674 -0.003166667 0.66500002
-0.066600002 -0.0031714288 0.66600001
-0.065429531 -0.0031761907 0.66700006
-0.064159051 -0.0031761907 0.66700006
-0.063077144 -0.0031857146 0.66900003
-0.061987624 -0.0031952383 0.671
-0.060800005 -0.0032000002 0.67200005
-0.059697147 -0.0032095241 0.67400002
-0.058586672 -0.0032190478 0.67600006
-0.057299051 -0.0032190478 0.67600006
-0.12039239 -0.0019314287 0.67600006
-0.11892858 -0.0019285716 0.67500001
-0.11694572 -0.001917143 0.671
-0.11532287 -0.0019114286 0.66900003
-0.11353715 -0.0019028572 0.66600001
-0.11226858 -0.0019028572 0.66600001
-0.11083334 -0.0019000001 0.66500002
-0.10956667 -0.0019000001 0.66500002
-0.10797429 -0.0018942858 0.66300005
-0.10655048 -0.0018914287 0.66200006
-0.10528953 -0.0018914287 0.66200006
-0.10387143 -0.0018885715 0.66100001
-0.10261239 -0.0018885715 0.66100001
-0.10120001 -0.0018857144 0.66000003
-0.099942863 -0.0018857144 0.66000003
-0.098685719 -0.0018857144 0.66000003
-0.097133338 -0.0018800001 0.65800005
-0.095880009 -0.0018800001 0.65800005
-0.094626673 -0.0018800001 0.65800005
-0.093373336 -0.0018800001 0.65800005
-0.092120007 -0.0018800001 0.65800005
-0.090728581 -0.0018771429 0.65700001
-0.089477152 -0.0018771429 0.65700001
-0.088225722 -0.0018771429 0.65700001
-0.086841911 -0.0018742859 0.65600002
-0.085461907 -0.0018714287 0.65500003
-0.083700009 -0.0018600001 0.65100002
-0.083220005 -0.0018771429 0.65700001
-0.082093336 -0.0018800001 0.65800005
-0.080840006 -0.0018800001 0.65800005
-0.07958667 -0.0018800001 0.65800005
-0.078333341 -0.0018800001 0.65800005
-0.077080004 -0.0018800001 0.65800005
-0.075826675 -0.0018800001 0.65800005
-0.074573338 -0.0018800001 0.65800005
-0.073542863 -0.0018857144 0.66000003
-0.072285719 -0.0018857144 0.66000003
-0.071028575 -0.0018857144 0.66000003
-0.069771431 -0.0018857144 0.66000003
-0.068618096 -0.0018885715 0.66100001
-0.067562863 -0.0018942858 0.66300005
-0.066500001 -0.0019000001 0.66500002
-0.065429531 -0.0019057144 0.66700006
-0.064159051 -0.0019057144 0.66700006
-0.063171431 -0.0019142858 0.67000002
-0.061987624 -0.001917143 0.671
-0.060980957 -0.0019257144 0.67400002
-0.05978572 -0.0019285716 0.67500001
-0.058586672 -0.0019314287 0.67600006
-0.057299051 -0.0019314287 0.67600006
-0.056177147 -0.001937143 0.67800003
-0.12039239 -0.00064380956 0.67600006
-0.11892858 -0.00064285717 0.67500001
-0.11712001 -0.00064000004 0.67200005
-0.11532287 -0.00063714292 0.66900003
-0.11370762 -0.00063523813 0.66700006
-0.11226858 -0.00063428574 0.66600001
-0.11083334 -0.0006333334 0.66500002
-0.10956667 -0.0006333334 0.66500002
-0.10797429 -0.00063142861 0.66300005
-0.10655048 -0.00063047622 0.66200006
-0.10528953 -0.00063047622 0.66200006
-0.10387143 -0.00062952383 0.66100001
-0.10261239 -0.00062952383 0.66100001
-0.10120001 -0.00062857149 0.66000003
-0.099942863 -0.00062857149 0.66000003
-0.098685719 -0.00062857149 0.66000003
-0.097133338 -0.0006266667 0.65800005
-0.095880009 -0.0006266667 0.65800005
-0.094626673 -0.0006266667 0.65800005
-0.093373336 -0.0006266667 0.65800005
-0.092120007 -0.0006266667 0.65800005
-0.090728581 -0.00062571431 0.65700001
-0.089477152 -0.00062571431 0.65700001
-0.088225722 -0.00062571431 0.65700001
-0.086841911 -0.00062476192 0.65600002
-0.085592389 -0.00062476192 0.65600002
-0.084214292 -0.00062380958 0.65500003
-0.083093338 -0.00062476192 0.65600002
-0.082093336 -0.0006266667 0.65800005
-0.080840006 -0.0006266667 0.65800005
-0.07958667 -0.0006266667 0.65800005
-0.078333341 -0.0006266667 0.65800005
-0.077080004 -0.0006266667 0.65800005
-0.075826675 -0.0006266667 0.65800005
-0.074573338 -0.0006266667 0.65800005
-0.073542863 -0.00062857149 0.66000003
-0.072285719 -0.00062857149 0.66000003
-0.071028575 -0.00062857149 0.66000003
-0.069771431 -0.00062857149 0.66000003
-0.068514287 -0.00062857149 0.66000003
-0.067766674 -0.0006333334 0.66500002
-0.066600002 -0.00063428574 0.66600001
-0.065429531 -0.00063523813 0.66700006
-0.064351432 -0.00063714292 0.66900003
-0.063171431 -0.00063809525 0.67000002
-0.061987624 -0.00063904765 0.671
-0.060980957 -0.00064190483 0.67400002
-0.05978572 -0.00064285717 0.67500001
-0.058586672 -0.00064380956 0.67600006
-0.057468574 -0.00064571435 0.67800003
-0.056177147 -0.00064571435 0.67800003
-0.12074858 0.00064571435 0.67800003
-0.11910477 0.00064380956 0.67600006
-0.11746858 0.00064190483 0.67400002
-0.11549524 0.00063809525 0.67000002
-0.11370762 0.00063523813 0.66700006
-0.11226858 0.00063428574 0.66600001
-0.11083334 0.0006333334 0.66500002
-0.10956667 0.0006333334 0.66500002
-0.10797429 0.00063142861 0.66300005
-0.10671143 0.00063142861 0.66300005
-0.10528953 0.00063047622 0.66200006
-0.10402858 0.00063047622 0.66200006
-0.10261239 0.00062952383 0.66100001
-0.10120001 0.00062857149 0.66000003
-0.099942863 0.00062857149 0.66000003
-0.098685719 0.00062857149 0.66000003
-0.097133338 0.0006266667 0.65800005
-0.095880009 0.0006266667 0.65800005
-0.094626673 0.0006266667 0.65800005
-0.093373336 0.0006266667 0.65800005
-0.092120007 0.0006266667 0.65800005
-0.090728581 0.00062571431 0.65700001
-0.089477152 0.00062571431 0.65700001
-0.088225722 0.00062571431 0.65700001
-0.086841911 0.00062476192 0.65600002
-0.085592389 0.00062476192 0.65600002
-0.08434286 0.00062476192 0.65600002
-0.083093338 0.00062476192 0.65600002
-0.081968576 0.00062571431 0.65700001
-0.080840006 0.0006266667 0.65800005
-0.07958667 0.0006266667 0.65800005
-0.078333341 0.0006266667 0.65800005
-0.077080004 0.0006266667 0.65800005
-0.075826675 0.0006266667 0.65800005
-0.074800007 0.00062857149 0.66000003
-0.073542863 0.00062857149 0.66000003
-0.072285719 0.00062857149 0.66000003
-0.071028575 0.00062857149 0.66000003
-0.069560006 0.0006266667 0.65800005
-0.068514287 0.00062857149 0.66000003
-0.067766674 0.0006333334 0.66500002
-0.066700004 0.00063523813 0.66700006
-0.06562572 0.00063714292 0.66900003
-0.064447626 0.00063809525 0.67000002
-0.063265719 0.00063904765 0.671
-0.061987624 0.00063904765 0.671
-0.060980957 0.00064190483 0.67400002
-0.059874289 0.00064380956 0.67600006
-0.058760002 0.00064571435 0.67800003
-0.057553336 0.00064666668 0.67900002
-0.056260005 0.00064666668 0.67900002
-0.12074858 0.001937143 0.67800003
-0.11910477 0.0019314287 0.67600006
-0.11746858 0.0019257144 0.67400002
-0.11566763 0.001917143 0.671
-0.11404858 0.0019114286 0.66900003
-0.11243715 0.0019057144 0.66700006
-0.11100001 0.0019028572 0.66600001
-0.10956667 0.0019000001 0.66500002
-0.10830001 0.0019000001 0.66500002
-0.10671143 0.0018942858 0.66300005
-0.10528953 0.0018914287 0.66200006
-0.10402858 0.0018914287 0.66200006
-0.10261239 0.0018885715 0.66100001
-0.10120001 0.0018857144 0.66000003
-0.099942863 0.0018857144 0.66000003
-0.098685719 0.0018857144 0.66000003
-0.097428575 0.0018857144 0.66000003
-0.095880009 0.0018800001 0.65800005
-0.094626673 0.0018800001 0.65800005
-0.093373336 0.0018800001 0.65800005
-0.092120007 0.0018800001 0.65800005
-0.09086667 0.0018800001 0.65800005
-0.089477152 0.0018771429 0.65700001
-0.088225722 0.0018771429 0.65700001
-0.086841911 0.0018742859 0.65600002
-0.085592389 0.0018742859 0.65600002
-0.084471434 0.0018771429 0.65700001
-0.083093338 0.0018742859 0.65600002
-0.081968576 0.0018771429 0.65700001
-0.080840006 0.0018800001 0.65800005
-0.07958667 0.0018800001 0.65800005
-0.078571431 0.0018857144 0.66000003
-0.077314287 0.0018857144 0.66000003
-0.076057151 0.0018857144 0.66000003
-0.074800007 0.0018857144 0.66000003
-0.073542863 0.0018857144 0.66000003
-0.072285719 0.0018857144 0.66000003
-0.071028575 0.0018857144 0.66000003
-0.069771431 0.0018857144 0.66000003
-0.068514287 0.0018857144 0.66000003
-0.066600002 0.0019028572 0.66600001
-0.06562572 0.0019114286 0.66900003
-0.064447626 0.0019142858 0.67000002
-0.063265719 0.001917143 0.671
-0.062080003 0.0019200002 0.67200005
-0.061071433 0.0019285716 0.67500001
-0.060051434 0.001937143 0.67800003
-0.058760002 0.001937143 0.67800003
-0.057553336 0.0019400001 0.67900002
-0.056260005 0.0019400001 0.67900002
-0.12092668 0.0032333336 0.67900002
-0.11945715 0.0032285717 0.67800003
-0.11764286 0.0032142859 0.67500001
-0.11584001 0.0032000002 0.67200005
-0.11421905 0.0031904764 0.67000002
-0.11277429 0.0031857146 0.66900003
-0.11100001 0.0031714288 0.66600001
-0.10973144 0.0031714288 0.66600001
-0.10830001 0.003166667 0.66500002
-0.10671143 0.003157143 0.66300005
-0.10544858 0.003157143 0.66300005
-0.10402858 0.0031523812 0.66200006
-0.10261239 0.0031476193 0.66100001
-0.10135334 0.0031476193 0.66100001
-0.10009429 0.0031476193 0.66100001
-0.098685719 0.0031428575 0.66000003
-0.097428575 0.0031428575 0.66000003
-0.095880009 0.0031333335 0.65800005
-0.094626673 0.0031333335 0.65800005
-0.093373336 0.0031333335 0.65800005
-0.092120007 0.0031333335 0.65800005
-0.09086667 0.0031333335 0.65800005
-0.089613341 0.0031333335 0.65800005
-0.088225722 0.0031285717 0.65700001
-0.086974293 0.0031285717 0.65700001
-0.085722864 0.0031285717 0.65700001
-0.084471434 0.0031285717 0.65700001
-0.083220005 0.0031285717 0.65700001
-0.081968576 0.0031285717 0.65700001
-0.080840006 0.0031333335 0.65800005
-0.07958667 0.0031333335 0.65800005
-0.078571431 0.0031428575 0.66000003
-0.077314287 0.0031428575 0.66000003
-0.076057151 0.0031428575 0.66000003
-0.074800007 0.0031428575 0.66000003
-0.073542863 0.0031428575 0.66000003
-0.072285719 0.0031428575 0.66000003
-0.071028575 0.0031428575 0.66000003
-0.069771431 0.0031428575 0.66000003
-0.068514287 0.0031428575 0.66000003
-0.067562863 0.003157143 0.66300005
-0.066600002 0.0031714288 0.66600001
-0.06562572 0.0031857146 0.66900003
-0.064447626 0.0031904764 0.67000002
-0.063265719 0.0031952383 0.671
-0.062080003 0.0032000002 0.67200005
-0.061071433 0.0032142859 0.67500001
-0.060051434 0.0032285717 0.67800003
-0.058846671 0.0032333336 0.67900002
-0.057553336 0.0032333336 0.67900002
-0.056260005 0.0032333336 0.67900002
-0.12092668 0.0045266668 0.67900002
-0.11963334 0.0045266668 0.67900002
-0.11764286 0.0045000003 0.67500001
-0.11618477 0.0044933334 0.67400002
-0.11438953 0.0044733337 0.671
-0.11294287 0.0044666668 0.67000002
-0.11116667 0.0044466672 0.66700006
-0.1098962 0.0044466672 0.66700006
-0.10846286 0.0044400003 0.66600001
-0.10703334 0.0044333334 0.66500002
-0.10544858 0.0044200001 0.66300005
-0.10418572 0.0044200001 0.66300005
-0.10276762 0.0044133337 0.66200006
-0.10150667 0.0044133337 0.66200006
-0.10009429 0.0044066668 0.66100001
-0.098835245 0.0044066668 0.66100001
-0.097428575 0.0044000004 0.66000003
-0.096171431 0.0044000004 0.66000003
-0.094626673 0.0043866672 0.65800005
-0.093373336 0.0043866672 0.65800005
-0.092120007 0.0043866672 0.65800005
-0.09086667 0.0043866672 0.65800005
-0.089613341 0.0043866672 0.65800005
-0.088225722 0.0043800003 0.65700001
-0.086974293 0.0043800003 0.65700001
-0.085722864 0.0043800003 0.65700001
-0.084471434 0.0043800003 0.65700001
-0.083220005 0.0043800003 0.65700001
-0.081968576 0.0043800003 0.65700001
-0.080840006 0.0043866672 0.65800005
-0.079828575 0.0044000004 0.66000003
-0.078571431 0.0044000004 0.66000003
-0.077314287 0.0044000004 0.66000003
-0.076057151 0.0044000004 0.66000003
-0.074800007 0.0044000004 0.66000003
-0.073542863 0.0044000004 0.66000003
-0.072285719 0.0044000004 0.66000003
-0.071028575 0.0044000004 0.66000003
-0.069771431 0.0044000004 0.66000003
-0.068514287 0.0044000004 0.66000003
-0.066600002 0.0044400003 0.66600001
-0.06562572 0.0044600004 0.66900003
-0.064543813 0.0044733337 0.671
-0.063360006 0.0044800001 0.67200005
-0.062264767 0.0044933334 0.67400002
-0.061161909 0.0045066671 0.67600006
-0.060140003 0.0045266668 0.67900002
-0.058846671 0.0045266668 0.67900002
-0.057638098 0.0045333337 0.68000001
-0.056260005 0.0045266668 0.67900002
-0.12110477 0.005828572 0.68000001
-0.11963334 0.0058200005 0.67900002
-0.11816572 0.0058114291 0.67800003
-0.11618477 0.0057771434 0.67400002
-0.11438953 0.0057514291 0.671
-0.11294287 0.0057428577 0.67000002
-0.11150001 0.0057342863 0.66900003
-0.1098962 0.0057171434 0.66700006
-0.10846286 0.005708572 0.66600001
-0.10703334 0.0057000006 0.66500002
-0.10576668 0.0057000006 0.66500002
-0.10418572 0.0056828577 0.66300005
-0.10292286 0.0056828577 0.66300005
-0.10150667 0.0056742863 0.66200006
-0.10024572 0.0056742863 0.66200006
-0.098835245 0.0056657149 0.66100001
-0.097576194 0.0056657149 0.66100001
-0.096171431 0.0056571434 0.66000003
-0.094626673 0.0056400006 0.65800005
-0.093373336 0.0056400006 0.65800005
-0.092120007 0.0056400006 0.65800005
-0.09086667 0.0056400006 0.65800005
-0.089613341 0.0056400006 0.65800005
-0.088360004 0.0056400006 0.65800005
-0.086974293 0.0056314291 0.65700001
-0.085722864 0.0056314291 0.65700001
-0.084600009 0.0056400006 0.65800005
-0.083220005 0.0056314291 0.65700001
-0.082093336 0.0056400006 0.65800005
-0.081085719 0.0056571434 0.66000003
-0.079828575 0.0056571434 0.66000003
-0.078690484 0.0056657149 0.66100001
-0.077431433 0.0056657149 0.66100001
-0.076172389 0.0056657149 0.66100001
-0.074913338 0.0056657149 0.66100001
-0.073654294 0.0056657149 0.66100001
-0.072395243 0.0056657149 0.66100001
-0.071028575 0.0056571434 0.66000003
-0.069771431 0.0056571434 0.66000003
-0.068618096 0.0056657149 0.66100001
-0.067562863 0.0056828577 0.66300005
-0.066700004 0.0057171434 0.66700006
-0.06562572 0.0057342863 0.66900003
-0.064543813 0.0057514291 0.671
-0.063548572 0.0057771434 0.67400002
-0.062264767 0.0057771434 0.67400002
-0.061071433 0.0057857148 0.67500001
-0.060140003 0.0058200005 0.67900002
-0.058846671 0.0058200005 0.67900002
-0.057638098 0.005828572 0.68000001
-0.056342863 0.005828572 0.68000001
0.16848192 0.0076971436 0.89800006
0.17019239 0.0076971436 0.89800006
-0.12092668 0.0071133338 0.67900002
-0.11963334 0.0071133338 0.67900002
-0.11816572 0.0071028578 0.67800003
-0.11652953 0.0070819054 0.67600006
-0.11490096 0.007060953 0.67400002
-0.11311144 0.0070295241 0.671
-0.11166667 0.0070190481 0.67000002
-0.11022572 0.0070085721 0.66900003
-0.10862572 0.0069876197 0.66700006
-0.10735524 0.0069876197 0.66700006
-0.10592572 0.0069771432 0.66600001
-0.1045 0.0069666672 0.66500002
-0.10323334 0.0069666672 0.66500002
-0.10166001 0.0069457148 0.66300005
-0.10039715 0.0069457148 0.66300005
-0.09898477 0.0069352384 0.66200006
-0.097576194 0.0069247624 0.66100001
-0.09631715 0.0069247624 0.66100001
-0.094914295 0.0069142859 0.66000003
-0.093657151 0.0069142859 0.66000003
-0.092120007 0.006893334 0.65800005
-0.09086667 0.006893334 0.65800005
-0.089613341 0.006893334 0.65800005
-0.088360004 0.006893334 0.65800005
-0.087106675 0.006893334 0.65800005
-0.085853338 0.006893334 0.65800005
-0.084600009 0.006893334 0.65800005
-0.083346672 0.006893334 0.65800005
-0.082093336 0.006893334 0.65800005
-0.081085719 0.0069142859 0.66000003
-0.079828575 0.0069142859 0.66000003
-0.078690484 0.0069247624 0.66100001
-0.077548578 0.0069352384 0.66200006
-0.076172389 0.0069247624 0.66100001
-0.074913338 0.0069247624 0.66100001
-0.073654294 0.0069247624 0.66100001
-0.072395243 0.0069247624 0.66100001
-0.071028575 0.0069142859 0.66000003
-0.069877148 0.0069247624 0.66100001
-0.068825722 0.0069457148 0.66300005
-0.067970477 0.0069876197 0.66700006
-0.066900007 0.0070085721 0.66900003
-0.065723814 0.0070190481 0.67000002
-0.064640008 0.0070400005 0.67200005
-0.063548572 0.007060953 0.67400002
-0.062357146 0.0070714289 0.67500001
-0.061071433 0.0070714289 0.67500001
-0.060140003 0.0071133338 0.67900002
-0.058933336 0.0071238098 0.68000001
-0.057638098 0.0071238098 0.68000001
-0.056508575 0.0071447622 0.68200004
-0.11963334 0.008406667 0.67900002
-0.11816572 0.008394286 0.67800003
-0.11635715 0.008357143 0.67500001
-0.11507144 0.008357143 0.67500001
-0.11328001 0.008320001 0.67200005
-0.11183334 0.00830762 0.671
-0.11039048 0.0082952389 0.67000002
-0.10895143 0.0082828579 0.66900003
-0.10767715 0.0082828579 0.66900003
-0.10608477 0.0082580959 0.66700006
-0.10481429 0.0082580959 0.66700006
-0.10338858 0.0082457149 0.66600001
-0.10196667 0.0082333339 0.66500002
-0.10070001 0.0082333339 0.66500002
-0.099134289 0.0082085719 0.66300005
-0.097871438 0.0082085719 0.66300005
-0.096462861 0.0081961909 0.66200006
-0.095058098 0.0081838099 0.66100001
-0.093799055 0.0081838099 0.66100001
-0.092400007 0.0081714289 0.66000003
-0.091142863 0.0081714289 0.66000003
-0.089885719 0.0081714289 0.66000003
-0.088628575 0.0081714289 0.66000003
-0.087371431 0.0081714289 0.66000003
-0.086114295 0.0081714289 0.66000003
-0.084857151 0.0081714289 0.66000003
-0.083600007 0.0081714289 0.66000003
-0.082342863 0.0081714289 0.66000003
-0.081208579 0.0081838099 0.66100001
-0.079949528 0.0081838099 0.66100001
-0.07880953 0.0081961909 0.66200006
-0.077665716 0.0082085719 0.66300005
-0.076402865 0.0082085719 0.66300005
-0.075140007 0.0082085719 0.66300005
-0.073877148 0.0082085719 0.66300005
-0.07261429 0.0082085719 0.66300005
-0.071351431 0.0082085719 0.66300005
-0.070300005 0.0082333339 0.66500002
-0.069137149 0.0082457149 0.66600001
-0.068174288 0.0082828579 0.66900003
-0.066900007 0.0082828579 0.66900003
-0.065723814 0.0082952389 0.67000002
-0.064640008 0.008320001 0.67200005
-0.063548572 0.008344762 0.67400002
-0.06244953 0.008369524 0.67600006
-0.061433338 0.008406667 0.67900002
-0.060228575 0.008419048 0.68000001
-0.05910667 0.00844381 0.68200004
-0.057892386 0.008456191 0.68300003
-0.056591433 0.008456191 0.68300003
-0.055290479 0.008456191 0.68300003
-0.11635715 0.0096428581 0.67500001
-0.11507144 0.0096428581 0.67500001
-0.11361715 0.0096285725 0.67400002
-0.11183334 0.0095857149 0.671
-0.11039048 0.0095714293 0.67000002
-0.10911429 0.0095714293 0.67000002
-0.10767715 0.0095571438 0.66900003
-0.10608477 0.0095285717 0.66700006
-0.10481429 0.0095285717 0.66700006
-0.10338858 0.0095142862 0.66600001
-0.10212 0.0095142862 0.66600001
