# .PCD v0.7 - Point Cloud Data file format
VERSION 0.7
FIELDS x y z
SIZE 4 4 4
TYPE F F F
COUNT 1 1 1
WIDTH 1354
HEIGHT 1
VIEWPOINT 0 0 0 1 0 0 0
POINTS 1354
DATA ascii
-0.02313143 0.02313143 0.73600006
-0.021670477 0.023068573 0.73400003
-0.020272382 0.023068573 0.73400003
-0.018874288 0.023068573 0.73400003
-0.017428573 0.023005717 0.73200005
-0.016034286 0.023005717 0.73200005
-0.014640001 0.023005717 0.73200005
-0.01322762 0.022974288 0.73100001
-0.011835239 0.022974288 0.73100001
-0.010442858 0.022974288 0.73100001
-0.0090257153 0.022911429 0.72900003
-0.0076580956 0.022974288 0.73100001
-0.0062485719 0.022911429 0.72900003
-0.0048600002 0.022911429 0.72900003
-0.0034714288 0.022911429 0.72900003
-0.0020885717 0.022974288 0.73100001
-0.00069619052 0.022974288 0.73100001
0.00069619052 0.022974288 0.73100001
0.0020885717 0.022974288 0.73100001
0.0034714288 0.022911429 0.72900003
0.0048733335 0.022974288 0.73100001
0.0062485719 0.022911429 0.72900003
0.0076371431 0.022911429 0.72900003
0.0090257153 0.022911429 0.72900003
0.010414287 0.022911429 0.72900003
0.011802858 0.022911429 0.72900003
0.013173334 0.022880001 0.72800004
0.014520001 0.022817144 0.72600001
0.015902858 0.022817144 0.72600001
0.017285716 0.022817144 0.72600001
0.018642858 0.022785716 0.72500002
0.020023812 0.022785716 0.72500002
0.021345716 0.022722859 0.72300005
0.022722859 0.022722859 0.72300005
0.024100002 0.022722859 0.72300005
-0.068553336 0.026366668 0.79100001
-0.061973337 0.026133334 0.78400004
-0.060325719 0.026066668 0.78200006
-0.058986671 0.026133334 0.78400004
-0.057200003 0.026000002 0.78000003
-0.054228574 0.026000002 0.78000003
-0.052742861 0.026000002 0.78000003
-0.050271433 0.025500001 0.76500005
-0.048814289 0.025500001 0.76500005
-0.047233336 0.025433335 0.76300001
-0.045660004 0.025366668 0.76100004
-0.044152383 0.025333336 0.76000005
-0.042704765 0.025333336 0.76000005
-0.041257147 0.025333336 0.76000005
-0.039704766 0.025266668 0.75800002
-0.038260955 0.025266668 0.75800002
-0.036720004 0.025200002 0.75600004
-0.035280004 0.025200002 0.75600004
-0.033840001 0.025200002 0.75600004
-0.031671431 0.024633335 0.73900002
-0.030181907 0.024566669 0.73700005
-0.02873905 0.024533335 0.73600006
-0.027337145 0.024533335 0.73600006
-0.025864763 0.024466669 0.73400003
-0.024466669 0.024466669 0.73400003
-0.023068573 0.024466669 0.73400003
-0.021670477 0.024466669 0.73400003
-0.020272382 0.024466669 0.73400003
-0.018822858 0.024400001 0.73200005
-0.017428573 0.024400001 0.73200005
-0.016012382 0.024366667 0.73100001
-0.01462 0.024366667 0.73100001
-0.01322762 0.024366667 0.73100001
-0.011802858 0.024300002 0.72900003
-0.010414287 0.024300002 0.72900003
-0.0090257153 0.024300002 0.72900003
-0.0076371431 0.024300002 0.72900003
-0.0062400005 0.024266668 0.72800004
-0.0048533338 0.024266668 0.72800004
-0.0034666669 0.024266668 0.72800004
-0.0020800002 0.024266668 0.72800004
-0.00069333339 0.024266668 0.72800004
0.00069333339 0.024266668 0.72800004
0.0020800002 0.024266668 0.72800004
0.0034666669 0.024266668 0.72800004
0.0048533338 0.024266668 0.72800004
0.0062400005 0.024266668 0.72800004
0.0076057147 0.024200002 0.72600001
0.0090133343 0.024266668 0.72800004
0.010371429 0.024200002 0.72600001
0.011754286 0.024200002 0.72600001
0.013137144 0.024200002 0.72600001
0.014500001 0.024166668 0.72500002
0.015880954 0.024166668 0.72500002
0.017261906 0.024166668 0.72500002
0.018642858 0.024166668 0.72500002
0.019968573 0.024100002 0.72300005
0.021316191 0.024066668 0.72200006
0.022691431 0.024066668 0.72200006
0.024100002 0.024100002 0.72300005
0.025441907 0.024066668 0.72200006
0.026742859 0.024000002 0.72000003
0.028114287 0.024000002 0.72000003
-0.068293341 0.027767621 0.78800005
-0.066792384 0.027767621 0.78800005
-0.063790478 0.027767621 0.78800005
-0.062131431 0.027697144 0.78600001
-0.060480002 0.027626669 0.78400004
-0.058986671 0.027626669 0.78400004
-0.056000005 0.027626669 0.78400004
-0.050140005 0.026886668 0.76300001
-0.048686668 0.026886668 0.76300001
-0.047109526 0.026816193 0.76100004
-0.045600004 0.026780954 0.76000005
-0.044152383 0.026780954 0.76000005
-0.042704765 0.026780954 0.76000005
-0.041148573 0.026710479 0.75800002
-0.039704766 0.026710479 0.75800002
-0.038260955 0.026710479 0.75800002
-0.036720004 0.026640002 0.75600004
-0.035233337 0.026604764 0.75500005
-0.032989524 0.025970478 0.73700005
-0.031585716 0.025970478 0.73700005
-0.030140955 0.02593524 0.73600006
-0.02873905 0.02593524 0.73600006
-0.027262859 0.025864763 0.73400003
-0.025864763 0.025864763 0.73400003
-0.024466669 0.025864763 0.73400003
-0.023005717 0.025794288 0.73200005
-0.02161143 0.025794288 0.73200005
-0.020217145 0.025794288 0.73200005
-0.018822858 0.025794288 0.73200005
-0.017428573 0.025794288 0.73200005
-0.016012382 0.025759049 0.73100001
-0.01462 0.025759049 0.73100001
-0.01319143 0.025688574 0.72900003
-0.011802858 0.025688574 0.72900003
-0.010400001 0.025653334 0.72800004
-0.0090133343 0.025653334 0.72800004
-0.0076266672 0.025653334 0.72800004
-0.0062400005 0.025653334 0.72800004
-0.0048400005 0.025582859 0.72600001
-0.003457143 0.025582859 0.72600001
-0.0020742859 0.025582859 0.72600001
-0.00069142861 0.025582859 0.72600001
0.00069142861 0.025582859 0.72600001
0.0020742859 0.025582859 0.72600001
0.003457143 0.025582859 0.72600001
0.0048400005 0.025582859 0.72600001
0.0062228576 0.025582859 0.72600001
0.0075952387 0.02554762 0.72500002
0.0089761913 0.02554762 0.72500002
0.010357143 0.02554762 0.72500002
0.011738096 0.02554762 0.72500002
0.013119048 0.02554762 0.72500002
0.014460001 0.025477145 0.72300005
0.015837144 0.025477145 0.72300005
0.017214287 0.025477145 0.72300005
0.01859143 0.025477145 0.72300005
0.019940954 0.025441907 0.72200006
0.021257143 0.02537143 0.72000003
0.022628574 0.02537143 0.72000003
0.024000002 0.02537143 0.72000003
0.02537143 0.02537143 0.72000003
0.026705716 0.025336193 0.71900004
0.028075241 0.025336193 0.71900004
0.029444763 0.025336193 0.71900004
0.030728573 0.025265716 0.71700001
-0.069882862 0.029305717 0.78900003
-0.068380006 0.029305717 0.78900003
-0.066792384 0.029268574 0.78800005
-0.065291435 0.029268574 0.78800005
-0.063790478 0.029268574 0.78800005
-0.062131431 0.029194288 0.78600001
-0.060634289 0.029194288 0.78600001
-0.058986671 0.029120002 0.78400004
-0.048559051 0.028265717 0.76100004
-0.047047623 0.028228574 0.76000005
-0.045600004 0.028228574 0.76000005
-0.044036195 0.028154287 0.75800002
-0.042592384 0.028154287 0.75800002
-0.041148573 0.028154287 0.75800002
-0.039600004 0.028080001 0.75600004
-0.038160004 0.028080001 0.75600004
-0.03667143 0.028042858 0.75500005
-0.03448667 0.027448574 0.73900002
-0.032989524 0.027374288 0.73700005
-0.03154286 0.027337145 0.73600006
-0.030140955 0.027337145 0.73600006
-0.028660955 0.027262859 0.73400003
-0.027188573 0.027188573 0.73200005
-0.025794288 0.027188573 0.73200005
-0.024400001 0.027188573 0.73200005
-0.023005717 0.027188573 0.73200005
-0.02161143 0.027188573 0.73200005
-0.020189526 0.02715143 0.73100001
-0.018797144 0.02715143 0.73100001
-0.017404763 0.02715143 0.73100001
-0.016012382 0.02715143 0.73100001
-0.01462 0.02715143 0.73100001
-0.01319143 0.027077144 0.72900003
-0.011786668 0.027040001 0.72800004
-0.010371429 0.026965717 0.72600001
-0.0089885723 0.026965717 0.72600001
-0.0076057147 0.026965717 0.72600001
-0.0062228576 0.026965717 0.72600001
-0.0048333337 0.026928574 0.72500002
-0.003457143 0.026965717 0.72600001
-0.0020742859 0.026965717 0.72600001
-0.00069047621 0.026928574 0.72500002
0.00069047621 0.026928574 0.72500002
0.0020714288 0.026928574 0.72500002
0.0034523811 0.026928574 0.72500002
0.0048333337 0.026928574 0.72500002
0.0062142862 0.026928574 0.72500002
0.0075742863 0.026854288 0.72300005
0.0089514293 0.026854288 0.72300005
0.010328572 0.026854288 0.72300005
0.011705715 0.026854288 0.72300005
0.013082858 0.026854288 0.72300005
0.014440001 0.026817145 0.72200006
0.015815239 0.026817145 0.72200006
0.017190477 0.026817145 0.72200006
0.018565716 0.026817145 0.72200006
0.019885715 0.026742859 0.72000003
0.021227621 0.026705716 0.71900004
0.022534287 0.02663143 0.71700001
0.023900002 0.02663143 0.71700001
0.025265716 0.02663143 0.71700001
0.02663143 0.02663143 0.71700001
0.027997145 0.02663143 0.71700001
0.029362859 0.02663143 0.71700001
0.030728573 0.02663143 0.71700001
0.032094289 0.02663143 0.71700001
0.033460002 0.02663143 0.71700001
-0.068293341 0.030769525 0.78800005
-0.066792384 0.030769525 0.78800005
-0.065291435 0.030769525 0.78800005
-0.063790478 0.030769525 0.78800005
-0.062131431 0.03069143 0.78600001
-0.060634289 0.03069143 0.78600001
-0.058986671 0.030613335 0.78400004
-0.050008576 0.02971524 0.76100004
-0.048495241 0.029676192 0.76000005
-0.047047623 0.029676192 0.76000005
-0.045480002 0.029598096 0.75800002
-0.044036195 0.029598096 0.75800002
-0.042592384 0.029598096 0.75800002
-0.041148573 0.029598096 0.75800002
-0.039600004 0.029520001 0.75600004
-0.038160004 0.029520001 0.75600004
-0.03667143 0.029480955 0.75500005
-0.034393337 0.028778097 0.73700005
-0.032944765 0.02873905 0.73600006
-0.03154286 0.02873905 0.73600006
-0.030059049 0.028660955 0.73400003
-0.028660955 0.028660955 0.73400003
-0.027188573 0.02858286 0.73200005
-0.025794288 0.02858286 0.73200005
-0.024400001 0.02858286 0.73200005
-0.022974288 0.028543811 0.73100001
-0.021581907 0.028543811 0.73100001
-0.020189526 0.028543811 0.73100001
-0.018745715 0.028465716 0.72900003
-0.017357145 0.028465716 0.72900003
-0.015968572 0.028465716 0.72900003
-0.014580001 0.028465716 0.72900003
-0.013173334 0.028426668 0.72800004
-0.011754286 0.028348573 0.72600001
-0.010371429 0.028348573 0.72600001
-0.0089885723 0.028348573 0.72600001
-0.0076057147 0.028348573 0.72600001
-0.0062142862 0.028309526 0.72500002
-0.0048333337 0.028309526 0.72500002
-0.0034523811 0.028309526 0.72500002
-0.0020714288 0.028309526 0.72500002
-0.00068857148 0.028231431 0.72300005
0.00068857148 0.028231431 0.72300005
0.0020657144 0.028231431 0.72300005
0.0034380956 0.028192382 0.72200006
0.0048133335 0.028192382 0.72200006
0.0061971433 0.028231431 0.72300005
0.0075428574 0.028114287 0.72000003
0.0089390483 0.028192382 0.72200006
0.010285715 0.028114287 0.72000003
0.011657144 0.028114287 0.72000003
0.013028572 0.028114287 0.72000003
0.014400001 0.028114287 0.72000003
0.01577143 0.028114287 0.72000003
0.017142858 0.028114287 0.72000003
0.018514287 0.028114287 0.72000003
0.019802859 0.027997145 0.71700001
0.021168573 0.027997145 0.71700001
0.022502858 0.027958097 0.71600002
0.023866668 0.027958097 0.71600002
0.025230478 0.027958097 0.71600002
0.026594287 0.027958097 0.71600002
0.027958097 0.027958097 0.71600002
0.029321907 0.027958097 0.71600002
0.030685715 0.027958097 0.71600002
0.031960003 0.027880002 0.71400005
0.033320002 0.027880002 0.71400005
0.036040001 0.027880002 0.71400005
-0.071566671 0.032393336 0.79100001
-0.070060007 0.032393336 0.79100001
-0.068293341 0.03227048 0.78800005
-0.066792384 0.03227048 0.78800005
-0.065291435 0.03227048 0.78800005
-0.063790478 0.03227048 0.78800005
-0.062131431 0.032188572 0.78600001
-0.060634289 0.032188572 0.78600001
-0.058986671 0.032106668 0.78400004
-0.050140005 0.03124667 0.76300001
-0.048559051 0.031164763 0.76100004
-0.047047623 0.031123811 0.76000005
-0.045480002 0.031041907 0.75800002
-0.044036195 0.031041907 0.75800002
-0.042592384 0.031041907 0.75800002
-0.041040003 0.030960003 0.75600004
-0.039600004 0.030960003 0.75600004
-0.038109526 0.030919049 0.75500005
-0.03589429 0.030263811 0.73900002
-0.034393337 0.030181907 0.73700005
-0.032944765 0.030140955 0.73600006
-0.031457145 0.030059049 0.73400003
-0.030059049 0.030059049 0.73400003
-0.02858286 0.029977145 0.73200005
-0.027188573 0.029977145 0.73200005
-0.025759049 0.029936193 0.73100001
-0.024366667 0.029936193 0.73100001
-0.022974288 0.029936193 0.73100001
-0.021581907 0.029936193 0.73100001
-0.020134287 0.029854288 0.72900003
-0.018745715 0.029854288 0.72900003
-0.017333334 0.029813336 0.72800004
-0.015946668 0.029813336 0.72800004
-0.014560001 0.029813336 0.72800004
-0.013137144 0.02973143 0.72600001
-0.011754286 0.02973143 0.72600001
-0.010357143 0.029690478 0.72500002
-0.0089761913 0.029690478 0.72500002
-0.0075952387 0.029690478 0.72500002
-0.0062142862 0.029690478 0.72500002
-0.0048200004 0.029608574 0.72300005
-0.0034428574 0.029608574 0.72300005
-0.0020657144 0.029608574 0.72300005
-0.00068761909 0.029567622 0.72200006
0.00068761909 0.029567622 0.72200006
0.0020628574 0.029567622 0.72200006
0.0034285716 0.029485716 0.72000003
0.0048000002 0.029485716 0.72000003
0.0061628576 0.029444763 0.71900004
0.0075323815 0.029444763 0.71900004
0.0089019053 0.029444763 0.71900004
0.010271429 0.029444763 0.71900004
0.011640953 0.029444763 0.71900004
0.013010477 0.029444763 0.71900004
0.014380001 0.029444763 0.71900004
0.015749525 0.029444763 0.71900004
0.017119048 0.029444763 0.71900004
0.018488573 0.029444763 0.71900004
0.01977524 0.029321907 0.71600002
0.021080002 0.029240001 0.71400005
0.022440001 0.029240001 0.71400005
0.023766669 0.029199049 0.71300006
0.025124764 0.029199049 0.71300006
0.026520003 0.029240001 0.71400005
0.027880002 0.029240001 0.71400005
0.029240001 0.029240001 0.71400005
0.030557144 0.029199049 0.71300006
0.03191524 0.029199049 0.71300006
0.033273336 0.029199049 0.71300006
0.034631431 0.029199049 0.71300006
0.035989527 0.029199049 0.71300006
0.037347622 0.029199049 0.71300006
0.038705718 0.029199049 0.71300006
0.040063813 0.029199049 0.71300006
0.041305717 0.029117145 0.71100003
0.042660002 0.029117145 0.71100003
0.0441381 0.029199049 0.71300006
0.045368575 0.029117145 0.71100003
-0.070060007 0.033900004 0.79100001
-0.068380006 0.033814289 0.78900003
-0.066792384 0.033771429 0.78800005
-0.065291435 0.033771429 0.78800005
-0.063790478 0.033771429 0.78800005
-0.062289529 0.033771429 0.78800005
-0.060634289 0.033685718 0.78600001
-0.058986671 0.033600003 0.78400004
-0.050008576 0.032614287 0.76100004
-0.048495241 0.032571431 0.76000005
-0.047047623 0.032571431 0.76000005
-0.045480002 0.032485716 0.75800002
-0.044036195 0.032485716 0.75800002
-0.042592384 0.032485716 0.75800002
-0.041040003 0.032400001 0.75600004
-0.039600004 0.032400001 0.75600004
-0.038109526 0.032357145 0.75500005
-0.03589429 0.031671431 0.73900002
-0.034393337 0.031585716 0.73700005
-0.032944765 0.03154286 0.73600006
-0.031457145 0.031457145 0.73400003
-0.030059049 0.031457145 0.73400003
-0.02858286 0.03137143 0.73200005
-0.027188573 0.03137143 0.73200005
-0.025759049 0.031328574 0.73100001
-0.024366667 0.031328574 0.73100001
-0.022974288 0.031328574 0.73100001
-0.021581907 0.031328574 0.73100001
-0.020134287 0.031242859 0.72900003
-0.018720001 0.031200003 0.72800004
-0.017333334 0.031200003 0.72800004
-0.015902858 0.031114288 0.72600001
-0.014520001 0.031114288 0.72600001
-0.013137144 0.031114288 0.72600001
-0.011738096 0.03107143 0.72500002
-0.010357143 0.03107143 0.72500002
-0.0089514293 0.030985717 0.72300005
-0.0075742863 0.030985717 0.72300005
-0.0061971433 0.030985717 0.72300005
-0.0048200004 0.030985717 0.72300005
-0.0034380956 0.030942859 0.72200006
-0.0020628574 0.030942859 0.72200006
-0.00068761909 0.030942859 0.72200006
0.0006857143 0.030857146 0.72000003
0.002057143 0.030857146 0.72000003
0.0034285716 0.030857146 0.72000003
0.0047933338 0.030814288 0.71900004
0.0061457148 0.030728573 0.71700001
0.007511429 0.030728573 0.71700001
0.0088771433 0.030728573 0.71700001
0.010242858 0.030728573 0.71700001
0.011608572 0.030728573 0.71700001
0.012974286 0.030728573 0.71700001
0.014340001 0.030728573 0.71700001
0.015705716 0.030728573 0.71700001
0.017047619 0.030685715 0.71600002
0.01841143 0.030685715 0.71600002
0.019720001 0.030600002 0.71400005
0.021050477 0.030557144 0.71300006
0.022408573 0.030557144 0.71300006
0.023700001 0.030471431 0.71100003
0.025054287 0.030471431 0.71100003
0.02648286 0.030557144 0.71300006
0.027840953 0.030557144 0.71300006
0.029199049 0.030557144 0.71300006
0.030557144 0.030557144 0.71300006
0.031825718 0.030471431 0.71100003
0.033180002 0.030471431 0.71100003
0.034631431 0.030557144 0.71300006
0.035888575 0.030471431 0.71100003
0.03724286 0.030471431 0.71100003
0.038597144 0.030471431 0.71100003
0.039951432 0.030471431 0.71100003
0.041421909 0.030557144 0.71300006
0.042780004 0.030557144 0.71300006
0.0441381 0.030557144 0.71300006
0.045304764 0.030428573 0.71000004
0.046525717 0.030342858 0.708
0.04787429 0.030342858 0.708
0.049153335 0.030300003 0.70700002
0.050500002 0.030300003 0.70700002
-0.070060007 0.035406668 0.79100001
-0.066792384 0.035272382 0.78800005
-0.065291435 0.035272382 0.78800005
-0.063790478 0.035272382 0.78800005
-0.062289529 0.035272382 0.78800005
-0.060788576 0.035272382 0.78800005
-0.058986671 0.035093337 0.78400004
-0.051458098 0.034063812 0.76100004
-0.049942862 0.034019049 0.76000005
-0.048495241 0.034019049 0.76000005
-0.046923812 0.033929527 0.75800002
-0.045480002 0.033929527 0.75800002
-0.044036195 0.033929527 0.75800002
-0.042480003 0.033840001 0.75600004
-0.041040003 0.033840001 0.75600004
-0.039600004 0.033840001 0.75600004
-0.037756193 0.033481907 0.74800003
-0.03589429 0.03307905 0.73900002
-0.034393337 0.032989524 0.73700005
-0.032944765 0.032944765 0.73600006
-0.031457145 0.032855239 0.73400003
-0.029977145 0.032765716 0.73200005
-0.02858286 0.032765716 0.73200005
-0.027188573 0.032765716 0.73200005
-0.025759049 0.032720953 0.73100001
-0.024366667 0.032720953 0.73100001
-0.022974288 0.032720953 0.73100001
-0.021522859 0.032631431 0.72900003
-0.020106668 0.032586668 0.72800004
-0.018668573 0.032497145 0.72600001
-0.017285716 0.032497145 0.72600001
-0.015902858 0.032497145 0.72600001
-0.014500001 0.032452382 0.72500002
-0.013119048 0.032452382 0.72500002
-0.011738096 0.032452382 0.72500002
-0.010328572 0.03236286 0.72300005
-0.0089514293 0.03236286 0.72300005
-0.0075742863 0.03236286 0.72300005
-0.0061971433 0.03236286 0.72300005
-0.0048133335 0.032318097 0.72200006
-0.0034380956 0.032318097 0.72200006
-0.0020628574 0.032318097 0.72200006
-0.0006857143 0.032228574 0.72000003
0.0006857143 0.032228574 0.72000003
0.002057143 0.032228574 0.72000003
0.0034238098 0.032183811 0.71900004
0.0047933338 0.032183811 0.71900004
0.0061457148 0.032094289 0.71700001
0.007500953 0.032049526 0.71600002
0.0088647623 0.032049526 0.71600002
0.010228572 0.032049526 0.71600002
0.011592382 0.032049526 0.71600002
0.012920001 0.031960003 0.71400005
0.014320001 0.032049526 0.71600002
0.015640002 0.031960003 0.71400005
0.017000001 0.031960003 0.71400005
0.018360002 0.031960003 0.71400005
0.019637143 0.031825718 0.71100003
0.02099143 0.031825718 0.71100003
0.022345716 0.031825718 0.71100003
0.023666669 0.031780954 0.71000004
0.02501905 0.031780954 0.71000004
0.026371431 0.031780954 0.71000004
0.027723812 0.031780954 0.71000004
0.029076193 0.031780954 0.71000004
0.030428573 0.031780954 0.71000004
0.031780954 0.031780954 0.71000004
0.033133335 0.031780954 0.71000004
0.034534287 0.031825718 0.71100003
0.035838097 0.031780954 0.71000004
0.03724286 0.031825718 0.71100003
0.038597144 0.031825718 0.71100003
0.039951432 0.031825718 0.71100003
0.041305717 0.031825718 0.71100003
0.042660002 0.031825718 0.71100003
0.04401429 0.031825718 0.71100003
0.045304764 0.031780954 0.71000004
0.046525717 0.031691432 0.708
0.04787429 0.031691432 0.708
0.049153335 0.031646669 0.70700002
0.050500002 0.031646669 0.70700002
0.051846672 0.031646669 0.70700002
0.053193338 0.031646669 0.70700002
0.054540005 0.031646669 0.70700002
0.055728573 0.031557146 0.70500004
0.057071432 0.031557146 0.70500004
-0.065291435 0.036773335 0.78800005
-0.063790478 0.036773335 0.78800005
-0.062289529 0.036773335 0.78800005
-0.060788576 0.036773335 0.78800005
-0.059137147 0.036680002 0.78600001
-0.057640005 0.036680002 0.78600001
-0.05139048 0.035466667 0.76000005
-0.049942862 0.035466667 0.76000005
-0.048367623 0.035373334 0.75800002
-0.046923812 0.035373334 0.75800002
-0.045360003 0.035280004 0.75600004
-0.043920003 0.035280004 0.75600004
-0.042480003 0.035280004 0.75600004
-0.041040003 0.035280004 0.75600004
-0.03944286 0.035140004 0.75300002
-0.037857145 0.035000004 0.75000006
-0.03594286 0.034533337 0.74000001
-0.034393337 0.034393337 0.73700005
-0.032944765 0.03434667 0.73600006
-0.031457145 0.034253336 0.73400003
-0.029977145 0.034160003 0.73200005
-0.02858286 0.034160003 0.73200005
-0.02715143 0.034113336 0.73100001
-0.025759049 0.034113336 0.73100001
-0.024366667 0.034113336 0.73100001
-0.022911429 0.034020003 0.72900003
-0.021522859 0.034020003 0.72900003
-0.020106668 0.033973336 0.72800004
-0.018668573 0.033880003 0.72600001
-0.017285716 0.033880003 0.72600001
-0.015880954 0.033833336 0.72500002
-0.014500001 0.033833336 0.72500002
-0.013119048 0.033833336 0.72500002
-0.011705715 0.033740003 0.72300005
-0.010314287 0.033693336 0.72200006
-0.0089390483 0.033693336 0.72200006
-0.0075638099 0.033693336 0.72200006
-0.0061885719 0.033693336 0.72200006
-0.0048133335 0.033693336 0.72200006
-0.0034285716 0.033600003 0.72000003
-0.002057143 0.033600003 0.72000003
-0.0006857143 0.033600003 0.72000003
0.0006857143 0.033600003 0.72000003
0.002054286 0.033553336 0.71900004
0.0034238098 0.033553336 0.71900004
0.0047800005 0.033460002 0.71700001
0.0061371434 0.033413336 0.71600002
0.007500953 0.033413336 0.71600002
0.0088400003 0.033320002 0.71400005
0.0102 0.033320002 0.71400005
0.01156 0.033320002 0.71400005
0.012920001 0.033320002 0.71400005
0.014280001 0.033320002 0.71400005
0.015640002 0.033320002 0.71400005
0.016976191 0.033273336 0.71300006
0.018334286 0.033273336 0.71300006
0.019637143 0.033180002 0.71100003
0.02099143 0.033180002 0.71100003
0.022314288 0.033133335 0.71000004
0.023600001 0.033040002 0.708
0.024948573 0.033040002 0.708
0.026297145 0.033040002 0.708
0.027645716 0.033040002 0.708
0.028994288 0.033040002 0.708
0.030342858 0.033040002 0.708
0.031691432 0.033040002 0.708
0.033040002 0.033040002 0.708
0.034485716 0.033133335 0.71000004
0.035737146 0.033040002 0.708
0.037085716 0.033040002 0.708
0.038542859 0.033133335 0.71000004
0.03989524 0.033133335 0.71000004
0.041247621 0.033133335 0.71000004
0.042600002 0.033133335 0.71000004
0.043828573 0.033040002 0.708
0.045177147 0.033040002 0.708
0.046525717 0.033040002 0.708
0.047806669 0.032993335 0.70700002
0.049153335 0.032993335 0.70700002
0.050500002 0.032993335 0.70700002
0.051846672 0.032993335 0.70700002
0.053193338 0.032993335 0.70700002
0.054540005 0.032993335 0.70700002
0.055728573 0.032900002 0.70500004
0.057233337 0.032993335 0.70700002
0.058580004 0.032993335 0.70700002
-0.082900003 0.040265717 0.82900006
-0.063790478 0.038274288 0.78800005
-0.062289529 0.038274288 0.78800005
-0.060788576 0.038274288 0.78800005
-0.059137147 0.038177144 0.78600001
-0.057640005 0.038177144 0.78600001
-0.056142859 0.038177144 0.78600001
-0.05139048 0.036914289 0.76000005
-0.049942862 0.036914289 0.76000005
-0.048367623 0.036817145 0.75800002
-0.046923812 0.036817145 0.75800002
-0.045360003 0.036720004 0.75600004
-0.043920003 0.036720004 0.75600004
-0.042423811 0.03667143 0.75500005
-0.040985718 0.03667143 0.75500005
-0.039285716 0.036428574 0.75000006
-0.037301905 0.03589429 0.73900002
-0.035797145 0.035797145 0.73700005
-0.034393337 0.035797145 0.73700005
-0.032944765 0.035748575 0.73600006
-0.03137143 0.03555429 0.73200005
-0.029977145 0.03555429 0.73200005
-0.028543811 0.035505716 0.73100001
-0.02715143 0.035505716 0.73100001
-0.025688574 0.035408575 0.72900003
-0.024300002 0.035408575 0.72900003
-0.022880001 0.035360001 0.72800004
-0.021493334 0.035360001 0.72800004
-0.020051429 0.03526286 0.72600001
-0.018642858 0.035214286 0.72500002
-0.017261906 0.035214286 0.72500002
-0.015837144 0.035117146 0.72300005
-0.014460001 0.035117146 0.72300005
-0.013082858 0.035117146 0.72300005
-0.011689524 0.035068575 0.72200006
-0.010285715 0.034971431 0.72000003
-0.0089142863 0.034971431 0.72000003
-0.0075428574 0.034971431 0.72000003
-0.0061714291 0.034971431 0.72000003
-0.0048000002 0.034971431 0.72000003
-0.0034285716 0.034971431 0.72000003
-0.002054286 0.034922861 0.71900004
-0.00068476197 0.034922861 0.71900004
0.00068476197 0.034922861 0.71900004
0.0020485716 0.034825716 0.71700001
0.003409524 0.034777146 0.71600002
0.0047600004 0.034680001 0.71400005
0.0061200005 0.034680001 0.71400005
0.0074800006 0.034680001 0.71400005
0.0088276193 0.034631431 0.71300006
0.010185715 0.034631431 0.71300006
0.01154381 0.034631431 0.71300006
0.012901906 0.034631431 0.71300006
0.014260001 0.034631431 0.71300006
0.015574287 0.034534287 0.71100003
0.016928572 0.034534287 0.71100003
0.018282859 0.034534287 0.71100003
0.019609526 0.034485716 0.71000004
0.020961907 0.034485716 0.71000004
0.022251431 0.034388572 0.708
0.023600001 0.034388572 0.708
0.024948573 0.034388572 0.708
0.026260002 0.034340002 0.70700002
0.027606668 0.034340002 0.70700002
0.02887143 0.034242861 0.70500004
0.030214287 0.034242861 0.70500004
0.031646669 0.034340002 0.70700002
0.032993335 0.034340002 0.70700002
0.034340002 0.034340002 0.70700002
0.035585716 0.034242861 0.70500004
0.036928575 0.034242861 0.70500004
0.038380001 0.034340002 0.70700002
0.039726671 0.034340002 0.70700002
0.041073337 0.034340002 0.70700002
0.042300005 0.034242861 0.70500004
0.04364286 0.034242861 0.70500004
0.044985719 0.034242861 0.70500004
0.04626286 0.034194287 0.70400006
0.047671434 0.034242861 0.70500004
0.048944764 0.034194287 0.70400006
0.050285719 0.034194287 0.70400006
0.051553335 0.034145717 0.70300001
0.052967623 0.034194287 0.70400006
0.054308575 0.034194287 0.70400006
0.055728573 0.034242861 0.70500004
0.057071432 0.034242861 0.70500004
0.058248576 0.034145717 0.70300001
0.059418101 0.034048572 0.70100003
0.060926672 0.034145717 0.70300001
-0.063790478 0.039775241 0.78800005
-0.062289529 0.039775241 0.78800005
-0.060788576 0.039775241 0.78800005
-0.059137147 0.03967429 0.78600001
-0.057640005 0.03967429 0.78600001
-0.056142859 0.03967429 0.78600001
-0.05139048 0.038361907 0.76000005
-0.049942862 0.038361907 0.76000005
-0.048367623 0.038260955 0.75800002
-0.046923812 0.038260955 0.75800002
-0.045480002 0.038260955 0.75800002
-0.043920003 0.038160004 0.75600004
-0.042480003 0.038160004 0.75600004
-0.040117145 0.037301905 0.73900002
-0.038709525 0.037301905 0.73900002
-0.037301905 0.037301905 0.73900002
-0.035797145 0.037200954 0.73700005
-0.034393337 0.037200954 0.73700005
-0.032944765 0.03715048 0.73600006
-0.03137143 0.036948573 0.73200005
-0.029977145 0.036948573 0.73200005
-0.028543811 0.036898099 0.73100001
-0.02715143 0.036898099 0.73100001
-0.025759049 0.036898099 0.73100001
-0.024300002 0.036797144 0.72900003
-0.022880001 0.03674667 0.72800004
-0.021493334 0.03674667 0.72800004
-0.020051429 0.036645718 0.72600001
-0.018642858 0.03659524 0.72500002
-0.017261906 0.03659524 0.72500002
-0.015837144 0.036494289 0.72300005
-0.014440001 0.036443811 0.72200006
-0.013064763 0.036443811 0.72200006
-0.011689524 0.036443811 0.72200006
-0.010285715 0.036342859 0.72000003
-0.0089142863 0.036342859 0.72000003
-0.0075428574 0.036342859 0.72000003
-0.0061628576 0.036292382 0.71900004
-0.0047933338 0.036292382 0.71900004
-0.0034238098 0.036292382 0.71900004
-0.002054286 0.036292382 0.71900004
-0.00068285718 0.03619143 0.71700001
0.00068285718 0.03619143 0.71700001
0.0020457145 0.036140956 0.71600002
0.0034000003 0.036040001 0.71400005
0.0047600004 0.036040001 0.71400005
0.0061114291 0.035989527 0.71300006
0.0074695242 0.035989527 0.71300006
0.0088276193 0.035989527 0.71300006
0.010157144 0.035888575 0.71100003
0.011511429 0.035888575 0.71100003
0.012865715 0.035888575 0.71100003
0.014220001 0.035888575 0.71100003
0.015574287 0.035888575 0.71100003
0.016904764 0.035838097 0.71000004
0.018257145 0.035838097 0.71000004
0.019554287 0.035737146 0.708
0.020902859 0.035737146 0.708
0.022220001 0.035686668 0.70700002
0.023566669 0.035686668 0.70700002
0.024913335 0.035686668 0.70700002
0.026260002 0.035686668 0.70700002
0.027528573 0.035585716 0.70500004
0.02887143 0.035585716 0.70500004
0.030214287 0.035585716 0.70500004
0.031557146 0.035585716 0.70500004
0.032900002 0.035585716 0.70500004
0.034242861 0.035585716 0.70500004
0.035535239 0.035535239 0.70400006
0.036928575 0.035585716 0.70500004
0.038217146 0.035535239 0.70400006
0.039558098 0.035535239 0.70400006
0.040724766 0.035383813 0.70100003
0.042060003 0.035383813 0.70100003
0.04339524 0.035383813 0.70100003
0.044858098 0.035484765 0.70300001
0.046197146 0.035484765 0.70300001
0.047536194 0.035484765 0.70300001
0.048875242 0.035484765 0.70300001
0.050214291 0.035484765 0.70300001
0.051553335 0.035484765 0.70300001
0.052892383 0.035484765 0.70300001
0.054308575 0.035535239 0.70400006
0.055412386 0.035383813 0.70100003
0.056747623 0.035383813 0.70100003
0.05808286 0.035383813 0.70100003
0.059333336 0.035333335 0.70000005
0.060753338 0.035383813 0.70100003
0.062088575 0.035383813 0.70100003
0.06333334 0.035333335 0.70000005
-0.062289529 0.041276194 0.78800005
-0.060634289 0.041171432 0.78600001
-0.059137147 0.041171432 0.78600001
-0.057493336 0.041066669 0.78400004
-0.055857148 0.040961906 0.78200006
-0.05139048 0.039809525 0.76000005
-0.049942862 0.039809525 0.76000005
-0.048367623 0.039704766 0.75800002
-0.046923812 0.039704766 0.75800002
-0.045360003 0.039600004 0.75600004
-0.043920003 0.039600004 0.75600004
-0.042423811 0.039547622 0.75500005
-0.040117145 0.038709525 0.73900002
-0.038709525 0.038709525 0.73900002
-0.037200954 0.038604766 0.73700005
-0.035797145 0.038604766 0.73700005
-0.034393337 0.038604766 0.73700005
-0.032944765 0.038552385 0.73600006
-0.03137143 0.03834286 0.73200005
-0.029977145 0.03834286 0.73200005
-0.028543811 0.038290478 0.73100001
-0.02715143 0.038290478 0.73100001
-0.025759049 0.038290478 0.73100001
-0.024300002 0.038185716 0.72900003
-0.022880001 0.038133334 0.72800004
-0.021493334 0.038133334 0.72800004
-0.020051429 0.038028575 0.72600001
-0.018642858 0.037976194 0.72500002
-0.017261906 0.037976194 0.72500002
-0.015837144 0.037871432 0.72300005
-0.014440001 0.03781905 0.72200006
-0.013028572 0.037714288 0.72000003
-0.011657144 0.037714288 0.72000003
-0.010285715 0.037714288 0.72000003
-0.0089142863 0.037714288 0.72000003
-0.0075428574 0.037714288 0.72000003
-0.0061628576 0.037661906 0.71900004
-0.0047933338 0.037661906 0.71900004
-0.0034238098 0.037661906 0.71900004
-0.0020485716 0.037557144 0.71700001
-0.00068285718 0.037557144 0.71700001
0.00068190478 0.037504766 0.71600002
0.0020457145 0.037504766 0.71600002
0.0034000003 0.037400004 0.71400005
0.0047533335 0.037347622 0.71300006
0.0061114291 0.037347622 0.71300006
0.0074695242 0.037347622 0.71300006
0.0088276193 0.037347622 0.71300006
0.010157144 0.03724286 0.71100003
0.011495239 0.037190478 0.71000004
0.01284762 0.037190478 0.71000004
0.014200001 0.037190478 0.71000004
0.015552382 0.037190478 0.71000004
0.016904764 0.037190478 0.71000004
0.018257145 0.037190478 0.71000004
0.019554287 0.037085716 0.708
0.020902859 0.037085716 0.708
0.022220001 0.037033334 0.70700002
0.023566669 0.037033334 0.70700002
0.024842858 0.036928575 0.70500004
0.026185716 0.036928575 0.70500004
0.027528573 0.036928575 0.70500004
0.028830478 0.036876194 0.70400006
0.03017143 0.036876194 0.70400006
0.031512383 0.036876194 0.70400006
0.032853335 0.036876194 0.70400006
0.034194287 0.036876194 0.70400006
0.035484765 0.036823813 0.70300001
0.03671905 0.03671905 0.70100003
0.038054287 0.03671905 0.70100003
0.039389525 0.03671905 0.70100003
0.04066667 0.036666669 0.70000005
0.042000003 0.036666669 0.70000005
0.043333337 0.036666669 0.70000005
0.044730481 0.03671905 0.70100003
0.046065718 0.03671905 0.70100003
0.047400955 0.03671905 0.70100003
0.048736192 0.03671905 0.70100003
0.050214291 0.036823813 0.70300001
0.05140667 0.03671905 0.70100003
0.052741908 0.03671905 0.70100003
0.054000005 0.036666669 0.70000005
0.055333339 0.036666669 0.70000005
0.056666672 0.036666669 0.70000005
0.05808286 0.03671905 0.70100003
0.059333336 0.036666669 0.70000005
0.060666669 0.036666669 0.70000005
0.062088575 0.03671905 0.70100003
0.06333334 0.036666669 0.70000005
0.064481907 0.036561906 0.69800001
0.065811433 0.036561906 0.69800001
0.067044765 0.036509525 0.69700003
-0.059137147 0.042668574 0.78600001
-0.057493336 0.042560004 0.78400004
-0.056000005 0.042560004 0.78400004
-0.05139048 0.041257147 0.76000005
-0.049942862 0.041257147 0.76000005
-0.048367623 0.041148573 0.75800002
-0.046923812 0.041148573 0.75800002
-0.045360003 0.041040003 0.75600004
-0.043920003 0.041040003 0.75600004
-0.042480003 0.041040003 0.75600004
-0.040117145 0.040117145 0.73900002
-0.038709525 0.040117145 0.73900002
-0.037200954 0.040008575 0.73700005
-0.035797145 0.040008575 0.73700005
-0.034393337 0.040008575 0.73700005
-0.032944765 0.03995429 0.73600006
-0.03137143 0.039737146 0.73200005
-0.029936193 0.039682861 0.73100001
-0.028543811 0.039682861 0.73100001
-0.02715143 0.039682861 0.73100001
-0.025688574 0.039574288 0.72900003
-0.024266668 0.039520003 0.72800004
-0.022880001 0.039520003 0.72800004
-0.021434287 0.039411429 0.72600001
-0.020023812 0.039357144 0.72500002
-0.018642858 0.039357144 0.72500002
-0.017214287 0.039248575 0.72300005
-0.015815239 0.03919429 0.72200006
-0.014400001 0.039085716 0.72000003
-0.013028572 0.039085716 0.72000003
-0.011657144 0.039085716 0.72000003
-0.010285715 0.039085716 0.72000003
-0.0089142863 0.039085716 0.72000003
-0.0075323815 0.039031431 0.71900004
-0.0061628576 0.039031431 0.71900004
-0.0047933338 0.039031431 0.71900004
-0.0034238098 0.039031431 0.71900004
-0.0020485716 0.038922861 0.71700001
-0.00068190478 0.038868573 0.71600002
0.00068190478 0.038868573 0.71600002
0.0020400002 0.038760003 0.71400005
0.0034000003 0.038760003 0.71400005
0.0047533335 0.038705718 0.71300006
0.0061114291 0.038705718 0.71300006
0.0074485717 0.038597144 0.71100003
0.0088028582 0.038597144 0.71100003
0.010142858 0.038542859 0.71000004
0.011495239 0.038542859 0.71000004
0.01281143 0.038434289 0.708
0.014200001 0.038542859 0.71000004
0.015508573 0.038434289 0.708
0.016857143 0.038434289 0.708
0.018205715 0.038434289 0.708
0.019526668 0.038380001 0.70700002
0.020873334 0.038380001 0.70700002
0.022157144 0.038271431 0.70500004
0.023500001 0.038271431 0.70500004
0.024807621 0.038217146 0.70400006
0.026148573 0.038217146 0.70400006
0.027450478 0.038162861 0.70300001
0.028789526 0.038162861 0.70300001
0.030128574 0.038162861 0.70300001
0.03146762 0.038162861 0.70300001
0.032806668 0.038162861 0.70300001
0.034145717 0.038162861 0.70300001
0.035383813 0.038054287 0.70100003
0.03671905 0.038054287 0.70100003
0.038000003 0.038000003 0.70000005
0.039333336 0.038000003 0.70000005
0.04066667 0.038000003 0.70000005
0.042000003 0.038000003 0.70000005
0.043333337 0.038000003 0.70000005
0.044539049 0.037891433 0.69800001
0.045868576 0.037891433 0.69800001
0.047198098 0.037891433 0.69800001
0.048666671 0.038000003 0.70000005
0.050000004 0.038000003 0.70000005
0.051333338 0.038000003 0.70000005
0.052440956 0.037837144 0.69700003
0.053845719 0.037891433 0.69800001
0.055175241 0.037891433 0.69800001
0.056504767 0.037891433 0.69800001
0.058000002 0.038000003 0.70000005
0.059333336 0.038000003 0.70000005
0.060666669 0.038000003 0.70000005
0.062000003 0.038000003 0.70000005
0.063152388 0.037891433 0.69800001
0.064481907 0.037891433 0.69800001
0.065528579 0.037728574 0.69500005
0.067044765 0.037837144 0.69700003
0.068372384 0.037837144 0.69700003
0.069700003 0.037837144 0.69700003
0.071027622 0.037837144 0.69700003
0.072355241 0.037837144 0.69700003
-0.057493336 0.044053335 0.78400004
-0.056000005 0.044053335 0.78400004
-0.049942862 0.042704765 0.76000005
-0.048367623 0.042592384 0.75800002
-0.046923812 0.042592384 0.75800002
-0.045360003 0.042480003 0.75600004
-0.043920003 0.042480003 0.75600004
-0.041524764 0.041524764 0.73900002
-0.040117145 0.041524764 0.73900002
-0.038709525 0.041524764 0.73900002
-0.037200954 0.041412383 0.73700005
-0.035797145 0.041412383 0.73700005
-0.03434667 0.041356195 0.73600006
-0.032944765 0.041356195 0.73600006
-0.03137143 0.041131433 0.73200005
-0.029936193 0.041075241 0.73100001
-0.028543811 0.041075241 0.73100001
-0.027077144 0.04096286 0.72900003
-0.025653334 0.040906668 0.72800004
-0.024266668 0.040906668 0.72800004
-0.022817144 0.040794287 0.72600001
-0.021434287 0.040794287 0.72600001
-0.020023812 0.040738098 0.72500002
-0.018642858 0.040738098 0.72500002
-0.017214287 0.040625717 0.72300005
-0.015815239 0.040569525 0.72200006
-0.014400001 0.040457144 0.72000003
-0.013028572 0.040457144 0.72000003
-0.011657144 0.040457144 0.72000003
-0.010285715 0.040457144 0.72000003
-0.0089019053 0.040400956 0.71900004
-0.0075323815 0.040400956 0.71900004
-0.0061628576 0.040400956 0.71900004
-0.0047933338 0.040400956 0.71900004
-0.0034142858 0.040288575 0.71700001
-0.0020457145 0.040232383 0.71600002
-0.00068190478 0.040232383 0.71600002
0.00068190478 0.040232383 0.71600002
0.0020400002 0.040120002 0.71400005
0.0034000003 0.040120002 0.71400005
0.0047533335 0.040063813 0.71300006
0.0061114291 0.040063813 0.71300006
0.0074485717 0.039951432 0.71100003
0.0087904772 0.03989524 0.71000004
0.010142858 0.03989524 0.71000004
0.011462858 0.039782859 0.708
0.01281143 0.039782859 0.708
0.014160001 0.039782859 0.708
0.015508573 0.039782859 0.708
0.016857143 0.039782859 0.708
0.018205715 0.039782859 0.708
0.019471429 0.03961429 0.70500004
0.020814287 0.03961429 0.70500004
0.022125715 0.039558098 0.70400006
0.023466669 0.039558098 0.70400006
0.024807621 0.039558098 0.70400006
0.02611143 0.039501909 0.70300001
0.027372383 0.039389525 0.70100003
0.028707622 0.039389525 0.70100003
0.030042859 0.039389525 0.70100003
0.031378098 0.039389525 0.70100003
0.032713335 0.039389525 0.70100003
0.034048572 0.039389525 0.70100003
0.035383813 0.039389525 0.70100003
0.03671905 0.039389525 0.70100003
0.038000003 0.039333336 0.70000005
0.039333336 0.039333336 0.70000005
0.040550478 0.039220955 0.69800001
0.041880004 0.039220955 0.69800001
0.043209527 0.039220955 0.69800001
0.044475242 0.039164763 0.69700003
0.045802861 0.039164763 0.69700003
0.04713048 0.039164763 0.69700003
0.048458099 0.039164763 0.69700003
0.049642861 0.039052382 0.69500005
0.050966669 0.039052382 0.69500005
0.052290481 0.039052382 0.69500005
0.053614289 0.039052382 0.69500005
0.0549381 0.039052382 0.69500005
0.056261908 0.039052382 0.69500005
0.057751432 0.039164763 0.69700003
0.059079051 0.039164763 0.69700003
0.06040667 0.039164763 0.69700003
0.061822861 0.039220955 0.69800001
0.063061908 0.039164763 0.69700003
0.064389527 0.039164763 0.69700003
0.065528579 0.039052382 0.69500005
0.067044765 0.039164763 0.69700003
0.068372384 0.039164763 0.69700003
0.069700003 0.039164763 0.69700003
0.071027622 0.039164763 0.69700003
0.072355241 0.039164763 0.69700003
0.073471434 0.039052382 0.69500005
0.074687622 0.038996194 0.69400001
0.076009527 0.038996194 0.69400001
-0.049942862 0.044152383 0.76000005
-0.048367623 0.044036195 0.75800002
-0.046923812 0.044036195 0.75800002
-0.045360003 0.043920003 0.75600004
-0.043861907 0.043861907 0.75500005
-0.041524764 0.042932384 0.73900002
-0.040117145 0.042932384 0.73900002
-0.038709525 0.042932384 0.73900002
-0.037200954 0.042816192 0.73700005
-0.035797145 0.042816192 0.73700005
-0.03434667 0.0427581 0.73600006
-0.032944765 0.0427581 0.73600006
-0.03137143 0.042525716 0.73200005
-0.029936193 0.04246762 0.73100001
-0.028543811 0.04246762 0.73100001
-0.027077144 0.042351432 0.72900003
-0.025653334 0.042293336 0.72800004
-0.024266668 0.042293336 0.72800004
-0.022817144 0.042177144 0.72600001
-0.021434287 0.042177144 0.72600001
-0.020023812 0.042119049 0.72500002
-0.01859143 0.04200286 0.72300005
-0.017214287 0.04200286 0.72300005
-0.015815239 0.041944765 0.72200006
-0.014400001 0.041828573 0.72000003
-0.013028572 0.041828573 0.72000003
-0.011657144 0.041828573 0.72000003
-0.010271429 0.041770481 0.71900004
-0.0089019053 0.041770481 0.71900004
-0.0075323815 0.041770481 0.71900004
-0.0061457148 0.041654289 0.71700001
-0.0047800005 0.041654289 0.71700001
-0.0034142858 0.041654289 0.71700001
-0.0020457145 0.041596193 0.71600002
-0.00068000006 0.041480001 0.71400005
0.00068000006 0.041480001 0.71400005
0.0020400002 0.041480001 0.71400005
0.0033952384 0.041421909 0.71300006
0.0047400002 0.041305717 0.71100003
0.0060942862 0.041305717 0.71100003
0.0074380958 0.041247621 0.71000004
0.0087657152 0.041131433 0.708
0.010114286 0.041131433 0.708
0.011462858 0.041131433 0.708
0.01281143 0.041131433 0.708
0.014160001 0.041131433 0.708
0.015486668 0.041073337 0.70700002
0.016833335 0.041073337 0.70700002
0.018180002 0.041073337 0.70700002
0.019471429 0.040957145 0.70500004
0.020814287 0.040957145 0.70500004
0.022125715 0.040899049 0.70400006
0.023466669 0.040899049 0.70400006
0.024772383 0.040840954 0.70300001
0.02611143 0.040840954 0.70300001
0.027372383 0.040724766 0.70100003
0.028707622 0.040724766 0.70100003
0.030042859 0.040724766 0.70100003
0.031378098 0.040724766 0.70100003
0.032713335 0.040724766 0.70100003
0.034048572 0.040724766 0.70100003
0.035333335 0.04066667 0.70000005
0.036666669 0.04066667 0.70000005
0.038000003 0.04066667 0.70000005
0.039220955 0.040550478 0.69800001
0.040550478 0.040550478 0.69800001
0.041880004 0.040550478 0.69800001
0.043147624 0.040492382 0.69700003
0.044475242 0.040492382 0.69700003
0.045802861 0.040492382 0.69700003
0.046995241 0.040376194 0.69500005
0.048319049 0.040376194 0.69500005
0.049642861 0.040376194 0.69500005
0.050893337 0.040318098 0.69400001
0.052215241 0.040318098 0.69400001
0.053537145 0.040318098 0.69400001
0.05485905 0.040318098 0.69400001
0.056180958 0.040318098 0.69400001
0.057502862 0.040318098 0.69400001
0.058824766 0.040318098 0.69400001
0.060146671 0.040318098 0.69400001
0.061468575 0.040318098 0.69400001
0.062880956 0.040376194 0.69500005
0.064204767 0.040376194 0.69500005
0.065434292 0.040318098 0.69400001
0.066852383 0.040376194 0.69500005
0.068176195 0.040376194 0.69500005
0.069700003 0.040492382 0.69700003
0.070823811 0.040376194 0.69500005
0.072147623 0.040376194 0.69500005
0.073048577 0.040143814 0.69100004
0.074364766 0.040143814 0.69100004
0.075680956 0.040143814 0.69100004
0.076997146 0.040143814 0.69100004
0.078313336 0.040143814 0.69100004
0.079629526 0.040143814 0.69100004
0.082500003 0.040260002 0.69300002
-0.049942862 0.045600004 0.76000005
-0.048495241 0.045600004 0.76000005
-0.046923812 0.045480002 0.75800002
-0.045480002 0.045480002 0.75800002
-0.042932384 0.044340003 0.73900002
-0.041524764 0.044340003 0.73900002
-0.040117145 0.044340003 0.73900002
-0.038709525 0.044340003 0.73900002
-0.037200954 0.044220004 0.73700005
-0.035797145 0.044220004 0.73700005
-0.03434667 0.044160005 0.73600006
-0.032855239 0.044040002 0.73400003
-0.03137143 0.043920003 0.73200005
-0.029936193 0.043860003 0.73100001
-0.028543811 0.043860003 0.73100001
-0.027077144 0.043740004 0.72900003
-0.025653334 0.043680001 0.72800004
-0.024200002 0.043560002 0.72600001
-0.022817144 0.043560002 0.72600001
-0.021434287 0.043560002 0.72600001
-0.020023812 0.043500002 0.72500002
-0.01859143 0.043380003 0.72300005
-0.017214287 0.043380003 0.72300005
-0.015815239 0.043320004 0.72200006
-0.014400001 0.043200001 0.72000003
-0.013028572 0.043200001 0.72000003
-0.011657144 0.043200001 0.72000003
-0.010271429 0.043140002 0.71900004
-0.0089019053 0.043140002 0.71900004
-0.0075323815 0.043140002 0.71900004
-0.0061457148 0.043020003 0.71700001
-0.0047800005 0.043020003 0.71700001
-0.003409524 0.042960003 0.71600002
-0.0020400002 0.042840004 0.71400005
-0.00068000006 0.042840004 0.71400005
0.00068000006 0.042840004 0.71400005
0.0020371431 0.042780004 0.71300006
0.0033857145 0.042660002 0.71100003
0.0047400002 0.042660002 0.71100003
0.0060857148 0.042600002 0.71000004
0.0074380958 0.042600002 0.71000004
0.0087657152 0.042480003 0.708
0.010114286 0.042480003 0.708
0.011462858 0.042480003 0.708
0.01281143 0.042480003 0.708
0.014160001 0.042480003 0.708
0.015486668 0.042420004 0.70700002
0.016833335 0.042420004 0.70700002
0.018180002 0.042420004 0.70700002
0.01944381 0.042240001 0.70400006
0.020784764 0.042240001 0.70400006
0.022094287 0.042180002 0.70300001
0.023433335 0.042180002 0.70300001
0.024772383 0.042180002 0.70300001
0.026037145 0.042060003 0.70100003
0.027372383 0.042060003 0.70100003
0.028707622 0.042060003 0.70100003
0.030042859 0.042060003 0.70100003
0.031378098 0.042060003 0.70100003
0.032666668 0.042000003 0.70000005
0.034000002 0.042000003 0.70000005
0.035333335 0.042000003 0.70000005
0.036561906 0.041880004 0.69800001
0.037891433 0.041880004 0.69800001
0.039164763 0.041820005 0.69700003
0.040492382 0.041820005 0.69700003
0.041820005 0.041820005 0.69700003
0.043147624 0.041820005 0.69700003
0.044347622 0.041700002 0.69500005
0.045671433 0.041700002 0.69500005
0.046927623 0.041640002 0.69400001
0.048249528 0.041640002 0.69400001
0.049571432 0.041640002 0.69400001
0.050820004 0.041580003 0.69300002
0.052140005 0.041580003 0.69300002
0.053460002 0.041580003 0.69300002
0.05485905 0.041640002 0.69400001
0.056100003 0.041580003 0.69300002
0.057420004 0.041580003 0.69300002
0.058740005 0.041580003 0.69300002
0.060060006 0.041580003 0.69300002
0.061380003 0.041580003 0.69300002
0.062700003 0.041580003 0.69300002
0.064020008 0.041580003 0.69300002
0.065340005 0.041580003 0.69300002
0.066660002 0.041580003 0.69300002
0.068078101 0.041640002 0.69400001
0.069500007 0.041700002 0.69500005
0.070721909 0.041640002 0.69400001
0.071940005 0.041580003 0.69300002
0.073048577 0.041460004 0.69100004
0.074364766 0.041460004 0.69100004
0.075680956 0.041460004 0.69100004
0.076997146 0.041460004 0.69100004
0.078313336 0.041460004 0.69100004
0.079629526 0.041460004 0.69100004
0.080945723 0.041460004 0.69100004
0.082500003 0.041580003 0.69300002
0.08394096 0.041640002 0.69400001
0.085385717 0.041700002 0.69500005
0.086709529 0.041700002 0.69500005
0.088286676 0.041820005 0.69700003
-0.048495241 0.047047623 0.76000005
-0.047047623 0.047047623 0.76000005
-0.045600004 0.047047623 0.76000005
-0.042932384 0.045747623 0.73900002
-0.041524764 0.045747623 0.73900002
-0.040117145 0.045747623 0.73900002
-0.038604766 0.045623813 0.73700005
-0.037200954 0.045623813 0.73700005
-0.035748575 0.045561906 0.73600006
-0.03434667 0.045561906 0.73600006
-0.032855239 0.0454381 0.73400003
-0.03137143 0.04531429 0.73200005
-0.029936193 0.045252383 0.73100001
-0.028543811 0.045252383 0.73100001
-0.027077144 0.045128573 0.72900003
-0.025653334 0.04506667 0.72800004
-0.024200002 0.04494286 0.72600001
-0.022817144 0.04494286 0.72600001
-0.021434287 0.04494286 0.72600001
-0.020023812 0.044880956 0.72500002
-0.01859143 0.044757146 0.72300005
-0.017190477 0.04469524 0.72200006
-0.015815239 0.04469524 0.72200006
-0.014400001 0.044571433 0.72000003
-0.013028572 0.044571433 0.72000003
-0.011657144 0.044571433 0.72000003
-0.010271429 0.044509526 0.71900004
-0.0089019053 0.044509526 0.71900004
-0.007511429 0.044385716 0.71700001
-0.0061457148 0.044385716 0.71700001
-0.0047800005 0.044385716 0.71700001
-0.003409524 0.044323813 0.71600002
-0.0020400002 0.044200003 0.71400005
-0.00068000006 0.044200003 0.71400005
0.00067904766 0.0441381 0.71300006
0.0020371431 0.0441381 0.71300006
0.0033857145 0.04401429 0.71100003
0.0047400002 0.04401429 0.71100003
0.0060942862 0.04401429 0.71100003
0.0074380958 0.043952383 0.71000004
0.0087657152 0.043828573 0.708
0.010114286 0.043828573 0.708
0.011462858 0.043828573 0.708
0.01281143 0.043828573 0.708
0.014160001 0.043828573 0.708
0.015486668 0.04376667 0.70700002
0.016833335 0.04376667 0.70700002
0.018180002 0.04376667 0.70700002
0.01944381 0.043580957 0.70400006
0.020784764 0.043580957 0.70400006
0.022094287 0.04351905 0.70300001
0.023433335 0.04351905 0.70300001
0.024701906 0.04339524 0.70100003
0.026037145 0.04339524 0.70100003
0.027372383 0.04339524 0.70100003
0.028707622 0.04339524 0.70100003
0.030000001 0.043333337 0.70000005
0.031333335 0.043333337 0.70000005
0.032666668 0.043333337 0.70000005
0.033902861 0.043209527 0.69800001
0.035232384 0.043209527 0.69800001
0.036561906 0.043209527 0.69800001
0.037837144 0.043147624 0.69700003
0.039164763 0.043147624 0.69700003
0.040492382 0.043147624 0.69700003
0.041700002 0.043023814 0.69500005
