# .PCD v0.7 - Point Cloud Data file format
VERSION 0.7
FIELDS x y z
SIZE 4 4 4
TYPE F F F
COUNT 1 1 1
WIDTH 1344
HEIGHT 1
VIEWPOINT 0 0 0 1 0 0 0
POINTS 1344
DATA ascii
-0.028461907 -0.00066190481 0.69500005
-0.027099049 -0.00066095241 0.69400001
-0.025777144 -0.00066095241 0.69400001
-0.024420002 -0.00066000002 0.69300002
-0.021300001 -0.00060857146 0.63900006
-0.020240001 -0.00061333337 0.64400005
-0.019013334 -0.00061333337 0.64400005
-0.017814286 -0.00061428576 0.64500004
-0.016637145 -0.00061619049 0.64700001
-0.015404763 -0.00061619049 0.64700001
-0.014172382 -0.00061619049 0.64700001
-0.012960001 -0.00061714288 0.648
-0.01170762 -0.00061619049 0.64700001
-0.0059866672 -0.00085523818 0.89800006
-0.090580009 0.00061619049 0.64700001
-0.08948572 0.00061714288 0.648
-0.088251434 0.00061714288 0.648
-0.086748578 0.00061523815 0.64600003
-0.085385717 0.00061428576 0.64500004
-0.084157147 0.00061428576 0.64500004
-0.082928576 0.00061428576 0.64500004
-0.081573337 0.00061333337 0.64400005
-0.080097146 0.00061142864 0.64200002
-0.083820008 0.00066000002 0.69300002
-0.082500003 0.00066000002 0.69300002
-0.081297152 0.00066095241 0.69400001
-0.080320954 0.00066380959 0.69700003
-0.079106674 0.00066476193 0.69800001
-0.078000002 0.00066666672 0.70000005
-0.076666668 0.00066666672 0.70000005
-0.075440958 0.00066761911 0.70100003
-0.07431715 0.00066952384 0.70300001
-0.072978102 0.00066952384 0.70300001
-0.071740955 0.00067047623 0.70400006
-0.070400007 0.00067047623 0.70400006
-0.069157146 0.00067142863 0.70500004
-0.068006672 0.00067333336 0.70700002
-0.066660002 0.00067333336 0.70700002
-0.065313339 0.00067333336 0.70700002
-0.064057149 0.00067428575 0.708
-0.062708579 0.00067428575 0.708
-0.061360005 0.00067428575 0.708
-0.060011432 0.00067428575 0.708
-0.058828574 0.00067619054 0.71000004
-0.057476193 0.00067619054 0.71000004
-0.056123812 0.00067619054 0.71000004
-0.054771431 0.00067619054 0.71000004
-0.05341905 0.00067619054 0.71000004
-0.052066669 0.00067619054 0.71000004
-0.050714288 0.00067619054 0.71000004
-0.049361907 0.00067619054 0.71000004
-0.04787429 0.00067428575 0.708
-0.046525717 0.00067428575 0.708
-0.045177147 0.00067428575 0.708
-0.043828573 0.00067428575 0.708
-0.042480003 0.00067428575 0.708
-0.041131433 0.00067428575 0.708
-0.039726671 0.00067333336 0.70700002
-0.038380001 0.00067333336 0.70700002
-0.036928575 0.00067142863 0.70500004
-0.035585716 0.00067142863 0.70500004
-0.034145717 0.00066952384 0.70300001
-0.032713335 0.00066761911 0.70100003
-0.031333335 0.00066666672 0.70000005
-0.029785717 0.00066190481 0.69500005
-0.028461907 0.00066190481 0.69500005
-0.027099049 0.00066095241 0.69400001
-0.023734286 0.00060857146 0.63900006
-0.022517145 0.00060857146 0.63900006
-0.021300001 0.00060857146 0.63900006
-0.020082859 0.00060857146 0.63900006
-0.018924763 0.00061047624 0.64100003
-0.017786669 0.00061333337 0.64400005
-0.016637145 0.00061619049 0.64700001
-0.015404763 0.00061619049 0.64700001
-0.014172382 0.00061619049 0.64700001
-0.012940001 0.00061619049 0.64700001
-0.0076800007 0.00085333339 0.89600003
-0.090440005 0.0018457144 0.64600003
-0.089347623 0.0018485716 0.64700001
-0.088115245 0.0018485716 0.64700001
-0.086748578 0.0018457144 0.64600003
-0.085385717 0.0018428572 0.64500004
-0.084157147 0.0018428572 0.64500004
-0.082928576 0.0018428572 0.64500004
-0.081573337 0.0018400002 0.64400005
-0.080346674 0.0018400002 0.64400005
-0.078751437 0.0018314287 0.64100003
-0.077530481 0.0018314287 0.64100003
-0.081297152 0.0019828572 0.69400001
-0.080320954 0.0019914287 0.69700003
-0.079106674 0.0019942857 0.69800001
-0.078000002 0.0020000001 0.70000005
-0.076776199 0.0020028572 0.70100003
-0.075656198 0.0020085715 0.70300001
-0.074422859 0.0020114286 0.70400006
-0.073081911 0.0020114286 0.70400006
-0.071740955 0.0020114286 0.70400006
-0.070500001 0.0020142859 0.70500004
-0.069157146 0.0020142859 0.70500004
-0.068006672 0.0020200002 0.70700002
-0.066660002 0.0020200002 0.70700002
-0.065405719 0.0020228573 0.708
-0.064057149 0.0020228573 0.708
-0.062708579 0.0020228573 0.708
-0.061360005 0.0020228573 0.708
-0.060180955 0.0020285717 0.71000004
-0.058828574 0.0020285717 0.71000004
-0.057476193 0.0020285717 0.71000004
-0.056123812 0.0020285717 0.71000004
-0.054771431 0.0020285717 0.71000004
-0.05341905 0.0020285717 0.71000004
-0.052066669 0.0020285717 0.71000004
-0.05057143 0.0020228573 0.708
-0.04922286 0.0020228573 0.708
-0.04787429 0.0020228573 0.708
-0.046525717 0.0020228573 0.708
-0.045177147 0.0020228573 0.708
-0.043828573 0.0020228573 0.708
-0.042480003 0.0020228573 0.708
-0.041131433 0.0020228573 0.708
-0.039726671 0.0020200002 0.70700002
-0.038380001 0.0020200002 0.70700002
-0.036928575 0.0020142859 0.70500004
-0.035585716 0.0020142859 0.70500004
-0.034145717 0.0020085715 0.70300001
-0.032713335 0.0020028572 0.70100003
-0.031333335 0.0020000001 0.70000005
-0.029785717 0.0019857143 0.69500005
-0.028461907 0.0019857143 0.69500005
-0.02495143 0.0018257144 0.63900006
-0.023734286 0.0018257144 0.63900006
-0.022517145 0.0018257144 0.63900006
-0.021333335 0.0018285715 0.64000005
-0.020082859 0.0018257144 0.63900006
-0.018924763 0.0018314287 0.64100003
-0.01773143 0.0018342858 0.64200002
-0.016611429 0.0018457144 0.64600003
-0.015380953 0.0018457144 0.64600003
-0.014172382 0.0018485716 0.64700001
0.18073525 0.0025942859 0.90800005
0.18246478 0.0025942859 0.90800005
-0.089347623 0.0030809527 0.64700001
-0.087979056 0.0030761906 0.64600003
-0.086614288 0.0030714287 0.64500004
-0.085385717 0.0030714287 0.64500004
-0.084157147 0.0030714287 0.64500004
-0.082928576 0.0030714287 0.64500004
-0.081573337 0.0030666669 0.64400005
-0.080097146 0.003057143 0.64200002
-0.07887429 0.003057143 0.64200002
-0.077530481 0.0030523811 0.64100003
-0.076190479 0.0030476192 0.64000005
-0.07497143 0.0030476192 0.64000005
-0.079106674 0.0033238097 0.69800001
-0.078000002 0.0033333336 0.70000005
-0.076776199 0.0033380955 0.70100003
-0.075656198 0.0033476192 0.70300001
-0.074422859 0.0033523813 0.70400006
-0.073081911 0.0033523813 0.70400006
-0.071740955 0.0033523813 0.70400006
-0.070500001 0.0033571431 0.70500004
-0.069157146 0.0033571431 0.70500004
-0.068006672 0.0033666668 0.70700002
-0.066754289 0.0033714287 0.708
-0.065405719 0.0033714287 0.708
-0.064057149 0.0033714287 0.708
-0.062708579 0.0033714287 0.708
-0.061533336 0.0033809526 0.71000004
-0.060180955 0.0033809526 0.71000004
-0.058828574 0.0033809526 0.71000004
-0.057557147 0.0033857145 0.71100003
-0.056123812 0.0033809526 0.71000004
-0.054771431 0.0033809526 0.71000004
-0.05341905 0.0033809526 0.71000004
-0.051920004 0.0033714287 0.708
-0.05057143 0.0033714287 0.708
-0.04922286 0.0033714287 0.708
-0.04787429 0.0033714287 0.708
-0.046525717 0.0033714287 0.708
-0.045177147 0.0033714287 0.708
-0.043828573 0.0033714287 0.708
-0.042480003 0.0033714287 0.708
-0.041131433 0.0033714287 0.708
-0.039726671 0.0033666668 0.70700002
-0.038380001 0.0033666668 0.70700002
-0.036928575 0.0033571431 0.70500004
-0.035585716 0.0033571431 0.70500004
-0.034145717 0.0033476192 0.70300001
-0.032713335 0.0033380955 0.70100003
-0.031199049 0.0033190479 0.69700003
-0.029785717 0.0033095239 0.69500005
-0.026127622 0.0030380955 0.63800001
-0.02495143 0.0030428574 0.63900006
-0.023734286 0.0030428574 0.63900006
-0.022517145 0.0030428574 0.63900006
-0.021300001 0.0030428574 0.63900006
-0.020082859 0.0030428574 0.63900006
-0.018895239 0.0030476192 0.64000005
-0.017703811 0.0030523811 0.64100003
-0.016611429 0.0030761906 0.64600003
-0.015380953 0.0030761906 0.64600003
-0.014150477 0.0030761906 0.64600003
-0.14171144 0.0059400005 0.89100003
-0.14001429 0.0059400005 0.89100003
-0.13831715 0.0059400005 0.89100003
-0.13662001 0.0059400005 0.89100003
-0.090440005 0.004306667 0.64600003
-0.089209527 0.004306667 0.64600003
-0.087979056 0.004306667 0.64600003
-0.086614288 0.0043000001 0.64500004
-0.085385717 0.0043000001 0.64500004
-0.084026672 0.0042933337 0.64400005
-0.082800008 0.0042933337 0.64400005
-0.081573337 0.0042933337 0.64400005
-0.080097146 0.0042800005 0.64200002
-0.078751437 0.0042733336 0.64100003
-0.077530481 0.0042733336 0.64100003
-0.076190479 0.0042666672 0.64000005
-0.074854292 0.0042600003 0.63900006
-0.078111432 0.0046733338 0.70100003
-0.076776199 0.0046733338 0.70100003
-0.075656198 0.0046866671 0.70300001
-0.074422859 0.0046933335 0.70400006
-0.073081911 0.0046933335 0.70400006
-0.071740955 0.0046933335 0.70400006
-0.070500001 0.0047000004 0.70500004
-0.069353335 0.0047133337 0.70700002
-0.068006672 0.0047133337 0.70700002
-0.066754289 0.0047200001 0.708
-0.065405719 0.0047200001 0.708
-0.064057149 0.0047200001 0.708
-0.062708579 0.0047200001 0.708
-0.061360005 0.0047200001 0.708
-0.060180955 0.0047333338 0.71000004
-0.058828574 0.0047333338 0.71000004
-0.057557147 0.0047400002 0.71100003
-0.056123812 0.0047333338 0.71000004
-0.054771431 0.0047333338 0.71000004
-0.05341905 0.0047333338 0.71000004
-0.052066669 0.0047333338 0.71000004
-0.050714288 0.0047333338 0.71000004
-0.04922286 0.0047200001 0.708
-0.04787429 0.0047200001 0.708
-0.046525717 0.0047200001 0.708
-0.045177147 0.0047200001 0.708
-0.043828573 0.0047200001 0.708
-0.042480003 0.0047200001 0.708
-0.041131433 0.0047200001 0.708
-0.039726671 0.0047133337 0.70700002
-0.038380001 0.0047133337 0.70700002
-0.033209525 0.0042266669 0.634
-0.032001905 0.0042266669 0.634
-0.031109527 0.0046333335 0.69500005
-0.027257144 0.0042400002 0.63600004
-0.026127622 0.0042533334 0.63800001
-0.02495143 0.0042600003 0.63900006
-0.023734286 0.0042600003 0.63900006
-0.022517145 0.0042600003 0.63900006
-0.021300001 0.0042600003 0.63900006
-0.020082859 0.0042600003 0.63900006
-0.018895239 0.0042666672 0.64000005
-0.017703811 0.0042733336 0.64100003
-0.016560001 0.0042933337 0.64400005
-0.015357144 0.0043000001 0.64500004
-0.014128572 0.0043000001 0.64500004
0.16904478 0.0060066669 0.90100002
0.17934191 0.0060066669 0.90100002
-0.089347623 0.0055457149 0.64700001
-0.087979056 0.0055371434 0.64600003
-0.086614288 0.005528572 0.64500004
-0.085385717 0.005528572 0.64500004
-0.084026672 0.0055200006 0.64400005
-0.082800008 0.0055200006 0.64400005
-0.081573337 0.0055200006 0.64400005
-0.079972386 0.0054942863 0.64100003
-0.078628577 0.0054857144 0.64000005
-0.077409528 0.0054857144 0.64000005
-0.076071434 0.005477143 0.63900006
-0.074737146 0.0054685716 0.63800001
-0.073521912 0.0054685716 0.63800001
-0.07230667 0.0054685716 0.63800001
-0.075656198 0.0060257148 0.70300001
-0.074422859 0.0060342862 0.70400006
-0.073081911 0.0060342862 0.70400006
-0.071842864 0.0060428577 0.70500004
-0.070500001 0.0060428577 0.70500004
-0.069353335 0.0060600005 0.70700002
-0.068006672 0.0060600005 0.70700002
-0.066754289 0.0060685719 0.708
-0.065405719 0.0060685719 0.708
-0.064057149 0.0060685719 0.708
-0.062708579 0.0060685719 0.708
-0.061360005 0.0060685719 0.708
-0.060180955 0.0060857148 0.71000004
-0.058911432 0.0060942862 0.71100003
-0.057557147 0.0060942862 0.71100003
-0.056202862 0.0060942862 0.71100003
-0.054771431 0.0060857148 0.71000004
-0.05341905 0.0060857148 0.71000004
-0.052066669 0.0060857148 0.71000004
-0.050714288 0.0060857148 0.71000004
-0.04922286 0.0060685719 0.708
-0.04787429 0.0060685719 0.708
-0.046525717 0.0060685719 0.708
-0.045177147 0.0060685719 0.708
-0.039061908 0.0054085716 0.63100004
-0.037860002 0.0054085716 0.63100004
-0.036716193 0.005417143 0.63200003
-0.035680953 0.0054428573 0.63500005
-0.03447143 0.0054428573 0.63500005
-0.033261906 0.0054428573 0.63500005
-0.032052383 0.0054428573 0.63500005
-0.030842859 0.0054428573 0.63500005
-0.029633336 0.0054428573 0.63500005
-0.028423812 0.0054428573 0.63500005
-0.027257144 0.0054514287 0.63600004
-0.026127622 0.0054685716 0.63800001
-0.02495143 0.005477143 0.63900006
-0.023734286 0.005477143 0.63900006
-0.022552382 0.0054857144 0.64000005
-0.021333335 0.0054857144 0.64000005
-0.020114288 0.0054857144 0.64000005
-0.018924763 0.0054942863 0.64100003
-0.017786669 0.0055200006 0.64400005
-0.016611429 0.0055371434 0.64600003
-0.015380953 0.0055371434 0.64600003
-0.014150477 0.0055371434 0.64600003
0.16848192 0.0076971436 0.89800006
0.17019239 0.0076971436 0.89800006
0.17190287 0.0076971436 0.89800006
-0.087979056 0.0067676194 0.64600003
-0.086614288 0.0067571434 0.64500004
-0.085385717 0.0067571434 0.64500004
-0.083765723 0.0067257145 0.64200002
-0.082414292 0.0067152386 0.64100003
-0.081193335 0.0067152386 0.64100003
-0.079847626 0.0067047626 0.64000005
-0.078628577 0.0067047626 0.64000005
-0.077288575 0.0066942861 0.63900006
-0.075952388 0.0066838101 0.63800001
-0.074502863 0.0066628577 0.63600004
-0.073291436 0.0066628577 0.63600004
-0.072080001 0.0066628577 0.63600004
-0.070757151 0.0066523813 0.63500005
-0.069547623 0.0066523813 0.63500005
-0.06823048 0.0066419053 0.634
-0.06702286 0.0066419053 0.634
-0.065711431 0.0066314288 0.63300002
-0.069353335 0.0074066673 0.70700002
-0.068006672 0.0074066673 0.70700002
-0.066754289 0.0074171433 0.708
-0.065405719 0.0074171433 0.708
-0.064238101 0.0074380958 0.71000004
-0.062885717 0.0074380958 0.71000004
-0.061533336 0.0074380958 0.71000004
-0.060180955 0.0074380958 0.71000004
-0.058911432 0.0074485717 0.71100003
-0.057557147 0.0074485717 0.71100003
-0.056202862 0.0074485717 0.71100003
-0.048677146 0.0066104764 0.63100004
-0.047475241 0.0066104764 0.63100004
-0.046273336 0.0066104764 0.63100004
-0.045071431 0.0066104764 0.63100004
-0.043869525 0.0066104764 0.63100004
-0.042667624 0.0066104764 0.63100004
-0.04133429 0.0065895244 0.62900001
-0.040263813 0.0066104764 0.63100004
-0.039061908 0.0066104764 0.63100004
-0.037920002 0.0066209529 0.63200003
-0.036716193 0.0066209529 0.63200003
-0.035512384 0.0066209529 0.63200003
-0.03447143 0.0066523813 0.63500005
-0.033261906 0.0066523813 0.63500005
-0.032052383 0.0066523813 0.63500005
-0.030842859 0.0066523813 0.63500005
-0.029633336 0.0066523813 0.63500005
-0.028468573 0.0066628577 0.63600004
-0.027257144 0.0066628577 0.63600004
-0.026127622 0.0066838101 0.63800001
-0.02495143 0.0066942861 0.63900006
-0.023771429 0.0067047626 0.64000005
-0.022552382 0.0067047626 0.64000005
-0.021366669 0.0067152386 0.64100003
-0.020114288 0.0067047626 0.64000005
-0.019042859 0.0067571434 0.64500004
-0.017869525 0.0067780958 0.64700001
-0.016637145 0.0067780958 0.64700001
-0.015428573 0.0067885718 0.648
-0.014194286 0.0067885718 0.648
-0.085385717 0.0079857148 0.64500004
-0.084026672 0.0079733338 0.64400005
-0.082414292 0.0079361908 0.64100003
-0.081193335 0.0079361908 0.64100003
-0.079847626 0.0079238098 0.64000005
-0.078628577 0.0079238098 0.64000005
-0.077288575 0.0079114288 0.63900006
-0.075952388 0.0078990478 0.63800001
-0.074737146 0.0078990478 0.63800001
-0.073291436 0.0078742858 0.63600004
-0.072080001 0.0078742858 0.63600004
-0.070868574 0.0078742858 0.63600004
-0.069547623 0.0078619057 0.63500005
-0.068338096 0.0078619057 0.63500005
-0.067128576 0.0078619057 0.63500005
-0.06581524 0.0078495247 0.634
-0.06460762 0.0078495247 0.634
-0.063300006 0.0078371437 0.63300002
-0.061996195 0.0078247627 0.63200003
-0.060696196 0.0078123813 0.63100004
-0.059494291 0.0078123813 0.63100004
-0.058107622 0.0077876197 0.62900001
-0.05709048 0.0078123813 0.63100004
-0.055888575 0.0078123813 0.63100004
-0.054686669 0.0078123813 0.63100004
-0.053484764 0.0078123813 0.63100004
-0.052282862 0.0078123813 0.63100004
-0.051161908 0.0078247627 0.63200003
-0.049958099 0.0078247627 0.63200003
-0.04875429 0.0078247627 0.63200003
-0.047550481 0.0078247627 0.63200003
-0.046273336 0.0078123813 0.63100004
-0.045142859 0.0078247627 0.63200003
-0.04393905 0.0078247627 0.63200003
-0.042667624 0.0078123813 0.63100004
-0.041465718 0.0078123813 0.63100004
-0.040327623 0.0078247627 0.63200003
-0.039123811 0.0078247627 0.63200003
-0.037980001 0.0078371437 0.63300002
-0.036774289 0.0078371437 0.63300002
-0.035624765 0.0078495247 0.634
-0.03447143 0.0078619057 0.63500005
-0.033314288 0.0078742858 0.63600004
-0.032102861 0.0078742858 0.63600004
-0.030891431 0.0078742858 0.63600004
-0.029633336 0.0078619057 0.63500005
-0.028423812 0.0078619057 0.63500005
-0.027257144 0.0078742858 0.63600004
-0.026127622 0.0078990478 0.63800001
-0.02495143 0.0079114288 0.63900006
-0.023808572 0.0079361908 0.64100003
-0.022693334 0.0079733338 0.64400005
-0.021500001 0.0079857148 0.64500004
-0.020302858 0.0079980958 0.64600003
-0.019101907 0.0080104768 0.64700001
-0.017897144 0.0080228578 0.648
-0.016662858 0.0080228578 0.648
-0.015428573 0.0080228578 0.648
-0.014194286 0.0080228578 0.648
-0.084026672 0.0092000002 0.64400005
-0.082542859 0.0091714291 0.64200002
-0.081320003 0.0091714291 0.64200002
-0.079972386 0.0091571435 0.64100003
-0.078628577 0.009142858 0.64000005
-0.077409528 0.009142858 0.64000005
-0.076071434 0.0091285724 0.63900006
-0.074854292 0.0091285724 0.63900006
-0.07363715 0.0091285724 0.63900006
-0.07230667 0.0091142859 0.63800001
-0.071091436 0.0091142859 0.63800001
-0.069657147 0.0090857148 0.63600004
-0.06844572 0.0090857148 0.63600004
-0.067234293 0.0090857148 0.63600004
-0.065919049 0.0090714293 0.63500005
-0.06460762 0.0090571437 0.634
-0.063300006 0.0090428581 0.63300002
-0.06209429 0.0090428581 0.63300002
-0.060792387 0.0090285717 0.63200003
-0.059588574 0.0090285717 0.63200003
-0.058292385 0.0090142861 0.63100004
-0.057180956 0.0090285717 0.63200003
-0.055977147 0.0090285717 0.63200003
-0.054773338 0.0090285717 0.63200003
-0.053484764 0.0090142861 0.63100004
-0.052365717 0.0090285717 0.63200003
-0.051161908 0.0090285717 0.63200003
-0.049958099 0.0090285717 0.63200003
-0.04875429 0.0090285717 0.63200003
-0.047550481 0.0090285717 0.63200003
-0.046346668 0.0090285717 0.63200003
-0.045142859 0.0090285717 0.63200003
-0.04393905 0.0090285717 0.63200003
-0.042735241 0.0090285717 0.63200003
-0.041465718 0.0090142861 0.63100004
-0.040327623 0.0090285717 0.63200003
-0.039123811 0.0090285717 0.63200003
-0.037980001 0.0090428581 0.63300002
-0.036774289 0.0090428581 0.63300002
-0.035624765 0.0090571437 0.634
-0.034525715 0.0090857148 0.63600004
-0.033314288 0.0090857148 0.63600004
-0.032203812 0.0091142859 0.63800001
-0.030891431 0.0090857148 0.63600004
-0.029680002 0.0090857148 0.63600004
-0.028468573 0.0090857148 0.63600004
-0.02734286 0.0091142859 0.63800001
-0.026127622 0.0091142859 0.63800001
-0.02495143 0.0091285724 0.63900006
-0.023845715 0.0091714291 0.64200002
-0.022728574 0.0092142867 0.64500004
-0.021533335 0.0092285722 0.64600003
-0.020334287 0.0092428578 0.64700001
-0.019131429 0.0092571434 0.648
-0.017897144 0.0092571434 0.648
-0.016662858 0.0092571434 0.648
-0.015428573 0.0092571434 0.648
-0.014194286 0.0092571434 0.648
-0.079847626 0.010361905 0.64000005
-0.078751437 0.010378096 0.64100003
-0.077409528 0.010361905 0.64000005
-0.076190479 0.010361905 0.64000005
-0.07497143 0.010361905 0.64000005
-0.073867626 0.010378096 0.64100003
-0.072420008 0.010345715 0.63900006
-0.071202859 0.010345715 0.63900006
-0.069657147 0.010297144 0.63600004
-0.06844572 0.010297144 0.63600004
-0.067234293 0.010297144 0.63600004
-0.066022858 0.010297144 0.63600004
-0.064709529 0.010280953 0.63500005
-0.063400008 0.010264763 0.634
-0.062192384 0.010264763 0.634
-0.060888577 0.010248573 0.63300002
-0.059682861 0.010248573 0.63300002
-0.058384765 0.010232382 0.63200003
-0.057271432 0.010248573 0.63300002
-0.05606572 0.010248573 0.63300002
-0.054860003 0.010248573 0.63300002
-0.053569525 0.010232382 0.63200003
-0.052365717 0.010232382 0.63200003
-0.051242862 0.010248573 0.63300002
-0.050037146 0.010248573 0.63300002
-0.048831433 0.010248573 0.63300002
-0.047550481 0.010232382 0.63200003
-0.046346668 0.010232382 0.63200003
-0.045142859 0.010232382 0.63200003
-0.044008575 0.010248573 0.63300002
-0.042735241 0.010232382 0.63200003
-0.041531432 0.010232382 0.63200003
-0.040327623 0.010232382 0.63200003
-0.039185718 0.010248573 0.63300002
-0.037980001 0.010248573 0.63300002
-0.036832385 0.010264763 0.634
-0.035680953 0.010280953 0.63500005
-0.034634288 0.010329524 0.63800001
-0.03341905 0.010329524 0.63800001
-0.032254286 0.010345715 0.63900006
-0.030988574 0.010329524 0.63800001
-0.029773336 0.010329524 0.63800001
-0.028558098 0.010329524 0.63800001
-0.027385715 0.010345715 0.63900006
-0.026168574 0.010345715 0.63900006
-0.024990479 0.010361905 0.64000005
-0.023920001 0.010426668 0.64400005
-0.022799049 0.010475239 0.64700001
-0.021566669 0.010475239 0.64700001
-0.020365715 0.010491429 0.648
-0.019131429 0.010491429 0.648
-0.017897144 0.010491429 0.648
-0.016662858 0.010491429 0.648
-0.015428573 0.010491429 0.648
-0.014194286 0.010491429 0.648
-0.077651434 0.011617144 0.64200002
-0.076428577 0.011617144 0.64200002
-0.075205721 0.011617144 0.64200002
-0.073982865 0.011617144 0.64200002
-0.07264667 0.011599048 0.64100003
-0.07131429 0.011580953 0.64000005
-0.069985718 0.011562858 0.63900006
-0.068768576 0.011562858 0.63900006
-0.067445718 0.011544763 0.63800001
-0.066230483 0.011544763 0.63800001
-0.064811431 0.011508572 0.63600004
-0.063500002 0.011490477 0.63500005
-0.062290478 0.011490477 0.63500005
-0.060984764 0.011472382 0.634
-0.059777148 0.011472382 0.634
-0.058477148 0.011454286 0.63300002
-0.057361908 0.011472382 0.634
-0.056154288 0.011472382 0.634
-0.054860003 0.011454286 0.63300002
-0.053654291 0.011454286 0.63300002
-0.052448574 0.011454286 0.63300002
-0.051242862 0.011454286 0.63300002
-0.050037146 0.011454286 0.63300002
-0.048831433 0.011454286 0.63300002
-0.047625717 0.011454286 0.63300002
-0.046420004 0.011454286 0.63300002
-0.045214288 0.011454286 0.63300002
-0.044008575 0.011454286 0.63300002
-0.042802859 0.011454286 0.63300002
-0.041597147 0.011454286 0.63300002
-0.040327623 0.011436191 0.63200003
-0.039185718 0.011454286 0.63300002
-0.038100004 0.011490477 0.63500005
-0.036948573 0.011508572 0.63600004
-0.035849527 0.011544763 0.63800001
-0.034688573 0.011562858 0.63900006
-0.033471432 0.011562858 0.63900006
-0.032254286 0.011562858 0.63900006
-0.031037144 0.011562858 0.63900006
-0.029820003 0.011562858 0.63900006
-0.028602859 0.011562858 0.63900006
-0.027428573 0.011580953 0.64000005
-0.026250478 0.011599048 0.64100003
-0.025068574 0.011617144 0.64200002
-0.023920001 0.011653334 0.64400005
-0.022728574 0.011671429 0.64500004
-0.021566669 0.01170762 0.64700001
-0.020365715 0.011725715 0.648
-0.019131429 0.011725715 0.648
-0.017897144 0.011725715 0.648
-0.016662858 0.011725715 0.648
-0.015404763 0.01170762 0.64700001
-0.014172382 0.01170762 0.64700001
-0.079242863 0.0129 0.64500004
-0.078014292 0.0129 0.64500004
-0.076666668 0.012880001 0.64400005
-0.07555715 0.0129 0.64500004
-0.074213341 0.012880001 0.64400005
-0.072760008 0.012840001 0.64200002
-0.071425721 0.012820001 0.64100003
-0.070095241 0.012800001 0.64000005
-0.068876192 0.012800001 0.64000005
-0.067551434 0.01278 0.63900006
-0.066334292 0.01278 0.63900006
-0.064811431 0.012720001 0.63600004
-0.063600004 0.012720001 0.63600004
-0.062388577 0.012720001 0.63600004
-0.061080955 0.012700001 0.63500005
-0.059777148 0.012680001 0.634
-0.058569528 0.012680001 0.634
-0.057361908 0.012680001 0.634
-0.056154288 0.012680001 0.634
-0.054946668 0.012680001 0.634
-0.053739052 0.012680001 0.634
-0.052531432 0.012680001 0.634
-0.051323812 0.012680001 0.634
-0.050116193 0.012680001 0.634
-0.048908576 0.012680001 0.634
-0.047625717 0.01266 0.63300002
-0.046493337 0.012680001 0.634
-0.045285717 0.012680001 0.634
-0.044078097 0.012680001 0.634
-0.042802859 0.01266 0.63300002
-0.041662861 0.012680001 0.634
-0.040455241 0.012680001 0.634
-0.039309528 0.012700001 0.63500005
-0.038280003 0.012760001 0.63800001
-0.037064765 0.012760001 0.63800001
-0.035905715 0.01278 0.63900006
-0.034688573 0.01278 0.63900006
-0.033471432 0.01278 0.63900006
-0.032304764 0.012800001 0.64000005
-0.031037144 0.01278 0.63900006
-0.029820003 0.01278 0.63900006
-0.02864762 0.012800001 0.64000005
-0.027471431 0.012820001 0.64100003
-0.02629143 0.012840001 0.64200002
-0.025146669 0.012880001 0.64400005
-0.023957144 0.0129 0.64500004
-0.022799049 0.012940001 0.64700001
-0.021600001 0.012960001 0.648
-0.020365715 0.012960001 0.648
-0.019190477 0.013000001 0.65000004
-0.017952383 0.013000001 0.65000004
-0.016662858 0.012960001 0.648
-0.015404763 0.012940001 0.64700001
-0.079611436 0.014194286 0.648
-0.07837715 0.014194286 0.648
-0.076904766 0.014150477 0.64600003
-0.075674288 0.014150477 0.64600003
-0.074328579 0.014128572 0.64500004
-0.07298667 0.014106668 0.64400005
-0.071537144 0.014062858 0.64200002
-0.070204765 0.014040953 0.64100003
-0.068876192 0.014019049 0.64000005
-0.06765715 0.014019049 0.64000005
-0.066334292 0.013997144 0.63900006
-0.065117151 0.013997144 0.63900006
-0.063800007 0.013975239 0.63800001
-0.062584765 0.013975239 0.63800001
-0.061369527 0.013975239 0.63800001
-0.059965719 0.01393143 0.63600004
-0.058661908 0.013909524 0.63500005
-0.057452384 0.013909524 0.63500005
-0.056242861 0.013909524 0.63500005
-0.055033337 0.013909524 0.63500005
-0.053823814 0.013909524 0.63500005
-0.052531432 0.01388762 0.634
-0.051404767 0.013909524 0.63500005
-0.050116193 0.01388762 0.634
-0.048985716 0.013909524 0.63500005
-0.047776192 0.013909524 0.63500005
-0.046566669 0.013909524 0.63500005
-0.045357145 0.013909524 0.63500005
-0.044147622 0.013909524 0.63500005
-0.042938098 0.013909524 0.63500005
-0.041794289 0.01393143 0.63600004
-0.040710479 0.013975239 0.63800001
-0.039495241 0.013975239 0.63800001
-0.038280003 0.013975239 0.63800001
-0.037122861 0.013997144 0.63900006
-0.035905715 0.013997144 0.63900006
-0.034688573 0.013997144 0.63900006
-0.033523813 0.014019049 0.64000005
-0.032304764 0.014019049 0.64000005
-0.031037144 0.013997144 0.63900006
-0.029866669 0.014019049 0.64000005
-0.028692383 0.014040953 0.64100003
-0.027514288 0.014062858 0.64200002
-0.02629143 0.014062858 0.64200002
-0.025146669 0.014106668 0.64400005
-0.023994287 0.014150477 0.64600003
-0.022834288 0.014194286 0.648
-0.021666668 0.014238096 0.65000004
-0.020428572 0.014238096 0.65000004
-0.019190477 0.014238096 0.65000004
-0.017952383 0.014238096 0.65000004
-0.079857148 0.015476191 0.65000004
-0.07837715 0.015428573 0.648
-0.077023812 0.015404763 0.64700001
-0.075791433 0.015404763 0.64700001
-0.074328579 0.015357144 0.64500004
-0.073100008 0.015357144 0.64500004
-0.071760006 0.015333334 0.64400005
-0.070314288 0.015285715 0.64200002
-0.068983816 0.015261906 0.64100003
-0.06765715 0.015238096 0.64000005
-0.066438101 0.015238096 0.64000005
-0.065219052 0.015238096 0.64000005
-0.063900001 0.015214287 0.63900006
-0.06268286 0.015214287 0.63900006
-0.061465718 0.015214287 0.63900006
-0.060154289 0.015190477 0.63800001
-0.058754291 0.015142858 0.63600004
-0.057542861 0.015142858 0.63600004
-0.056331433 0.015142858 0.63600004
-0.055033337 0.015119049 0.63500005
-0.053823814 0.015119049 0.63500005
-0.05261429 0.015119049 0.63500005
-0.051404767 0.015119049 0.63500005
-0.050195243 0.015119049 0.63500005
-0.048985716 0.015119049 0.63500005
-0.047776192 0.015119049 0.63500005
-0.046640001 0.015142858 0.63600004
-0.045428574 0.015142858 0.63600004
-0.044217147 0.015142858 0.63600004
-0.043005716 0.015142858 0.63600004
-0.041925717 0.015190477 0.63800001
-0.040710479 0.015190477 0.63800001
-0.039557144 0.015214287 0.63900006
-0.038340002 0.015214287 0.63900006
-0.037122861 0.015214287 0.63900006
-0.035905715 0.015214287 0.63900006
-0.034742858 0.015238096 0.64000005
-0.033523813 0.015238096 0.64000005
-0.032355241 0.015261906 0.64100003
-0.031134287 0.015261906 0.64100003
-0.029913336 0.015261906 0.64100003
-0.028737145 0.015285715 0.64200002
-0.027600002 0.015333334 0.64400005
-0.026373334 0.015333334 0.64400005
-0.025224764 0.015380953 0.64600003
-0.024068573 0.015428573 0.648
-0.022904763 0.015476191 0.65000004
-0.021700002 0.015500001 0.65100002
-0.020460002 0.015500001 0.65100002
-0.019220002 0.015500001 0.65100002
-0.017980002 0.015500001 0.65100002
-0.079980008 0.016740002 0.65100002
-0.07837715 0.016662858 0.648
-0.077023812 0.016637145 0.64700001
-0.075791433 0.016637145 0.64700001
-0.074328579 0.016585715 0.64500004
-0.073100008 0.016585715 0.64500004
-0.071760006 0.016560001 0.64400005
-0.070533335 0.016560001 0.64400005
-0.069091432 0.016508572 0.64200002
-0.067762859 0.016482858 0.64100003
-0.066438101 0.016457144 0.64000005
-0.065219052 0.016457144 0.64000005
-0.064000003 0.016457144 0.64000005
-0.06268286 0.01643143 0.63900006
-0.061465718 0.01643143 0.63900006
-0.060248576 0.01643143 0.63900006
-0.058939051 0.016405715 0.63800001
-0.057723813 0.016405715 0.63800001
-0.056331433 0.016354287 0.63600004
-0.055120002 0.016354287 0.63600004
-0.053908575 0.016354287 0.63600004
-0.05261429 0.016328573 0.63500005
-0.051404767 0.016328573 0.63500005
-0.050195243 0.016328573 0.63500005
-0.048985716 0.016328573 0.63500005
-0.047851432 0.016354287 0.63600004
-0.046640001 0.016354287 0.63600004
-0.045428574 0.016354287 0.63600004
-0.044217147 0.016354287 0.63600004
-0.043140955 0.016405715 0.63800001
-0.041925717 0.016405715 0.63800001
-0.04077429 0.01643143 0.63900006
-0.039557144 0.01643143 0.63900006
-0.038340002 0.01643143 0.63900006
-0.037180956 0.016457144 0.64000005
-0.035961907 0.016457144 0.64000005
-0.034742858 0.016457144 0.64000005
-0.033576194 0.016482858 0.64100003
-0.032405715 0.016508572 0.64200002
-0.031182859 0.016508572 0.64200002
-0.029960003 0.016508572 0.64200002
-0.028826669 0.016560001 0.64400005
-0.027642859 0.016585715 0.64500004
-0.026414288 0.016585715 0.64500004
-0.025263811 0.016637145 0.64700001
-0.024068573 0.016662858 0.648
-0.022940002 0.016740002 0.65100002
-0.021733334 0.016765716 0.65200001
-0.020491431 0.016765716 0.65200001
-0.019249525 0.016765716 0.65200001
-0.018007619 0.016765716 0.65200001
-0.084857151 0.018228572 0.66000003
-0.083346672 0.018173335 0.65800005
-0.081968576 0.018145716 0.65700001
-0.080471434 0.018090477 0.65500003
-0.078619055 0.017952383 0.65000004
-0.077142864 0.017897144 0.648
-0.075908579 0.017897144 0.648
-0.074559055 0.017869525 0.64700001
-0.073100008 0.017814286 0.64500004
-0.07187143 0.017814286 0.64500004
-0.070533335 0.017786669 0.64400005
-0.069306672 0.017786669 0.64400005
-0.067868575 0.01773143 0.64200002
-0.06654191 0.017703811 0.64100003
-0.065219052 0.017676191 0.64000005
-0.064000003 0.017676191 0.64000005
-0.062780954 0.017676191 0.64000005
-0.061465718 0.017648572 0.63900006
-0.060248576 0.017648572 0.63900006
-0.059031431 0.017648572 0.63900006
-0.057723813 0.017620953 0.63800001
-0.056508575 0.017620953 0.63800001
-0.055293337 0.017620953 0.63800001
-0.054078098 0.017620953 0.63800001
-0.05286286 0.017620953 0.63800001
-0.051485717 0.017565716 0.63600004
-0.05027429 0.017565716 0.63600004
-0.049062859 0.017565716 0.63600004
-0.047851432 0.017565716 0.63600004
-0.046640001 0.017565716 0.63600004
-0.045428574 0.017565716 0.63600004
-0.044356193 0.017620953 0.63800001
-0.043208573 0.017648572 0.63900006
-0.041991431 0.017648572 0.63900006
-0.04077429 0.017648572 0.63900006
-0.039619051 0.017676191 0.64000005
-0.038400002 0.017676191 0.64000005
-0.037180956 0.017676191 0.64000005
-0.036018096 0.017703811 0.64100003
-0.034797147 0.017703811 0.64100003
-0.033628572 0.01773143 0.64200002
-0.032506667 0.017786669 0.64400005
-0.031182859 0.01773143 0.64200002
-0.030053336 0.017786669 0.64400005
-0.02887143 0.017814286 0.64500004
-0.027685717 0.017841905 0.64600003
-0.02645524 0.017841905 0.64600003
-0.025302859 0.017897144 0.648
-0.02414286 0.017952383 0.65000004
-0.02297524 0.018007619 0.65200001
-0.021733334 0.018007619 0.65200001
-0.020491431 0.018007619 0.65200001
-0.083600007 0.019485716 0.66000003
-0.082093336 0.019426668 0.65800005
-0.080840006 0.019426668 0.65800005
-0.079223812 0.019338097 0.65500003
-0.077380955 0.019190477 0.65000004
-0.076142862 0.019190477 0.65000004
-0.074674293 0.019131429 0.648
-0.073213339 0.019072382 0.64600003
-0.07187143 0.019042859 0.64500004
-0.070642859 0.019042859 0.64500004
-0.069306672 0.019013334 0.64400005
-0.067868575 0.018954286 0.64200002
-0.06654191 0.018924763 0.64100003
-0.065320954 0.018924763 0.64100003
-0.064100005 0.018924763 0.64100003
-0.062780954 0.018895239 0.64000005
-0.061561909 0.018895239 0.64000005
-0.060342859 0.018895239 0.64000005
-0.059123814 0.018895239 0.64000005
-0.057814289 0.018865716 0.63900006
-0.056597147 0.018865716 0.63900006
-0.055380005 0.018865716 0.63900006
-0.05416286 0.018865716 0.63900006
-0.052945718 0.018865716 0.63900006
-0.051647622 0.018836191 0.63800001
-0.050432384 0.018836191 0.63800001
-0.049217146 0.018836191 0.63800001
-0.048001908 0.018836191 0.63800001
-0.04678667 0.018836191 0.63800001
-0.04564286 0.018865716 0.63900006
-0.044425718 0.018865716 0.63900006
-0.043276194 0.018895239 0.64000005
-0.042057145 0.018895239 0.64000005
-0.040838096 0.018895239 0.64000005
-0.039680954 0.018924763 0.64100003
-0.038460001 0.018924763 0.64100003
-0.037239049 0.018924763 0.64100003
-0.036074288 0.018954286 0.64200002
-0.034851432 0.018954286 0.64200002
-0.033733334 0.019013334 0.64400005
-0.032557145 0.019042859 0.64500004
-0.031280003 0.019013334 0.64400005
-0.030100003 0.019042859 0.64500004
-0.028916193 0.019072382 0.64600003
-0.027728572 0.019101907 0.64700001
-0.026496192 0.019101907 0.64700001
-0.025302859 0.019131429 0.648
-0.02414286 0.019190477 0.65000004
-0.023010477 0.01927905 0.65300006
-0.021766668 0.01927905 0.65300006
-0.020522859 0.01927905 0.65300006
-0.01927905 0.01927905 0.65300006
-0.082342863 0.020742858 0.66000003
-0.081085719 0.020742858 0.66000003
-0.07958667 0.020680001 0.65800005
-0.078214288 0.020648573 0.65700001
-0.076494291 0.020522859 0.65300006
-0.075135246 0.020491431 0.65200001
-0.073780008 0.020460002 0.65100002
-0.072205722 0.020365715 0.648
-0.070861906 0.020334287 0.64700001
-0.069629528 0.020334287 0.64700001
-0.068397149 0.020334287 0.64700001
-0.066957146 0.02027143 0.64500004
-0.065728575 0.02027143 0.64500004
-0.064400002 0.020240001 0.64400005
-0.063173339 0.020240001 0.64400005
-0.061658099 0.020145716 0.64100003
-0.060531434 0.020177145 0.64200002
-0.059308574 0.020177145 0.64200002
-0.058085717 0.020177145 0.64200002
-0.056862861 0.020177145 0.64200002
-0.055553336 0.020145716 0.64100003
-0.054332383 0.020145716 0.64100003
-0.05311143 0.020145716 0.64100003
-0.051971432 0.020177145 0.64200002
-0.050669529 0.020145716 0.64100003
-0.049448576 0.020145716 0.64100003
-0.048227623 0.020145716 0.64100003
-0.04700667 0.020145716 0.64100003
-0.045785718 0.020145716 0.64100003
-0.044564765 0.020145716 0.64100003
-0.043343812 0.020145716 0.64100003
-0.04212286 0.020145716 0.64100003
-0.040901907 0.020145716 0.64100003
-0.039742861 0.020177145 0.64200002
-0.038520001 0.020177145 0.64200002
-0.037413336 0.020240001 0.64400005
-0.036186669 0.020240001 0.64400005
-0.035014287 0.02027143 0.64500004
-0.033890478 0.020334287 0.64700001
-0.032658096 0.020334287 0.64700001
-0.031377144 0.020302858 0.64600003
-0.030193334 0.020334287 0.64700001
-0.029005716 0.020365715 0.648
-0.027857145 0.020428572 0.65000004
-0.026660001 0.020460002 0.65100002
-0.025498098 0.020522859 0.65300006
-0.024365716 0.020617144 0.65600002
-0.023186669 0.020680001 0.65800005
-0.021933334 0.020680001 0.65800005
-0.020774286 0.020774286 0.66100001
-0.019544763 0.020805717 0.66200006
-0.082342863 0.022000002 0.66000003
-0.080840006 0.021933334 0.65800005
-0.07958667 0.021933334 0.65800005
-0.078214288 0.021900002 0.65700001
-0.07684572 0.021866668 0.65600002
-0.07548096 0.021833334 0.65500003
-0.074006669 0.021766668 0.65300006
-0.072428577 0.021666668 0.65000004
-0.070971437 0.021600001 0.648
-0.069737144 0.021600001 0.648
-0.068397149 0.021566669 0.64700001
-0.067060955 0.021533335 0.64600003
-0.065728575 0.021500001 0.64500004
-0.064500004 0.021500001 0.64500004
-0.063173339 0.021466669 0.64400005
-0.061946671 0.021466669 0.64400005
-0.060720004 0.021466669 0.64400005
-0.059493337 0.021466669 0.64400005
-0.05826667 0.021466669 0.64400005
-0.057040002 0.021466669 0.64400005
-0.055813339 0.021466669 0.64400005
-0.054586671 0.021466669 0.64400005
-0.053360004 0.021466669 0.64400005
-0.052133337 0.021466669 0.64400005
-0.050748575 0.021400001 0.64200002
-0.049525719 0.021400001 0.64200002
-0.048302859 0.021400001 0.64200002
-0.047080003 0.021400001 0.64200002
-0.045857146 0.021400001 0.64200002
-0.04463429 0.021400001 0.64200002
-0.04341143 0.021400001 0.64200002
-0.042188574 0.021400001 0.64200002
-0.040965717 0.021400001 0.64200002
-0.039866671 0.021466669 0.64400005
-0.038640004 0.021466669 0.64400005
-0.037471432 0.021500001 0.64500004
-0.036242861 0.021500001 0.64500004
-0.035068575 0.021533335 0.64600003
-0.03394286 0.021600001 0.648
-0.032708574 0.021600001 0.648
-0.031474289 0.021600001 0.648
-0.030240001 0.021600001 0.648
-0.029140001 0.021700002 0.65100002
-0.027985716 0.021766668 0.65300006
-0.026823811 0.021833334 0.65500003
-0.02561524 0.021866668 0.65600002
-0.024440002 0.021933334 0.65800005
-0.023292383 0.022033336 0.66100001
-0.022033336 0.022033336 0.66100001
-0.020805717 0.022066668 0.66200006
-0.019544763 0.022066668 0.66200006
-0.01831143 0.022100002 0.66300005
-0.082342863 0.023257144 0.66000003
-0.081085719 0.023257144 0.66000003
-0.07958667 0.023186669 0.65800005
-0.078333341 0.023186669 0.65800005
-0.076962866 0.023151429 0.65700001
-0.075596198 0.023116192 0.65600002
-0.074233338 0.023080954 0.65500003
-0.072651431 0.02297524 0.65200001
-0.071300007 0.022940002 0.65100002
-0.069952384 0.022904763 0.65000004
-0.068714291 0.022904763 0.65000004
-0.067268573 0.022834288 0.648
-0.065932386 0.022799049 0.64700001
-0.064700007 0.022799049 0.64700001
-0.063369527 0.022763811 0.64600003
-0.062139053 0.022763811 0.64600003
-0.060814291 0.022728574 0.64500004
-0.059585717 0.022728574 0.64500004
-0.058357146 0.022728574 0.64500004
-0.057128575 0.022728574 0.64500004
-0.055900004 0.022728574 0.64500004
-0.054671433 0.022728574 0.64500004
-0.053442862 0.022728574 0.64500004
-0.052214291 0.022728574 0.64500004
-0.050906669 0.022693334 0.64400005
-0.049680002 0.022693334 0.64400005
-0.048453335 0.022693334 0.64400005
-0.047300003 0.022728574 0.64500004
-0.046071433 0.022728574 0.64500004
-0.044773336 0.022693334 0.64400005
-0.043614287 0.022728574 0.64500004
-0.042385716 0.022728574 0.64500004
-0.041157145 0.022728574 0.64500004
-0.039928574 0.022728574 0.64500004
-0.038700003 0.022728574 0.64500004
-0.037529524 0.022763811 0.64600003
-0.03629905 0.022763811 0.64600003
-0.03512286 0.022799049 0.64700001
-0.034047622 0.022904763 0.65000004
-0.032809526 0.022904763 0.65000004
-0.031474289 0.022834288 0.648
-0.030333335 0.022904763 0.65000004
-0.029184764 0.02297524 0.65200001
-0.02807143 0.023080954 0.65500003
-0.026864763 0.023116192 0.65600002
-0.025654288 0.023151429 0.65700001
-0.024514288 0.023257144 0.66000003
-0.023292383 0.023292383 0.66100001
-0.022033336 0.023292383 0.66100001
-0.020805717 0.023327621 0.66200006
-0.019574286 0.023362858 0.66300005
-0.01831143 0.023362858 0.66300005
-0.081085719 0.024514288 0.66000003
-0.07958667 0.024440002 0.65800005
-0.078333341 0.024440002 0.65800005
-0.077080004 0.024440002 0.65800005
-0.075711437 0.024402859 0.65700001
-0.074346669 0.024365716 0.65600002
-0.072985716 0.024328573 0.65500003
-0.071409531 0.024217144 0.65200001
-0.070060007 0.024180003 0.65100002
-0.068820007 0.024180003 0.65100002
-0.067476198 0.02414286 0.65000004
-0.066034287 0.024068573 0.648
-0.064800002 0.024068573 0.648
-0.063467622 0.02403143 0.64700001
-0.062235244 0.02403143 0.64700001
-0.060908575 0.023994287 0.64600003
-0.0596781 0.023994287 0.64600003
-0.058447622 0.023994287 0.64600003
-0.057217147 0.023994287 0.64600003
-0.055986669 0.023994287 0.64600003
-0.054756194 0.023994287 0.64600003
-0.053442862 0.023957144 0.64500004
-0.052214291 0.023957144 0.64500004
-0.050985716 0.023957144 0.64500004
-0.049757145 0.023957144 0.64500004
-0.048528574 0.023957144 0.64500004
-0.047300003 0.023957144 0.64500004
-0.046142861 0.023994287 0.64600003
-0.044912383 0.023994287 0.64600003
-0.043681908 0.023994287 0.64600003
-0.04245143 0.023994287 0.64600003
-0.041220956 0.023994287 0.64600003
-0.039990477 0.023994287 0.64600003
-0.038760003 0.023994287 0.64600003
-0.03758762 0.02403143 0.64700001
-0.036355242 0.02403143 0.64700001
-0.035177145 0.024068573 0.648
-0.034047622 0.02414286 0.65000004
-0.032860003 0.024180003 0.65100002
-0.031620003 0.024180003 0.65100002
-0.030473335 0.024254287 0.65300006
-0.029229525 0.024254287 0.65300006
-0.028114287 0.024365716 0.65600002
-0.026905715 0.024402859 0.65700001
-0.025693335 0.024440002 0.65800005
-0.024551431 0.024551431 0.66100001
-0.023327621 0.024588574 0.66200006
-0.022066668 0.024588574 0.66200006
-0.020837145 0.024625717 0.66300005
-0.019574286 0.024625717 0.66300005
-0.018366668 0.024700001 0.66500002
-0.079828575 0.02577143 0.66000003
-0.078571431 0.02577143 0.66000003
-0.077080004 0.025693335 0.65800005
-0.075826675 0.025693335 0.65800005
-0.074460007 0.025654288 0.65700001
-0.073097147 0.02561524 0.65600002
-0.071519054 0.025498098 0.65300006
-0.070167623 0.025459049 0.65200001
-0.068925716 0.025459049 0.65200001
-0.067580007 0.025420001 0.65100002
-0.066340007 0.025420001 0.65100002
-0.065000005 0.025380954 0.65000004
-0.063565716 0.025302859 0.648
-0.062331434 0.025302859 0.648
-0.061097145 0.025302859 0.648
-0.05986286 0.025302859 0.648
-0.058538098 0.025263811 0.64700001
-0.05730572 0.025263811 0.64700001
-0.056073338 0.025263811 0.64700001
-0.054840956 0.025263811 0.64700001
-0.053525716 0.025224764 0.64600003
-0.052295242 0.025224764 0.64600003
-0.051064767 0.025224764 0.64600003
-0.049834289 0.025224764 0.64600003
-0.048603814 0.025224764 0.64600003
-0.047373336 0.025224764 0.64600003
-0.04621429 0.025263811 0.64700001
-0.044981908 0.025263811 0.64700001
-0.043749526 0.025263811 0.64700001
-0.042517144 0.025263811 0.64700001
-0.041284766 0.025263811 0.64700001
-0.040052384 0.025263811 0.64700001
-0.038880002 0.025302859 0.648
-0.037645716 0.025302859 0.648
-0.036411431 0.025302859 0.648
-0.035285715 0.025380954 0.65000004
-0.034047622 0.025380954 0.65000004
-0.032860003 0.025420001 0.65100002
-0.031668574 0.025459049 0.65200001
-0.030566668 0.025576193 0.65500003
-0.02931905 0.025576193 0.65500003
-0.028157145 0.025654288 0.65700001
-0.026946668 0.025693335 0.65800005
-0.02577143 0.02577143 0.66000003
-0.024551431 0.025810478 0.66100001
-0.023327621 0.025849525 0.66200006
-0.022100002 0.025888573 0.66300005
-0.020900002 0.025966669 0.66500002
-0.019633334 0.025966669 0.66500002
-0.01678 0.032760955 0.83900005
-0.015181906 0.032760955 0.83900005
-0.079828575 0.027028574 0.66000003
-0.078571431 0.027028574 0.66000003
-0.077314287 0.027028574 0.66000003
-0.075826675 0.026946668 0.65800005
-0.074573338 0.026946668 0.65800005
-0.073208578 0.026905715 0.65700001
-0.071847625 0.026864763 0.65600002
-0.070490479 0.026823811 0.65500003
-0.069031432 0.026741907 0.65300006
-0.067683816 0.026700955 0.65200001
-0.066441908 0.026700955 0.65200001
-0.065000005 0.026619049 0.65000004
-0.063761912 0.026619049 0.65000004
-0.062523812 0.026619049 0.65000004
-0.061285719 0.026619049 0.65000004
-0.05986286 0.026537145 0.648
-0.058628574 0.026537145 0.648
-0.05730572 0.026496192 0.64700001
-0.056160003 0.026537145 0.648
-0.054925717 0.026537145 0.648
-0.053608574 0.026496192 0.64700001
-0.052376192 0.026496192 0.64700001
-0.051143814 0.026496192 0.64700001
-0.049911432 0.026496192 0.64700001
-0.04867905 0.026496192 0.64700001
-0.047446668 0.026496192 0.64700001
-0.04621429 0.026496192 0.64700001
-0.045051433 0.026537145 0.648
-0.043817144 0.026537145 0.648
-0.042582858 0.026537145 0.648
-0.041348573 0.026537145 0.648
-0.040114287 0.026537145 0.648
-0.039000001 0.026619049 0.65000004
-0.037761908 0.026619049 0.65000004
-0.036523812 0.026619049 0.65000004
-0.035340004 0.026660001 0.65100002
-0.034100004 0.026660001 0.65100002
-0.032960955 0.026741907 0.65300006
-0.031717144 0.026741907 0.65300006
-0.030613335 0.026864763 0.65600002
-0.029363811 0.026864763 0.65600002
-0.028200002 0.026946668 0.65800005
-0.026946668 0.026946668 0.65800005
-0.02577143 0.027028574 0.66000003
-0.024588574 0.027110478 0.66200006
-0.023362858 0.02715143 0.66300005
-0.022166668 0.027233334 0.66500002
-0.020962859 0.02731524 0.66700006
-0.079828575 0.028285716 0.66000003
-0.078571431 0.028285716 0.66000003
-0.077314287 0.028285716 0.66000003
-0.075826675 0.028200002 0.65800005
-0.074573338 0.028200002 0.65800005
-0.073320001 0.028200002 0.65800005
-0.071957149 0.028157145 0.65700001
-0.070598103 0.028114287 0.65600002
-0.069242865 0.02807143 0.65500003
-0.067787625 0.027985716 0.65300006
-0.066441908 0.027942859 0.65200001
-0.065100007 0.027900001 0.65100002
-0.063860007 0.027900001 0.65100002
-0.062620007 0.027900001 0.65100002
-0.061285719 0.027857145 0.65000004
-0.060047623 0.027857145 0.65000004
-0.058809526 0.027857145 0.65000004
-0.057394288 0.02777143 0.648
-0.056160003 0.02777143 0.648
-0.054925717 0.02777143 0.648
-0.053691432 0.02777143 0.648
-0.052457146 0.02777143 0.648
-0.051222861 0.02777143 0.648
-0.049988575 0.02777143 0.648
-0.04875429 0.02777143 0.648
-0.047446668 0.027728572 0.64700001
-0.046285719 0.02777143 0.648
-0.045051433 0.02777143 0.648
-0.043817144 0.02777143 0.648
-0.042582858 0.02777143 0.648
-0.041348573 0.02777143 0.648
-0.040238097 0.027857145 0.65000004
-0.039000001 0.027857145 0.65000004
-0.037820004 0.027900001 0.65100002
-0.036580004 0.027900001 0.65100002
-0.035394289 0.027942859 0.65200001
-0.034152385 0.027942859 0.65200001
-0.032960955 0.027985716 0.65300006
-0.031814288 0.02807143 0.65500003
-0.030660002 0.028157145 0.65700001
-0.029408574 0.028157145 0.65700001
-0.028200002 0.028200002 0.65800005
-0.027028574 0.028285716 0.66000003
-0.02577143 0.028285716 0.66000003
-0.024588574 0.028371431 0.66200006
-0.023327621 0.028371431 0.66200006
-0.022100002 0.028414287 0.66300005
-0.085373342 0.030169526 0.67400002
-0.083840005 0.030080002 0.67200005
-0.08243715 0.030035241 0.671
-0.081159055 0.030035241 0.671
-0.079761907 0.029990477 0.67000002
-0.077431433 0.029587621 0.66100001
-0.076172389 0.029587621 0.66100001
-0.074800007 0.02954286 0.66000003
-0.073542863 0.02954286 0.66000003
-0.071957149 0.029408574 0.65700001
-0.070598103 0.029363811 0.65600002
-0.069348574 0.029363811 0.65600002
-0.067995243 0.02931905 0.65500003
-0.066543818 0.029229525 0.65300006
-0.065200001 0.029184764 0.65200001
-0.063958101 0.029184764 0.65200001
-0.062716193 0.029184764 0.65200001
-0.061380003 0.029140001 0.65100002
-0.060140003 0.029140001 0.65100002
-0.058809526 0.02909524 0.65000004
-0.057571433 0.02909524 0.65000004
-0.056333337 0.02909524 0.65000004
-0.05509524 0.02909524 0.65000004
-0.053857148 0.02909524 0.65000004
-0.052619051 0.02909524 0.65000004
-0.051380955 0.02909524 0.65000004
-0.050142862 0.02909524 0.65000004
-0.048904765 0.02909524 0.65000004
-0.047520004 0.029005716 0.648
-0.046428576 0.02909524 0.65000004
-0.04519048 0.02909524 0.65000004
-0.043952383 0.02909524 0.65000004
-0.04271429 0.02909524 0.65000004
-0.041476194 0.02909524 0.65000004
-0.040238097 0.02909524 0.65000004
-0.039060004 0.029140001 0.65100002
-0.037878096 0.029184764 0.65200001
-0.036636192 0.029184764 0.65200001
-0.035448574 0.029229525 0.65300006
-0.034309525 0.02931905 0.65500003
-0.033112384 0.029363811 0.65600002
-0.031862859 0.029363811 0.65600002
-0.030660002 0.029408574 0.65700001
-0.029453335 0.029453335 0.65800005
-0.028285716 0.02954286 0.66000003
-0.027028574 0.02954286 0.66000003
-0.025849525 0.029632382 0.66200006
-0.024625717 0.029677145 0.66300005
-0.023362858 0.029677145 0.66300005
-0.085373342 0.031453334 0.67400002
-0.083840005 0.03136 0.67200005
-0.082560003 0.03136 0.67200005
-0.081280008 0.03136 0.67200005
-0.079642862 0.031220002 0.66900003
-0.078017145 0.031080002 0.66600001
-0.076402865 0.030940002 0.66300005
-0.075026669 0.030893335 0.66200006
-0.073654294 0.030846668 0.66100001
-0.072285719 0.030800002 0.66000003
-0.070813335 0.030706668 0.65800005
-0.06945429 0.030660002 0.65700001
-0.068099052 0.030613335 0.65600002
-0.066747621 0.030566668 0.65500003
-0.065300003 0.030473335 0.65300006
-0.064056195 0.030473335 0.65300006
-0.062812388 0.030473335 0.65300006
-0.061568577 0.030473335 0.65300006
