# .PCD v0.7 - Point Cloud Data file format
VERSION 0.7
FIELDS x y z
SIZE 4 4 4
TYPE F F F
COUNT 1 1 1
WIDTH 1354
HEIGHT 1
VIEWPOINT 0 0 0 1 0 0 0
POINTS 1354
DATA ascii
-0.066371433 0.024314288 0.69000006
-0.065340005 0.024420002 0.69300002
-0.064112388 0.02445524 0.69400001
-0.062790483 0.02445524 0.69400001
-0.061557148 0.024490478 0.69500005
-0.060233336 0.024490478 0.69500005
-0.059079051 0.024560954 0.69700003
-0.11319143 0.025517145 0.68700004
-0.11172001 0.025480002 0.68600005
-0.11041334 0.025480002 0.68600005
-0.10910667 0.025480002 0.68600005
-0.10748572 0.025405716 0.68400002
-0.10618287 0.025405716 0.68400002
-0.10472667 0.025368573 0.68300003
-0.10297143 0.025257144 0.68000001
-0.1016762 0.025257144 0.68000001
-0.10023334 0.025220001 0.67900002
-0.098940007 0.025220001 0.67900002
-0.097646676 0.025220001 0.67900002
-0.096211433 0.025182858 0.67800003
-0.094920009 0.025182858 0.67800003
-0.093628578 0.025182858 0.67800003
-0.092337146 0.025182858 0.67800003
-0.091045722 0.025182858 0.67800003
-0.089754291 0.025182858 0.67800003
-0.08820191 0.025108574 0.67600006
-0.086914293 0.025108574 0.67600006
-0.085626669 0.025108574 0.67600006
-0.08458858 0.025182858 0.67800003
-0.083051436 0.025108574 0.67600006
-0.081763811 0.025108574 0.67600006
-0.080714293 0.025182858 0.67800003
-0.079422861 0.025182858 0.67800003
-0.078131437 0.025182858 0.67800003
-0.076953337 0.025220001 0.67900002
-0.075771436 0.025257144 0.68000001
-0.074695244 0.02533143 0.68200004
-0.073503815 0.025368573 0.68300003
-0.072202861 0.025368573 0.68300003
-0.071005717 0.025405716 0.68400002
-0.069702864 0.025405716 0.68400002
-0.068600006 0.025480002 0.68600005
-0.067391433 0.025517145 0.68700004
-0.066371433 0.025628572 0.69000006
-0.065340005 0.025740001 0.69300002
-0.064020008 0.025740001 0.69300002
-0.062790483 0.025777144 0.69400001
-0.061557148 0.025814287 0.69500005
-0.060233336 0.025814287 0.69500005
-0.059079051 0.025888573 0.69700003
-0.11749429 0.027216192 0.69700003
-0.11583334 0.027138097 0.69500005
-0.11368572 0.026942858 0.69000006
-0.11188287 0.026825717 0.68700004
-0.11057429 0.026825717 0.68700004
-0.10910667 0.026786668 0.68600005
-0.10780001 0.026786668 0.68600005
-0.10618287 0.026708573 0.68400002
-0.10472667 0.026669526 0.68300003
-0.10297143 0.026552383 0.68000001
-0.1016762 0.026552383 0.68000001
-0.10038096 0.026552383 0.68000001
-0.098940007 0.026513334 0.67900002
-0.097646676 0.026513334 0.67900002
-0.096353337 0.026513334 0.67900002
-0.095060006 0.026513334 0.67900002
-0.093628578 0.026474288 0.67800003
-0.092337146 0.026474288 0.67800003
-0.091045722 0.026474288 0.67800003
-0.089754291 0.026474288 0.67800003
-0.088462859 0.026474288 0.67800003
-0.086914293 0.026396193 0.67600006
-0.085880004 0.026474288 0.67800003
-0.08458858 0.026474288 0.67800003
-0.083297148 0.026474288 0.67800003
-0.082005717 0.026474288 0.67800003
-0.080714293 0.026474288 0.67800003
-0.079540007 0.026513334 0.67900002
-0.078246675 0.026513334 0.67900002
-0.077066675 0.026552383 0.68000001
-0.075771436 0.026552383 0.68000001
-0.074695244 0.026630478 0.68200004
-0.073503815 0.026669526 0.68300003
-0.072308578 0.026708573 0.68400002
-0.071005717 0.026708573 0.68400002
-0.069906674 0.026786668 0.68600005
-0.068700008 0.026825717 0.68700004
-0.067685716 0.026942858 0.69000006
-0.066371433 0.026942858 0.69000006
-0.065340005 0.027060002 0.69300002
-0.064112388 0.027099049 0.69400001
-0.062880956 0.027138097 0.69500005
-0.061557148 0.027138097 0.69500005
-0.060233336 0.027138097 0.69500005
-0.059079051 0.027216192 0.69700003
-0.11749429 0.028543811 0.69700003
-0.11566667 0.028420955 0.69400001
-0.11368572 0.028257145 0.69000006
-0.11220858 0.028216192 0.68900001
-0.11057429 0.028134288 0.68700004
-0.10926572 0.028134288 0.68700004
-0.10780001 0.028093334 0.68600005
-0.10618287 0.02801143 0.68400002
-0.10472667 0.027970478 0.68300003
-0.10327429 0.027929526 0.68200004
-0.1016762 0.027847622 0.68000001
-0.10038096 0.027847622 0.68000001
-0.098940007 0.027806668 0.67900002
-0.097646676 0.027806668 0.67900002
-0.096353337 0.027806668 0.67900002
-0.095060006 0.027806668 0.67900002
-0.093766674 0.027806668 0.67900002
-0.092473343 0.027806668 0.67900002
-0.091180004 0.027806668 0.67900002
-0.089886673 0.027806668 0.67900002
-0.088593341 0.027806668 0.67900002
-0.087171435 0.027765715 0.67800003
-0.085880004 0.027765715 0.67800003
-0.08471334 0.027806668 0.67900002
-0.083420008 0.027806668 0.67900002
-0.08212667 0.027806668 0.67900002
-0.080833338 0.027806668 0.67900002
-0.079540007 0.027806668 0.67900002
-0.078246675 0.027806668 0.67900002
-0.077066675 0.027847622 0.68000001
-0.07599429 0.027929526 0.68200004
-0.074695244 0.027929526 0.68200004
-0.073611431 0.02801143 0.68400002
-0.072308578 0.02801143 0.68400002
-0.071213335 0.028093334 0.68600005
-0.069906674 0.028093334 0.68600005
-0.068700008 0.028134288 0.68700004
-0.067685716 0.028257145 0.69000006
-0.06646762 0.028298097 0.69100004
-0.065340005 0.028380001 0.69300002
-0.064112388 0.028420955 0.69400001
-0.062880956 0.028461907 0.69500005
-0.061557148 0.028461907 0.69500005
-0.060233336 0.028461907 0.69500005
-0.058909528 0.028461907 0.69500005
0.14456382 0.034727622 0.84800005
-0.11749429 0.02987143 0.69700003
-0.11566667 0.029742859 0.69400001
-0.11368572 0.029571431 0.69000006
-0.11220858 0.029528573 0.68900001
-0.11057429 0.02944286 0.68700004
-0.10926572 0.02944286 0.68700004
-0.10780001 0.029400002 0.68600005
-0.10649334 0.029400002 0.68600005
-0.10488001 0.029314287 0.68400002
-0.10342572 0.029271431 0.68300003
-0.10197525 0.029228574 0.68200004
-0.10038096 0.029142858 0.68000001
-0.099085718 0.029142858 0.68000001
-0.097646676 0.029100003 0.67900002
-0.096353337 0.029100003 0.67900002
-0.095060006 0.029100003 0.67900002
-0.093766674 0.029100003 0.67900002
-0.092473343 0.029100003 0.67900002
-0.091180004 0.029100003 0.67900002
-0.089886673 0.029100003 0.67900002
-0.088593341 0.029100003 0.67900002
-0.087300003 0.029100003 0.67900002
-0.086006671 0.029100003 0.67900002
-0.08471334 0.029100003 0.67900002
-0.083420008 0.029100003 0.67900002
-0.08212667 0.029100003 0.67900002
-0.080833338 0.029100003 0.67900002
-0.079540007 0.029100003 0.67900002
-0.078361914 0.029142858 0.68000001
-0.077066675 0.029142858 0.68000001
-0.07599429 0.029228574 0.68200004
-0.074804768 0.029271431 0.68300003
-0.073611431 0.029314287 0.68400002
-0.072520003 0.029400002 0.68600005
-0.071213335 0.029400002 0.68600005
-0.070008576 0.02944286 0.68700004
-0.068900004 0.029528573 0.68900001
-0.067685716 0.029571431 0.69000006
-0.06646762 0.029614288 0.69100004
-0.065434292 0.029742859 0.69400001
-0.064204767 0.029785717 0.69500005
-0.062880956 0.029785717 0.69500005
-0.061734289 0.02987143 0.69700003
-0.06040667 0.02987143 0.69700003
0.14244287 0.036214288 0.84500003
0.14405239 0.036214288 0.84500003
-0.12032191 0.031243812 0.69800001
-0.11933334 0.031333335 0.70000005
-0.11766286 0.031243812 0.69800001
-0.11583334 0.031109527 0.69500005
-0.11385048 0.030930478 0.69100004
-0.11220858 0.030840954 0.68900001
-0.1108962 0.030840954 0.68900001
-0.10926572 0.030751431 0.68700004
-0.10795715 0.030751431 0.68700004
-0.10649334 0.030706668 0.68600005
-0.10518667 0.030706668 0.68600005
-0.10357715 0.030617144 0.68400002
-0.10212477 0.030572383 0.68300003
-0.10067619 0.030527622 0.68200004
-0.099085718 0.030438097 0.68000001
-0.09779048 0.030438097 0.68000001
-0.096495241 0.030438097 0.68000001
-0.09520001 0.030438097 0.68000001
-0.093904771 0.030438097 0.68000001
-0.092473343 0.030393336 0.67900002
-0.091180004 0.030393336 0.67900002
-0.089886673 0.030393336 0.67900002
-0.088593341 0.030393336 0.67900002
-0.087300003 0.030393336 0.67900002
-0.086006671 0.030393336 0.67900002
-0.08471334 0.030393336 0.67900002
-0.083420008 0.030393336 0.67900002
-0.08212667 0.030393336 0.67900002
-0.080833338 0.030393336 0.67900002
-0.079657145 0.030438097 0.68000001
-0.078361914 0.030438097 0.68000001
-0.077293336 0.030527622 0.68200004
-0.076105721 0.030572383 0.68300003
-0.074804768 0.030572383 0.68300003
-0.073826671 0.030706668 0.68600005
-0.072520003 0.030706668 0.68600005
-0.071317151 0.030751431 0.68700004
-0.070008576 0.030751431 0.68700004
-0.069000006 0.030885717 0.69000006
-0.067685716 0.030885717 0.69000006
-0.066660002 0.031020002 0.69300002
-0.065434292 0.031064764 0.69400001
-0.064204767 0.031109527 0.69500005
-0.063061908 0.031199049 0.69700003
-0.061734289 0.031199049 0.69700003
-0.06040667 0.031199049 0.69700003
-0.059163813 0.031243812 0.69800001
0.14050001 0.037734289 0.84300005
0.14210573 0.037734289 0.84300005
0.14371143 0.037734289 0.84300005
0.14692287 0.037734289 0.84300005
0.14852858 0.037734289 0.84300005
0.16739906 0.037644763 0.84100002
0.16900097 0.037644763 0.84100002
-0.12147715 0.032526668 0.69700003
-0.12032191 0.032573335 0.69800001
-0.11933334 0.032666668 0.70000005
-0.11766286 0.032573335 0.69800001
-0.11616667 0.032526668 0.69700003
-0.11385048 0.032246668 0.69100004
-0.11237144 0.032200001 0.69000006
-0.1108962 0.032153334 0.68900001
-0.10926572 0.032060001 0.68700004
-0.10795715 0.032060001 0.68700004
-0.10649334 0.032013334 0.68600005
-0.10518667 0.032013334 0.68600005
-0.10357715 0.031920001 0.68400002
-0.10212477 0.031873334 0.68300003
-0.10082382 0.031873334 0.68300003
-0.099377148 0.031826667 0.68200004
-0.098078102 0.031826667 0.68200004
-0.096495241 0.031733334 0.68000001
-0.09520001 0.031733334 0.68000001
-0.093904771 0.031733334 0.68000001
-0.092609532 0.031733334 0.68000001
-0.091314293 0.031733334 0.68000001
-0.090019055 0.031733334 0.68000001
-0.088723816 0.031733334 0.68000001
-0.087300003 0.031686667 0.67900002
-0.086133339 0.031733334 0.68000001
-0.0848381 0.031733334 0.68000001
-0.083542861 0.031733334 0.68000001
-0.082247622 0.031733334 0.68000001
-0.080952384 0.031733334 0.68000001
-0.079657145 0.031733334 0.68000001
-0.078361914 0.031733334 0.68000001
-0.077293336 0.031826667 0.68200004
-0.076105721 0.031873334 0.68300003
-0.074914292 0.031920001 0.68400002
-0.073826671 0.032013334 0.68600005
-0.072625719 0.032060001 0.68700004
-0.071317151 0.032060001 0.68700004
-0.070212387 0.032153334 0.68900001
-0.069000006 0.032200001 0.69000006
-0.067783818 0.032246668 0.69100004
-0.066660002 0.032340001 0.69300002
-0.065434292 0.032386668 0.69400001
-0.064204767 0.032433335 0.69500005
-0.063061908 0.032526668 0.69700003
-0.061822861 0.032573335 0.69800001
-0.060493339 0.032573335 0.69800001
0.14337048 0.039246671 0.84100002
0.15581429 0.039153337 0.83900005
0.15741239 0.039153337 0.83900005
0.15901048 0.039153337 0.83900005
0.16060857 0.039153337 0.83900005
0.16220668 0.039153337 0.83900005
0.16380477 0.039153337 0.83900005
0.16579716 0.039246671 0.84100002
0.16700096 0.039153337 0.83900005
0.16859905 0.039153337 0.83900005
-0.12014953 0.033854287 0.69700003
-0.11933334 0.034000002 0.70000005
-0.11749429 0.033854287 0.69700003
-0.11583334 0.033757146 0.69500005
-0.11434477 0.033708572 0.69400001
-0.11237144 0.033514287 0.69000006
-0.1112181 0.033562858 0.69100004
-0.10974286 0.033514287 0.69000006
-0.10827143 0.033465717 0.68900001
-0.10664858 0.033368573 0.68700004
-0.10518667 0.033320002 0.68600005
-0.10388001 0.033320002 0.68600005
-0.10227429 0.033222858 0.68400002
-0.10082382 0.033174288 0.68300003
-0.099522866 0.033174288 0.68300003
-0.098221913 0.033174288 0.68300003
-0.096779056 0.033125717 0.68200004
-0.09548001 0.033125717 0.68200004
-0.094180956 0.033125717 0.68200004
-0.092881911 0.033125717 0.68200004
-0.091582865 0.033125717 0.68200004
-0.090019055 0.033028573 0.68000001
-0.088723816 0.033028573 0.68000001
-0.087428577 0.033028573 0.68000001
-0.086133339 0.033028573 0.68000001
-0.0848381 0.033028573 0.68000001
-0.083542861 0.033028573 0.68000001
-0.082247622 0.033028573 0.68000001
-0.080952384 0.033028573 0.68000001
-0.079657145 0.033028573 0.68000001
-0.07859239 0.033125717 0.68200004
-0.077293336 0.033125717 0.68200004
-0.076105721 0.033174288 0.68300003
-0.074914292 0.033222858 0.68400002
-0.073826671 0.033320002 0.68600005
-0.072625719 0.033368573 0.68700004
-0.071524769 0.033465717 0.68900001
-0.070314288 0.033514287 0.69000006
-0.069000006 0.033514287 0.69000006
-0.067783818 0.033562858 0.69100004
-0.066660002 0.033660002 0.69300002
-0.065434292 0.033708572 0.69400001
-0.064204767 0.033757146 0.69500005
-0.063061908 0.033854287 0.69700003
-0.061822861 0.033902861 0.69800001
-0.060666669 0.034000002 0.70000005
-0.059333336 0.034000002 0.70000005
-0.11749429 0.035181906 0.69700003
-0.11583334 0.035080954 0.69500005
-0.11450953 0.035080954 0.69500005
-0.11302286 0.035030477 0.69400001
-0.11170096 0.035030477 0.69400001
-0.11022001 0.034980003 0.69300002
-0.10858572 0.034879051 0.69100004
-0.10711429 0.034828573 0.69000006
-0.10564668 0.034778096 0.68900001
-0.10403144 0.034677144 0.68700004
-0.10257334 0.03462667 0.68600005
-0.10097144 0.034525715 0.68400002
-0.099668577 0.034525715 0.68400002
-0.098365724 0.034525715 0.68400002
-0.09692096 0.034475241 0.68300003
-0.095620006 0.034475241 0.68300003
-0.094319053 0.034475241 0.68300003
-0.0930181 0.034475241 0.68300003
-0.091717146 0.034475241 0.68300003
-0.090283819 0.034424763 0.68200004
-0.088984765 0.034424763 0.68200004
-0.087685719 0.034424763 0.68200004
-0.086386673 0.034424763 0.68200004
-0.0848381 0.034323812 0.68000001
-0.083788574 0.034424763 0.68200004
-0.082489528 0.034424763 0.68200004
-0.081190482 0.034424763 0.68200004
-0.079891436 0.034424763 0.68200004
-0.078707621 0.034475241 0.68300003
-0.077520005 0.034525715 0.68400002
-0.076217145 0.034525715 0.68400002
-0.075133339 0.03462667 0.68600005
-0.073934294 0.034677144 0.68700004
-0.072837144 0.034778096 0.68900001
-0.071628578 0.034828573 0.69000006
-0.070314288 0.034828573 0.69000006
-0.069100007 0.034879051 0.69100004
-0.067783818 0.034879051 0.69100004
-0.066660002 0.034980003 0.69300002
-0.065528579 0.035080954 0.69500005
-0.064389527 0.035181906 0.69700003
-0.063152388 0.035232384 0.69800001
-0.062000003 0.035333335 0.70000005
-0.060666669 0.035333335 0.70000005
-0.059333336 0.035333335 0.70000005
0.16739334 0.04204667 0.83300006
0.16898002 0.04204667 0.83300006
-0.11616667 0.036509525 0.69700003
-0.11483905 0.036509525 0.69700003
-0.11302286 0.036352385 0.69400001
-0.11170096 0.036352385 0.69400001
-0.11022001 0.036300004 0.69300002
-0.10858572 0.036195241 0.69100004
-0.10711429 0.03614286 0.69000006
-0.10564668 0.036090478 0.68900001
-0.10403144 0.035985716 0.68700004
-0.10272286 0.035985716 0.68700004
-0.10126667 0.035933334 0.68600005
-0.099668577 0.035828575 0.68400002
-0.098365724 0.035828575 0.68400002
-0.097062863 0.035828575 0.68400002
-0.095760003 0.035828575 0.68400002
-0.09445715 0.035828575 0.68400002
-0.093154289 0.035828575 0.68400002
-0.091717146 0.035776194 0.68300003
-0.090416193 0.035776194 0.68300003
-0.089115247 0.035776194 0.68300003
-0.087814294 0.035776194 0.68300003
-0.086386673 0.035723813 0.68200004
-0.085087627 0.035723813 0.68200004
-0.083788574 0.035723813 0.68200004
-0.08261048 0.035776194 0.68300003
-0.081309527 0.035776194 0.68300003
-0.080008574 0.035776194 0.68300003
-0.078822859 0.035828575 0.68400002
-0.077520005 0.035828575 0.68400002
-0.076440006 0.035933334 0.68600005
-0.075242862 0.035985716 0.68700004
-0.073934294 0.035985716 0.68700004
-0.072837144 0.036090478 0.68900001
-0.071628578 0.03614286 0.69000006
-0.070416197 0.036195241 0.69100004
-0.069100007 0.036195241 0.69100004
-0.067980006 0.036300004 0.69300002
-0.066756196 0.036352385 0.69400001
-0.065717146 0.036509525 0.69700003
-0.064481907 0.036561906 0.69800001
-0.06333334 0.036666669 0.70000005
-0.062000003 0.036666669 0.70000005
-0.060666669 0.036666669 0.70000005
-0.059333336 0.036666669 0.70000005
0.16066001 0.043528575 0.83100003
0.16224287 0.043528575 0.83100003
0.16382572 0.043528575 0.83100003
-0.11816858 0.038054287 0.70100003
-0.11633334 0.037891433 0.69800001
-0.11500382 0.037891433 0.69800001
-0.11351144 0.037837144 0.69700003
-0.11186191 0.037728574 0.69500005
-0.11037906 0.037674289 0.69400001
-0.10890001 0.037620004 0.69300002
-0.10726953 0.037511431 0.69100004
-0.10580001 0.037457146 0.69000006
-0.10433429 0.037402861 0.68900001
-0.10272286 0.037294287 0.68700004
-0.10126667 0.037240002 0.68600005
-0.099960007 0.037240002 0.68600005
-0.098653339 0.037240002 0.68600005
-0.097062863 0.037131432 0.68400002
-0.095760003 0.037131432 0.68400002
-0.09445715 0.037131432 0.68400002
-0.093154289 0.037131432 0.68400002
-0.091851436 0.037131432 0.68400002
-0.090548575 0.037131432 0.68400002
-0.089245722 0.037131432 0.68400002
-0.087814294 0.037077144 0.68300003
-0.08651334 0.037077144 0.68300003
-0.085212387 0.037077144 0.68300003
-0.083911434 0.037077144 0.68300003
-0.082731433 0.037131432 0.68400002
-0.08142858 0.037131432 0.68400002
-0.080125719 0.037131432 0.68400002
-0.078822859 0.037131432 0.68400002
-0.077746674 0.037240002 0.68600005
-0.076440006 0.037240002 0.68600005
-0.075242862 0.037294287 0.68700004
-0.074149527 0.037402861 0.68900001
-0.072837144 0.037402861 0.68900001
-0.071628578 0.037457146 0.69000006
-0.070416197 0.037511431 0.69100004
-0.069300003 0.037620004 0.69300002
-0.067980006 0.037620004 0.69300002
-0.066852383 0.037728574 0.69500005
-0.065717146 0.037837144 0.69700003
-0.064666674 0.038000003 0.70000005
-0.06333334 0.038000003 0.70000005
-0.062088575 0.038054287 0.70100003
-0.060753338 0.038054287 0.70100003
-0.059418101 0.038054287 0.70100003
-0.11666667 0.039333336 0.70000005
-0.11533334 0.039333336 0.70000005
-0.11367429 0.039220955 0.69800001
-0.11218382 0.039164763 0.69700003
-0.1105381 0.039052382 0.69500005
-0.10905715 0.038996194 0.69400001
-0.10758001 0.038940001 0.69300002
-0.10580001 0.038771432 0.69000006
-0.10448572 0.038771432 0.69000006
-0.10302191 0.03871524 0.68900001
-0.10126667 0.03854667 0.68600005
-0.099960007 0.03854667 0.68600005
-0.098653339 0.03854667 0.68600005
-0.097346671 0.03854667 0.68600005
-0.096040003 0.03854667 0.68600005
-0.094733343 0.03854667 0.68600005
-0.093154289 0.038434289 0.68400002
-0.091851436 0.038434289 0.68400002
-0.090548575 0.038434289 0.68400002
-0.089245722 0.038434289 0.68400002
-0.087942861 0.038434289 0.68400002
-0.086640008 0.038434289 0.68400002
-0.085337147 0.038434289 0.68400002
-0.084034294 0.038434289 0.68400002
-0.082731433 0.038434289 0.68400002
-0.08142858 0.038434289 0.68400002
-0.080360003 0.03854667 0.68600005
-0.079053335 0.03854667 0.68600005
-0.077746674 0.03854667 0.68600005
-0.07655143 0.038602859 0.68700004
-0.075461909 0.03871524 0.68900001
-0.074149527 0.03871524 0.68900001
-0.07294286 0.038771432 0.69000006
-0.071732387 0.03882762 0.69100004
-0.070416197 0.03882762 0.69100004
-0.069300003 0.038940001 0.69300002
-0.068078101 0.038996194 0.69400001
-0.066852383 0.039052382 0.69500005
-0.065717146 0.039164763 0.69700003
-0.064666674 0.039333336 0.70000005
-0.063423812 0.039389525 0.70100003
-0.062088575 0.039389525 0.70100003
-0.060753338 0.039389525 0.70100003
-0.059418101 0.039389525 0.70100003
-0.11683334 0.040724766 0.70100003
-0.11533334 0.04066667 0.70000005
-0.11367429 0.040550478 0.69800001
-0.11218382 0.040492382 0.69700003
-0.1108562 0.040492382 0.69700003
-0.10921429 0.040376194 0.69500005
-0.10773525 0.040318098 0.69400001
-0.10595334 0.040143814 0.69100004
-0.10448572 0.040085718 0.69000006
-0.10317144 0.040085718 0.69000006
-0.10141429 0.03991143 0.68700004
-0.10010572 0.03991143 0.68700004
-0.098653339 0.039853334 0.68600005
-0.097346671 0.039853334 0.68600005
-0.096040003 0.039853334 0.68600005
-0.094733343 0.039853334 0.68600005
-0.093154289 0.039737146 0.68400002
-0.091851436 0.039737146 0.68400002
-0.090548575 0.039737146 0.68400002
-0.089245722 0.039737146 0.68400002
-0.087942861 0.039737146 0.68400002
-0.086640008 0.039737146 0.68400002
-0.085337147 0.039737146 0.68400002
-0.084034294 0.039737146 0.68400002
-0.082731433 0.039737146 0.68400002
-0.08142858 0.039737146 0.68400002
-0.080360003 0.039853334 0.68600005
-0.079053335 0.039853334 0.68600005
-0.077746674 0.039853334 0.68600005
-0.07655143 0.03991143 0.68700004
-0.075461909 0.040027622 0.68900001
-0.074149527 0.040027622 0.68900001
-0.07294286 0.040085718 0.69000006
-0.071732387 0.040143814 0.69100004
-0.070416197 0.040143814 0.69100004
-0.069300003 0.040260002 0.69300002
-0.068078101 0.040318098 0.69400001
-0.067044765 0.040492382 0.69700003
-0.065811433 0.040550478 0.69800001
-0.064666674 0.04066667 0.70000005
-0.063423812 0.040724766 0.70100003
-0.062088575 0.040724766 0.70100003
-0.060753338 0.040724766 0.70100003
-0.059418101 0.040724766 0.70100003
-0.05808286 0.040724766 0.70100003
-0.11683334 0.042060003 0.70100003
-0.1154981 0.042060003 0.70100003
-0.11367429 0.041880004 0.69800001
-0.11218382 0.041820005 0.69700003
-0.1108562 0.041820005 0.69700003
-0.10921429 0.041700002 0.69500005
-0.10773525 0.041640002 0.69400001
-0.10626001 0.041580003 0.69300002
-0.10463715 0.041460004 0.69100004
-0.10317144 0.041400004 0.69000006
-0.10185715 0.041400004 0.69000006
-0.10010572 0.041220002 0.68700004
-0.09879715 0.041220002 0.68700004
-0.097488575 0.041220002 0.68700004
-0.096040003 0.041160002 0.68600005
-0.094733343 0.041160002 0.68600005
-0.093426675 0.041160002 0.68600005
-0.092120007 0.041160002 0.68600005
-0.090813339 0.041160002 0.68600005
-0.089506671 0.041160002 0.68600005
-0.088200003 0.041160002 0.68600005
-0.086893342 0.041160002 0.68600005
-0.085586675 0.041160002 0.68600005
-0.084280007 0.041160002 0.68600005
-0.082973339 0.041160002 0.68600005
-0.081666671 0.041160002 0.68600005
-0.080360003 0.041160002 0.68600005
-0.079053335 0.041160002 0.68600005
-0.077860005 0.041220002 0.68700004
-0.07655143 0.041220002 0.68700004
-0.075461909 0.041340001 0.68900001
-0.07425715 0.041400004 0.69000006
-0.07294286 0.041400004 0.69000006
-0.071732387 0.041460004 0.69100004
-0.070620008 0.041580003 0.69300002
-0.069400005 0.041640002 0.69400001
-0.068176195 0.041700002 0.69500005
-0.067044765 0.041820005 0.69700003
-0.065811433 0.041880004 0.69800001
-0.064666674 0.042000003 0.70000005
-0.063423812 0.042060003 0.70100003
-0.062088575 0.042060003 0.70100003
-0.060926672 0.042180002 0.70300001
-0.059587624 0.042180002 0.70300001
-0.11867429 0.043580957 0.70400006
-0.11716668 0.04351905 0.70300001
-0.1154981 0.04339524 0.70100003
-0.11400001 0.043333337 0.70000005
-0.11234477 0.043209527 0.69800001
-0.1108562 0.043147624 0.69700003
-0.10921429 0.043023814 0.69500005
-0.10773525 0.042961907 0.69400001
-0.10626001 0.042900003 0.69300002
-0.10463715 0.042776193 0.69100004
-0.10332096 0.042776193 0.69100004
-0.10185715 0.04271429 0.69000006
-0.10039715 0.042652383 0.68900001
-0.09879715 0.042528573 0.68700004
-0.097488575 0.042528573 0.68700004
-0.096040003 0.04246667 0.68600005
-0.094733343 0.04246667 0.68600005
-0.093426675 0.04246667 0.68600005
-0.092120007 0.04246667 0.68600005
-0.090813339 0.04246667 0.68600005
-0.089506671 0.04246667 0.68600005
-0.088200003 0.04246667 0.68600005
-0.086893342 0.04246667 0.68600005
-0.085586675 0.04246667 0.68600005
-0.084280007 0.04246667 0.68600005
-0.082973339 0.04246667 0.68600005
-0.081666671 0.04246667 0.68600005
-0.080477148 0.042528573 0.68700004
-0.079168573 0.042528573 0.68700004
-0.077860005 0.042528573 0.68700004
-0.076774292 0.042652383 0.68900001
-0.075571433 0.04271429 0.69000006
-0.07425715 0.04271429 0.69000006
-0.07294286 0.04271429 0.69000006
-0.071732387 0.042776193 0.69100004
-0.070620008 0.042900003 0.69300002
-0.069400005 0.042961907 0.69400001
-0.068176195 0.043023814 0.69500005
-0.067044765 0.043147624 0.69700003
-0.065811433 0.043209527 0.69800001
-0.064666674 0.043333337 0.70000005
-0.063423812 0.04339524 0.70100003
-0.06226572 0.04351905 0.70300001
-0.060926672 0.04351905 0.70300001
-0.059587624 0.04351905 0.70300001
-0.12204573 0.045177147 0.708
-0.12052667 0.045113336 0.70700002
-0.11884286 0.044985719 0.70500004
-0.11733334 0.044921909 0.70400006
-0.11582763 0.044858098 0.70300001
-0.11416286 0.044730481 0.70100003
-0.11266667 0.04466667 0.70000005
-0.11101525 0.044539049 0.69800001
-0.10952858 0.044475242 0.69700003
-0.10789049 0.044347622 0.69500005
-0.10641334 0.044283811 0.69400001
-0.10463715 0.044092383 0.69100004
-0.10332096 0.044092383 0.69100004
-0.10185715 0.044028573 0.69000006
-0.10039715 0.043964766 0.68900001
-0.09879715 0.043837145 0.68700004
-0.097488575 0.043837145 0.68700004
-0.096040003 0.043773334 0.68600005
-0.094733343 0.043773334 0.68600005
-0.093426675 0.043773334 0.68600005
-0.092120007 0.043773334 0.68600005
-0.090813339 0.043773334 0.68600005
-0.089506671 0.043773334 0.68600005
-0.088200003 0.043773334 0.68600005
-0.086893342 0.043773334 0.68600005
-0.085586675 0.043773334 0.68600005
-0.084280007 0.043773334 0.68600005
-0.082973339 0.043773334 0.68600005
-0.081785716 0.043837145 0.68700004
-0.080477148 0.043837145 0.68700004
-0.079399049 0.043964766 0.68900001
-0.078086674 0.043964766 0.68900001
-0.076774292 0.043964766 0.68900001
-0.075571433 0.044028573 0.69000006
-0.07425715 0.044028573 0.69000006
-0.073048577 0.044092383 0.69100004
-0.071732387 0.044092383 0.69100004
-0.070620008 0.044220004 0.69300002
-0.069400005 0.044283811 0.69400001
-0.068372384 0.044475242 0.69700003
-0.067044765 0.044475242 0.69700003
-0.065811433 0.044539049 0.69800001
-0.064666674 0.04466667 0.70000005
-0.063423812 0.044730481 0.70100003
-0.06226572 0.044858098 0.70300001
-0.061013337 0.044921909 0.70400006
-0.059757147 0.044985719 0.70500004
-0.058580004 0.045113336 0.70700002
-0.12152858 0.046328574 0.70500004
-0.11884286 0.046328574 0.70500004
-0.11733334 0.04626286 0.70400006
-0.11582763 0.046197146 0.70300001
-0.11416286 0.046065718 0.70100003
-0.11282763 0.046065718 0.70100003
-0.11101525 0.045868576 0.69800001
-0.10952858 0.045802861 0.69700003
-0.10789049 0.045671433 0.69500005
-0.10641334 0.045605719 0.69400001
-0.10463715 0.045408573 0.69100004
-0.10332096 0.045408573 0.69100004
-0.10185715 0.045342859 0.69000006
-0.10039715 0.045277145 0.68900001
-0.099084765 0.045277145 0.68900001
-0.09777239 0.045277145 0.68900001
-0.096180007 0.045145717 0.68700004
-0.094871432 0.045145717 0.68700004
-0.093562864 0.045145717 0.68700004
-0.092120007 0.045080002 0.68600005
-0.090813339 0.045080002 0.68600005
-0.089506671 0.045080002 0.68600005
-0.088200003 0.045080002 0.68600005
-0.086893342 0.045080002 0.68600005
-0.085586675 0.045080002 0.68600005
-0.084280007 0.045080002 0.68600005
-0.083094291 0.045145717 0.68700004
-0.081785716 0.045145717 0.68700004
-0.080477148 0.045145717 0.68700004
-0.079399049 0.045277145 0.68900001
-0.078086674 0.045277145 0.68900001
-0.076885723 0.045342859 0.69000006
-0.075571433 0.045342859 0.69000006
-0.07425715 0.045342859 0.69000006
-0.073048577 0.045408573 0.69100004
-0.071732387 0.045408573 0.69100004
-0.070721909 0.045605719 0.69400001
-0.069500007 0.045671433 0.69500005
-0.068372384 0.045802861 0.69700003
-0.067044765 0.045802861 0.69700003
-0.065811433 0.045868576 0.69800001
-0.064666674 0.046000004 0.70000005
-0.063423812 0.046065718 0.70100003
-0.06226572 0.046197146 0.70300001
-0.061013337 0.04626286 0.70400006
-0.059757147 0.046328574 0.70500004
-0.058580004 0.046460003 0.70700002
-0.11867429 0.047603812 0.70400006
-0.11733334 0.047603812 0.70400006
-0.11582763 0.047536194 0.70300001
-0.11416286 0.047400955 0.70100003
-0.11282763 0.047400955 0.70100003
-0.11101525 0.047198098 0.69800001
-0.10952858 0.04713048 0.69700003
-0.10789049 0.046995241 0.69500005
-0.10641334 0.046927623 0.69400001
-0.10494 0.046860002 0.69300002
-0.10332096 0.046724766 0.69100004
-0.10185715 0.046657145 0.69000006
-0.10054287 0.046657145 0.69000006
-0.099084765 0.046589527 0.68900001
-0.09777239 0.046589527 0.68900001
-0.096460007 0.046589527 0.68900001
-0.095147625 0.046589527 0.68900001
-0.093835242 0.046589527 0.68900001
-0.092254288 0.046454288 0.68700004
-0.090945721 0.046454288 0.68700004
-0.089506671 0.04638667 0.68600005
-0.088200003 0.04638667 0.68600005
-0.086893342 0.04638667 0.68600005
-0.085586675 0.04638667 0.68600005
-0.084402859 0.046454288 0.68700004
-0.083094291 0.046454288 0.68700004
-0.081785716 0.046454288 0.68700004
-0.080711432 0.046589527 0.68900001
-0.079399049 0.046589527 0.68900001
-0.078086674 0.046589527 0.68900001
-0.076885723 0.046657145 0.69000006
-0.075571433 0.046657145 0.69000006
-0.07425715 0.046657145 0.69000006
-0.073048577 0.046724766 0.69100004
-0.071940005 0.046860002 0.69300002
-0.070721909 0.046927623 0.69400001
-0.069500007 0.046995241 0.69500005
-0.068372384 0.04713048 0.69700003
-0.067044765 0.04713048 0.69700003
-0.065811433 0.047198098 0.69800001
-0.064666674 0.047333337 0.70000005
-0.063423812 0.047400955 0.70100003
-0.06226572 0.047536194 0.70300001
-0.061100002 0.047671434 0.70500004
-0.05992667 0.047806669 0.70700002
-0.058662862 0.04787429 0.708
-0.057314288 0.04787429 0.708
-0.056123812 0.048009526 0.71000004
0.12760001 0.05490667 0.81200004
0.16626668 0.05490667 0.81200004
0.16740002 0.054771431 0.81000006
0.16894287 0.054771431 0.81000006
-0.1233943 0.04922286 0.708
-0.12204573 0.04922286 0.708
-0.12069715 0.04922286 0.708
-0.11884286 0.049014289 0.70500004
-0.11733334 0.048944764 0.70400006
-0.11582763 0.048875242 0.70300001
-0.11448858 0.048875242 0.70300001
-0.11282763 0.048736192 0.70100003
-0.11133334 0.048666671 0.70000005
-0.10952858 0.048458099 0.69700003
-0.10789049 0.048319049 0.69500005
-0.10656668 0.048319049 0.69500005
-0.10494 0.048180003 0.69300002
-0.10332096 0.048040956 0.69100004
-0.10185715 0.047971431 0.69000006
-0.10054287 0.047971431 0.69000006
-0.099084765 0.047901906 0.68900001
-0.09777239 0.047901906 0.68900001
-0.096460007 0.047901906 0.68900001
-0.095147625 0.047901906 0.68900001
-0.093835242 0.047901906 0.68900001
-0.09252286 0.047901906 0.68900001
-0.090945721 0.04776286 0.68700004
-0.089637145 0.04776286 0.68700004
-0.088200003 0.047693338 0.68600005
-0.087020002 0.04776286 0.68700004
-0.085711434 0.04776286 0.68700004
-0.084402859 0.04776286 0.68700004
-0.083094291 0.04776286 0.68700004
-0.081785716 0.04776286 0.68700004
-0.080711432 0.047901906 0.68900001
-0.079399049 0.047901906 0.68900001
-0.078200005 0.047971431 0.69000006
-0.076885723 0.047971431 0.69000006
-0.075571433 0.047971431 0.69000006
-0.074364766 0.048040956 0.69100004
-0.073048577 0.048040956 0.69100004
-0.071940005 0.048180003 0.69300002
-0.070721909 0.048249528 0.69400001
-0.069500007 0.048319049 0.69500005
-0.068372384 0.048458099 0.69700003
-0.067044765 0.048458099 0.69700003
-0.065811433 0.048527621 0.69800001
-0.064666674 0.048666671 0.70000005
-0.063423812 0.048736192 0.70100003
-0.06226572 0.048875242 0.70300001
-0.061100002 0.049014289 0.70500004
-0.05992667 0.049153335 0.70700002
-0.058662862 0.04922286 0.708
-0.057314288 0.04922286 0.708
-0.056123812 0.049361907 0.71000004
-0.055002861 0.049570478 0.71300006
-0.053644765 0.049570478 0.71300006
-0.12204573 0.05057143 0.708
-0.12069715 0.05057143 0.708
-0.11918001 0.050500002 0.70700002
-0.11783334 0.050500002 0.70700002
-0.11615715 0.050357144 0.70500004
-0.11465143 0.050285719 0.70400006
-0.11314953 0.050214291 0.70300001
-0.11133334 0.050000004 0.70000005
-0.10968572 0.049857147 0.69800001
-0.10820096 0.049785718 0.69700003
-0.10656668 0.049642861 0.69500005
-0.10494 0.049500003 0.69300002
-0.10362001 0.049500003 0.69300002
-0.10200477 0.049357146 0.69100004
-0.10054287 0.049285717 0.69000006
-0.099228576 0.049285717 0.69000006
-0.097914293 0.049285717 0.69000006
-0.096600004 0.049285717 0.69000006
-0.095147625 0.049214289 0.68900001
-0.093835242 0.049214289 0.68900001
-0.09252286 0.049214289 0.68900001
-0.091210485 0.049214289 0.68900001
-0.089898102 0.049214289 0.68900001
-0.088328578 0.049071431 0.68700004
-0.087020002 0.049071431 0.68700004
-0.085711434 0.049071431 0.68700004
-0.084648579 0.049214289 0.68900001
-0.083336197 0.049214289 0.68900001
-0.082023814 0.049214289 0.68900001
-0.080828577 0.049285717 0.69000006
-0.079514287 0.049285717 0.69000006
-0.078200005 0.049285717 0.69000006
-0.076997146 0.049357146 0.69100004
-0.075680956 0.049357146 0.69100004
-0.074364766 0.049357146 0.69100004
-0.073260002 0.049500003 0.69300002
-0.072043814 0.049571432 0.69400001
-0.070823811 0.049642861 0.69500005
-0.069700003 0.049785718 0.69700003
-0.068372384 0.049785718 0.69700003
-0.067044765 0.049785718 0.69700003
-0.065811433 0.049857147 0.69800001
-0.064666674 0.050000004 0.70000005
-0.063604765 0.050214291 0.70300001
-0.062354289 0.050285719 0.70400006
-0.061100002 0.050357144 0.70500004
-0.060011432 0.05057143 0.708
-0.058662862 0.05057143 0.708
-0.057476193 0.050714288 0.71000004
-0.056123812 0.050714288 0.71000004
-0.054848574 0.050785717 0.71100003
-0.053644765 0.050928574 0.71300006
-0.1233943 0.051920004 0.708
-0.12204573 0.051920004 0.708
-0.12069715 0.051920004 0.708
-0.11918001 0.051846672 0.70700002
-0.11783334 0.051846672 0.70700002
-0.11615715 0.051700003 0.70500004
-0.11465143 0.051626671 0.70400006
-0.11314953 0.051553335 0.70300001
-0.11133334 0.051333338 0.70000005
-0.10968572 0.05118667 0.69800001
-0.10820096 0.051113337 0.69700003
-0.10656668 0.050966669 0.69500005
-0.10494 0.050820004 0.69300002
-0.10362001 0.050820004 0.69300002
-0.10200477 0.050673336 0.69100004
-0.10068858 0.050673336 0.69100004
-0.099228576 0.050600003 0.69000006
-0.097914293 0.050600003 0.69000006
-0.096600004 0.050600003 0.69000006
-0.095285721 0.050600003 0.69000006
-0.093971431 0.050600003 0.69000006
-0.092657149 0.050600003 0.69000006
-0.091342866 0.050600003 0.69000006
-0.089898102 0.050526671 0.68900001
-0.088585719 0.050526671 0.68900001
-0.087273337 0.050526671 0.68900001
-0.085960954 0.050526671 0.68900001
-0.084648579 0.050526671 0.68900001
-0.083336197 0.050526671 0.68900001
-0.08214286 0.050600003 0.69000006
-0.080828577 0.050600003 0.69000006
-0.079514287 0.050600003 0.69000006
-0.078313336 0.050673336 0.69100004
-0.076997146 0.050673336 0.69100004
-0.075680956 0.050673336 0.69100004
-0.074364766 0.050673336 0.69100004
-0.073260002 0.050820004 0.69300002
-0.072043814 0.050893337 0.69400001
-0.070823811 0.050966669 0.69500005
-0.069700003 0.051113337 0.69700003
-0.068372384 0.051113337 0.69700003
-0.067044765 0.051113337 0.69700003
-0.065811433 0.05118667 0.69800001
-0.064666674 0.051333338 0.70000005
-0.063604765 0.051553335 0.70300001
-0.062354289 0.051626671 0.70400006
-0.061100002 0.051700003 0.70500004
-0.060011432 0.051920004 0.708
-0.058828574 0.052066669 0.71000004
-0.057476193 0.052066669 0.71000004
-0.056123812 0.052066669 0.71000004
-0.055002861 0.05228667 0.71300006
-0.053644765 0.05228667 0.71300006
-0.12444001 0.053720005 0.71400005
-0.12239049 0.05341905 0.71000004
-0.1210381 0.05341905 0.71000004
-0.11934858 0.053268574 0.708
-0.11783334 0.053193338 0.70700002
-0.11615715 0.053042859 0.70500004
-0.11465143 0.052967623 0.70400006
-0.11331049 0.052967623 0.70400006
-0.11149239 0.052741908 0.70100003
-0.10968572 0.052516192 0.69800001
-0.10820096 0.052440956 0.69700003
-0.10656668 0.052290481 0.69500005
-0.10509144 0.052215241 0.69400001
-0.10362001 0.052140005 0.69300002
-0.1023 0.052140005 0.69300002
-0.10068858 0.051989526 0.69100004
-0.099372387 0.051989526 0.69100004
-0.098056197 0.051989526 0.69100004
-0.096600004 0.05191429 0.69000006
-0.095285721 0.05191429 0.69000006
-0.093971431 0.05191429 0.69000006
-0.092657149 0.05191429 0.69000006
-0.091342866 0.05191429 0.69000006
-0.090028577 0.05191429 0.69000006
-0.088714294 0.05191429 0.69000006
-0.087400004 0.05191429 0.69000006
-0.086085722 0.05191429 0.69000006
-0.084771432 0.05191429 0.69000006
-0.08345715 0.05191429 0.69000006
-0.08214286 0.05191429 0.69000006
-0.080828577 0.05191429 0.69000006
-0.079629526 0.051989526 0.69100004
-0.078313336 0.051989526 0.69100004
-0.076997146 0.051989526 0.69100004
-0.075680956 0.051989526 0.69100004
-0.074580006 0.052140005 0.69300002
-0.073365718 0.052215241 0.69400001
-0.072147623 0.052290481 0.69500005
-0.070823811 0.052290481 0.69500005
-0.069700003 0.052440956 0.69700003
-0.068372384 0.052440956 0.69700003
-0.067044765 0.052440956 0.69700003
-0.065811433 0.052516192 0.69800001
-0.064666674 0.052666672 0.70000005
-0.063604765 0.052892383 0.70300001
-0.062354289 0.052967623 0.70400006
-0.061100002 0.053042859 0.70500004
-0.060011432 0.053268574 0.708
-0.058662862 0.053268574 0.708
-0.057476193 0.05341905 0.71000004
-0.056123812 0.05341905 0.71000004
-0.055002861 0.053644765 0.71300006
-0.053644765 0.053644765 0.71300006
-0.05228667 0.053644765 0.71300006
-0.12444001 0.055080004 0.71400005
-0.12308001 0.055080004 0.71400005
-0.1210381 0.054771431 0.71000004
-0.11934858 0.054617148 0.708
-0.11783334 0.054540005 0.70700002
-0.11615715 0.054385718 0.70500004
-0.11465143 0.054308575 0.70400006
-0.11314953 0.054231431 0.70300001
-0.11149239 0.054077145 0.70100003
-0.10968572 0.053845719 0.69800001
-0.10820096 0.053768575 0.69700003
-0.10656668 0.053614289 0.69500005
-0.10509144 0.053537145 0.69400001
-0.10376953 0.053537145 0.69400001
-0.1023 0.053460002 0.69300002
-0.10068858 0.053305719 0.69100004
-0.099372387 0.053305719 0.69100004
-0.098056197 0.053305719 0.69100004
-0.096740007 0.053305719 0.69100004
-0.095285721 0.053228576 0.69000006
-0.093971431 0.053228576 0.69000006
-0.092657149 0.053228576 0.69000006
-0.091342866 0.053228576 0.69000006
-0.090028577 0.053228576 0.69000006
-0.088714294 0.053228576 0.69000006
-0.087400004 0.053228576 0.69000006
-0.086085722 0.053228576 0.69000006
-0.084771432 0.053228576 0.69000006
-0.08345715 0.053228576 0.69000006
-0.08214286 0.053228576 0.69000006
-0.080945723 0.053305719 0.69100004
-0.079629526 0.053305719 0.69100004
-0.078313336 0.053305719 0.69100004
-0.076997146 0.053305719 0.69100004
-0.075680956 0.053305719 0.69100004
-0.074580006 0.053460002 0.69300002
-0.073365718 0.053537145 0.69400001
-0.072147623 0.053614289 0.69500005
-0.070823811 0.053614289 0.69500005
-0.069700003 0.053768575 0.69700003
-0.068372384 0.053768575 0.69700003
-0.067140959 0.053845719 0.69800001
-0.065811433 0.053845719 0.69800001
-0.064666674 0.054000005 0.70000005
-0.063423812 0.054077145 0.70100003
-0.062354289 0.054308575 0.70400006
-0.061100002 0.054385718 0.70500004
-0.05992667 0.054540005 0.70700002
-0.058662862 0.054617148 0.708
-0.057476193 0.054771431 0.71000004
-0.056123812 0.054771431 0.71000004
-0.054848574 0.054848574 0.71100003
-0.053644765 0.055002861 0.71300006
-0.052360002 0.055080004 0.71400005
-0.1275162 0.056598101 0.71600002
-0.1261524 0.056598101 0.71600002
-0.12444001 0.056440003 0.71400005
-0.12239049 0.056123812 0.71000004
-0.1210381 0.056123812 0.71000004
-0.11934858 0.055965718 0.708
-0.11783334 0.055886671 0.70700002
-0.11648668 0.055886671 0.70700002
-0.1148143 0.055728573 0.70500004
-0.11331049 0.055649526 0.70400006
-0.11149239 0.055412386 0.70100003
-0.11000001 0.055333339 0.70000005
-0.10820096 0.055096194 0.69700003
-0.10656668 0.0549381 0.69500005
-0.10509144 0.05485905 0.69400001
-0.10376953 0.05485905 0.69400001
-0.1023 0.054780003 0.69300002
-0.10068858 0.054621909 0.69100004
-0.099372387 0.054621909 0.69100004
-0.098056197 0.054621909 0.69100004
-0.096740007 0.054621909 0.69100004
-0.095423818 0.054621909 0.69100004
-0.094107628 0.054621909 0.69100004
-0.092791438 0.054621909 0.69100004
-0.091475241 0.054621909 0.69100004
-0.090028577 0.054542862 0.69000006
-0.088714294 0.054542862 0.69000006
-0.087400004 0.054542862 0.69000006
-0.086085722 0.054542862 0.69000006
-0.084894292 0.054621909 0.69100004
-0.083578102 0.054621909 0.69100004
-0.082261913 0.054621909 0.69100004
-0.080945723 0.054621909 0.69100004
-0.079629526 0.054621909 0.69100004
-0.078540005 0.054780003 0.69300002
-0.077220008 0.054780003 0.69300002
-0.075900003 0.054780003 0.69300002
-0.074580006 0.054780003 0.69300002
-0.073365718 0.05485905 0.69400001
-0.072147623 0.0549381 0.69500005
-0.070823811 0.0549381 0.69500005
-0.069700003 0.055096194 0.69700003
-0.068372384 0.055096194 0.69700003
-0.067140959 0.055175241 0.69800001
-0.065811433 0.055175241 0.69800001
-0.064666674 0.055333339 0.70000005
-0.063604765 0.055570479 0.70300001
-0.062354289 0.055649526 0.70400006
-0.061100002 0.055728573 0.70500004
-0.05992667 0.055886671 0.70700002
-0.058662862 0.055965718 0.708
-0.057476193 0.056123812 0.71000004
-0.055965718 0.055965718 0.708
-0.054848574 0.056202862 0.71100003
-0.053644765 0.056360956 0.71300006
-0.052360002 0.056440003 0.71400005
-0.1275162 0.057961907 0.71600002
-0.1261524 0.057961907 0.71600002
-0.12426572 0.057719052 0.71300006
-0.12239049 0.057476193 0.71000004
-0.1210381 0.057476193 0.71000004
-0.11934858 0.057314288 0.708
-0.11783334 0.057233337 0.70700002
-0.11648668 0.057233337 0.70700002
-0.1148143 0.057071432 0.70500004
-0.11331049 0.056990478 0.70400006
-0.11149239 0.056747623 0.70100003
-0.11000001 0.056666672 0.70000005
-0.1083562 0.056504767 0.69800001
-0.10687334 0.056423813 0.69700003
-0.10524286 0.056261908 0.69500005
-0.10376953 0.056180958 0.69400001
-0.1023 0.056100003 0.69300002
-0.10068858 0.055938099 0.69100004
-0.099372387 0.055938099 0.69100004
-0.098056197 0.055938099 0.69100004
-0.096740007 0.055938099 0.69100004
-0.095423818 0.055938099 0.69100004
-0.094107628 0.055938099 0.69100004
-0.092791438 0.055938099 0.69100004
-0.091475241 0.055938099 0.69100004
-0.090159051 0.055938099 0.69100004
-0.088842861 0.055938099 0.69100004
-0.087526672 0.055938099 0.69100004
-0.086210482 0.055938099 0.69100004
-0.085140005 0.056100003 0.69300002
-0.083578102 0.055938099 0.69100004
-0.082261913 0.055938099 0.69100004
-0.081180006 0.056100003 0.69300002
-0.079860002 0.056100003 0.69300002
-0.078540005 0.056100003 0.69300002
-0.077220008 0.056100003 0.69300002
-0.075900003 0.056100003 0.69300002
-0.074580006 0.056100003 0.69300002
-0.073365718 0.056180958 0.69400001
-0.072147623 0.056261908 0.69500005
-0.070823811 0.056261908 0.69500005
-0.069700003 0.056423813 0.69700003
-0.068372384 0.056423813 0.69700003
-0.067140959 0.056504767 0.69800001
-0.065811433 0.056504767 0.69800001
-0.064759053 0.056747623 0.70100003
-0.063604765 0.056909528 0.70300001
-0.062442861 0.057071432 0.70500004
-0.061273336 0.057233337 0.70700002
-0.05992667 0.057233337 0.70700002
-0.058662862 0.057314288 0.708
-0.057314288 0.057314288 0.708
-0.055965718 0.057314288 0.708
-0.054848574 0.057557147 0.71100003
-0.05349429 0.057557147 0.71100003
-0.052360002 0.057800002 0.71400005
-0.051000003 0.057800002 0.71400005
-0.1275162 0.059325717 0.71600002
-0.1261524 0.059325717 0.71600002
-0.12444001 0.059160005 0.71400005
-0.12308001 0.059160005 0.71400005
-0.12154953 0.059077147 0.71300006
-0.11968572 0.058828574 0.71000004
-0.11800001 0.058662862 0.708
-0.11648668 0.058580004 0.70700002
-0.1148143 0.058414288 0.70500004
-0.11331049 0.058331434 0.70400006
-0.11149239 0.05808286 0.70100003
-0.11000001 0.058000002 0.70000005
-0.1083562 0.05783429 0.69800001
-0.10687334 0.057751432 0.69700003
-0.10524286 0.057585716 0.69500005
-0.10376953 0.057502862 0.69400001
-0.10244763 0.057502862 0.69400001
-0.10098001 0.057420004 0.69300002
-0.099660009 0.057420004 0.69300002
-0.098340005 0.057420004 0.69300002
-0.097020008 0.057420004 0.69300002
-0.095700003 0.057420004 0.69300002
-0.094107628 0.057254288 0.69100004
-0.093060009 0.057420004 0.69300002
-0.091740005 0.057420004 0.69300002
-0.090420008 0.057420004 0.69300002
-0.089100003 0.057420004 0.69300002
-0.087780006 0.057420004 0.69300002
-0.086460009 0.057420004 0.69300002
-0.085140005 0.057420004 0.69300002
-0.083820008 0.057420004 0.69300002
-0.082500003 0.057420004 0.69300002
-0.081180006 0.057420004 0.69300002
-0.079860002 0.057420004 0.69300002
-0.078540005 0.057420004 0.69300002
-0.077331431 0.057502862 0.69400001
-0.075900003 0.057420004 0.69300002
-0.074687622 0.057502862 0.69400001
-0.073365718 0.057502862 0.69400001
-0.072147623 0.057585716 0.69500005
-0.070823811 0.057585716 0.69500005
-0.069700003 0.057751432 0.69700003
-0.068372384 0.057751432 0.69700003
-0.067140959 0.05783429 0.69800001
-0.065811433 0.05783429 0.69800001
-0.064759053 0.05808286 0.70100003
-0.063604765 0.058248576 0.70300001
-0.062442861 0.058414288 0.70500004
-0.061273336 0.058580004 0.70700002
-0.060011432 0.058662862 0.708
-0.058662862 0.058662862 0.708
-0.057314288 0.058662862 0.708
-0.055965718 0.058662862 0.708
-0.054771431 0.058828574 0.71000004
-0.05341905 0.058828574 0.71000004
-0.05228667 0.059077147 0.71300006
0.14576097 0.065705717 0.79300004
-0.12716001 0.060520004 0.71400005
-0.12580001 0.060520004 0.71400005
-0.12496287 0.060774289 0.71700001
-0.12342477 0.060689528 0.71600002
-0.12172001 0.060520004 0.71400005
-0.11985429 0.06026572 0.71100003
-0.11800001 0.060011432 0.708
-0.11665144 0.060011432 0.708
-0.1148143 0.059757147 0.70500004
-0.11331049 0.059672385 0.70400006
-0.11149239 0.059418101 0.70100003
-0.11000001 0.059333336 0.70000005
-0.10866667 0.059333336 0.70000005
-0.10687334 0.059079051 0.69700003
-0.10524286 0.058909528 0.69500005
-0.10391905 0.058909528 0.69500005
-0.10244763 0.058824766 0.69400001
-0.10112572 0.058824766 0.69400001
-0.099660009 0.058740005 0.69300002
-0.098340005 0.058740005 0.69300002
-0.097020008 0.058740005 0.69300002
-0.095700003 0.058740005 0.69300002
-0.094380006 0.058740005 0.69300002
-0.093060009 0.058740005 0.69300002
-0.091740005 0.058740005 0.69300002
-0.090420008 0.058740005 0.69300002
-0.089100003 0.058740005 0.69300002
-0.087780006 0.058740005 0.69300002
-0.086460009 0.058740005 0.69300002
-0.085262865 0.058824766 0.69400001
-0.083820008 0.058740005 0.69300002
-0.082500003 0.058740005 0.69300002
-0.081297152 0.058824766 0.69400001
-0.07997524 0.058824766 0.69400001
-0.078653336 0.058824766 0.69400001
-0.077331431 0.058824766 0.69400001
-0.076009527 0.058824766 0.69400001
-0.074687622 0.058824766 0.69400001
-0.073471434 0.058909528 0.69500005
-0.072147623 0.058909528 0.69500005
-0.070823811 0.058909528 0.69500005
-0.069700003 0.059079051 0.69700003
-0.068470478 0.059163813 0.69800001
-0.067140959 0.059163813 0.69800001
-0.066000007 0.059333336 0.70000005
-0.064943813 0.059587624 0.70300001
-0.063695244 0.059672385 0.70400006
-0.062442861 0.059757147 0.70500004
-0.061273336 0.05992667 0.70700002
-0.060011432 0.060011432 0.708
-0.058662862 0.060011432 0.708
-0.057314288 0.060011432 0.708
-0.055965718 0.060011432 0.708
-0.054771431 0.060180955 0.71000004
-0.05349429 0.06026572 0.71100003
-0.05250667 0.060689528 0.71600002
-0.05114286 0.060689528 0.71600002
0.14238001 0.067046672 0.79100001
0.14388667 0.067046672 0.79100001
0.14539334 0.067046672 0.79100001
0.14690001 0.067046672 0.79100001
-0.1275162 0.062053338 0.71600002
-0.1261524 0.062053338 0.71600002
-0.12478858 0.062053338 0.71600002
-0.12342477 0.062053338 0.71600002
-0.12172001 0.061880004 0.71400005
-0.12019144 0.061793339 0.71300006
-0.11850001 0.061620004 0.71100003
-0.11714572 0.061620004 0.71100003
-0.11514001 0.061273336 0.70700002
-0.11331049 0.061013337 0.70400006
-0.11149239 0.060753338 0.70100003
-0.11015715 0.060753338 0.70100003
-0.10866667 0.060666669 0.70000005
-0.10702667 0.060493339 0.69800001
-0.10554572 0.06040667 0.69700003
-0.10391905 0.060233336 0.69500005
-0.10259525 0.060233336 0.69500005
-0.10112572 0.060146671 0.69400001
-0.099803813 0.060146671 0.69400001
-0.098481908 0.060146671 0.69400001
-0.097020008 0.060060006 0.69300002
-0.095700003 0.060060006 0.69300002
-0.094380006 0.060060006 0.69300002
-0.093060009 0.060060006 0.69300002
-0.091872387 0.060146671 0.69400001
-0.090550482 0.060146671 0.69400001
-0.089228578 0.060146671 0.69400001
-0.087780006 0.060060006 0.69300002
-0.086584769 0.060146671 0.69400001
-0.085262865 0.060146671 0.69400001
-0.08394096 0.060146671 0.69400001
-0.082500003 0.060060006 0.69300002
-0.081297152 0.060146671 0.69400001
-0.07997524 0.060146671 0.69400001
-0.078653336 0.060146671 0.69400001
-0.077331431 0.060146671 0.69400001
-0.076009527 0.060146671 0.69400001
-0.074795246 0.060233336 0.69500005
-0.073471434 0.060233336 0.69500005
-0.072147623 0.060233336 0.69500005
-0.070823811 0.060233336 0.69500005
-0.069700003 0.06040667 0.69700003
-0.068470478 0.060493339 0.69800001
-0.067333341 0.060666669 0.70000005
-0.066094287 0.060753338 0.70100003
-0.064943813 0.060926672 0.70300001
-0.063695244 0.061013337 0.70400006
-0.062442861 0.061100002 0.70500004
