# .PCD v0.7 - Point Cloud Data file format
VERSION 0.7
FIELDS x y z
SIZE 4 4 4
TYPE F F F
COUNT 1 1 1
WIDTH 1344
HEIGHT 1
VIEWPOINT 0 0 0 1 0 0 0
POINTS 1344
DATA ascii
-0.035828575 0.023257144 0.66000003
-0.034571432 0.023257144 0.66000003
-0.033314288 0.023257144 0.66000003
-0.032057144 0.023257144 0.66000003
-0.030846668 0.023292383 0.66100001
-0.029632382 0.023327621 0.66200006
-0.028414287 0.023362858 0.66300005
-0.027233334 0.023433335 0.66500002
-0.026005715 0.023468573 0.66600001
-0.024774287 0.02350381 0.66700006
-0.02350381 0.02350381 0.66700006
-0.022233335 0.02350381 0.66700006
-0.021025715 0.023574287 0.66900003
-0.019780954 0.023609525 0.67000002
-0.018532382 0.023644764 0.671
-0.017254287 0.023644764 0.671
-0.016000001 0.023680001 0.67200005
-0.01480762 0.023820953 0.67600006
-0.013520001 0.023820953 0.67600006
-0.075214289 0.025071431 0.67500001
-0.07392858 0.025071431 0.67500001
-0.072535239 0.025034288 0.67400002
-0.07125143 0.025034288 0.67400002
-0.069760002 0.024960002 0.67200005
-0.068378098 0.024922859 0.671
-0.067000002 0.024885716 0.67000002
-0.06562572 0.024848573 0.66900003
-0.064159051 0.024774287 0.66700006
-0.06279429 0.024737144 0.66600001
-0.061433338 0.024700001 0.66500002
-0.060166672 0.024700001 0.66500002
-0.058722861 0.024625717 0.66300005
-0.057460003 0.024625717 0.66300005
-0.056112386 0.024588574 0.66200006
-0.054768573 0.024551431 0.66100001
-0.053509526 0.024551431 0.66100001
-0.052171431 0.024514288 0.66000003
-0.050914288 0.024514288 0.66000003
-0.049657147 0.024514288 0.66000003
-0.048253335 0.024440002 0.65800005
-0.047000002 0.024440002 0.65800005
-0.045746669 0.024440002 0.65800005
-0.044493336 0.024440002 0.65800005
-0.043240003 0.024440002 0.65800005
-0.04198667 0.024440002 0.65800005
-0.040733337 0.024440002 0.65800005
-0.039480001 0.024440002 0.65800005
-0.038226668 0.024440002 0.65800005
-0.037085716 0.024514288 0.66000003
-0.035828575 0.024514288 0.66000003
-0.034623813 0.024551431 0.66100001
-0.033364765 0.024551431 0.66100001
-0.032105718 0.024551431 0.66100001
-0.030893335 0.024588574 0.66200006
-0.029677145 0.024625717 0.66300005
-0.028414287 0.024625717 0.66300005
-0.027274288 0.024737144 0.66600001
-0.026044764 0.024774287 0.66700006
-0.024848573 0.024848573 0.66900003
-0.023574287 0.024848573 0.66900003
-0.022300001 0.024848573 0.66900003
-0.021057144 0.024885716 0.67000002
-0.019810477 0.024922859 0.671
-0.018532382 0.024922859 0.671
-0.017280001 0.024960002 0.67200005
-0.016000001 0.024960002 0.67200005
-0.01480762 0.025108574 0.67600006
-0.013520001 0.025108574 0.67600006
-0.075548574 0.026474288 0.67800003
-0.07425715 0.026474288 0.67800003
-0.072750479 0.026396193 0.67600006
-0.071357146 0.026357144 0.67500001
-0.070071436 0.026357144 0.67500001
-0.068683811 0.026318097 0.67400002
-0.067100003 0.026200954 0.671
-0.06562572 0.026122859 0.66900003
-0.064351432 0.026122859 0.66900003
-0.062888578 0.026044764 0.66700006
-0.061525717 0.026005715 0.66600001
-0.060166672 0.025966669 0.66500002
-0.058900002 0.025966669 0.66500002
-0.057460003 0.025888573 0.66300005
-0.056197148 0.025888573 0.66300005
-0.054851431 0.025849525 0.66200006
-0.05359048 0.025849525 0.66200006
-0.052250478 0.025810478 0.66100001
-0.050991431 0.025810478 0.66100001
-0.049657147 0.02577143 0.66000003
-0.048400003 0.02577143 0.66000003
-0.04714286 0.02577143 0.66000003
-0.045885716 0.02577143 0.66000003
-0.044628575 0.02577143 0.66000003
-0.043240003 0.025693335 0.65800005
-0.042114288 0.02577143 0.66000003
-0.040857144 0.02577143 0.66000003
-0.039600004 0.02577143 0.66000003
-0.038400955 0.025810478 0.66100001
-0.037141908 0.025810478 0.66100001
-0.03588286 0.025810478 0.66100001
-0.034676194 0.025849525 0.66200006
-0.033415239 0.025849525 0.66200006
-0.032154288 0.025849525 0.66200006
-0.030940002 0.025888573 0.66300005
-0.029677145 0.025888573 0.66300005
-0.028500002 0.025966669 0.66500002
-0.027274288 0.026005715 0.66600001
-0.026122859 0.026122859 0.66900003
-0.024885716 0.026161907 0.67000002
-0.023609525 0.026161907 0.67000002
-0.022366669 0.026200954 0.671
-0.021088572 0.026200954 0.671
-0.019840002 0.026240002 0.67200005
-0.018560002 0.026240002 0.67200005
-0.017331429 0.026318097 0.67400002
-0.016047619 0.026318097 0.67400002
-0.01480762 0.026396193 0.67600006
-0.013520001 0.026396193 0.67600006
-0.07425715 0.027765715 0.67800003
-0.072750479 0.027683811 0.67600006
-0.071357146 0.027642859 0.67500001
-0.070071436 0.027642859 0.67500001
-0.068683811 0.027601907 0.67400002
-0.067200005 0.027520001 0.67200005
-0.065723814 0.027438097 0.67000002
-0.064351432 0.027397145 0.66900003
-0.063077144 0.027397145 0.66900003
-0.061618101 0.02731524 0.66700006
-0.060257148 0.027274288 0.66600001
-0.058988575 0.027274288 0.66600001
-0.057633337 0.027233334 0.66500002
-0.056366671 0.027233334 0.66500002
-0.054934289 0.02715143 0.66300005
-0.053671431 0.02715143 0.66300005
-0.052329529 0.027110478 0.66200006
-0.051068574 0.027110478 0.66200006
-0.049732383 0.027069526 0.66100001
-0.048473336 0.027069526 0.66100001
-0.047214288 0.027069526 0.66100001
-0.045885716 0.027028574 0.66000003
-0.044628575 0.027028574 0.66000003
-0.043371432 0.027028574 0.66000003
-0.042178098 0.027069526 0.66100001
-0.040980954 0.027110478 0.66200006
-0.039720003 0.027110478 0.66200006
-0.038459051 0.027110478 0.66200006
-0.037198097 0.027110478 0.66200006
-0.035937145 0.027110478 0.66200006
-0.034728575 0.02715143 0.66300005
-0.033465717 0.02715143 0.66300005
-0.032202858 0.02715143 0.66300005
-0.031033335 0.027233334 0.66500002
-0.029766669 0.027233334 0.66500002
-0.028542859 0.027274288 0.66600001
-0.02731524 0.02731524 0.66700006
-0.026161907 0.027438097 0.67000002
-0.024922859 0.027479049 0.671
-0.023644764 0.027479049 0.671
-0.022400001 0.027520001 0.67200005
-0.021182859 0.027601907 0.67400002
-0.01989905 0.027601907 0.67400002
-0.01861524 0.027601907 0.67400002
-0.017357145 0.027642859 0.67500001
-0.016047619 0.027601907 0.67400002
-0.01480762 0.027683811 0.67600006
-0.013520001 0.027683811 0.67600006
-0.074366674 0.029100003 0.67900002
-0.072965719 0.029057145 0.67800003
-0.071462862 0.02897143 0.67600006
-0.070175245 0.02897143 0.67600006
-0.06878572 0.028928574 0.67500001
-0.067400001 0.028885717 0.67400002
-0.065821908 0.028757146 0.671
-0.064447626 0.028714288 0.67000002
-0.063077144 0.02867143 0.66900003
-0.061618101 0.028585717 0.66700006
-0.060347624 0.028585717 0.66700006
-0.059077147 0.028585717 0.66700006
-0.057720006 0.028542859 0.66600001
-0.056366671 0.028500002 0.66500002
-0.055100005 0.028500002 0.66500002
-0.053671431 0.028414287 0.66300005
-0.052408576 0.028414287 0.66300005
-0.051145718 0.028414287 0.66300005
-0.049807623 0.028371431 0.66200006
-0.048546668 0.028371431 0.66200006
-0.047285717 0.028371431 0.66200006
-0.045955241 0.028328573 0.66100001
-0.044696193 0.028328573 0.66100001
-0.043437146 0.028328573 0.66100001
-0.042241909 0.028371431 0.66200006
-0.040980954 0.028371431 0.66200006
-0.039720003 0.028371431 0.66200006
-0.038459051 0.028371431 0.66200006
-0.037254289 0.028414287 0.66300005
-0.03599143 0.028414287 0.66300005
-0.034728575 0.028414287 0.66300005
-0.033566669 0.028500002 0.66500002
-0.032300003 0.028500002 0.66500002
-0.031033335 0.028500002 0.66500002
-0.029811431 0.028542859 0.66600001
-0.028542859 0.028542859 0.66600001
-0.02731524 0.028585717 0.66700006
-0.026122859 0.02867143 0.66900003
-0.024960002 0.028800001 0.67200005
-0.023750478 0.028885717 0.67400002
-0.022466669 0.028885717 0.67400002
-0.021182859 0.028885717 0.67400002
-0.019928573 0.028928574 0.67500001
-0.018642858 0.028928574 0.67500001
-0.017382858 0.02897143 0.67600006
-0.016071429 0.028928574 0.67500001
-0.014785715 0.028928574 0.67500001
-0.074476197 0.030438097 0.68000001
-0.073180959 0.030438097 0.68000001
-0.071780004 0.030393336 0.67900002
-0.070486672 0.030393336 0.67900002
-0.069091432 0.030348573 0.67800003
-0.067600004 0.03025905 0.67600006
-0.066214293 0.030214287 0.67500001
-0.064543813 0.030035241 0.671
-0.063171431 0.029990477 0.67000002
-0.06180286 0.029945716 0.66900003
-0.060528576 0.029945716 0.66900003
-0.059254289 0.029945716 0.66900003
-0.057806671 0.029856192 0.66700006
-0.056451432 0.029811431 0.66600001
-0.055182859 0.029811431 0.66600001
-0.053833336 0.029766669 0.66500002
-0.05256667 0.029766669 0.66500002
-0.051300004 0.029766669 0.66500002
-0.049882859 0.029677145 0.66300005
-0.048620004 0.029677145 0.66300005
-0.047357146 0.029677145 0.66300005
-0.046024766 0.029632382 0.66200006
-0.044763811 0.029632382 0.66200006
-0.04350286 0.029632382 0.66200006
-0.042241909 0.029632382 0.66200006
-0.041042861 0.029677145 0.66300005
-0.039780002 0.029677145 0.66300005
-0.038517144 0.029677145 0.66300005
-0.03736667 0.029766669 0.66500002
-0.036100004 0.029766669 0.66500002
-0.034833334 0.029766669 0.66500002
-0.033566669 0.029766669 0.66500002
-0.032348573 0.029811431 0.66600001
-0.031126669 0.029856192 0.66700006
-0.029856192 0.029856192 0.66700006
-0.028585717 0.029856192 0.66700006
-0.027397145 0.029945716 0.66900003
-0.026161907 0.029990477 0.67000002
-0.024960002 0.030080002 0.67200005
-0.023785716 0.030214287 0.67500001
-0.022500001 0.030214287 0.67500001
-0.021245716 0.03025905 0.67600006
-0.019958096 0.03025905 0.67600006
-0.018670477 0.03025905 0.67600006
-0.017434286 0.030348573 0.67800003
-0.016142858 0.030348573 0.67800003
-0.074695244 0.031826667 0.68200004
-0.073180959 0.031733334 0.68000001
-0.07188572 0.031733334 0.68000001
-0.070590481 0.031733334 0.68000001
-0.069193341 0.031686667 0.67900002
-0.067900002 0.031686667 0.67900002
-0.066312388 0.031546667 0.67600006
-0.064640008 0.03136 0.67200005
-0.063265719 0.031313334 0.671
-0.061895244 0.031266667 0.67000002
-0.060619052 0.031266667 0.67000002
-0.059254289 0.031220002 0.66900003
-0.057980005 0.031220002 0.66900003
-0.056705717 0.031220002 0.66900003
-0.055431433 0.031220002 0.66900003
-0.05399524 0.031126669 0.66700006
-0.052645717 0.031080002 0.66600001
-0.051377147 0.031080002 0.66600001
-0.050033338 0.031033335 0.66500002
-0.048766669 0.031033335 0.66500002
-0.047500003 0.031033335 0.66500002
-0.046094287 0.030940002 0.66300005
-0.044831432 0.030940002 0.66300005
-0.043568574 0.030940002 0.66300005
-0.042305715 0.030940002 0.66300005
-0.041166671 0.031033335 0.66500002
-0.039900001 0.031033335 0.66500002
-0.038633335 0.031033335 0.66500002
-0.03736667 0.031033335 0.66500002
-0.036154289 0.031080002 0.66600001
-0.034885716 0.031080002 0.66600001
-0.03366762 0.031126669 0.66700006
-0.032397144 0.031126669 0.66700006
-0.031220002 0.031220002 0.66900003
-0.029945716 0.031220002 0.66900003
-0.02867143 0.031220002 0.66900003
-0.027438097 0.031266667 0.67000002
-0.026200954 0.031313334 0.671
-0.025034288 0.031453334 0.67400002
-0.023785716 0.031500001 0.67500001
-0.022533335 0.031546667 0.67600006
-0.021308573 0.031640001 0.67800003
-0.020017143 0.031640001 0.67800003
-0.018725716 0.031640001 0.67800003
-0.017434286 0.031640001 0.67800003
0.16579716 0.039246671 0.84100002
-0.074804768 0.033174288 0.68300003
-0.073503815 0.033174288 0.68300003
-0.072097145 0.033125717 0.68200004
-0.070798099 0.033125717 0.68200004
-0.069295242 0.033028573 0.68000001
-0.068000004 0.033028573 0.68000001
-0.066606671 0.032980002 0.67900002
-0.065217145 0.032931432 0.67800003
-0.063360006 0.032640003 0.67200005
-0.061987624 0.032591432 0.671
-0.060619052 0.032542858 0.67000002
-0.059342861 0.032542858 0.67000002
-0.05806667 0.032542858 0.67000002
-0.056705717 0.032494288 0.66900003
-0.055431433 0.032494288 0.66900003
-0.05399524 0.032397144 0.66700006
-0.052645717 0.032348573 0.66600001
-0.051377147 0.032348573 0.66600001
-0.050033338 0.032300003 0.66500002
-0.048766669 0.032300003 0.66500002
-0.047500003 0.032300003 0.66500002
-0.046233337 0.032300003 0.66500002
-0.044966668 0.032300003 0.66500002
-0.043700002 0.032300003 0.66500002
-0.042433336 0.032300003 0.66500002
-0.041166671 0.032300003 0.66500002
-0.039900001 0.032300003 0.66500002
-0.038691431 0.032348573 0.66600001
-0.037422858 0.032348573 0.66600001
-0.036208574 0.032397144 0.66700006
-0.034938097 0.032397144 0.66700006
-0.03366762 0.032397144 0.66700006
-0.032494288 0.032494288 0.66900003
-0.031220002 0.032494288 0.66900003
-0.029990477 0.032542858 0.67000002
-0.028714288 0.032542858 0.67000002
-0.027479049 0.032591432 0.671
-0.026318097 0.032737143 0.67400002
-0.025071431 0.032785717 0.67500001
-0.02389143 0.032931432 0.67800003
-0.022600001 0.032931432 0.67800003
-0.021308573 0.032931432 0.67800003
-0.020017143 0.032931432 0.67800003
-0.018753335 0.032980002 0.67900002
-0.017460002 0.032980002 0.67900002
-0.074914292 0.034525715 0.68400002
-0.073611431 0.034525715 0.68400002
-0.072202861 0.034475241 0.68300003
-0.070901908 0.034475241 0.68300003
-0.069499053 0.034424763 0.68200004
-0.068200007 0.034424763 0.68200004
-0.066704765 0.034323812 0.68000001
-0.065313339 0.034273334 0.67900002
-0.063642859 0.034071431 0.67500001
-0.062264767 0.034020953 0.67400002
-0.060800005 0.033920001 0.67200005
-0.059520002 0.033920001 0.67200005
-0.058153339 0.033869527 0.671
-0.05687524 0.033869527 0.671
-0.055597145 0.033869527 0.671
-0.05431905 0.033869527 0.671
-0.052961908 0.03381905 0.67000002
-0.051608574 0.033768572 0.66900003
-0.05033429 0.033768572 0.66900003
-0.048913337 0.03366762 0.66700006
-0.047642861 0.03366762 0.66700006
-0.046302859 0.033617146 0.66600001
-0.045034289 0.033617146 0.66600001
-0.043765716 0.033617146 0.66600001
-0.042497147 0.033617146 0.66600001
-0.041228574 0.033617146 0.66600001
-0.040020004 0.03366762 0.66700006
-0.038865715 0.033768572 0.66900003
-0.037591431 0.033768572 0.66900003
-0.036317144 0.033768572 0.66900003
-0.03504286 0.033768572 0.66900003
-0.03381905 0.03381905 0.67000002
-0.032542858 0.03381905 0.67000002
-0.031313334 0.033869527 0.671
-0.030035241 0.033869527 0.671
-0.028800001 0.033920001 0.67200005
-0.027642859 0.034071431 0.67500001
-0.026474288 0.03422286 0.67800003
-0.025182858 0.03422286 0.67800003
-0.023926668 0.034273334 0.67900002
-0.022633335 0.034273334 0.67900002
-0.021340001 0.034273334 0.67900002
-0.020046668 0.034273334 0.67900002
-0.018780954 0.034323812 0.68000001
-0.074914292 0.035828575 0.68400002
-0.073611431 0.035828575 0.68400002
-0.072308578 0.035828575 0.68400002
-0.070901908 0.035776194 0.68300003
-0.069600955 0.035776194 0.68300003
-0.068200007 0.035723813 0.68200004
-0.066900954 0.035723813 0.68200004
-0.065409526 0.03561905 0.68000001
-0.064020008 0.035566669 0.67900002
-0.062357146 0.035357144 0.67500001
-0.060980957 0.035304762 0.67400002
-0.059697147 0.035304762 0.67400002
-0.058240004 0.035200004 0.67200005
-0.05687524 0.035147622 0.671
-0.055597145 0.035147622 0.671
-0.05431905 0.035147622 0.671
-0.053040955 0.035147622 0.671
-0.051685717 0.035095241 0.67000002
-0.05033429 0.03504286 0.66900003
-0.049060002 0.03504286 0.66900003
-0.047785718 0.03504286 0.66900003
-0.04651143 0.03504286 0.66900003
-0.045237146 0.03504286 0.66900003
-0.04383143 0.034938097 0.66700006
-0.042560954 0.034938097 0.66700006
-0.041290481 0.034938097 0.66700006
-0.040140003 0.03504286 0.66900003
-0.038865715 0.03504286 0.66900003
-0.037591431 0.03504286 0.66900003
-0.036371432 0.035095241 0.67000002
-0.035095241 0.035095241 0.67000002
-0.03381905 0.035095241 0.67000002
-0.032591432 0.035147622 0.671
-0.031313334 0.035147622 0.671
-0.030080002 0.035200004 0.67200005
-0.028885717 0.035304762 0.67400002
-0.027683811 0.035409525 0.67600006
-0.026474288 0.035514288 0.67800003
-0.025220001 0.035566669 0.67900002
-0.023926668 0.035566669 0.67900002
-0.022633335 0.035566669 0.67900002
-0.021340001 0.035566669 0.67900002
-0.020076191 0.03561905 0.68000001
-0.018780954 0.03561905 0.68000001
-0.074914292 0.037131432 0.68400002
-0.073611431 0.037131432 0.68400002
-0.072308578 0.037131432 0.68400002
-0.071005717 0.037131432 0.68400002
-0.069600955 0.037077144 0.68300003
-0.068300001 0.037077144 0.68300003
-0.066999055 0.037077144 0.68300003
-0.065601908 0.037022859 0.68200004
-0.064114287 0.036914289 0.68000001
-0.062634289 0.036805715 0.67800003
-0.061161909 0.036697146 0.67600006
-0.05978572 0.036642861 0.67500001
-0.058413338 0.036588576 0.67400002
-0.056960005 0.036480002 0.67200005
-0.055680003 0.036480002 0.67200005
-0.054400004 0.036480002 0.67200005
-0.053120002 0.036480002 0.67200005
-0.05176286 0.036425717 0.671
-0.050409526 0.036371432 0.67000002
-0.049133338 0.036371432 0.67000002
-0.047857147 0.036371432 0.67000002
-0.046580955 0.036371432 0.67000002
-0.045304764 0.036371432 0.67000002
-0.043962859 0.036317144 0.66900003
-0.042688575 0.036317144 0.66900003
-0.041476194 0.036371432 0.67000002
-0.040200002 0.036371432 0.67000002
-0.038923811 0.036371432 0.67000002
-0.03764762 0.036371432 0.67000002
-0.036371432 0.036371432 0.67000002
-0.035095241 0.036371432 0.67000002
-0.033869527 0.036425717 0.671
-0.032640003 0.036480002 0.67200005
-0.03136 0.036480002 0.67200005
-0.030169526 0.036588576 0.67400002
-0.028928574 0.036642861 0.67500001
-0.027683811 0.036697146 0.67600006
-0.026474288 0.036805715 0.67800003
-0.025220001 0.036860004 0.67900002
-0.023961907 0.036914289 0.68000001
-0.022666669 0.036914289 0.68000001
-0.02137143 0.036914289 0.68000001
-0.020135239 0.037022859 0.68200004
-0.018780954 0.036914289 0.68000001
-0.017485715 0.036914289 0.68000001
-0.074914292 0.038434289 0.68400002
-0.073611431 0.038434289 0.68400002
-0.072308578 0.038434289 0.68400002
-0.071005717 0.038434289 0.68400002
-0.069600955 0.038378097 0.68300003
-0.068300001 0.038378097 0.68300003
-0.066999055 0.038378097 0.68300003
-0.065601908 0.038321909 0.68200004
-0.064114287 0.038209528 0.68000001
-0.062634289 0.038097147 0.67800003
-0.061161909 0.037984766 0.67600006
-0.059874289 0.037984766 0.67600006
-0.058500003 0.037928574 0.67500001
-0.057129528 0.037872385 0.67400002
-0.055845719 0.037872385 0.67400002
-0.054561909 0.037872385 0.67400002
-0.053120002 0.037760001 0.67200005
-0.051840004 0.037760001 0.67200005
-0.050484765 0.037703812 0.671
-0.04920667 0.037703812 0.671
-0.047857147 0.03764762 0.67000002
-0.046580955 0.03764762 0.67000002
-0.045304764 0.03764762 0.67000002
-0.044028573 0.03764762 0.67000002
-0.042752385 0.03764762 0.67000002
-0.041476194 0.03764762 0.67000002
-0.040200002 0.03764762 0.67000002
-0.038923811 0.03764762 0.67000002
-0.037703812 0.037703812 0.671
-0.036425717 0.037703812 0.671
-0.035147622 0.037703812 0.671
-0.033920001 0.037760001 0.67200005
-0.032640003 0.037760001 0.67200005
-0.031453334 0.037872385 0.67400002
-0.030214287 0.037928574 0.67500001
-0.02897143 0.037984766 0.67600006
-0.027765715 0.038097147 0.67800003
-0.026513334 0.038153335 0.67900002
-0.025257144 0.038209528 0.68000001
-0.023961907 0.038209528 0.68000001
-0.022666669 0.038209528 0.68000001
-0.021434287 0.038321909 0.68200004
-0.020164764 0.038378097 0.68300003
-0.018836191 0.038321909 0.68200004
-0.017537143 0.038321909 0.68200004
-0.073826671 0.039853334 0.68600005
-0.072520003 0.039853334 0.68600005
-0.071005717 0.039737146 0.68400002
-0.069702864 0.039737146 0.68400002
-0.068400003 0.039737146 0.68400002
-0.066999055 0.03967905 0.68300003
-0.065698102 0.03967905 0.68300003
-0.064302862 0.039620955 0.68200004
-0.062726669 0.039446671 0.67900002
-0.061342862 0.039388575 0.67800003
-0.060051434 0.039388575 0.67800003
-0.058500003 0.039214287 0.67500001
-0.05721429 0.039214287 0.67500001
-0.055845719 0.039156195 0.67400002
-0.054561909 0.039156195 0.67400002
-0.0532781 0.039156195 0.67400002
-0.051840004 0.039040003 0.67200005
-0.050560005 0.039040003 0.67200005
-0.04920667 0.038981907 0.671
-0.047928575 0.038981907 0.671
-0.04665048 0.038981907 0.671
-0.045372386 0.038981907 0.671
-0.044028573 0.038923811 0.67000002
-0.042816192 0.038981907 0.671
-0.041538097 0.038981907 0.671
-0.040260002 0.038981907 0.671
-0.038981907 0.038981907 0.671
-0.037703812 0.038981907 0.671
-0.036480002 0.039040003 0.67200005
-0.035200004 0.039040003 0.67200005
-0.033920001 0.039040003 0.67200005
-0.032737143 0.039156195 0.67400002
-0.031500001 0.039214287 0.67500001
-0.030214287 0.039214287 0.67500001
-0.029057145 0.039388575 0.67800003
-0.027806668 0.039446671 0.67900002
-0.026513334 0.039446671 0.67900002
-0.025257144 0.039504763 0.68000001
-0.024032382 0.039620955 0.68200004
-0.022733334 0.039620955 0.68200004
-0.021434287 0.039620955 0.68200004
-0.020194286 0.039737146 0.68400002
-0.018974287 0.03991143 0.68700004
-0.017820001 0.040260002 0.69300002
-0.073934294 0.041220002 0.68700004
-0.072520003 0.041160002 0.68600005
-0.071213335 0.041160002 0.68600005
-0.069702864 0.041040003 0.68400002
-0.068400003 0.041040003 0.68400002
-0.06709715 0.041040003 0.68400002
-0.065698102 0.040980004 0.68300003
-0.064302862 0.040920004 0.68200004
-0.062819049 0.040800001 0.68000001
-0.061433338 0.040740002 0.67900002
-0.060140003 0.040740002 0.67900002
-0.058586672 0.040560003 0.67600006
-0.05721429 0.040500004 0.67500001
-0.055928577 0.040500004 0.67500001
-0.054561909 0.040440004 0.67400002
-0.0532781 0.040440004 0.67400002
-0.05199429 0.040440004 0.67400002
-0.050710481 0.040440004 0.67400002
-0.049280003 0.040320002 0.67200005
-0.048000004 0.040320002 0.67200005
-0.046720002 0.040320002 0.67200005
-0.045440003 0.040320002 0.67200005
-0.044160005 0.040320002 0.67200005
-0.042880002 0.040320002 0.67200005
-0.041600004 0.040320002 0.67200005
-0.040320002 0.040320002 0.67200005
-0.039040003 0.040320002 0.67200005
-0.037760001 0.040320002 0.67200005
-0.036480002 0.040320002 0.67200005
-0.035200004 0.040320002 0.67200005
-0.034020953 0.040440004 0.67400002
-0.032785717 0.040500004 0.67500001
-0.031500001 0.040500004 0.67500001
-0.03025905 0.040560003 0.67600006
-0.029100003 0.040740002 0.67900002
-0.027806668 0.040740002 0.67900002
-0.026552383 0.040800001 0.68000001
-0.02533143 0.040920004 0.68200004
-0.024032382 0.040920004 0.68200004
-0.022766668 0.040980004 0.68300003
-0.021465715 0.040980004 0.68300003
-0.020194286 0.041040003 0.68400002
-0.019029524 0.041340001 0.68900001
-0.017768573 0.041460004 0.69100004
-0.01652381 0.041640002 0.69400001
-0.073048577 0.042776193 0.69100004
-0.071524769 0.042652383 0.68900001
-0.069906674 0.04246667 0.68600005
-0.068400003 0.04234286 0.68400002
-0.06709715 0.04234286 0.68400002
-0.065698102 0.042280953 0.68300003
-0.064302862 0.04221905 0.68200004
-0.062819049 0.04209524 0.68000001
-0.061523814 0.04209524 0.68000001
-0.060228575 0.04209524 0.68000001
-0.058760002 0.04197143 0.67800003
-0.057299051 0.04184762 0.67600006
-0.056011431 0.04184762 0.67600006
-0.05464286 0.041785717 0.67500001
-0.053357147 0.041785717 0.67500001
-0.05199429 0.041723814 0.67400002
-0.050710481 0.041723814 0.67400002
-0.049426671 0.041723814 0.67400002
-0.048142862 0.041723814 0.67400002
-0.046720002 0.041600004 0.67200005
-0.045575242 0.041723814 0.67400002
-0.044291433 0.041723814 0.67400002
-0.043007623 0.041723814 0.67400002
-0.041723814 0.041723814 0.67400002
-0.040440004 0.041723814 0.67400002
-0.039156195 0.041723814 0.67400002
-0.037872385 0.041723814 0.67400002
-0.036588576 0.041723814 0.67400002
-0.035304762 0.041723814 0.67400002
-0.034071431 0.041785717 0.67500001
-0.032785717 0.041785717 0.67500001
-0.031640001 0.04197143 0.67800003
-0.030348573 0.04197143 0.67800003
-0.029100003 0.042033337 0.67900002
-0.027847622 0.04209524 0.68000001
-0.026552383 0.04209524 0.68000001
-0.02533143 0.04221905 0.68200004
-0.02406762 0.042280953 0.68300003
-0.022800002 0.04234286 0.68400002
-0.021560002 0.04246667 0.68600005
-0.02037143 0.04271429 0.69000006
-0.019084763 0.042776193 0.69100004
-0.017820001 0.042900003 0.69300002
-0.01652381 0.042961907 0.69400001
-0.073365718 0.044283811 0.69400001
-0.071732387 0.044092383 0.69100004
-0.070008576 0.043837145 0.68700004
-0.068600006 0.043773334 0.68600005
-0.06709715 0.043645717 0.68400002
-0.065794289 0.043645717 0.68400002
-0.064397149 0.043581907 0.68300003
-0.063096195 0.043581907 0.68300003
-0.061704766 0.0435181 0.68200004
-0.060228575 0.043390479 0.68000001
-0.058846671 0.043326668 0.67900002
-0.057468574 0.043262862 0.67800003
-0.056011431 0.043135241 0.67600006
-0.054723814 0.043135241 0.67600006
-0.053357147 0.04307143 0.67500001
-0.052071434 0.04307143 0.67500001
-0.050785717 0.04307143 0.67500001
-0.049426671 0.043007623 0.67400002
-0.048142862 0.043007623 0.67400002
-0.046859052 0.043007623 0.67400002
-0.045575242 0.043007623 0.67400002
-0.044291433 0.043007623 0.67400002
-0.04307143 0.04307143 0.67500001
-0.041785717 0.04307143 0.67500001
-0.040500004 0.04307143 0.67500001
-0.039214287 0.04307143 0.67500001
-0.037928574 0.04307143 0.67500001
-0.036642861 0.04307143 0.67500001
-0.035357144 0.04307143 0.67500001
-0.034121908 0.043135241 0.67600006
-0.032931432 0.043262862 0.67800003
-0.031686667 0.043326668 0.67900002
-0.030393336 0.043326668 0.67900002
-0.029142858 0.043390479 0.68000001
-0.027929526 0.0435181 0.68200004
-0.026630478 0.0435181 0.68200004
-0.025368573 0.043581907 0.68300003
-0.024102859 0.043645717 0.68400002
-0.022900002 0.043837145 0.68700004
-0.021591431 0.043837145 0.68700004
-0.02037143 0.044028573 0.69000006
-0.019084763 0.044092383 0.69100004
-0.017820001 0.044220004 0.69300002
-0.074795246 0.045671433 0.69500005
-0.073365718 0.045605719 0.69400001
-0.072043814 0.045605719 0.69400001
-0.070314288 0.045342859 0.69000006
-0.068700008 0.045145717 0.68700004
-0.067293338 0.045080002 0.68600005
-0.065986671 0.045080002 0.68600005
-0.064491436 0.044948574 0.68400002
-0.063096195 0.04488286 0.68300003
-0.061795242 0.04488286 0.68300003
-0.06040572 0.044817146 0.68200004
-0.058933336 0.044685718 0.68000001
-0.057553336 0.044620004 0.67900002
-0.056260005 0.044620004 0.67900002
-0.054885719 0.044554289 0.67800003
-0.053594287 0.044554289 0.67800003
-0.052148573 0.044422861 0.67600006
-0.050785717 0.044357147 0.67500001
-0.049500003 0.044357147 0.67500001
-0.04821429 0.044357147 0.67500001
-0.046928573 0.044357147 0.67500001
-0.04564286 0.044357147 0.67500001
-0.044357147 0.044357147 0.67500001
-0.04307143 0.044357147 0.67500001
-0.041785717 0.044357147 0.67500001
-0.040500004 0.044357147 0.67500001
-0.039272383 0.044422861 0.67600006
-0.037984766 0.044422861 0.67600006
-0.036697146 0.044422861 0.67600006
-0.035514288 0.044554289 0.67800003
-0.034273334 0.044620004 0.67900002
-0.032980002 0.044620004 0.67900002
-0.031686667 0.044620004 0.67900002
-0.030438097 0.044685718 0.68000001
-0.029228574 0.044817146 0.68200004
-0.027929526 0.044817146 0.68200004
-0.026669526 0.04488286 0.68300003
-0.025405716 0.044948574 0.68400002
-0.024173334 0.045080002 0.68600005
-0.023000002 0.045342859 0.69000006
-0.021685716 0.045342859 0.69000006
-0.020400954 0.045408573 0.69100004
-0.019140001 0.045540001 0.69300002
-0.017820001 0.045540001 0.69300002
-0.073471434 0.046995241 0.69500005
-0.072043814 0.046927623 0.69400001
-0.070721909 0.046927623 0.69400001
-0.069000006 0.046657145 0.69000006
-0.067391433 0.046454288 0.68700004
-0.065986671 0.04638667 0.68600005
-0.064491436 0.046251431 0.68400002
-0.063188575 0.046251431 0.68400002
-0.061795242 0.046183813 0.68300003
-0.060494289 0.046183813 0.68300003
-0.05910667 0.046116192 0.68200004
-0.057638098 0.045980956 0.68000001
-0.056260005 0.045913335 0.67900002
-0.05496667 0.045913335 0.67900002
-0.053673338 0.045913335 0.67900002
-0.05230286 0.045845717 0.67800003
-0.050860956 0.045710478 0.67600006
-0.049500003 0.04564286 0.67500001
-0.04821429 0.04564286 0.67500001
-0.046928573 0.04564286 0.67500001
-0.04564286 0.04564286 0.67500001
-0.044422861 0.045710478 0.67600006
-0.043135241 0.045710478 0.67600006
-0.04184762 0.045710478 0.67600006
-0.040680002 0.045845717 0.67800003
-0.039388575 0.045845717 0.67800003
-0.038097147 0.045845717 0.67800003
-0.036805715 0.045845717 0.67800003
-0.035566669 0.045913335 0.67900002
-0.034273334 0.045913335 0.67900002
-0.033028573 0.045980956 0.68000001
-0.031733334 0.045980956 0.68000001
-0.030438097 0.045980956 0.68000001
-0.029228574 0.046116192 0.68200004
-0.027970478 0.046183813 0.68300003
-0.026708573 0.046251431 0.68400002
-0.025480002 0.04638667 0.68600005
-0.024208574 0.046454288 0.68700004
-0.023000002 0.046657145 0.69000006
-0.021685716 0.046657145 0.69000006
-0.020400954 0.046724766 0.69100004
-0.019140001 0.046860002 0.69300002
-0.017845716 0.046927623 0.69400001
-0.07368286 0.048458099 0.69700003
-0.072147623 0.048319049 0.69500005
-0.070823811 0.048319049 0.69500005
-0.069400005 0.048249528 0.69400001
-0.067587622 0.047901906 0.68900001
-0.066082865 0.04776286 0.68700004
-0.064680003 0.047693338 0.68600005
-0.063188575 0.047554288 0.68400002
-0.061885718 0.047554288 0.68400002
-0.060494289 0.047484767 0.68300003
-0.059193335 0.047484767 0.68300003
-0.057807624 0.047415242 0.68200004
-0.056342863 0.047276195 0.68000001
-0.055047624 0.047276195 0.68000001
-0.053752385 0.047276195 0.68000001
-0.052380003 0.04720667 0.67900002
-0.051086672 0.04720667 0.67900002
-0.049720004 0.047137145 0.67800003
-0.048285719 0.046998098 0.67600006
-0.046998098 0.046998098 0.67600006
-0.045845717 0.047137145 0.67800003
-0.044554289 0.047137145 0.67800003
-0.043262862 0.047137145 0.67800003
-0.04197143 0.047137145 0.67800003
-0.040740002 0.04720667 0.67900002
-0.039446671 0.04720667 0.67900002
-0.038153335 0.04720667 0.67900002
-0.036860004 0.04720667 0.67900002
-0.035566669 0.04720667 0.67900002
-0.034323812 0.047276195 0.68000001
-0.033028573 0.047276195 0.68000001
-0.031733334 0.047276195 0.68000001
-0.030527622 0.047415242 0.68200004
-0.029271431 0.047484767 0.68300003
-0.027970478 0.047484767 0.68300003
-0.026708573 0.047554288 0.68400002
-0.025480002 0.047693338 0.68600005
-0.024279049 0.047901906 0.68900001
-0.023000002 0.047971431 0.69000006
-0.021717144 0.048040956 0.69100004
-0.020460002 0.048180003 0.69300002
-0.019140001 0.048180003 0.69300002
-0.017845716 0.048249528 0.69400001
-0.07368286 0.049785718 0.69700003
-0.072355241 0.049785718 0.69700003
-0.071027622 0.049785718 0.69700003
-0.069500007 0.049642861 0.69500005
-0.068078101 0.049571432 0.69400001
-0.066756196 0.049571432 0.69400001
-0.065151431 0.049357146 0.69100004
-0.063650481 0.049214289 0.68900001
-0.062157147 0.049071431 0.68700004
-0.060760003 0.049000002 0.68600005
-0.059280004 0.048857145 0.68400002
-0.057977147 0.048857145 0.68400002
-0.056591433 0.048785716 0.68300003
-0.055209529 0.048714288 0.68200004
-0.053910479 0.048714288 0.68200004
-0.052611433 0.048714288 0.68200004
-0.051161908 0.04857143 0.68000001
-0.049793337 0.048500001 0.67900002
-0.048500001 0.048500001 0.67900002
-0.04720667 0.048500001 0.67900002
-0.045913335 0.048500001 0.67900002
-0.044620004 0.048500001 0.67900002
-0.043326668 0.048500001 0.67900002
-0.04209524 0.04857143 0.68000001
-0.040800001 0.04857143 0.68000001
-0.039504763 0.04857143 0.68000001
-0.038209528 0.04857143 0.68000001
-0.036914289 0.04857143 0.68000001
-0.035723813 0.048714288 0.68200004
-0.034424763 0.048714288 0.68200004
-0.033174288 0.048785716 0.68300003
-0.031826667 0.048714288 0.68200004
-0.030572383 0.048785716 0.68300003
-0.029314287 0.048857145 0.68400002
-0.028093334 0.049000002 0.68600005
-0.026825717 0.049071431 0.68700004
-0.025628572 0.049285717 0.69000006
-0.024349526 0.049357146 0.69100004
-0.023133336 0.049571432 0.69400001
-0.021780001 0.049500003 0.69300002
-0.020489525 0.049571432 0.69400001
-0.019167621 0.049571432 0.69400001
-0.073788576 0.05118667 0.69800001
-0.07245905 0.05118667 0.69800001
-0.071027622 0.051113337 0.69700003
-0.069500007 0.050966669 0.69500005
-0.068078101 0.050893337 0.69400001
-0.066756196 0.050893337 0.69400001
-0.065340005 0.050820004 0.69300002
-0.063742861 0.050600003 0.69000006
-0.062338099 0.050526671 0.68900001
-0.060760003 0.05030667 0.68600005
-0.059453338 0.05030667 0.68600005
-0.057977147 0.050160002 0.68400002
-0.056591433 0.05008667 0.68300003
-0.055290479 0.05008667 0.68300003
-0.053910479 0.050013337 0.68200004
-0.052611433 0.050013337 0.68200004
-0.051312383 0.050013337 0.68200004
-0.049866669 0.049866669 0.68000001
-0.04857143 0.049866669 0.68000001
-0.047276195 0.049866669 0.68000001
-0.045980956 0.049866669 0.68000001
-0.044685718 0.049866669 0.68000001
-0.043390479 0.049866669 0.68000001
-0.04209524 0.049866669 0.68000001
-0.040800001 0.049866669 0.68000001
-0.039504763 0.049866669 0.68000001
-0.038321909 0.050013337 0.68200004
-0.037022859 0.050013337 0.68200004
-0.035723813 0.050013337 0.68200004
-0.034424763 0.050013337 0.68200004
-0.033174288 0.05008667 0.68300003
-0.031873334 0.05008667 0.68300003
-0.030617144 0.050160002 0.68400002
-0.029400002 0.05030667 0.68600005
-0.028093334 0.05030667 0.68600005
-0.026903812 0.050526671 0.68900001
-0.025628572 0.050600003 0.69000006
-0.024420002 0.050820004 0.69300002
-0.023133336 0.050893337 0.69400001
-0.021811429 0.050893337 0.69400001
-0.020489525 0.050893337 0.69400001
-0.019167621 0.050893337 0.69400001
-0.07245905 0.052516192 0.69800001
-0.071129531 0.052516192 0.69800001
-0.069700003 0.052440956 0.69700003
-0.068176195 0.052290481 0.69500005
-0.066756196 0.052215241 0.69400001
-0.065434292 0.052215241 0.69400001
-0.063835241 0.051989526 0.69100004
-0.062428575 0.05191429 0.69000006
-0.060848575 0.051688574 0.68700004
-0.059453338 0.051613338 0.68600005
-0.05814667 0.051613338 0.68600005
-0.05667429 0.051462859 0.68400002
-0.055290479 0.051387623 0.68300003
-0.053989526 0.051387623 0.68300003
-0.052688576 0.051387623 0.68300003
-0.051312383 0.051312383 0.68200004
-0.050013337 0.051312383 0.68200004
-0.048714288 0.051312383 0.68200004
-0.047415242 0.051312383 0.68200004
-0.046116192 0.051312383 0.68200004
-0.044817146 0.051312383 0.68200004
-0.0435181 0.051312383 0.68200004
-0.04221905 0.051312383 0.68200004
-0.040920004 0.051312383 0.68200004
-0.039620955 0.051312383 0.68200004
-0.038321909 0.051312383 0.68200004
-0.037022859 0.051312383 0.68200004
-0.035776194 0.051387623 0.68300003
-0.034475241 0.051387623 0.68300003
-0.033222858 0.051462859 0.68400002
-0.031920001 0.051462859 0.68400002
-0.030706668 0.051613338 0.68600005
-0.02944286 0.051688574 0.68700004
-0.028216192 0.05183905 0.68900001
-0.026942858 0.05191429 0.69000006
-0.025665715 0.051989526 0.69100004
-0.02445524 0.052215241 0.69400001
-0.023133336 0.052215241 0.69400001
-0.021811429 0.052215241 0.69400001
-0.020489525 0.052215241 0.69400001
-0.019167621 0.052215241 0.69400001
-0.071129531 0.053845719 0.69800001
-0.069700003 0.053768575 0.69700003
-0.068176195 0.053614289 0.69500005
-0.066756196 0.053537145 0.69400001
-0.065434292 0.053537145 0.69400001
-0.063835241 0.053305719 0.69100004
-0.062428575 0.053228576 0.69000006
-0.060848575 0.052997146 0.68700004
-0.059540004 0.052997146 0.68700004
-0.05814667 0.052920002 0.68600005
-0.05667429 0.05276572 0.68400002
-0.055371433 0.05276572 0.68400002
-0.054068577 0.05276572 0.68400002
-0.052688576 0.052688576 0.68300003
-0.051387623 0.052688576 0.68300003
-0.05008667 0.052688576 0.68300003
-0.048714288 0.052611433 0.68200004
-0.047484767 0.052688576 0.68300003
-0.046116192 0.052611433 0.68200004
-0.04488286 0.052688576 0.68300003
-0.0435181 0.052611433 0.68200004
-0.042280953 0.052688576 0.68300003
-0.040980004 0.052688576 0.68300003
-0.03967905 0.052688576 0.68300003
-0.038378097 0.052688576 0.68300003
-0.037077144 0.052688576 0.68300003
-0.035828575 0.05276572 0.68400002
-0.034525715 0.05276572 0.68400002
-0.033222858 0.05276572 0.68400002
-0.032013334 0.052920002 0.68600005
-0.030751431 0.052997146 0.68700004
-0.029528573 0.053151432 0.68900001
-0.028257145 0.053228576 0.69000006
-0.026981907 0.053305719 0.69100004
-0.025665715 0.053305719 0.69100004
-0.02445524 0.053537145 0.69400001
-0.023166668 0.053614289 0.69500005
-0.021842858 0.053614289 0.69500005
-0.02051905 0.053614289 0.69500005
-0.01919524 0.053614289 0.69500005
-0.071129531 0.055175241 0.69800001
-0.069700003 0.055096194 0.69700003
-0.068372384 0.055096194 0.69700003
-0.066852383 0.0549381 0.69500005
-0.065434292 0.05485905 0.69400001
-0.064020008 0.054780003 0.69300002
-0.062519051 0.054621909 0.69100004
-0.061114289 0.054542862 0.69000006
-0.059540004 0.054305717 0.68700004
-0.058231432 0.054305717 0.68700004
-0.056840003 0.05422667 0.68600005
-0.055371433 0.054068577 0.68400002
-0.054068577 0.054068577 0.68400002
-0.05276572 0.054068577 0.68400002
-0.051462859 0.054068577 0.68400002
-0.05008667 0.053989526 0.68300003
-0.048785716 0.053989526 0.68300003
-0.047484767 0.053989526 0.68300003
-0.046183813 0.053989526 0.68300003
-0.04488286 0.053989526 0.68300003
-0.043581907 0.053989526 0.68300003
-0.04234286 0.054068577 0.68400002
-0.041040003 0.054068577 0.68400002
-0.039737146 0.054068577 0.68400002
-0.038434289 0.054068577 0.68400002
-0.037131432 0.054068577 0.68400002
-0.035828575 0.054068577 0.68400002
-0.034525715 0.054068577 0.68400002
-0.033320002 0.05422667 0.68600005
-0.032060001 0.054305717 0.68700004
-0.030840954 0.054463815 0.68900001
-0.029571431 0.054542862 0.69000006
-0.028298097 0.054621909 0.69100004
-0.026981907 0.054621909 0.69100004
-0.025740001 0.054780003 0.69300002
-0.024490478 0.0549381 0.69500005
-0.023166668 0.0549381 0.69500005
-0.021842858 0.0549381 0.69500005
-0.02051905 0.0549381 0.69500005
-0.01919524 0.0549381 0.69500005
-0.071129531 0.056504767 0.69800001
-0.069700003 0.056423813 0.69700003
-0.068372384 0.056423813 0.69700003
-0.066852383 0.056261908 0.69500005
-0.065528579 0.056261908 0.69500005
-0.064112388 0.056180958 0.69400001
-0.062519051 0.055938099 0.69100004
-0.061202861 0.055938099 0.69100004
-0.059713338 0.055776194 0.68900001
-0.058231432 0.055614289 0.68700004
-0.05692286 0.055614289 0.68700004
-0.055533338 0.055533338 0.68600005
-0.05422667 0.055533338 0.68600005
-0.05276572 0.055371433 0.68400002
-0.051462859 0.055371433 0.68400002
-0.050160002 0.055371433 0.68400002
-0.048857145 0.055371433 0.68400002
-0.047484767 0.055290479 0.68300003
-0.046251431 0.055371433 0.68400002
-0.044948574 0.055371433 0.68400002
-0.043645717 0.055371433 0.68400002
-0.04234286 0.055371433 0.68400002
-0.041040003 0.055371433 0.68400002
-0.039737146 0.055371433 0.68400002
-0.03854667 0.055533338 0.68600005
-0.037240002 0.055533338 0.68600005
-0.035933334 0.055533338 0.68600005
-0.034677144 0.055614289 0.68700004
-0.033368573 0.055614289 0.68700004
-0.032153334 0.055776194 0.68900001
-0.030885717 0.055857148 0.69000006
-0.029571431 0.055857148 0.69000006
-0.028298097 0.055938099 0.69100004
-0.027060002 0.056100003 0.69300002
-0.025777144 0.056180958 0.69400001
-0.024490478 0.056261908 0.69500005
-0.023166668 0.056261908 0.69500005
-0.021842858 0.056261908 0.69500005
-0.02051905 0.056261908 0.69500005
-0.01919524 0.056261908 0.69500005
-0.071333341 0.058000002 0.70000005
-0.069700003 0.057751432 0.69700003
-0.068372384 0.057751432 0.69700003
-0.067044765 0.057751432 0.69700003
-0.065528579 0.057585716 0.69500005
-0.064112388 0.057502862 0.69400001
-0.062700003 0.057420004 0.69300002
-0.061202861 0.057254288 0.69100004
-0.059800003 0.057171434 0.69000006
-0.058485717 0.057171434 0.69000006
-0.057088576 0.057088576 0.68900001
-0.055614289 0.05692286 0.68700004
-0.054305717 0.05692286 0.68700004
-0.052920002 0.056840003 0.68600005
-0.051613338 0.056840003 0.68600005
-0.05030667 0.056840003 0.68600005
-0.049000002 0.056840003 0.68600005
-0.047554288 0.05667429 0.68400002
-0.046251431 0.05667429 0.68400002
-0.044948574 0.05667429 0.68400002
-0.043645717 0.05667429 0.68400002
-0.04246667 0.056840003 0.68600005
-0.041160002 0.056840003 0.68600005
-0.039853334 0.056840003 0.68600005
-0.03854667 0.056840003 0.68600005
-0.037240002 0.056840003 0.68600005
-0.035985716 0.05692286 0.68700004
-0.034778096 0.057088576 0.68900001
-0.033465717 0.057088576 0.68900001
-0.032200001 0.057171434 0.69000006
-0.030885717 0.057171434 0.69000006
-0.029614288 0.057254288 0.69100004
-0.028380001 0.057420004 0.69300002
-0.027060002 0.057420004 0.69300002
-0.025777144 0.057502862 0.69400001
-0.024490478 0.057585716 0.69500005
-0.023233335 0.057751432 0.69700003
-0.021842858 0.057585716 0.69500005
-0.020578096 0.057751432 0.69700003
-0.019250477 0.057751432 0.69700003
-0.069800004 0.059163813 0.69800001
-0.068470478 0.059163813 0.69800001
-0.067044765 0.059079051 0.69700003
-0.065717146 0.059079051 0.69700003
-0.064204767 0.058909528 0.69500005
-0.062790483 0.058824766 0.69400001
-0.061380003 0.058740005 0.69300002
-0.059886672 0.058570482 0.69100004
-0.058485717 0.058485717 0.69000006
-0.057171434 0.058485717 0.69000006
-0.055776194 0.058400955 0.68900001
-0.054463815 0.058400955 0.68900001
-0.052997146 0.058231432 0.68700004
-0.051688574 0.058231432 0.68700004
-0.05030667 0.05814667 0.68600005
-0.049000002 0.05814667 0.68600005
-0.047693338 0.05814667 0.68600005
-0.04638667 0.05814667 0.68600005
-0.045080002 0.05814667 0.68600005
-0.043773334 0.05814667 0.68600005
-0.04246667 0.05814667 0.68600005
-0.041220002 0.058231432 0.68700004
-0.039853334 0.05814667 0.68600005
-0.038602859 0.058231432 0.68700004
-0.037294287 0.058231432 0.68700004
-0.036090478 0.058400955 0.68900001
-0.034778096 0.058400955 0.68900001
-0.033514287 0.058485717 0.69000006
-0.032200001 0.058485717 0.69000006
-0.030930478 0.058570482 0.69100004
-0.029614288 0.058570482 0.69100004
-0.028380001 0.058740005 0.69300002
-0.027099049 0.058824766 0.69400001
-0.025777144 0.058824766 0.69400001
-0.024560954 0.059079051 0.69700003
-0.023233335 0.059079051 0.69700003
-0.021905717 0.059079051 0.69700003
-0.020578096 0.059079051 0.69700003
-0.070000008 0.060666669 0.70000005
-0.068470478 0.060493339 0.69800001
-0.067140959 0.060493339 0.69800001
-0.065717146 0.06040667 0.69700003
-0.064204767 0.060233336 0.69500005
-0.062880956 0.060233336 0.69500005
-0.061468575 0.060146671 0.69400001
-0.060060006 0.060060006 0.69300002
-0.058570482 0.059886672 0.69100004
-0.057171434 0.059800003 0.69000006
-0.055857148 0.059800003 0.69000006
-0.054542862 0.059800003 0.69000006
-0.053151432 0.059713338 0.68900001
-0.051688574 0.059540004 0.68700004
-0.050380003 0.059540004 0.68700004
-0.049214289 0.059713338 0.68900001
-0.04776286 0.059540004 0.68700004
-0.04638667 0.059453338 0.68600005
-0.045080002 0.059453338 0.68600005
-0.043773334 0.059453338 0.68600005
-0.042528573 0.059540004 0.68700004
-0.041220002 0.059540004 0.68700004
-0.03991143 0.059540004 0.68700004
-0.03871524 0.059713338 0.68900001
-0.037402861 0.059713338 0.68900001
-0.036090478 0.059713338 0.68900001
-0.034828573 0.059800003 0.69000006
-0.033514287 0.059800003 0.69000006
-0.032246668 0.059886672 0.69100004
-0.030930478 0.059886672 0.69100004
-0.029700002 0.060060006 0.69300002
-0.028420955 0.060146671 0.69400001
-0.027099049 0.060146671 0.69400001
-0.025814287 0.060233336 0.69500005
-0.024560954 0.06040667 0.69700003
-0.023266668 0.060493339 0.69800001
-0.021937145 0.060493339 0.69800001
-0.02060762 0.060493339 0.69800001
0.14202 0.068380006 0.78900003
0.17336001 0.068293341 0.78800005
0.17486097 0.068293341 0.78800005
-0.070100002 0.062088575 0.70100003
-0.068666674 0.062000003 0.70000005
-0.067140959 0.061822861 0.69800001
-0.065811433 0.061822861 0.69800001
-0.064389527 0.061734289 0.69700003
-0.062880956 0.061557148 0.69500005
-0.061468575 0.061468575 0.69400001
-0.060146671 0.061468575 0.69400001
-0.058570482 0.061202861 0.69100004
-0.057254288 0.061202861 0.69100004
-0.055857148 0.061114289 0.69000006
-0.054542862 0.061114289 0.69000006
-0.053228576 0.061114289 0.69000006
-0.05183905 0.06102572 0.68900001
-0.050526671 0.06102572 0.68900001
-0.049214289 0.06102572 0.68900001
-0.047901906 0.06102572 0.68900001
-0.046454288 0.060848575 0.68700004
-0.045145717 0.060848575 0.68700004
-0.043837145 0.060848575 0.68700004
-0.042528573 0.060848575 0.68700004
-0.041340001 0.06102572 0.68900001
-0.040027622 0.06102572 0.68900001
-0.038771432 0.061114289 0.69000006
-0.037402861 0.06102572 0.68900001
-0.03614286 0.061114289 0.69000006
-0.034828573 0.061114289 0.69000006
-0.033562858 0.061202861 0.69100004
-0.032246668 0.061202861 0.69100004
-0.030930478 0.061202861 0.69100004
-0.029700002 0.061380003 0.69300002
-0.028420955 0.061468575 0.69400001
-0.027138097 0.061557148 0.69500005
-0.025888573 0.061734289 0.69700003
-0.024596192 0.061822861 0.69800001
-0.023266668 0.061822861 0.69800001
-0.021937145 0.061822861 0.69800001
-0.02060762 0.061822861 0.69800001
-0.070100002 0.063423812 0.70100003
-0.068764769 0.063423812 0.70100003
-0.067333341 0.06333334 0.70000005
-0.065811433 0.063152388 0.69800001
-0.064481907 0.063152388 0.69800001
-0.063061908 0.063061908 0.69700003
-0.061557148 0.062880956 0.69500005
-0.060233336 0.062880956 0.69500005
-0.058824766 0.062790483 0.69400001
-0.057420004 0.062700003 0.69300002
-0.055938099 0.062519051 0.69100004
-0.054621909 0.062519051 0.69100004
-0.053305719 0.062519051 0.69100004
-0.051989526 0.062519051 0.69100004
-0.050600003 0.062428575 0.69000006
-0.049285717 0.062428575 0.69000006
-0.047971431 0.062428575 0.69000006
-0.046657145 0.062428575 0.69000006
-0.045342859 0.062428575 0.69000006
-0.044028573 0.062428575 0.69000006
-0.04271429 0.062428575 0.69000006
-0.041400004 0.062428575 0.69000006
-0.040085718 0.062428575 0.69000006
-0.038771432 0.062428575 0.69000006
-0.037457146 0.062428575 0.69000006
-0.03614286 0.062428575 0.69000006
-0.034879051 0.062519051 0.69100004
-0.033562858 0.062519051 0.69100004
-0.032246668 0.062519051 0.69100004
-0.031020002 0.062700003 0.69300002
-0.029742859 0.062790483 0.69400001
-0.028461907 0.062880956 0.69500005
-0.027216192 0.063061908 0.69700003
-0.025925716 0.063152388 0.69800001
-0.024596192 0.063152388 0.69800001
-0.023366667 0.063423812 0.70100003
-0.022000002 0.06333334 0.70000005
-0.020666668 0.06333334 0.70000005
-0.019333335 0.06333334 0.70000005
-0.070100002 0.064759053 0.70100003
-0.068764769 0.064759053 0.70100003
-0.067429528 0.064759053 0.70100003
-0.066000007 0.064666674 0.70000005
-0.064481907 0.064481907 0.69800001
-0.063061908 0.064389527 0.69700003
-0.061734289 0.064389527 0.69700003
-0.060233336 0.064204767 0.69500005
-0.058909528 0.064204767 0.69500005
-0.057420004 0.064020008 0.69300002
-0.056100003 0.064020008 0.69300002
-0.054621909 0.063835241 0.69100004
-0.053305719 0.063835241 0.69100004
-0.051989526 0.063835241 0.69100004
-0.050673336 0.063835241 0.69100004
-0.049357146 0.063835241 0.69100004
-0.048040956 0.063835241 0.69100004
-0.046724766 0.063835241 0.69100004
-0.045342859 0.063742861 0.69000006
-0.044092383 0.063835241 0.69100004
-0.042776193 0.063835241 0.69100004
-0.041460004 0.063835241 0.69100004
-0.040143814 0.063835241 0.69100004
-0.03882762 0.063835241 0.69100004
-0.037511431 0.063835241 0.69100004
-0.036195241 0.063835241 0.69100004
-0.034879051 0.063835241 0.69100004
-0.033562858 0.063835241 0.69100004
-0.032340001 0.064020008 0.69300002
-0.031020002 0.064020008 0.69300002
-0.029742859 0.064112388 0.69400001
-0.028461907 0.064204767 0.69500005
-0.027216192 0.064389527 0.69700003
-0.025925716 0.064481907 0.69800001
-0.024666669 0.064666674 0.70000005
-0.023433335 0.064943813 0.70300001
-0.02203143 0.064759053 0.70100003
-0.020755239 0.064943813 0.70300001
-0.019416193 0.064943813 0.70300001
-0.068960957 0.066282861 0.70300001
-0.067429528 0.066094287 0.70100003
-0.066094287 0.066094287 0.70100003
-0.064666674 0.066000007 0.70000005
-0.063152388 0.065811433 0.69800001
-0.061734289 0.065717146 0.69700003
-0.06040667 0.065717146 0.69700003
-0.058909528 0.065528579 0.69500005
-0.057502862 0.065434292 0.69400001
-0.056100003 0.065340005 0.69300002
-0.054780003 0.065340005 0.69300002
-0.053305719 0.065151431 0.69100004
-0.051989526 0.065151431 0.69100004
-0.050673336 0.065151431 0.69100004
-0.049357146 0.065151431 0.69100004
-0.048040956 0.065151431 0.69100004
-0.046724766 0.065151431 0.69100004
-0.045408573 0.065151431 0.69100004
-0.044092383 0.065151431 0.69100004
-0.042776193 0.065151431 0.69100004
-0.041460004 0.065151431 0.69100004
-0.040143814 0.065151431 0.69100004
-0.03882762 0.065151431 0.69100004
-0.037511431 0.065151431 0.69100004
-0.036195241 0.065151431 0.69100004
-0.034980003 0.065340005 0.69300002
-0.033660002 0.065340005 0.69300002
-0.032340001 0.065340005 0.69300002
-0.031020002 0.065340005 0.69300002
-0.029785717 0.065528579 0.69500005
-0.028543811 0.065717146 0.69700003
