# .PCD v0.7 - Point Cloud Data file format
VERSION 0.7
FIELDS x y z
SIZE 4 4 4
TYPE F F F
COUNT 1 1 1
WIDTH 1350
HEIGHT 1
VIEWPOINT 0 0 0 1 0 0 0
POINTS 1350
DATA ascii
-0.0086419052 0.064481907 0.69800001
-0.0073123816 0.064481907 0.69800001
-0.0060000005 0.064666674 0.70000005
-0.004666667 0.064666674 0.70000005
-0.0033333336 0.064666674 0.70000005
-0.0020028572 0.064759053 0.70100003
-0.00066761911 0.064759053 0.70100003
0.00066761911 0.064759053 0.70100003
0.0020085715 0.064943813 0.70300001
0.0033476192 0.064943813 0.70300001
0.0046933335 0.065036193 0.70400006
0.0060342862 0.065036193 0.70400006
0.0073752385 0.065036193 0.70400006
0.0087285722 0.065128572 0.70500004
0.010071429 0.065128572 0.70500004
0.011414287 0.065128572 0.70500004
0.012757144 0.065128572 0.70500004
0.014140001 0.065313339 0.70700002
0.015486668 0.065313339 0.70700002
0.016833335 0.065313339 0.70700002
0.018205715 0.065405719 0.708
0.019554287 0.065405719 0.708
0.020902859 0.065405719 0.708
0.022314288 0.065590478 0.71000004
0.023666669 0.065590478 0.71000004
0.02501905 0.065590478 0.71000004
0.026408574 0.065682858 0.71100003
0.027723812 0.065590478 0.71000004
0.029076193 0.065590478 0.71000004
0.030428573 0.065590478 0.71000004
0.031691432 0.065405719 0.708
0.033040002 0.065405719 0.708
0.034340002 0.065313339 0.70700002
0.035686668 0.065313339 0.70700002
0.036928575 0.065128572 0.70500004
0.038380001 0.065313339 0.70700002
0.039726671 0.065313339 0.70700002
0.041073337 0.065313339 0.70700002
-0.10388001 0.069960006 0.74200004
-0.10246667 0.069960006 0.74200004
-0.10105334 0.069960006 0.74200004
-0.099640004 0.069960006 0.74200004
-0.098226674 0.069960006 0.74200004
-0.096813336 0.069960006 0.74200004
-0.095400006 0.069960006 0.74200004
-0.080433339 0.062700003 0.66500002
-0.079166673 0.062700003 0.66500002
-0.077900007 0.062700003 0.66500002
-0.076633342 0.062700003 0.66500002
-0.075366668 0.062700003 0.66500002
-0.074100003 0.062700003 0.66500002
-0.07294286 0.06279429 0.66600001
-0.071674287 0.06279429 0.66600001
-0.070511431 0.062888578 0.66700006
-0.069240957 0.062888578 0.66700006
-0.068174288 0.063077144 0.66900003
-0.066900007 0.063077144 0.66900003
-0.065723814 0.063171431 0.67000002
-0.064543813 0.063265719 0.671
-0.063360006 0.063360006 0.67200005
-0.062080003 0.063360006 0.67200005
-0.060980957 0.063548572 0.67400002
-0.059697147 0.063548572 0.67400002
-0.058413338 0.063548572 0.67400002
-0.05721429 0.063642859 0.67500001
-0.055928577 0.063642859 0.67500001
-0.054723814 0.063737147 0.67600006
-0.053594287 0.063925721 0.67800003
-0.052380003 0.064020008 0.67900002
-0.051086672 0.064020008 0.67900002
-0.049866669 0.064114287 0.68000001
-0.04857143 0.064114287 0.68000001
-0.047415242 0.064302862 0.68200004
-0.046183813 0.064397149 0.68300003
-0.044948574 0.064491436 0.68400002
-0.043645717 0.064491436 0.68400002
-0.04234286 0.064491436 0.68400002
-0.041160002 0.064680003 0.68600005
-0.039853334 0.064680003 0.68600005
-0.03854667 0.064680003 0.68600005
-0.037294287 0.06477429 0.68700004
-0.036090478 0.064962864 0.68900001
-0.034778096 0.064962864 0.68900001
-0.033514287 0.065057144 0.69000006
-0.032200001 0.065057144 0.69000006
-0.030930478 0.065151431 0.69100004
-0.029614288 0.065151431 0.69100004
-0.028298097 0.065151431 0.69100004
-0.026981907 0.065151431 0.69100004
-0.025665715 0.065151431 0.69100004
-0.024420002 0.065340005 0.69300002
-0.023100002 0.065340005 0.69300002
-0.021811429 0.065434292 0.69400001
-0.020489525 0.065434292 0.69400001
-0.01919524 0.065528579 0.69500005
-0.01787143 0.065528579 0.69500005
-0.01654762 0.065528579 0.69500005
-0.01526762 0.065717146 0.69700003
-0.013940001 0.065717146 0.69700003
-0.012612382 0.065717146 0.69700003
-0.011284763 0.065717146 0.69700003
-0.0099714296 0.065811433 0.69800001
-0.0086419052 0.065811433 0.69800001
-0.0073333336 0.066000007 0.70000005
-0.0060000005 0.066000007 0.70000005
-0.0046733338 0.066094287 0.70100003
-0.0033380955 0.066094287 0.70100003
-0.0020028572 0.066094287 0.70100003
-0.00066761911 0.066094287 0.70100003
0.00066952384 0.066282861 0.70300001
0.0020114286 0.066377148 0.70400006
0.0033523813 0.066377148 0.70400006
0.0046933335 0.066377148 0.70400006
0.0060428577 0.066471435 0.70500004
0.0073857149 0.066471435 0.70500004
0.0087285722 0.066471435 0.70500004
0.010100001 0.066660002 0.70700002
0.011446668 0.066660002 0.70700002
0.012793334 0.066660002 0.70700002
0.014140001 0.066660002 0.70700002
0.015486668 0.066660002 0.70700002
0.016857143 0.066754289 0.708
0.018257145 0.066942863 0.71000004
0.019609526 0.066942863 0.71000004
0.020961907 0.066942863 0.71000004
0.022314288 0.066942863 0.71000004
0.023666669 0.066942863 0.71000004
0.025054287 0.06703715 0.71100003
0.026408574 0.06703715 0.71100003
0.027762858 0.06703715 0.71100003
0.029117145 0.06703715 0.71100003
0.030471431 0.06703715 0.71100003
0.031780954 0.066942863 0.71000004
0.033040002 0.066754289 0.708
0.034340002 0.066660002 0.70700002
0.035686668 0.066660002 0.70700002
0.036928575 0.066471435 0.70500004
0.038380001 0.066660002 0.70700002
0.039726671 0.066660002 0.70700002
0.041073337 0.066660002 0.70700002
0.042420004 0.066660002 0.70700002
-0.10388001 0.071373336 0.74200004
-0.10246667 0.071373336 0.74200004
-0.10105334 0.071373336 0.74200004
-0.099640004 0.071373336 0.74200004
-0.098226674 0.071373336 0.74200004
-0.096813336 0.071373336 0.74200004
-0.095142864 0.071180955 0.74000001
-0.093606673 0.071084768 0.73900002
-0.092199057 0.071084768 0.73900002
-0.079166673 0.063966669 0.66500002
-0.077900007 0.063966669 0.66500002
-0.076633342 0.063966669 0.66500002
-0.075366668 0.063966669 0.66500002
-0.074100003 0.063966669 0.66500002
-0.07294286 0.064062864 0.66600001
-0.071674287 0.064062864 0.66600001
-0.070511431 0.064159051 0.66700006
-0.069448575 0.064351432 0.66900003
-0.068174288 0.064351432 0.66900003
-0.066900007 0.064351432 0.66900003
-0.065723814 0.064447626 0.67000002
-0.064543813 0.064543813 0.671
-0.063360006 0.064640008 0.67200005
-0.062080003 0.064640008 0.67200005
-0.060980957 0.064832382 0.67400002
-0.059697147 0.064832382 0.67400002
-0.058413338 0.064832382 0.67400002
-0.05721429 0.064928576 0.67500001
-0.055928577 0.064928576 0.67500001
-0.054885719 0.065217145 0.67800003
-0.053594287 0.065217145 0.67800003
-0.052380003 0.065313339 0.67900002
-0.051161908 0.065409526 0.68000001
-0.049866669 0.065409526 0.68000001
-0.04857143 0.065409526 0.68000001
-0.047484767 0.065698102 0.68300003
-0.046183813 0.065698102 0.68300003
-0.044948574 0.065794289 0.68400002
-0.043645717 0.065794289 0.68400002
-0.04246667 0.065986671 0.68600005
-0.041160002 0.065986671 0.68600005
-0.039853334 0.065986671 0.68600005
-0.038602859 0.066082865 0.68700004
-0.037294287 0.066082865 0.68700004
-0.036090478 0.066275239 0.68900001
-0.034828573 0.066371433 0.69000006
-0.033514287 0.066371433 0.69000006
-0.032200001 0.066371433 0.69000006
-0.030930478 0.06646762 0.69100004
-0.029614288 0.06646762 0.69100004
-0.028298097 0.06646762 0.69100004
-0.026981907 0.06646762 0.69100004
-0.025740001 0.066660002 0.69300002
-0.024420002 0.066660002 0.69300002
-0.023100002 0.066660002 0.69300002
-0.021842858 0.066852383 0.69500005
-0.02051905 0.066852383 0.69500005
-0.01919524 0.066852383 0.69500005
-0.017922858 0.067044765 0.69700003
-0.016595239 0.067044765 0.69700003
-0.01526762 0.067044765 0.69700003
-0.013940001 0.067044765 0.69700003
-0.012612382 0.067044765 0.69700003
-0.011284763 0.067044765 0.69700003
-0.0099714296 0.067140959 0.69800001
-0.0086666672 0.067333341 0.70000005
-0.0073333336 0.067333341 0.70000005
-0.0060000005 0.067333341 0.70000005
-0.0046733338 0.067429528 0.70100003
-0.0033380955 0.067429528 0.70100003
-0.0020085715 0.067621909 0.70300001
-0.00066952384 0.067621909 0.70300001
0.00066952384 0.067621909 0.70300001
0.0020114286 0.067718096 0.70400006
0.0033571431 0.067814291 0.70500004
0.0047000004 0.067814291 0.70500004
0.0060428577 0.067814291 0.70500004
0.0074066673 0.068006672 0.70700002
0.0087533342 0.068006672 0.70700002
0.010100001 0.068006672 0.70700002
0.011446668 0.068006672 0.70700002
0.01281143 0.068102859 0.708
0.014160001 0.068102859 0.708
0.015552382 0.06829524 0.71000004
0.016857143 0.068102859 0.708
0.018282859 0.068391435 0.71100003
0.019637143 0.068391435 0.71100003
0.02099143 0.068391435 0.71100003
0.022345716 0.068391435 0.71100003
0.023700001 0.068391435 0.71100003
0.025124764 0.068583816 0.71300006
0.02648286 0.068583816 0.71300006
0.027840953 0.068583816 0.71300006
0.029199049 0.068583816 0.71300006
0.030557144 0.068583816 0.71300006
0.031825718 0.068391435 0.71100003
0.033133335 0.06829524 0.71000004
0.034388572 0.068102859 0.708
0.035737146 0.068102859 0.708
0.037033334 0.068006672 0.70700002
0.038380001 0.068006672 0.70700002
0.039726671 0.068006672 0.70700002
0.041073337 0.068006672 0.70700002
0.042420004 0.068006672 0.70700002
-0.10388001 0.072786674 0.74200004
-0.10246667 0.072786674 0.74200004
-0.10105334 0.072786674 0.74200004
-0.099640004 0.072786674 0.74200004
-0.098226674 0.072786674 0.74200004
-0.096813336 0.072786674 0.74200004
-0.095142864 0.072590478 0.74000001
-0.093733341 0.072590478 0.74000001
-0.092199057 0.072492383 0.73900002
-0.079285719 0.065331429 0.66600001
-0.078017145 0.065331429 0.66600001
-0.07674858 0.065331429 0.66600001
-0.075366668 0.065233335 0.66500002
-0.074211434 0.065331429 0.66600001
-0.07294286 0.065331429 0.66600001
-0.071781911 0.065429531 0.66700006
-0.070511431 0.065429531 0.66700006
-0.069448575 0.06562572 0.66900003
-0.068174288 0.06562572 0.66900003
-0.067000002 0.065723814 0.67000002
-0.065723814 0.065723814 0.67000002
-0.064543813 0.065821908 0.671
-0.063360006 0.065920003 0.67200005
-0.062080003 0.065920003 0.67200005
-0.060980957 0.066116191 0.67400002
-0.059697147 0.066116191 0.67400002
-0.058413338 0.066116191 0.67400002
-0.05721429 0.066214293 0.67500001
-0.056011431 0.066312388 0.67600006
-0.054885719 0.066508576 0.67800003
-0.053673338 0.066606671 0.67900002
-0.052380003 0.066606671 0.67900002
-0.051161908 0.066704765 0.68000001
-0.049866669 0.066704765 0.68000001
-0.04857143 0.066704765 0.68000001
-0.047484767 0.066999055 0.68300003
-0.046183813 0.066999055 0.68300003
-0.044948574 0.06709715 0.68400002
-0.043645717 0.06709715 0.68400002
-0.04246667 0.067293338 0.68600005
-0.041160002 0.067293338 0.68600005
-0.039853334 0.067293338 0.68600005
-0.038602859 0.067391433 0.68700004
-0.037294287 0.067391433 0.68700004
-0.036090478 0.067587622 0.68900001
-0.034828573 0.067685716 0.69000006
-0.033514287 0.067685716 0.69000006
-0.032200001 0.067685716 0.69000006
-0.030930478 0.067783818 0.69100004
-0.029614288 0.067783818 0.69100004
-0.028298097 0.067783818 0.69100004
-0.026981907 0.067783818 0.69100004
-0.025740001 0.067980006 0.69300002
-0.024420002 0.067980006 0.69300002
-0.023133336 0.068078101 0.69400001
-0.021842858 0.068176195 0.69500005
-0.02051905 0.068176195 0.69500005
-0.01919524 0.068176195 0.69500005
-0.017922858 0.068372384 0.69700003
-0.016595239 0.068372384 0.69700003
-0.01526762 0.068372384 0.69700003
-0.013960001 0.068470478 0.69800001
-0.012630477 0.068470478 0.69800001
-0.011300953 0.068470478 0.69800001
-0.010000001 0.068666674 0.70000005
-0.0086666672 0.068666674 0.70000005
-0.0073333336 0.068666674 0.70000005
-0.0060085719 0.068764769 0.70100003
-0.0046733338 0.068764769 0.70100003
-0.0033476192 0.068960957 0.70300001
-0.0020114286 0.069059052 0.70400006
-0.00067142863 0.069157146 0.70500004
0.00067142863 0.069157146 0.70500004
0.0020142859 0.069157146 0.70500004
0.0033571431 0.069157146 0.70500004
0.0047133337 0.069353335 0.70700002
0.0060600005 0.069353335 0.70700002
0.0074066673 0.069353335 0.70700002
0.0087533342 0.069353335 0.70700002
0.010114286 0.069451436 0.708
0.011462858 0.069451436 0.708
0.01284762 0.069647625 0.71000004
0.014200001 0.069647625 0.71000004
0.015552382 0.069647625 0.71000004
0.016904764 0.069647625 0.71000004
0.018282859 0.069745719 0.71100003
0.019637143 0.069745719 0.71100003
0.021050477 0.069941908 0.71300006
0.022408573 0.069941908 0.71300006
0.023766669 0.069941908 0.71300006
0.025124764 0.069941908 0.71300006
0.026520003 0.070040002 0.71400005
0.027880002 0.070040002 0.71400005
0.029240001 0.070040002 0.71400005
0.030557144 0.069941908 0.71300006
0.031825718 0.069745719 0.71100003
0.033180002 0.069745719 0.71100003
0.034485716 0.069647625 0.71000004
0.035838097 0.069647625 0.71000004
0.037085716 0.069451436 0.708
0.038434289 0.069451436 0.708
0.039726671 0.069353335 0.70700002
0.041073337 0.069353335 0.70700002
0.042420004 0.069353335 0.70700002
-0.10388001 0.074200004 0.74200004
-0.10246667 0.074200004 0.74200004
-0.10118953 0.074300006 0.74300003
-0.099640004 0.074200004 0.74200004
-0.098226674 0.074200004 0.74200004
-0.096813336 0.074200004 0.74200004
-0.095400006 0.074200004 0.74200004
-0.093733341 0.074000008 0.74000001
-0.092199057 0.073900007 0.73900002
-0.079285719 0.066600002 0.66600001
-0.078017145 0.066600002 0.66600001
-0.07674858 0.066600002 0.66600001
-0.075480007 0.066600002 0.66600001
-0.074211434 0.066600002 0.66600001
-0.07294286 0.066600002 0.66600001
-0.071781911 0.066700004 0.66700006
-0.070722863 0.066900007 0.66900003
-0.069448575 0.066900007 0.66900003
-0.068276197 0.067000002 0.67000002
-0.067000002 0.067000002 0.67000002
-0.065723814 0.067000002 0.67000002
-0.064543813 0.067100003 0.671
-0.063360006 0.067200005 0.67200005
-0.062264767 0.067400001 0.67400002
-0.060980957 0.067400001 0.67400002
-0.059697147 0.067400001 0.67400002
-0.058500003 0.067500003 0.67500001
-0.05721429 0.067500003 0.67500001
-0.056011431 0.067600004 0.67600006
-0.05496667 0.067900002 0.67900002
-0.053673338 0.067900002 0.67900002
-0.052457146 0.068000004 0.68000001
-0.051161908 0.068000004 0.68000001
-0.049866669 0.068000004 0.68000001
-0.048714288 0.068200007 0.68200004
-0.047484767 0.068300001 0.68300003
-0.046251431 0.068400003 0.68400002
-0.044948574 0.068400003 0.68400002
-0.043645717 0.068400003 0.68400002
-0.04246667 0.068600006 0.68600005
-0.041160002 0.068600006 0.68600005
-0.039853334 0.068600006 0.68600005
-0.038602859 0.068700008 0.68700004
-0.037294287 0.068700008 0.68700004
-0.036090478 0.068900004 0.68900001
-0.034828573 0.069000006 0.69000006
-0.033514287 0.069000006 0.69000006
-0.032200001 0.069000006 0.69000006
-0.030930478 0.069100007 0.69100004
-0.029614288 0.069100007 0.69100004
-0.028380001 0.069300003 0.69300002
-0.027060002 0.069300003 0.69300002
-0.025740001 0.069300003 0.69300002
-0.02445524 0.069400005 0.69400001
-0.023133336 0.069400005 0.69400001
-0.021842858 0.069500007 0.69500005
-0.020578096 0.069700003 0.69700003
-0.019250477 0.069700003 0.69700003
-0.017948573 0.069800004 0.69800001
-0.016619049 0.069800004 0.69800001
-0.015289525 0.069800004 0.69800001
-0.013960001 0.069800004 0.69800001
-0.012666668 0.070000008 0.70000005
-0.011333334 0.070000008 0.70000005
-0.010000001 0.070000008 0.70000005
-0.0086790482 0.070100002 0.70100003
-0.0073438101 0.070100002 0.70100003
-0.0060257148 0.070300005 0.70300001
-0.0046866671 0.070300005 0.70300001
-0.0033523813 0.070400007 0.70400006
-0.0020142859 0.070500001 0.70500004
-0.00067142863 0.070500001 0.70500004
0.00067142863 0.070500001 0.70500004
0.0020200002 0.070700005 0.70700002
0.0033666668 0.070700005 0.70700002
0.0047133337 0.070700005 0.70700002
0.0060685719 0.070800006 0.708
0.0074171433 0.070800006 0.708
0.0087657152 0.070800006 0.708
0.010142858 0.071000002 0.71000004
0.011495239 0.071000002 0.71000004
0.012865715 0.071100004 0.71100003
0.014220001 0.071100004 0.71100003
0.015574287 0.071100004 0.71100003
0.016928572 0.071100004 0.71100003
0.018282859 0.071100004 0.71100003
0.019692382 0.071300007 0.71300006
0.021050477 0.071300007 0.71300006
0.022408573 0.071300007 0.71300006
0.023766669 0.071300007 0.71300006
0.025160002 0.071400002 0.71400005
0.026520003 0.071400002 0.71400005
0.027880002 0.071400002 0.71400005
0.029240001 0.071400002 0.71400005
0.030557144 0.071300007 0.71300006
0.03191524 0.071300007 0.71300006
0.033180002 0.071100004 0.71100003
0.034534287 0.071100004 0.71100003
0.035838097 0.071000002 0.71000004
0.037190478 0.071000002 0.71000004
0.038434289 0.070800006 0.708
0.039782859 0.070800006 0.708
0.041131433 0.070800006 0.708
-0.10360001 0.075409532 0.74000001
-0.10219048 0.075409532 0.74000001
-0.10118953 0.075715244 0.74300003
-0.099640004 0.075613335 0.74200004
-0.098226674 0.075613335 0.74200004
-0.096813336 0.075613335 0.74200004
-0.095400006 0.075613335 0.74200004
-0.093733341 0.075409532 0.74000001
-0.092199057 0.075307623 0.73900002
-0.079285719 0.067868575 0.66600001
-0.078017145 0.067868575 0.66600001
-0.076633342 0.067766674 0.66500002
-0.075480007 0.067868575 0.66600001
-0.074211434 0.067868575 0.66600001
-0.073052384 0.067970477 0.66700006
-0.071781911 0.067970477 0.66700006
-0.070722863 0.068174288 0.66900003
-0.069448575 0.068174288 0.66900003
-0.068276197 0.068276197 0.67000002
-0.067000002 0.068276197 0.67000002
-0.065821908 0.068378098 0.671
-0.064640008 0.068480007 0.67200005
-0.063360006 0.068480007 0.67200005
-0.062264767 0.068683811 0.67400002
-0.060980957 0.068683811 0.67400002
-0.059697147 0.068683811 0.67400002
-0.058500003 0.06878572 0.67500001
-0.05721429 0.06878572 0.67500001
-0.056011431 0.068887621 0.67600006
-0.05496667 0.069193341 0.67900002
-0.053673338 0.069193341 0.67900002
-0.052457146 0.069295242 0.68000001
-0.051161908 0.069295242 0.68000001
-0.049866669 0.069295242 0.68000001
-0.048714288 0.069499053 0.68200004
-0.047484767 0.069600955 0.68300003
-0.046183813 0.069600955 0.68300003
-0.044948574 0.069702864 0.68400002
-0.043645717 0.069702864 0.68400002
-0.04246667 0.069906674 0.68600005
-0.041160002 0.069906674 0.68600005
-0.03991143 0.070008576 0.68700004
-0.03871524 0.070212387 0.68900001
-0.037402861 0.070212387 0.68900001
-0.03614286 0.070314288 0.69000006
-0.034828573 0.070314288 0.69000006
-0.033514287 0.070314288 0.69000006
-0.032246668 0.070416197 0.69100004
-0.030930478 0.070416197 0.69100004
-0.029614288 0.070416197 0.69100004
-0.028380001 0.070620008 0.69300002
-0.027060002 0.070620008 0.69300002
-0.025777144 0.070721909 0.69400001
-0.024490478 0.070823811 0.69500005
-0.023166668 0.070823811 0.69500005
-0.021905717 0.071027622 0.69700003
-0.020578096 0.071027622 0.69700003
-0.019278096 0.071129531 0.69800001
-0.017948573 0.071129531 0.69800001
-0.016666668 0.071333341 0.70000005
-0.015333334 0.071333341 0.70000005
-0.014000001 0.071333341 0.70000005
-0.012684762 0.071435243 0.70100003
-0.011349524 0.071435243 0.70100003
-0.010042857 0.071639054 0.70300001
-0.0087161912 0.071740955 0.70400006
-0.0073752385 0.071740955 0.70400006
-0.0060342862 0.071740955 0.70400006
-0.0047000004 0.071842864 0.70500004
-0.0033571431 0.071842864 0.70500004
-0.0020200002 0.072046675 0.70700002
-0.00067333336 0.072046675 0.70700002
0.00067333336 0.072046675 0.70700002
0.0020200002 0.072046675 0.70700002
0.0033714287 0.072148576 0.708
0.0047200001 0.072148576 0.708
0.0060857148 0.072352387 0.71000004
0.0074171433 0.072148576 0.708
0.0087904772 0.072352387 0.71000004
0.010157144 0.072454289 0.71100003
0.011511429 0.072454289 0.71100003
0.012901906 0.072658099 0.71300006
0.014260001 0.072658099 0.71300006
0.015618096 0.072658099 0.71300006
0.016976191 0.072658099 0.71300006
0.018334286 0.072658099 0.71300006
0.019692382 0.072658099 0.71300006
0.021050477 0.072658099 0.71300006
0.022440001 0.072760008 0.71400005
0.023800002 0.072760008 0.71400005
0.025230478 0.072963811 0.71600002
0.026594287 0.072963811 0.71600002
0.027958097 0.072963811 0.71600002
0.029321907 0.072963811 0.71600002
0.030600002 0.072760008 0.71400005
0.03191524 0.072658099 0.71300006
0.033273336 0.072658099 0.71300006
0.034534287 0.072454289 0.71100003
0.035888575 0.072454289 0.71100003
0.03724286 0.072454289 0.71100003
0.038542859 0.072352387 0.71000004
0.03989524 0.072352387 0.71000004
0.041131433 0.072148576 0.708
-0.10260477 0.077130482 0.74300003
-0.10118953 0.077130482 0.74300003
-0.099640004 0.077026673 0.74200004
-0.098226674 0.077026673 0.74200004
-0.096813336 0.077026673 0.74200004
-0.095142864 0.076819055 0.74000001
-0.093733341 0.076819055 0.74000001
-0.092199057 0.076715246 0.73900002
-0.079285719 0.069137149 0.66600001
-0.078017145 0.069137149 0.66600001
-0.07674858 0.069137149 0.66600001
-0.075480007 0.069137149 0.66600001
-0.074322864 0.069240957 0.66700006
-0.073052384 0.069240957 0.66700006
-0.071997151 0.069448575 0.66900003
-0.070722863 0.069448575 0.66900003
-0.069448575 0.069448575 0.66900003
-0.068276197 0.069552384 0.67000002
-0.067000002 0.069552384 0.67000002
-0.065821908 0.069656193 0.671
-0.064640008 0.069760002 0.67200005
-0.063548572 0.06996762 0.67400002
-0.062264767 0.06996762 0.67400002
-0.060980957 0.06996762 0.67400002
-0.05978572 0.070071436 0.67500001
-0.058500003 0.070071436 0.67500001
-0.057299051 0.070175245 0.67600006
-0.056177147 0.070382863 0.67800003
-0.05496667 0.070486672 0.67900002
-0.053673338 0.070486672 0.67900002
-0.052457146 0.070590481 0.68000001
-0.051161908 0.070590481 0.68000001
-0.050013337 0.070798099 0.68200004
-0.048714288 0.070798099 0.68200004
-0.047484767 0.070901908 0.68300003
-0.046183813 0.070901908 0.68300003
-0.044948574 0.071005717 0.68400002
-0.043645717 0.071005717 0.68400002
-0.04246667 0.071213335 0.68600005
-0.041160002 0.071213335 0.68600005
-0.03991143 0.071317151 0.68700004
-0.03871524 0.071524769 0.68900001
-0.037402861 0.071524769 0.68900001
-0.03614286 0.071628578 0.69000006
-0.034828573 0.071628578 0.69000006
-0.033562858 0.071732387 0.69100004
-0.032246668 0.071732387 0.69100004
-0.031020002 0.071940005 0.69300002
-0.029700002 0.071940005 0.69300002
-0.028420955 0.072043814 0.69400001
-0.027099049 0.072043814 0.69400001
-0.025814287 0.072147623 0.69500005
-0.024490478 0.072147623 0.69500005
-0.023233335 0.072355241 0.69700003
-0.021937145 0.07245905 0.69800001
-0.02060762 0.07245905 0.69800001
-0.019333335 0.072666675 0.70000005
-0.018000001 0.072666675 0.70000005
-0.016666668 0.072666675 0.70000005
-0.015333334 0.072666675 0.70000005
-0.014020001 0.072770484 0.70100003
-0.012684762 0.072770484 0.70100003
-0.011381906 0.072978102 0.70300001
-0.010042857 0.072978102 0.70300001
-0.0087161912 0.073081911 0.70400006
-0.0073752385 0.073081911 0.70400006
-0.0060428577 0.07318572 0.70500004
-0.0047000004 0.07318572 0.70500004
-0.0033571431 0.07318572 0.70500004
-0.0020200002 0.073393337 0.70700002
-0.00067333336 0.073393337 0.70700002
0.00067333336 0.073393337 0.70700002
0.0020228573 0.073497146 0.708
0.0033714287 0.073497146 0.708
0.0047200001 0.073497146 0.708
0.0060857148 0.073704764 0.71000004
0.0074380958 0.073704764 0.71000004
0.0088028582 0.073808573 0.71100003
0.010185715 0.074016199 0.71300006
0.01154381 0.074016199 0.71300006
0.012901906 0.074016199 0.71300006
0.014260001 0.074016199 0.71300006
0.015640002 0.074120007 0.71400005
0.016976191 0.074016199 0.71300006
0.018334286 0.074016199 0.71300006
0.019692382 0.074016199 0.71300006
0.021080002 0.074120007 0.71400005
0.022502858 0.074327625 0.71600002
0.023866668 0.074327625 0.71600002
0.025265716 0.074431434 0.71700001
0.02663143 0.074431434 0.71700001
0.027997145 0.074431434 0.71700001
0.029321907 0.074327625 0.71600002
0.030685715 0.074327625 0.71600002
0.031960003 0.074120007 0.71400005
0.033273336 0.074016199 0.71300006
0.034631431 0.074016199 0.71300006
0.035888575 0.073808573 0.71100003
0.03724286 0.073808573 0.71100003
0.038542859 0.073704764 0.71000004
0.039782859 0.073497146 0.708
0.041131433 0.073497146 0.708
-0.10205239 0.078122862 0.73900002
-0.10105334 0.078440003 0.74200004
-0.099371433 0.078228578 0.74000001
-0.098226674 0.078440003 0.74200004
-0.096813336 0.078440003 0.74200004
-0.095142864 0.078228578 0.74000001
-0.093733341 0.078228578 0.74000001
-0.092199057 0.078122862 0.73900002
-0.081038103 0.070828579 0.67000002
-0.079404764 0.070511431 0.66700006
-0.078134291 0.070511431 0.66700006
-0.07674858 0.070405722 0.66600001
-0.075593337 0.070511431 0.66700006
-0.074322864 0.070511431 0.66700006
-0.073271431 0.070722863 0.66900003
-0.071997151 0.070722863 0.66900003
-0.070722863 0.070722863 0.66900003
-0.069448575 0.070722863 0.66900003
-0.068276197 0.070828579 0.67000002
-0.067000002 0.070828579 0.67000002
-0.065821908 0.070934288 0.671
-0.064640008 0.071040004 0.67200005
-0.063548572 0.07125143 0.67400002
-0.062264767 0.07125143 0.67400002
-0.060980957 0.07125143 0.67400002
-0.05978572 0.071357146 0.67500001
-0.058500003 0.071357146 0.67500001
-0.057299051 0.071462862 0.67600006
-0.056260005 0.071780004 0.67900002
-0.05496667 0.071780004 0.67900002
-0.053752385 0.07188572 0.68000001
-0.052457146 0.07188572 0.68000001
-0.051161908 0.07188572 0.68000001
-0.049866669 0.07188572 0.68000001
-0.048714288 0.072097145 0.68200004
-0.047484767 0.072202861 0.68300003
-0.046183813 0.072202861 0.68300003
-0.044948574 0.072308578 0.68400002
-0.043773334 0.072520003 0.68600005
-0.04246667 0.072520003 0.68600005
-0.041220002 0.072625719 0.68700004
-0.040027622 0.072837144 0.68900001
-0.038771432 0.07294286 0.69000006
-0.037457146 0.07294286 0.69000006
-0.03614286 0.07294286 0.69000006
-0.034828573 0.07294286 0.69000006
-0.033562858 0.073048577 0.69100004
-0.032246668 0.073048577 0.69100004
-0.031020002 0.073260002 0.69300002
-0.029742859 0.073365718 0.69400001
-0.028420955 0.073365718 0.69400001
-0.027138097 0.073471434 0.69500005
-0.025814287 0.073471434 0.69500005
-0.024560954 0.07368286 0.69700003
-0.023266668 0.073788576 0.69800001
-0.022000002 0.074000008 0.70000005
-0.020666668 0.074000008 0.70000005
-0.019333335 0.074000008 0.70000005
-0.018000001 0.074000008 0.70000005
-0.016690478 0.074105717 0.70100003
-0.015355239 0.074105717 0.70100003
-0.014020001 0.074105717 0.70100003
-0.012720954 0.07431715 0.70300001
-0.011398096 0.074422859 0.70400006
-0.010057144 0.074422859 0.70400006
-0.0087285722 0.074528575 0.70500004
-0.0073752385 0.074422859 0.70400006
-0.0060342862 0.074422859 0.70400006
-0.0047000004 0.074528575 0.70500004
-0.0033571431 0.074528575 0.70500004
-0.0020200002 0.074740008 0.70700002
-0.00067428575 0.074845716 0.708
0.00067428575 0.074845716 0.708
0.0020228573 0.074845716 0.708
0.0033809526 0.075057149 0.71000004
0.0047400002 0.075162865 0.71100003
0.0060942862 0.075162865 0.71100003
0.0074485717 0.075162865 0.71100003
0.0088276193 0.07537429 0.71300006
0.010185715 0.07537429 0.71300006
0.01156 0.075480007 0.71400005
0.012920001 0.075480007 0.71400005
0.014280001 0.075480007 0.71400005
0.017857144 0.079285719 0.75000006
0.018334286 0.07537429 0.71300006
0.019692382 0.07537429 0.71300006
0.021080002 0.075480007 0.71400005
0.022502858 0.075691432 0.71600002
0.023900002 0.075797148 0.71700001
0.025265716 0.075797148 0.71700001
0.02663143 0.075797148 0.71700001
0.027997145 0.075797148 0.71700001
0.029362859 0.075797148 0.71700001
0.030728573 0.075797148 0.71700001
0.032049526 0.075691432 0.71600002
0.033320002 0.075480007 0.71400005
0.034631431 0.07537429 0.71300006
0.035989527 0.07537429 0.71300006
0.03724286 0.075162865 0.71100003
0.038542859 0.075057149 0.71000004
0.03989524 0.075057149 0.71000004
-0.10205239 0.079530485 0.73900002
-0.10064477 0.079530485 0.73900002
-0.099237151 0.079530485 0.73900002
-0.09796191 0.079638101 0.74000001
-0.096421912 0.079530485 0.73900002
-0.095014289 0.079530485 0.73900002
-0.093606673 0.079530485 0.73900002
-0.092199057 0.079530485 0.73900002
-0.090791434 0.079530485 0.73900002
-0.081038103 0.072104767 0.67000002
-0.079642862 0.071997151 0.66900003
-0.078368574 0.071997151 0.66900003
-0.077094294 0.071997151 0.66900003
-0.075820006 0.071997151 0.66900003
-0.074545719 0.071997151 0.66900003
-0.073271431 0.071997151 0.66900003
-0.071997151 0.071997151 0.66900003
-0.070722863 0.071997151 0.66900003
-0.069552384 0.072104767 0.67000002
-0.068276197 0.072104767 0.67000002
-0.067000002 0.072104767 0.67000002
-0.065821908 0.072212383 0.671
-0.064640008 0.072320007 0.67200005
-0.063548572 0.072535239 0.67400002
-0.062264767 0.072535239 0.67400002
-0.061071433 0.072642863 0.67500001
-0.05978572 0.072642863 0.67500001
-0.058586672 0.072750479 0.67600006
-0.057468574 0.072965719 0.67800003
-0.056260005 0.073073335 0.67900002
-0.055047624 0.073180959 0.68000001
-0.053752385 0.073180959 0.68000001
-0.052457146 0.073180959 0.68000001
-0.051312383 0.073396198 0.68200004
-0.050013337 0.073396198 0.68200004
-0.048714288 0.073396198 0.68200004
-0.047484767 0.073503815 0.68300003
-0.046251431 0.073611431 0.68400002
-0.044948574 0.073611431 0.68400002
-0.043773334 0.073826671 0.68600005
-0.042528573 0.073934294 0.68700004
-0.041220002 0.073934294 0.68700004
-0.040027622 0.074149527 0.68900001
-0.038771432 0.07425715 0.69000006
-0.037457146 0.07425715 0.69000006
-0.036195241 0.074364766 0.69100004
-0.034879051 0.074364766 0.69100004
-0.033562858 0.074364766 0.69100004
-0.032340001 0.074580006 0.69300002
-0.031020002 0.074580006 0.69300002
-0.029742859 0.074687622 0.69400001
-0.028461907 0.074795246 0.69500005
-0.027138097 0.074795246 0.69500005
-0.025888573 0.075010478 0.69700003
-0.024596192 0.075118102 0.69800001
-0.023333335 0.075333342 0.70000005
-0.02203143 0.075440958 0.70100003
-0.020666668 0.075333342 0.70000005
-0.019360954 0.075440958 0.70100003
-0.018025715 0.075440958 0.70100003
-0.016690478 0.075440958 0.70100003
-0.015399049 0.075656198 0.70300001
-0.014060001 0.075656198 0.70300001
-0.012739048 0.075763814 0.70400006
-0.011398096 0.075763814 0.70400006
-0.010057144 0.075763814 0.70400006
-0.0087285722 0.07587143 0.70500004
-0.0073752385 0.075763814 0.70400006
-0.0060342862 0.075763814 0.70400006
-0.0047000004 0.07587143 0.70500004
-0.0033571431 0.07587143 0.70500004
-0.0020228573 0.076194294 0.708
-0.00067428575 0.076194294 0.708
0.00067428575 0.076194294 0.708
0.0020314287 0.07651715 0.71100003
0.0033952384 0.07673239 0.71300006
0.0047533335 0.07673239 0.71300006
0.0061114291 0.07673239 0.71300006
0.0074800006 0.076840006 0.71400005
0.0088400003 0.076840006 0.71400005
0.0102 0.076840006 0.71400005
0.01156 0.076840006 0.71400005
0.012920001 0.076840006 0.71400005
0.016428573 0.080714293 0.75000006
0.019285716 0.080714293 0.75000006
0.022597143 0.077378102 0.71900004
0.023966668 0.077378102 0.71900004
0.025336193 0.077378102 0.71900004
0.026705716 0.077378102 0.71900004
0.028075241 0.077378102 0.71900004
0.029444763 0.077378102 0.71900004
0.030728573 0.077162862 0.71700001
0.032094289 0.077162862 0.71700001
0.033320002 0.076840006 0.71400005
0.034680001 0.076840006 0.71400005
0.035989527 0.07673239 0.71300006
0.037347622 0.07673239 0.71300006
0.038597144 0.07651715 0.71100003
-0.1017762 0.080719054 0.73700005
-0.10037239 0.080719054 0.73700005
-0.099237151 0.080938101 0.73900002
-0.097829528 0.080938101 0.73900002
-0.096421912 0.080938101 0.73900002
-0.095014289 0.080938101 0.73900002
-0.093606673 0.080938101 0.73900002
-0.092199057 0.080938101 0.73900002
-0.090791434 0.080938101 0.73900002
-0.081038103 0.073380955 0.67000002
-0.079761907 0.073380955 0.67000002
-0.078368574 0.073271431 0.66900003
-0.077094294 0.073271431 0.66900003
-0.075820006 0.073271431 0.66900003
-0.074545719 0.073271431 0.66900003
-0.073271431 0.073271431 0.66900003
-0.071997151 0.073271431 0.66900003
-0.070828579 0.073380955 0.67000002
-0.069552384 0.073380955 0.67000002
-0.068378098 0.073490478 0.671
-0.067200005 0.073600002 0.67200005
-0.065920003 0.073600002 0.67200005
-0.064832382 0.073819056 0.67400002
-0.063642859 0.07392858 0.67500001
-0.062357146 0.07392858 0.67500001
-0.061071433 0.07392858 0.67500001
-0.059874289 0.074038103 0.67600006
-0.058760002 0.07425715 0.67800003
-0.057553336 0.074366674 0.67900002
-0.056342863 0.074476197 0.68000001
-0.055047624 0.074476197 0.68000001
-0.053752385 0.074476197 0.68000001
-0.052611433 0.074695244 0.68200004
-0.051312383 0.074695244 0.68200004
-0.05008667 0.074804768 0.68300003
-0.048785716 0.074804768 0.68300003
-0.047484767 0.074804768 0.68300003
-0.04638667 0.075133339 0.68600005
-0.045145717 0.075242862 0.68700004
-0.043964766 0.075461909 0.68900001
-0.04271429 0.075571433 0.69000006
-0.041400004 0.075571433 0.69000006
-0.040085718 0.075571433 0.69000006
-0.03882762 0.075680956 0.69100004
-0.037511431 0.075680956 0.69100004
-0.036195241 0.075680956 0.69100004
-0.034980003 0.075900003 0.69300002
-0.033660002 0.075900003 0.69300002
-0.032386668 0.076009527 0.69400001
-0.031064764 0.076009527 0.69400001
-0.029785717 0.07611905 0.69500005
-0.028543811 0.076338097 0.69700003
-0.027255239 0.076447621 0.69800001
-0.025925716 0.076447621 0.69800001
-0.024701906 0.076776199 0.70100003
-0.023366667 0.076776199 0.70100003
-0.022094287 0.076995246 0.70300001
-0.020696191 0.076776199 0.70100003
-0.019416193 0.076995246 0.70300001
-0.018077144 0.076995246 0.70300001
-0.016738096 0.076995246 0.70300001
-0.015442858 0.077214293 0.70500004
-0.014080001 0.07710477 0.70400006
-0.012757144 0.077214293 0.70500004
-0.011414287 0.077214293 0.70500004
-0.010071429 0.077214293 0.70500004
-0.0087285722 0.077214293 0.70500004
-0.0073857149 0.077214293 0.70500004
-0.0060428577 0.077214293 0.70500004
-0.0047000004 0.077214293 0.70500004
-0.0033571431 0.077214293 0.70500004
-0.00071238098 0.081923813 0.74800003
0.0021371429 0.081923813 0.74800003
0.0035619049 0.081923813 0.74800003
0.0061371434 0.078419052 0.71600002
0.007500953 0.078419052 0.71600002
0.0088771433 0.078528576 0.71700001
0.024833335 0.081595242 0.74500006
0.025477145 0.079185717 0.72300005
0.026854288 0.079185717 0.72300005
0.028231431 0.079185717 0.72300005
0.029608574 0.079185717 0.72300005
0.030942859 0.079076193 0.72200006
0.032228574 0.078857146 0.72000003
0.033553336 0.078747623 0.71900004
0.034777146 0.078419052 0.71600002
-0.10205239 0.082345717 0.73900002
-0.10064477 0.082345717 0.73900002
-0.09896858 0.082122862 0.73700005
-0.097829528 0.082345717 0.73900002
-0.096421912 0.082345717 0.73900002
-0.094757147 0.082122862 0.73700005
-0.093606673 0.082345717 0.73900002
-0.09194953 0.082122862 0.73700005
-0.090545721 0.082122862 0.73700005
-0.081280008 0.074880004 0.67200005
-0.07988096 0.074768573 0.671
-0.07848572 0.07465715 0.67000002
-0.077094294 0.074545719 0.66900003
-0.075820006 0.074545719 0.66900003
-0.074545719 0.074545719 0.66900003
-0.073271431 0.074545719 0.66900003
-0.071997151 0.074545719 0.66900003
-0.070828579 0.07465715 0.67000002
-0.069552384 0.07465715 0.67000002
-0.068378098 0.074768573 0.671
-0.067200005 0.074880004 0.67200005
-0.065920003 0.074880004 0.67200005
-0.064832382 0.075102866 0.67400002
-0.063642859 0.075214289 0.67500001
-0.062357146 0.075214289 0.67500001
-0.061161909 0.07532572 0.67600006
-0.060051434 0.075548574 0.67800003
-0.058846671 0.075660005 0.67900002
-0.057553336 0.075660005 0.67900002
-0.056342863 0.075771436 0.68000001
-0.055047624 0.075771436 0.68000001
-0.053752385 0.075771436 0.68000001
-0.052611433 0.07599429 0.68200004
-0.051387623 0.076105721 0.68300003
-0.05008667 0.076105721 0.68300003
-0.048857145 0.076217145 0.68400002
-0.047554288 0.076217145 0.68400002
-0.046454288 0.07655143 0.68700004
-0.045277145 0.076774292 0.68900001
-0.044028573 0.076885723 0.69000006
-0.04271429 0.076885723 0.69000006
-0.041460004 0.076997146 0.69100004
-0.040143814 0.076997146 0.69100004
-0.03882762 0.076997146 0.69100004
-0.037620004 0.077220008 0.69300002
-0.036300004 0.077220008 0.69300002
-0.034980003 0.077220008 0.69300002
-0.033708572 0.077331431 0.69400001
-0.032386668 0.077331431 0.69400001
-0.031109527 0.077442862 0.69500005
-0.029785717 0.077442862 0.69500005
-0.028543811 0.077665716 0.69700003
-0.027255239 0.077777147 0.69800001
-0.026000002 0.078000002 0.70000005
-0.024701906 0.078111432 0.70100003
-0.023433335 0.078334294 0.70300001
-0.022094287 0.078334294 0.70300001
-0.020755239 0.078334294 0.70300001
-0.019416193 0.078334294 0.70300001
-0.018077144 0.078334294 0.70300001
-0.016275238 0.082791433 0.74300003
-0.014860001 0.082791433 0.74300003
-0.013480953 0.083014295 0.74500006
-0.0087533342 0.078780003 0.70700002
-0.0073857149 0.078557149 0.70500004
-0.0060257148 0.078334294 0.70300001
0.024833335 0.083014295 0.74500006
0.026252383 0.083014295 0.74500006
0.027560001 0.082680002 0.74200004
0.028192382 0.080451436 0.72200006
0.029567622 0.080451436 0.72200006
0.030942859 0.080451436 0.72200006
0.032228574 0.080228575 0.72000003
0.033553336 0.080117151 0.71900004
0.034825716 0.079894289 0.71700001
-0.10205239 0.08375334 0.73900002
-0.10064477 0.08375334 0.73900002
-0.09896858 0.083526671 0.73700005
-0.097564772 0.083526671 0.73700005
-0.096160956 0.083526671 0.73700005
-0.094757147 0.083526671 0.73700005
-0.093353339 0.083526671 0.73700005
-0.09194953 0.083526671 0.73700005
-0.090545721 0.083526671 0.73700005
-0.081159055 0.076046668 0.671
-0.07988096 0.076046668 0.671
-0.07848572 0.075933337 0.67000002
-0.077094294 0.075820006 0.66900003
-0.075820006 0.075820006 0.66900003
-0.074545719 0.075820006 0.66900003
-0.073271431 0.075820006 0.66900003
-0.071997151 0.075820006 0.66900003
-0.070828579 0.075933337 0.67000002
-0.069552384 0.075933337 0.67000002
-0.068378098 0.076046668 0.671
-0.067200005 0.076160006 0.67200005
-0.066116191 0.076386675 0.67400002
-0.064832382 0.076386675 0.67400002
-0.063642859 0.076500006 0.67500001
-0.06244953 0.076613337 0.67600006
-0.061342862 0.076840006 0.67800003
-0.060051434 0.076840006 0.67800003
-0.058846671 0.076953337 0.67900002
-0.057638098 0.077066675 0.68000001
-0.056342863 0.077066675 0.68000001
-0.055209529 0.077293336 0.68200004
-0.053910479 0.077293336 0.68200004
-0.052688576 0.077406675 0.68300003
-0.051387623 0.077406675 0.68300003
-0.050160002 0.077520005 0.68400002
-0.048857145 0.077520005 0.68400002
-0.047693338 0.077746674 0.68600005
-0.046454288 0.077860005 0.68700004
-0.045342859 0.078200005 0.69000006
-0.044028573 0.078200005 0.69000006
-0.042776193 0.078313336 0.69100004
-0.041460004 0.078313336 0.69100004
-0.040143814 0.078313336 0.69100004
-0.038940001 0.078540005 0.69300002
-0.037620004 0.078540005 0.69300002
-0.036300004 0.078540005 0.69300002
-0.035030477 0.078653336 0.69400001
-0.033757146 0.078766674 0.69500005
-0.032433335 0.078766674 0.69500005
-0.031109527 0.078766674 0.69500005
-0.02987143 0.078993335 0.69700003
-0.028584763 0.079106674 0.69800001
-0.027255239 0.079106674 0.69800001
-0.026000002 0.079333335 0.70000005
-0.024772383 0.079673335 0.70300001
-0.023466669 0.079786673 0.70400006
-0.022125715 0.079786673 0.70400006
-0.020784764 0.079786673 0.70400006
-0.019471429 0.079900004 0.70500004
-0.017738096 0.08443334 0.74500006
-0.016275238 0.084206671 0.74300003
-0.014860001 0.084206671 0.74300003
0.024766669 0.084206671 0.74300003
0.026146669 0.08409334 0.74200004
0.027560001 0.08409334 0.74200004
0.028973335 0.08409334 0.74200004
0.03038667 0.08409334 0.74200004
0.031800002 0.08409334 0.74200004
0.033213336 0.08409334 0.74200004
-0.1017762 0.08493048 0.73700005
-0.10037239 0.08493048 0.73700005
-0.09896858 0.08493048 0.73700005
-0.097564772 0.08493048 0.73700005
-0.096160956 0.08493048 0.73700005
-0.09462858 0.084815241 0.73600006
-0.093226671 0.084815241 0.73600006
-0.09182477 0.084815241 0.73600006
-0.090422861 0.084815241 0.73600006
-0.081159055 0.07732477 0.671
-0.07988096 0.07732477 0.671
-0.07848572 0.077209532 0.67000002
-0.077209532 0.077209532 0.67000002
-0.075933337 0.077209532 0.67000002
-0.07465715 0.077209532 0.67000002
-0.073380955 0.077209532 0.67000002
-0.072104767 0.077209532 0.67000002
-0.070828579 0.077209532 0.67000002
-0.069656193 0.07732477 0.671
-0.068480007 0.077440009 0.67200005
-0.067400001 0.077670485 0.67400002
-0.066116191 0.077670485 0.67400002
-0.064928576 0.077785723 0.67500001
-0.063642859 0.077785723 0.67500001
-0.062634289 0.078131437 0.67800003
-0.061342862 0.078131437 0.67800003
-0.060140003 0.078246675 0.67900002
-0.058846671 0.078246675 0.67900002
-0.057638098 0.078361914 0.68000001
-0.056342863 0.078361914 0.68000001
-0.055209529 0.07859239 0.68200004
-0.053910479 0.07859239 0.68200004
-0.052688576 0.078707621 0.68300003
-0.051387623 0.078707621 0.68300003
-0.050160002 0.078822859 0.68400002
-0.049000002 0.079053335 0.68600005
-0.04776286 0.079168573 0.68700004
-0.046589527 0.079399049 0.68900001
-0.045342859 0.079514287 0.69000006
-0.044092383 0.079629526 0.69100004
-0.042776193 0.079629526 0.69100004
-0.041580003 0.079860002 0.69300002
-0.040260002 0.079860002 0.69300002
-0.038996194 0.07997524 0.69400001
-0.037674289 0.07997524 0.69400001
-0.036404766 0.080090478 0.69500005
-0.035080954 0.080090478 0.69500005
-0.033757146 0.080090478 0.69500005
-0.032433335 0.080090478 0.69500005
-0.031109527 0.080090478 0.69500005
-0.02987143 0.080320954 0.69700003
-0.028666668 0.080666669 0.70000005
-0.027333336 0.080666669 0.70000005
-0.026037145 0.080781907 0.70100003
-0.024701906 0.080781907 0.70100003
-0.020520953 0.085621908 0.74300003
-0.1017762 0.086334288 0.73700005
-0.10037239 0.086334288 0.73700005
-0.09896858 0.086334288 0.73700005
-0.09743239 0.08621715 0.73600006
-0.096030481 0.08621715 0.73600006
-0.09462858 0.08621715 0.73600006
-0.093226671 0.08621715 0.73600006
-0.09182477 0.08621715 0.73600006
-0.090177149 0.085982859 0.73400003
-0.081038103 0.07848572 0.67000002
-0.079761907 0.07848572 0.67000002
-0.07848572 0.07848572 0.67000002
-0.077209532 0.07848572 0.67000002
-0.075933337 0.07848572 0.67000002
-0.07465715 0.07848572 0.67000002
-0.073380955 0.07848572 0.67000002
-0.072104767 0.07848572 0.67000002
-0.070828579 0.07848572 0.67000002
-0.069656193 0.078602865 0.671
-0.068480007 0.078720003 0.67200005
-0.067400001 0.078954294 0.67400002
-0.066116191 0.078954294 0.67400002
-0.064928576 0.079071432 0.67500001
-0.063737147 0.079188578 0.67600006
-0.062634289 0.079422861 0.67800003
-0.061433338 0.079540007 0.67900002
-0.060140003 0.079540007 0.67900002
-0.058933336 0.079657145 0.68000001
-0.057638098 0.079657145 0.68000001
-0.056508575 0.079891436 0.68200004
-0.055209529 0.079891436 0.68200004
-0.053989526 0.080008574 0.68300003
-0.05276572 0.080125719 0.68400002
-0.051613338 0.080360003 0.68600005
-0.05030667 0.080360003 0.68600005
-0.049071431 0.080477148 0.68700004
-0.047901906 0.080711432 0.68900001
-0.046657145 0.080828577 0.69000006
-0.045342859 0.080828577 0.69000006
-0.044092383 0.080945723 0.69100004
-0.042900003 0.081180006 0.69300002
-0.041580003 0.081180006 0.69300002
-0.040318098 0.081297152 0.69400001
-0.039052382 0.08141429 0.69500005
-0.037728574 0.08141429 0.69500005
-0.036404766 0.08141429 0.69500005
-0.035080954 0.08141429 0.69500005
-0.033757146 0.08141429 0.69500005
-0.032433335 0.08141429 0.69500005
-0.031199049 0.081648573 0.69700003
-0.02987143 0.081648573 0.69700003
-0.10064477 0.087976195 0.73900002
-0.09896858 0.087738104 0.73700005
-0.09743239 0.087619051 0.73600006
-0.096030481 0.087619051 0.73600006
-0.094371438 0.087380961 0.73400003
-0.092973337 0.087380961 0.73400003
-0.091575243 0.087380961 0.73400003
-0.090177149 0.087380961 0.73400003
-0.081521913 0.080238104 0.67400002
-0.07988096 0.07988096 0.671
-0.078602865 0.07988096 0.671
-0.077209532 0.079761907 0.67000002
-0.075933337 0.079761907 0.67000002
-0.07465715 0.079761907 0.67000002
-0.073380955 0.079761907 0.67000002
-0.072104767 0.079761907 0.67000002
-0.070934288 0.07988096 0.671
-0.069656193 0.07988096 0.671
-0.068683811 0.080238104 0.67400002
-0.067500003 0.080357149 0.67500001
-0.066214293 0.080357149 0.67500001
-0.065024763 0.080476195 0.67600006
-0.063737147 0.080476195 0.67600006
-0.062634289 0.080714293 0.67800003
-0.061433338 0.080833338 0.67900002
-0.060228575 0.080952384 0.68000001
-0.058933336 0.080952384 0.68000001
-0.057807624 0.081190482 0.68200004
-0.056508575 0.081190482 0.68200004
-0.055290479 0.081309527 0.68300003
-0.054068577 0.08142858 0.68400002
-0.052920002 0.081666671 0.68600005
-0.051688574 0.081785716 0.68700004
-0.050526671 0.082023814 0.68900001
-0.049214289 0.082023814 0.68900001
-0.047971431 0.08214286 0.69000006
-0.046657145 0.08214286 0.69000006
-0.045408573 0.082261913 0.69100004
-0.044220004 0.082500003 0.69300002
-0.042961907 0.082619056 0.69400001
-0.041640002 0.082619056 0.69400001
-0.040318098 0.082619056 0.69400001
-0.039052382 0.082738101 0.69500005
-0.037728574 0.082738101 0.69500005
-0.036404766 0.082738101 0.69500005
-0.035181906 0.082976192 0.69700003
-0.033757146 0.082738101 0.69500005
-0.032433335 0.082738101 0.69500005
-0.031109527 0.082738101 0.69500005
-0.09896858 0.089141913 0.73700005
-0.09743239 0.08902096 0.73600006
-0.096030481 0.08902096 0.73600006
-0.094371438 0.088779055 0.73400003
-0.092973337 0.088779055 0.73400003
-0.091575243 0.088779055 0.73400003
-0.090177149 0.088779055 0.73400003
-0.081521913 0.081521913 0.67400002
-0.07988096 0.081159055 0.671
-0.078602865 0.081159055 0.671
-0.077209532 0.081038103 0.67000002
-0.075933337 0.081038103 0.67000002
-0.07465715 0.081038103 0.67000002
-0.073380955 0.081038103 0.67000002
-0.072104767 0.081038103 0.67000002
-0.070934288 0.081159055 0.671
-0.069760002 0.081280008 0.67200005
-0.068683811 0.081521913 0.67400002
-0.067500003 0.081642866 0.67500001
-0.066214293 0.081642866 0.67500001
-0.065024763 0.081763811 0.67600006
-0.063737147 0.081763811 0.67600006
-0.062634289 0.082005717 0.67800003
-0.061433338 0.08212667 0.67900002
-0.060228575 0.082247622 0.68000001
-0.05910667 0.082489528 0.68200004
-0.057807624 0.082489528 0.68200004
-0.056591433 0.08261048 0.68300003
-0.055371433 0.082731433 0.68400002
-0.05422667 0.082973339 0.68600005
-0.052997146 0.083094291 0.68700004
-0.05183905 0.083336197 0.68900001
-0.050600003 0.08345715 0.69000006
-0.049285717 0.08345715 0.69000006
-0.048040956 0.083578102 0.69100004
-0.046724766 0.083578102 0.69100004
-0.045408573 0.083578102 0.69100004
-0.044220004 0.083820008 0.69300002
-0.042961907 0.08394096 0.69400001
-0.041640002 0.08394096 0.69400001
-0.040318098 0.08394096 0.69400001
-0.039052382 0.084061913 0.69500005
-0.037728574 0.084061913 0.69500005
-0.036404766 0.084061913 0.69500005
-0.035080954 0.084061913 0.69500005
-0.097564772 0.090545721 0.73700005
-0.096030481 0.090422861 0.73600006
-0.094371438 0.090177149 0.73400003
-0.092973337 0.090177149 0.73400003
-0.091325723 0.089931436 0.73200005
-0.089562863 0.089562863 0.72900003
-0.088416196 0.089808576 0.73100001
-0.080000006 0.082560003 0.67200005
-0.078720003 0.082560003 0.67200005
-0.07732477 0.08243715 0.671
-0.076046668 0.08243715 0.671
-0.074768573 0.08243715 0.671
-0.073490478 0.08243715 0.671
-0.072212383 0.08243715 0.671
-0.071040004 0.082560003 0.67200005
-0.069760002 0.082560003 0.67200005
-0.068683811 0.082805723 0.67400002
-0.067500003 0.082928576 0.67500001
-0.066214293 0.082928576 0.67500001
-0.065024763 0.083051436 0.67600006
-0.063925721 0.083297148 0.67800003
-0.062634289 0.083297148 0.67800003
-0.061523814 0.083542861 0.68000001
-0.06040572 0.083788574 0.68200004
-0.05910667 0.083788574 0.68200004
-0.057892386 0.083911434 0.68300003
-0.05667429 0.084034294 0.68400002
-0.055533338 0.084280007 0.68600005
-0.054305717 0.084402859 0.68700004
-0.053151432 0.084648579 0.68900001
-0.05191429 0.084771432 0.69000006
-0.050673336 0.084894292 0.69100004
-0.049357146 0.084894292 0.69100004
-0.048040956 0.084894292 0.69100004
-0.046724766 0.084894292 0.69100004
-0.045408573 0.084894292 0.69100004
-0.044220004 0.085140005 0.69300002
-0.042961907 0.085262865 0.69400001
-0.041640002 0.085262865 0.69400001
-0.040376194 0.085385717 0.69500005
-0.039052382 0.085385717 0.69500005
-0.037728574 0.085385717 0.69500005
-0.094371438 0.091575243 0.73400003
-0.092720009 0.091325723 0.73200005
-0.091325723 0.091325723 0.73200005
-0.089931436 0.091325723 0.73200005
-0.088416196 0.091200955 0.73100001
-0.080238104 0.084089532 0.67400002
-0.078720003 0.083840005 0.67200005
-0.077440009 0.083840005 0.67200005
-0.076046668 0.083715245 0.671
-0.074768573 0.083715245 0.671
-0.073490478 0.083715245 0.671
-0.072212383 0.083715245 0.671
-0.071040004 0.083840005 0.67200005
-0.069760002 0.083840005 0.67200005
-0.068683811 0.084089532 0.67400002
-0.067500003 0.084214292 0.67500001
-0.066312388 0.084339052 0.67600006
-0.065217145 0.08458858 0.67800003
-0.064020008 0.08471334 0.67900002
-0.062726669 0.08471334 0.67900002
-0.061704766 0.085087627 0.68200004
