# .PCD v0.7 - Point Cloud Data file format
VERSION 0.7
FIELDS x y z
SIZE 4 4 4
TYPE F F F
COUNT 1 1 1
WIDTH 1350
HEIGHT 1
VIEWPOINT 0 0 0 1 0 0 0
POINTS 1350
DATA ascii
-0.090550482 0.029742859 0.69400001
-0.089228578 0.029742859 0.69400001
-0.087780006 0.029700002 0.69300002
-0.086085722 0.029571431 0.69000006
-0.084771432 0.029571431 0.69000006
-0.08345715 0.029571431 0.69000006
-0.08214286 0.029571431 0.69000006
-0.080828577 0.029571431 0.69000006
-0.079514287 0.029571431 0.69000006
-0.078200005 0.029571431 0.69000006
-0.076997146 0.029614288 0.69100004
-0.075680956 0.029614288 0.69100004
-0.074364766 0.029614288 0.69100004
-0.073048577 0.029614288 0.69100004
-0.071732387 0.029614288 0.69100004
-0.070416197 0.029614288 0.69100004
-0.069300003 0.029700002 0.69300002
-0.067980006 0.029700002 0.69300002
-0.066756196 0.029742859 0.69400001
-0.065528579 0.029785717 0.69500005
-0.064389527 0.02987143 0.69700003
-0.063061908 0.02987143 0.69700003
-0.061734289 0.02987143 0.69700003
-0.060493339 0.029914288 0.69800001
-0.059333336 0.030000001 0.70000005
-0.05808286 0.030042859 0.70100003
-0.056909528 0.030128574 0.70300001
-0.055649526 0.03017143 0.70400006
-0.054308575 0.03017143 0.70400006
-0.053268574 0.030342858 0.708
-0.051920004 0.030342858 0.708
-0.050714288 0.030428573 0.71000004
-0.10571334 0.031646669 0.70700002
-0.10407144 0.031557146 0.70500004
-0.10258286 0.031512383 0.70400006
-0.10109811 0.03146762 0.70300001
-0.099475242 0.031378098 0.70100003
-0.097720005 0.031243812 0.69800001
-0.096252389 0.031199049 0.69700003
-0.09492477 0.031199049 0.69700003
-0.09332858 0.031109527 0.69500005
-0.092004769 0.031109527 0.69500005
-0.090680957 0.031109527 0.69500005
-0.089228578 0.031064764 0.69400001
-0.087906674 0.031064764 0.69400001
-0.086210482 0.030930478 0.69100004
-0.084894292 0.030930478 0.69100004
-0.083578102 0.030930478 0.69100004
-0.082261913 0.030930478 0.69100004
-0.080945723 0.030930478 0.69100004
-0.079629526 0.030930478 0.69100004
-0.078313336 0.030930478 0.69100004
-0.077220008 0.031020002 0.69300002
-0.075680956 0.030930478 0.69100004
-0.074580006 0.031020002 0.69300002
-0.073260002 0.031020002 0.69300002
-0.071940005 0.031020002 0.69300002
-0.070721909 0.031064764 0.69400001
-0.069400005 0.031064764 0.69400001
-0.068078101 0.031064764 0.69400001
-0.066852383 0.031109527 0.69500005
-0.065717146 0.031199049 0.69700003
-0.064389527 0.031199049 0.69700003
-0.063152388 0.031243812 0.69800001
-0.061822861 0.031243812 0.69800001
-0.060666669 0.031333335 0.70000005
-0.059333336 0.031333335 0.70000005
-0.058248576 0.03146762 0.70300001
-0.056990478 0.031512383 0.70400006
-0.055728573 0.031557146 0.70500004
-0.054385718 0.031557146 0.70500004
-0.053193338 0.031646669 0.70700002
-0.052066669 0.031780954 0.71000004
-0.10751429 0.033133335 0.71000004
-0.10616191 0.033133335 0.71000004
-0.10436668 0.032993335 0.70700002
-0.10302 0.032993335 0.70700002
-0.10138572 0.032900002 0.70500004
-0.099759057 0.032806668 0.70300001
-0.098140009 0.032713335 0.70100003
-0.096390486 0.032573335 0.69800001
-0.09492477 0.032526668 0.69700003
-0.093597151 0.032526668 0.69700003
-0.092004769 0.032433335 0.69500005
-0.090680957 0.032433335 0.69500005
-0.089357145 0.032433335 0.69500005
-0.087906674 0.032386668 0.69400001
-0.086584769 0.032386668 0.69400001
-0.085140005 0.032340001 0.69300002
-0.083820008 0.032340001 0.69300002
-0.082500003 0.032340001 0.69300002
-0.081180006 0.032340001 0.69300002
-0.079860002 0.032340001 0.69300002
-0.078653336 0.032386668 0.69400001
-0.077331431 0.032386668 0.69400001
-0.076009527 0.032386668 0.69400001
-0.074687622 0.032386668 0.69400001
-0.073365718 0.032386668 0.69400001
-0.072043814 0.032386668 0.69400001
-0.070721909 0.032386668 0.69400001
-0.069500007 0.032433335 0.69500005
-0.068176195 0.032433335 0.69500005
-0.067044765 0.032526668 0.69700003
-0.065717146 0.032526668 0.69700003
-0.064481907 0.032573335 0.69800001
-0.06333334 0.032666668 0.70000005
-0.062000003 0.032666668 0.70000005
-0.060753338 0.032713335 0.70100003
-0.059418101 0.032713335 0.70100003
-0.058248576 0.032806668 0.70300001
-0.057071432 0.032900002 0.70500004
-0.055886671 0.032993335 0.70700002
-0.054540005 0.032993335 0.70700002
-0.053268574 0.033040002 0.708
-0.052066669 0.033133335 0.71000004
-0.10751429 0.034485716 0.71000004
-0.10616191 0.034485716 0.71000004
-0.10451429 0.034388572 0.708
-0.10302 0.034340002 0.70700002
-0.10167334 0.034340002 0.70700002
-0.10004286 0.034242861 0.70500004
-0.098560005 0.034194287 0.70400006
-0.096666671 0.034000002 0.70000005
-0.095060959 0.033902861 0.69800001
-0.093597151 0.033854287 0.69700003
-0.092269532 0.033854287 0.69700003
-0.090680957 0.033757146 0.69500005
-0.089357145 0.033757146 0.69500005
-0.088033341 0.033757146 0.69500005
-0.086584769 0.033708572 0.69400001
-0.085262865 0.033708572 0.69400001
-0.08394096 0.033708572 0.69400001
-0.082619056 0.033708572 0.69400001
-0.081297152 0.033708572 0.69400001
-0.07997524 0.033708572 0.69400001
-0.078653336 0.033708572 0.69400001
-0.077331431 0.033708572 0.69400001
-0.076009527 0.033708572 0.69400001
-0.074795246 0.033757146 0.69500005
-0.073365718 0.033708572 0.69400001
-0.072147623 0.033757146 0.69500005
-0.070823811 0.033757146 0.69500005
-0.069700003 0.033854287 0.69700003
-0.068372384 0.033854287 0.69700003
-0.067044765 0.033854287 0.69700003
-0.065811433 0.033902861 0.69800001
-0.064666674 0.034000002 0.70000005
-0.06333334 0.034000002 0.70000005
-0.062000003 0.034000002 0.70000005
-0.060753338 0.034048572 0.70100003
-0.059418101 0.034048572 0.70100003
-0.058248576 0.034145717 0.70300001
-0.057071432 0.034242861 0.70500004
-0.055886671 0.034340002 0.70700002
-0.054540005 0.034340002 0.70700002
-0.053268574 0.034388572 0.708
-0.052066669 0.034485716 0.71000004
-0.10751429 0.035838097 0.71000004
-0.10616191 0.035838097 0.71000004
-0.10451429 0.035737146 0.708
-0.10316572 0.035737146 0.708
-0.10181715 0.035737146 0.708
-0.10032667 0.035686668 0.70700002
-0.09898001 0.035686668 0.70700002
-0.097357146 0.035585716 0.70500004
-0.095741913 0.035484765 0.70300001
-0.094134293 0.035383813 0.70100003
-0.092666671 0.035333335 0.70000005
-0.091072388 0.035232384 0.69800001
-0.089742862 0.035232384 0.69800001
-0.088286676 0.035181906 0.69700003
-0.086959057 0.035181906 0.69700003
-0.085631438 0.035181906 0.69700003
-0.084303819 0.035181906 0.69700003
-0.082738101 0.035080954 0.69500005
-0.08141429 0.035080954 0.69500005
-0.080090478 0.035080954 0.69500005
-0.078766674 0.035080954 0.69500005
-0.077665716 0.035181906 0.69700003
-0.076338097 0.035181906 0.69700003
-0.075010478 0.035181906 0.69700003
-0.07368286 0.035181906 0.69700003
-0.072355241 0.035181906 0.69700003
-0.071027622 0.035181906 0.69700003
-0.069800004 0.035232384 0.69800001
-0.068470478 0.035232384 0.69800001
-0.067333341 0.035333335 0.70000005
-0.066094287 0.035383813 0.70100003
-0.064759053 0.035383813 0.70100003
-0.063423812 0.035383813 0.70100003
-0.062088575 0.035383813 0.70100003
-0.060926672 0.035484765 0.70300001
-0.059672385 0.035535239 0.70400006
-0.058414288 0.035585716 0.70500004
-0.057233337 0.035686668 0.70700002
-0.055965718 0.035737146 0.708
-0.054771431 0.035838097 0.71000004
-0.05341905 0.035838097 0.71000004
-0.052140005 0.035888575 0.71100003
-0.10480953 0.037190478 0.71000004
-0.10316572 0.037085716 0.708
-0.10181715 0.037085716 0.708
-0.10046858 0.037085716 0.708
-0.09898001 0.037033334 0.70700002
-0.097357146 0.036928575 0.70500004
-0.095878102 0.036876194 0.70400006
-0.094402865 0.036823813 0.70300001
-0.092799053 0.03671905 0.70100003
-0.091333337 0.036666669 0.70000005
-0.089742862 0.036561906 0.69800001
-0.088413343 0.036561906 0.69800001
-0.087083817 0.036561906 0.69800001
-0.085631438 0.036509525 0.69700003
-0.084303819 0.036509525 0.69700003
-0.082976192 0.036509525 0.69700003
-0.081648573 0.036509525 0.69700003
-0.080320954 0.036509525 0.69700003
-0.078993335 0.036509525 0.69700003
-0.077665716 0.036509525 0.69700003
-0.076338097 0.036509525 0.69700003
-0.075010478 0.036509525 0.69700003
-0.07368286 0.036509525 0.69700003
-0.072355241 0.036509525 0.69700003
-0.071129531 0.036561906 0.69800001
-0.069800004 0.036561906 0.69800001
-0.068666674 0.036666669 0.70000005
-0.067333341 0.036666669 0.70000005
-0.066094287 0.03671905 0.70100003
-0.064759053 0.03671905 0.70100003
-0.063604765 0.036823813 0.70300001
-0.06226572 0.036823813 0.70300001
-0.061013337 0.036876194 0.70400006
-0.059757147 0.036928575 0.70500004
-0.058580004 0.037033334 0.70700002
-0.057314288 0.037085716 0.708
-0.055965718 0.037085716 0.708
-0.054771431 0.037190478 0.71000004
-0.05341905 0.037190478 0.71000004
-0.052140005 0.03724286 0.71100003
-0.10480953 0.038542859 0.71000004
-0.10345715 0.038542859 0.71000004
-0.10210477 0.038542859 0.71000004
-0.10046858 0.038434289 0.708
-0.099120006 0.038434289 0.708
-0.097633339 0.038380001 0.70700002
-0.096014291 0.038271431 0.70500004
-0.094402865 0.038162861 0.70300001
-0.093063816 0.038162861 0.70300001
-0.091463819 0.038054287 0.70100003
-0.090000004 0.038000003 0.70000005
-0.08866667 0.038000003 0.70000005
-0.087333336 0.038000003 0.70000005
-0.08575429 0.037891433 0.69800001
-0.084303819 0.037837144 0.69700003
-0.082976192 0.037837144 0.69700003
-0.081648573 0.037837144 0.69700003
-0.080320954 0.037837144 0.69700003
-0.078993335 0.037837144 0.69700003
-0.077665716 0.037837144 0.69700003
-0.076447621 0.037891433 0.69800001
-0.075010478 0.037837144 0.69700003
-0.073788576 0.037891433 0.69800001
-0.07245905 0.037891433 0.69800001
-0.071333341 0.038000003 0.70000005
-0.070000008 0.038000003 0.70000005
-0.068666674 0.038000003 0.70000005
-0.067429528 0.038054287 0.70100003
-0.066094287 0.038054287 0.70100003
-0.064943813 0.038162861 0.70300001
-0.063604765 0.038162861 0.70300001
-0.062354289 0.038217146 0.70400006
-0.061100002 0.038271431 0.70500004
-0.05992667 0.038380001 0.70700002
-0.058662862 0.038434289 0.708
-0.057476193 0.038542859 0.71000004
-0.056123812 0.038542859 0.71000004
-0.054848574 0.038597144 0.71100003
-0.05349429 0.038597144 0.71100003
-0.052140005 0.038597144 0.71100003
-0.10345715 0.03989524 0.71000004
-0.10224858 0.039951432 0.71100003
-0.10089429 0.039951432 0.71100003
-0.099400006 0.03989524 0.71000004
-0.097771436 0.039782859 0.708
-0.096422866 0.039782859 0.708
-0.094537146 0.039558098 0.70400006
-0.093063816 0.039501909 0.70300001
-0.091724768 0.039501909 0.70300001
-0.090128578 0.039389525 0.70100003
-0.088793337 0.039389525 0.70100003
-0.087458104 0.039389525 0.70100003
-0.086000003 0.039333336 0.70000005
-0.084424764 0.039220955 0.69800001
-0.083095245 0.039220955 0.69800001
-0.081765719 0.039220955 0.69800001
-0.080436192 0.039220955 0.69800001
-0.079106674 0.039220955 0.69800001
-0.077777147 0.039220955 0.69800001
-0.076447621 0.039220955 0.69800001
-0.075118102 0.039220955 0.69800001
-0.074000008 0.039333336 0.70000005
-0.072666675 0.039333336 0.70000005
-0.071333341 0.039333336 0.70000005
-0.070000008 0.039333336 0.70000005
-0.068764769 0.039389525 0.70100003
-0.067429528 0.039389525 0.70100003
-0.066282861 0.039501909 0.70300001
-0.064943813 0.039501909 0.70300001
-0.063695244 0.039558098 0.70400006
-0.062442861 0.03961429 0.70500004
-0.061273336 0.039726671 0.70700002
-0.05992667 0.039726671 0.70700002
-0.058662862 0.039782859 0.708
-0.057476193 0.03989524 0.71000004
-0.056202862 0.039951432 0.71100003
-0.054848574 0.039951432 0.71100003
-0.05349429 0.039951432 0.71100003
-0.05228667 0.040063813 0.71300006
-0.10224858 0.041305717 0.71100003
-0.10089429 0.041305717 0.71100003
-0.099400006 0.041247621 0.71000004
-0.098047629 0.041247621 0.71000004
-0.096422866 0.041131433 0.708
-0.094671436 0.040957145 0.70500004
-0.093196198 0.040899049 0.70400006
-0.091724768 0.040840954 0.70300001
-0.09038572 0.040840954 0.70300001
-0.088793337 0.040724766 0.70100003
-0.087458104 0.040724766 0.70100003
-0.086000003 0.04066667 0.70000005
-0.084666669 0.04066667 0.70000005
-0.083095245 0.040550478 0.69800001
-0.081765719 0.040550478 0.69800001
-0.080666669 0.04066667 0.70000005
-0.079333335 0.04066667 0.70000005
-0.078000002 0.04066667 0.70000005
-0.076666668 0.04066667 0.70000005
-0.075333342 0.04066667 0.70000005
-0.074105717 0.040724766 0.70100003
-0.072770484 0.040724766 0.70100003
-0.071435243 0.040724766 0.70100003
-0.070100002 0.040724766 0.70100003
-0.068764769 0.040724766 0.70100003
-0.067621909 0.040840954 0.70300001
-0.066282861 0.040840954 0.70300001
-0.065036193 0.040899049 0.70400006
-0.063785717 0.040957145 0.70500004
-0.062620007 0.041073337 0.70700002
-0.061273336 0.041073337 0.70700002
-0.060011432 0.041131433 0.708
-0.058828574 0.041247621 0.71000004
-0.057476193 0.041247621 0.71000004
-0.056202862 0.041305717 0.71100003
-0.054848574 0.041305717 0.71100003
-0.05349429 0.041305717 0.71100003
-0.05228667 0.041421909 0.71300006
-0.10253619 0.042780004 0.71300006
-0.1011781 0.042780004 0.71300006
-0.09954001 0.042660002 0.71100003
-0.098047629 0.042600002 0.71000004
-0.096422866 0.042480003 0.708
-0.094940007 0.042420004 0.70700002
-0.09332858 0.042300005 0.70500004
-0.091985717 0.042300005 0.70500004
-0.090514295 0.042240001 0.70400006
-0.089046672 0.042180002 0.70300001
-0.087707624 0.042180002 0.70300001
-0.086122863 0.042060003 0.70100003
-0.084787622 0.042060003 0.70100003
-0.083333336 0.042000003 0.70000005
-0.082000002 0.042000003 0.70000005
-0.080666669 0.042000003 0.70000005
-0.079333335 0.042000003 0.70000005
-0.078111432 0.042060003 0.70100003
-0.076776199 0.042060003 0.70100003
-0.075440958 0.042060003 0.70100003
-0.074105717 0.042060003 0.70100003
-0.072770484 0.042060003 0.70100003
-0.071435243 0.042060003 0.70100003
-0.070300005 0.042180002 0.70300001
-0.068960957 0.042180002 0.70300001
-0.067621909 0.042180002 0.70300001
-0.066377148 0.042240001 0.70400006
-0.065128572 0.042300005 0.70500004
-0.063966669 0.042420004 0.70700002
-0.062620007 0.042420004 0.70700002
-0.061360005 0.042480003 0.708
-0.060011432 0.042480003 0.708
-0.058911432 0.042660002 0.71100003
-0.057557147 0.042660002 0.71100003
-0.056360956 0.042780004 0.71300006
-0.055002861 0.042780004 0.71300006
-0.053720005 0.042840004 0.71400005
-0.05250667 0.042960003 0.71600002
-0.05114286 0.042960003 0.71600002
-0.10268001 0.044200003 0.71400005
-0.10132001 0.044200003 0.71400005
-0.099820003 0.0441381 0.71300006
-0.098047629 0.043952383 0.71000004
-0.096695244 0.043952383 0.71000004
-0.094940007 0.04376667 0.70700002
-0.093593337 0.04376667 0.70700002
-0.091985717 0.04364286 0.70500004
-0.090642862 0.04364286 0.70500004
-0.089173339 0.043580957 0.70400006
-0.087707624 0.04351905 0.70300001
-0.086368576 0.04351905 0.70300001
-0.085029528 0.04351905 0.70300001
-0.083452389 0.04339524 0.70100003
-0.082117148 0.04339524 0.70100003
-0.080781907 0.04339524 0.70100003
-0.079446673 0.04339524 0.70100003
-0.078334294 0.04351905 0.70300001
-0.076995246 0.04351905 0.70300001
-0.075656198 0.04351905 0.70300001
-0.07431715 0.04351905 0.70300001
-0.072978102 0.04351905 0.70300001
-0.071639054 0.04351905 0.70300001
-0.070300005 0.04351905 0.70300001
-0.068960957 0.04351905 0.70300001
-0.067718096 0.043580957 0.70400006
-0.066377148 0.043580957 0.70400006
-0.065128572 0.04364286 0.70500004
-0.063966669 0.04376667 0.70700002
-0.062708579 0.043828573 0.708
-0.061533336 0.043952383 0.71000004
-0.060180955 0.043952383 0.71000004
-0.058911432 0.04401429 0.71100003
-0.057719052 0.0441381 0.71300006
-0.056360956 0.0441381 0.71300006
-0.055080004 0.044200003 0.71400005
-0.053720005 0.044200003 0.71400005
-0.05250667 0.044323813 0.71600002
-0.05114286 0.044323813 0.71600002
-0.10476858 0.045879051 0.71900004
-0.10339905 0.045879051 0.71900004
-0.10160381 0.045687623 0.71600002
-0.099960007 0.045560002 0.71400005
-0.098461911 0.045496192 0.71300006
-0.096695244 0.045304764 0.71000004
-0.095074289 0.045177147 0.708
-0.093593337 0.045113336 0.70700002
-0.092246674 0.045113336 0.70700002
-0.090642862 0.044985719 0.70500004
-0.089300007 0.044985719 0.70500004
-0.087832384 0.044921909 0.70400006
-0.086368576 0.044858098 0.70300001
-0.085029528 0.044858098 0.70300001
-0.083690479 0.044858098 0.70300001
-0.082351431 0.044858098 0.70300001
-0.081012383 0.044858098 0.70300001
-0.079673335 0.044858098 0.70300001
-0.078334294 0.044858098 0.70300001
-0.076995246 0.044858098 0.70300001
-0.075656198 0.044858098 0.70300001
-0.07431715 0.044858098 0.70300001
-0.072978102 0.044858098 0.70300001
-0.071639054 0.044858098 0.70300001
-0.070300005 0.044858098 0.70300001
-0.069059052 0.044921909 0.70400006
-0.067814291 0.044985719 0.70500004
-0.066471435 0.044985719 0.70500004
-0.065313339 0.045113336 0.70700002
-0.064057149 0.045177147 0.708
-0.062885717 0.045304764 0.71000004
-0.061533336 0.045304764 0.71000004
-0.06026572 0.045368575 0.71100003
-0.059077147 0.045496192 0.71300006
-0.057719052 0.045496192 0.71300006
-0.056360956 0.045496192 0.71300006
-0.055080004 0.045560002 0.71400005
-0.053720005 0.045560002 0.71400005
-0.052360002 0.045560002 0.71400005
-0.051000003 0.045560002 0.71400005
-0.10491429 0.04731429 0.72000003
-0.10296763 0.047051433 0.71600002
-0.10160381 0.047051433 0.71600002
-0.099960007 0.046920002 0.71400005
-0.098461911 0.046854287 0.71300006
-0.096831433 0.046722859 0.71100003
-0.095342867 0.046657145 0.71000004
-0.093725719 0.046525717 0.708
-0.092377149 0.046525717 0.708
-0.090900004 0.046460003 0.70700002
-0.089553341 0.046460003 0.70700002
-0.087957151 0.046328574 0.70500004
-0.086491436 0.04626286 0.70400006
-0.08515048 0.04626286 0.70400006
-0.083809532 0.04626286 0.70400006
-0.082468577 0.04626286 0.70400006
-0.081012383 0.046197146 0.70300001
-0.079673335 0.046197146 0.70300001
-0.078445718 0.04626286 0.70400006
-0.07710477 0.04626286 0.70400006
-0.075763814 0.04626286 0.70400006
-0.074422859 0.04626286 0.70400006
-0.072978102 0.046197146 0.70300001
-0.071740955 0.04626286 0.70400006
-0.070400007 0.04626286 0.70400006
-0.069157146 0.046328574 0.70500004
-0.067814291 0.046328574 0.70500004
-0.066660002 0.046460003 0.70700002
-0.065405719 0.046525717 0.708
-0.064057149 0.046525717 0.708
-0.062885717 0.046657145 0.71000004
-0.061620004 0.046722859 0.71100003
-0.06026572 0.046722859 0.71100003
-0.059077147 0.046854287 0.71300006
-0.057719052 0.046854287 0.71300006
-0.056440003 0.046920002 0.71400005
-0.055080004 0.046920002 0.71400005
-0.053870481 0.047051433 0.71600002
-0.05250667 0.047051433 0.71600002
-0.05114286 0.047051433 0.71600002
-0.10339905 0.048618097 0.71900004
-0.10160381 0.04841524 0.71600002
-0.099960007 0.048280004 0.71400005
-0.098600008 0.048280004 0.71400005
-0.097103819 0.048212383 0.71300006
-0.095477149 0.048077147 0.71100003
-0.093990482 0.048009526 0.71000004
-0.092377149 0.04787429 0.708
-0.091028579 0.04787429 0.708
-0.089553341 0.047806669 0.70700002
-0.087957151 0.047671434 0.70500004
-0.086614288 0.047671434 0.70500004
-0.08515048 0.047603812 0.70400006
-0.083809532 0.047603812 0.70400006
-0.082468577 0.047603812 0.70400006
-0.081127621 0.047603812 0.70400006
-0.079673335 0.047536194 0.70300001
-0.078445718 0.047603812 0.70400006
-0.07710477 0.047603812 0.70400006
-0.075763814 0.047603812 0.70400006
-0.074422859 0.047603812 0.70400006
-0.073081911 0.047603812 0.70400006
-0.071740955 0.047603812 0.70400006
-0.070500001 0.047671434 0.70500004
-0.069353335 0.047806669 0.70700002
-0.068006672 0.047806669 0.70700002
-0.066660002 0.047806669 0.70700002
-0.065405719 0.04787429 0.708
-0.064238101 0.048009526 0.71000004
-0.062885717 0.048009526 0.71000004
-0.061620004 0.048077147 0.71100003
-0.060435243 0.048212383 0.71300006
-0.059160005 0.048280004 0.71400005
-0.057800002 0.048280004 0.71400005
-0.056440003 0.048280004 0.71400005
-0.055234291 0.04841524 0.71600002
-0.054096196 0.048618097 0.71900004
-0.052726671 0.048618097 0.71900004
-0.051428575 0.048685718 0.72000003
-0.050057147 0.048685718 0.72000003
-0.10339905 0.049987622 0.71900004
-0.10160381 0.04977905 0.71600002
-0.099960007 0.049640004 0.71400005
-0.098600008 0.049640004 0.71400005
-0.097103819 0.049570478 0.71300006
-0.09574572 0.049570478 0.71300006
-0.093990482 0.049361907 0.71000004
-0.092638098 0.049361907 0.71000004
-0.091028579 0.04922286 0.708
-0.089680009 0.04922286 0.708
-0.088206671 0.049153335 0.70700002
-0.086860009 0.049153335 0.70700002
-0.085271433 0.049014289 0.70500004
-0.083928578 0.049014289 0.70500004
-0.082468577 0.048944764 0.70400006
-0.081127621 0.048944764 0.70400006
-0.079786673 0.048944764 0.70400006
-0.078445718 0.048944764 0.70400006
-0.07710477 0.048944764 0.70400006
-0.07587143 0.049014289 0.70500004
-0.074528575 0.049014289 0.70500004
-0.07318572 0.049014289 0.70500004
-0.071842864 0.049014289 0.70500004
-0.070500001 0.049014289 0.70500004
-0.069353335 0.049153335 0.70700002
-0.068006672 0.049153335 0.70700002
-0.066754289 0.04922286 0.708
-0.065590478 0.049361907 0.71000004
-0.064238101 0.049361907 0.71000004
-0.062974289 0.049431432 0.71100003
-0.061793339 0.049570478 0.71300006
-0.060520004 0.049640004 0.71400005
-0.059160005 0.049640004 0.71400005
-0.057961907 0.04977905 0.71600002
-0.056598101 0.04977905 0.71600002
-0.055465717 0.049987622 0.71900004
-0.054096196 0.049987622 0.71900004
-0.052726671 0.049987622 0.71900004
-0.051571433 0.050196193 0.72200006
-0.05561905 0.05561905 0.80000001
-0.10038 0.051214289 0.71700001
-0.09901429 0.051214289 0.71700001
-0.097512387 0.05114286 0.71600002
-0.095880009 0.051000003 0.71400005
-0.094122864 0.050785717 0.71100003
-0.09276858 0.050785717 0.71100003
-0.09128572 0.050714288 0.71000004
-0.089933336 0.050714288 0.71000004
-0.088331431 0.05057143 0.708
-0.086982861 0.05057143 0.708
-0.085634291 0.05057143 0.708
-0.084166676 0.050500002 0.70700002
-0.082820006 0.050500002 0.70700002
-0.081473336 0.050500002 0.70700002
-0.080126673 0.050500002 0.70700002
-0.078780003 0.050500002 0.70700002
-0.07743334 0.050500002 0.70700002
-0.07608667 0.050500002 0.70700002
-0.074740008 0.050500002 0.70700002
-0.073393337 0.050500002 0.70700002
-0.072046675 0.050500002 0.70700002
-0.070800006 0.05057143 0.708
-0.069451436 0.05057143 0.708
-0.068102859 0.05057143 0.708
-0.066942863 0.050714288 0.71000004
-0.065682858 0.050785717 0.71100003
-0.064328574 0.050785717 0.71100003
-0.063151434 0.050928574 0.71300006
-0.061880004 0.051000003 0.71400005
-0.060689528 0.05114286 0.71600002
-0.059325717 0.05114286 0.71600002
-0.058042862 0.051214289 0.71700001
-0.056835242 0.051357146 0.71900004
-0.05554286 0.051428575 0.72000003
-0.054171432 0.051428575 0.72000003
-0.052946672 0.051571433 0.72200006
-0.10217144 0.052800003 0.72000003
-0.10066 0.052726671 0.71900004
-0.09901429 0.052580003 0.71700001
-0.097648576 0.052580003 0.71700001
-0.09614858 0.05250667 0.71600002
-0.094387628 0.05228667 0.71300006
-0.093029529 0.05228667 0.71300006
-0.091414295 0.052140005 0.71100003
-0.089933336 0.052066669 0.71000004
-0.088580959 0.052066669 0.71000004
-0.086982861 0.051920004 0.708
-0.085634291 0.051920004 0.708
-0.084285721 0.051920004 0.708
-0.082937151 0.051920004 0.708
-0.081473336 0.051846672 0.70700002
-0.080126673 0.051846672 0.70700002
-0.078780003 0.051846672 0.70700002
-0.07743334 0.051846672 0.70700002
-0.07608667 0.051846672 0.70700002
-0.074740008 0.051846672 0.70700002
-0.073393337 0.051846672 0.70700002
-0.072148576 0.051920004 0.708
-0.070800006 0.051920004 0.708
-0.069451436 0.051920004 0.708
-0.06829524 0.052066669 0.71000004
-0.066942863 0.052066669 0.71000004
-0.065682858 0.052140005 0.71100003
-0.064509526 0.05228667 0.71300006
-0.063151434 0.05228667 0.71300006
-0.061880004 0.052360002 0.71400005
-0.060689528 0.05250667 0.71600002
-0.059408575 0.052580003 0.71700001
-0.058042862 0.052580003 0.71700001
-0.056835242 0.052726671 0.71900004
-0.05554286 0.052800003 0.72000003
-0.054321907 0.052946672 0.72200006
-0.052946672 0.052946672 0.72200006
-0.10426191 0.054547623 0.72500002
-0.10259715 0.054397147 0.72300005
-0.10080001 0.054171432 0.72000003
-0.099290483 0.054096196 0.71900004
-0.097920962 0.054096196 0.71900004
-0.096282862 0.053945716 0.71700001
-0.094784766 0.053870481 0.71600002
-0.093160003 0.053720005 0.71400005
-0.091671437 0.053644765 0.71300006
-0.090313338 0.053644765 0.71300006
-0.088705719 0.05349429 0.71100003
-0.087228574 0.05341905 0.71000004
-0.085634291 0.053268574 0.708
-0.084285721 0.053268574 0.708
-0.082937151 0.053268574 0.708
-0.081588574 0.053268574 0.708
-0.080240004 0.053268574 0.708
-0.078891434 0.053268574 0.708
-0.07743334 0.053193338 0.70700002
-0.076194294 0.053268574 0.708
-0.074845716 0.053268574 0.708
-0.073497146 0.053268574 0.708
-0.072148576 0.053268574 0.708
-0.070800006 0.053268574 0.708
-0.069647625 0.05341905 0.71000004
-0.06829524 0.05341905 0.71000004
-0.066942863 0.05341905 0.71000004
-0.065682858 0.05349429 0.71100003
-0.064509526 0.053644765 0.71300006
-0.063151434 0.053644765 0.71300006
-0.061880004 0.053720005 0.71400005
-0.060774289 0.053945716 0.71700001
-0.059408575 0.053945716 0.71700001
-0.058204766 0.054096196 0.71900004
-0.056914289 0.054171432 0.72000003
-0.055697147 0.054321907 0.72200006
-0.054397147 0.054397147 0.72300005
-0.053020004 0.054397147 0.72300005
-0.10440572 0.056005716 0.72600001
-0.10288096 0.055928577 0.72500002
-0.10122 0.05577429 0.72300005
-0.099428579 0.05554286 0.72000003
-0.097920962 0.055465717 0.71900004
-0.096282862 0.055311434 0.71700001
-0.094784766 0.055234291 0.71600002
-0.093160003 0.055080004 0.71400005
-0.091800004 0.055080004 0.71400005
-0.090440005 0.055080004 0.71400005
-0.088955246 0.055002861 0.71300006
-0.087597147 0.055002861 0.71300006
-0.085876197 0.054771431 0.71000004
-0.084523812 0.054771431 0.71000004
-0.083171435 0.054771431 0.71000004
-0.081588574 0.054617148 0.708
-0.080240004 0.054617148 0.708
-0.078891434 0.054617148 0.708
-0.077542864 0.054617148 0.708
-0.076194294 0.054617148 0.708
-0.074845716 0.054617148 0.708
-0.073497146 0.054617148 0.708
-0.072352387 0.054771431 0.71000004
-0.071000002 0.054771431 0.71000004
-0.069745719 0.054848574 0.71100003
-0.068391435 0.054848574 0.71100003
-0.06703715 0.054848574 0.71100003
-0.065682858 0.054848574 0.71100003
-0.064509526 0.055002861 0.71300006
-0.063240007 0.055080004 0.71400005
-0.062053338 0.055234291 0.71600002
-0.060774289 0.055311434 0.71700001
-0.059574291 0.055465717 0.71900004
-0.058204766 0.055465717 0.71900004
-0.056914289 0.05554286 0.72000003
-0.05577429 0.05577429 0.72300005
-0.054397147 0.05577429 0.72300005
-0.053166669 0.055928577 0.72500002
-0.051857147 0.056005716 0.72600001
-0.050613336 0.056160003 0.72800004
-0.10608001 0.057546671 0.72800004
-0.10440572 0.057388574 0.72600001
-0.10288096 0.057309527 0.72500002
-0.10122 0.057151433 0.72300005
-0.099704765 0.057072386 0.72200006
-0.098057151 0.056914289 0.72000003
-0.096551433 0.056835242 0.71900004
-0.094917148 0.056677148 0.71700001
-0.09342096 0.056598101 0.71600002
-0.092057146 0.056598101 0.71600002
-0.090440005 0.056440003 0.71400005
-0.089080006 0.056440003 0.71400005
-0.087597147 0.056360956 0.71300006
-0.086239055 0.056360956 0.71300006
-0.084642865 0.056202862 0.71100003
-0.08328858 0.056202862 0.71100003
-0.08181905 0.056123812 0.71000004
-0.080466673 0.056123812 0.71000004
-0.078891434 0.055965718 0.708
-0.077542864 0.055965718 0.708
-0.076194294 0.055965718 0.708
-0.075057149 0.056123812 0.71000004
-0.073704764 0.056123812 0.71000004
-0.072352387 0.056123812 0.71000004
-0.071100004 0.056202862 0.71100003
-0.069745719 0.056202862 0.71100003
-0.068391435 0.056202862 0.71100003
-0.06703715 0.056202862 0.71100003
-0.065867625 0.056360956 0.71300006
-0.064509526 0.056360956 0.71300006
-0.063240007 0.056440003 0.71400005
-0.062053338 0.056598101 0.71600002
-0.060774289 0.056677148 0.71700001
-0.059574291 0.056835242 0.71900004
-0.058285717 0.056914289 0.72000003
-0.056914289 0.056914289 0.72000003
-0.05577429 0.057151433 0.72300005
-0.054547623 0.057309527 0.72500002
-0.053166669 0.057309527 0.72500002
-0.051857147 0.057388574 0.72600001
-0.050682861 0.057625718 0.72900003
-0.10930191 0.059176195 0.73100001
-0.10761429 0.059014291 0.72900003
-0.10608001 0.058933336 0.72800004
-0.10440572 0.058771431 0.72600001
-0.10288096 0.058690481 0.72500002
-0.1015 0.058690481 0.72500002
-0.099842861 0.058528576 0.72300005
-0.098057151 0.058285717 0.72000003
-0.096685722 0.058285717 0.72000003
-0.095181912 0.058204766 0.71900004
-0.093812384 0.058204766 0.71900004
-0.092185721 0.058042862 0.71700001
-0.090820007 0.058042862 0.71700001
-0.089080006 0.057800002 0.71400005
-0.087720007 0.057800002 0.71400005
-0.086239055 0.057719052 0.71300006
-0.084880956 0.057719052 0.71300006
-0.083522864 0.057719052 0.71300006
-0.081934288 0.057557147 0.71100003
-0.080466673 0.057476193 0.71000004
-0.079114288 0.057476193 0.71000004
-0.077542864 0.057314288 0.708
-0.076409526 0.057476193 0.71000004
-0.075057149 0.057476193 0.71000004
-0.073704764 0.057476193 0.71000004
-0.072454289 0.057557147 0.71100003
-0.071100004 0.057557147 0.71100003
-0.069745719 0.057557147 0.71100003
-0.068583816 0.057719052 0.71300006
-0.067225717 0.057719052 0.71300006
-0.065867625 0.057719052 0.71300006
-0.064600006 0.057800002 0.71400005
-0.063417144 0.057961907 0.71600002
-0.062140003 0.058042862 0.71700001
-0.060943812 0.058204766 0.71900004
-0.059574291 0.058204766 0.71900004
-0.058285717 0.058285717 0.72000003
-0.057072386 0.058447622 0.72200006
-0.05577429 0.058528576 0.72300005
-0.054547623 0.058690481 0.72500002
-0.053240005 0.058771431 0.72600001
-0.052071434 0.059014291 0.72900003
-0.050821908 0.059176195 0.73100001
-0.049497146 0.059257146 0.73200005
-0.048234288 0.059419051 0.73400003
-0.10930191 0.060568575 0.73100001
-0.10761429 0.060402863 0.72900003
-0.10608001 0.060320005 0.72800004
-0.10440572 0.060154289 0.72600001
-0.10302287 0.060154289 0.72600001
-0.1015 0.060071431 0.72500002
-0.099842861 0.059905719 0.72300005
-0.098329529 0.059822861 0.72200006
-0.096685722 0.059657145 0.72000003
-0.095181912 0.059574291 0.71900004
-0.093812384 0.059574291 0.71900004
-0.092442863 0.059574291 0.71900004
-0.090820007 0.059408575 0.71700001
-0.089329533 0.059325717 0.71600002
-0.087720007 0.059160005 0.71400005
-0.086360008 0.059160005 0.71400005
-0.085000008 0.059160005 0.71400005
-0.083522864 0.059077147 0.71300006
-0.082164764 0.059077147 0.71300006
-0.080580004 0.058911432 0.71100003
-0.079225719 0.058911432 0.71100003
-0.077761911 0.058828574 0.71000004
-0.07651715 0.058911432 0.71100003
-0.075162865 0.058911432 0.71100003
-0.073808573 0.058911432 0.71100003
-0.072454289 0.058911432 0.71100003
-0.071300007 0.059077147 0.71300006
-0.069941908 0.059077147 0.71300006
-0.068583816 0.059077147 0.71300006
-0.067225717 0.059077147 0.71300006
-0.065867625 0.059077147 0.71300006
-0.064780958 0.059325717 0.71600002
-0.063505717 0.059408575 0.71700001
-0.062140003 0.059408575 0.71700001
-0.060943812 0.059574291 0.71900004
-0.059657145 0.059657145 0.72000003
-0.058285717 0.059657145 0.72000003
-0.057072386 0.059822861 0.72200006
-0.05577429 0.059905719 0.72300005
-0.054547623 0.060071431 0.72500002
-0.05338667 0.060320005 0.72800004
-0.052214291 0.060568575 0.73100001
-0.050891433 0.060651433 0.73200005
-0.049632385 0.060817149 0.73400003
-0.048365716 0.060982861 0.73600006
-0.10790953 0.061960958 0.73100001
-0.10622572 0.061791431 0.72900003
-0.10469334 0.06170667 0.72800004
-0.10302287 0.061537147 0.72600001
-0.10164001 0.061537147 0.72600001
-0.10011905 0.061452385 0.72500002
-0.098465718 0.061282862 0.72300005
-0.096954294 0.0611981 0.72200006
-0.095314294 0.061028574 0.72000003
-0.093812384 0.060943812 0.71900004
-0.092442863 0.060943812 0.71900004
-0.090820007 0.060774289 0.71700001
-0.089454293 0.060774289 0.71700001
-0.087965719 0.060689528 0.71600002
-0.086360008 0.060520004 0.71400005
-0.085000008 0.060520004 0.71400005
-0.083522864 0.060435243 0.71300006
-0.082164764 0.060435243 0.71300006
-0.080806673 0.060435243 0.71300006
-0.079225719 0.06026572 0.71100003
-0.077871434 0.06026572 0.71100003
-0.07651715 0.06026572 0.71100003
-0.075162865 0.06026572 0.71100003
-0.074016199 0.060435243 0.71300006
-0.072658099 0.060435243 0.71300006
-0.071300007 0.060435243 0.71300006
-0.069941908 0.060435243 0.71300006
-0.068583816 0.060435243 0.71300006
-0.067320004 0.060520004 0.71400005
-0.065960005 0.060520004 0.71400005
-0.064780958 0.060689528 0.71600002
-0.063505717 0.060774289 0.71700001
-0.062313337 0.060943812 0.71900004
-0.060943812 0.060943812 0.71900004
-0.059657145 0.061028574 0.72000003
-0.058285717 0.061028574 0.72000003
-0.057072386 0.0611981 0.72200006
-0.055928577 0.061452385 0.72500002
-0.054622862 0.061537147 0.72600001
-0.053460002 0.061791431 0.72900003
-0.052285716 0.062045719 0.73200005
-0.050891433 0.062045719 0.73200005
-0.049632385 0.062215243 0.73400003
-0.048234288 0.062215243 0.73400003
-0.046963811 0.062384766 0.73600006
0.14238001 0.067046672 0.79100001
0.14539334 0.067046672 0.79100001
-0.10790953 0.063353337 0.73100001
-0.10651715 0.063353337 0.73100001
-0.10469334 0.063093334 0.72800004
-0.10330667 0.063093334 0.72800004
-0.10164001 0.062920004 0.72600001
-0.10011905 0.062833339 0.72500002
-0.098465718 0.062660001 0.72300005
-0.096954294 0.062573336 0.72200006
-0.095314294 0.062400006 0.72000003
-0.093812384 0.062313337 0.71900004
-0.092442863 0.062313337 0.71900004
-0.090820007 0.062140003 0.71700001
-0.089454293 0.062140003 0.71700001
-0.087965719 0.062053338 0.71600002
-0.086360008 0.061880004 0.71400005
-0.085000008 0.061880004 0.71400005
-0.083640009 0.061880004 0.71400005
-0.082164764 0.061793339 0.71300006
-0.080806673 0.061793339 0.71300006
-0.079448573 0.061793339 0.71300006
-0.078090481 0.061793339 0.71300006
-0.07673239 0.061793339 0.71300006
-0.07537429 0.061793339 0.71300006
-0.074016199 0.061793339 0.71300006
-0.072760008 0.061880004 0.71400005
-0.071400002 0.061880004 0.71400005
-0.070040002 0.061880004 0.71400005
-0.068680003 0.061880004 0.71400005
-0.067320004 0.061880004 0.71400005
-0.065960005 0.061880004 0.71400005
-0.064780958 0.062053338 0.71600002
-0.063682862 0.062313337 0.71900004
-0.062313337 0.062313337 0.71900004
-0.061028574 0.062400006 0.72000003
-0.059657145 0.062400006 0.72000003
-0.058447622 0.062573336 0.72200006
-0.057151433 0.062660001 0.72300005
-0.055928577 0.062833339 0.72500002
-0.054773338 0.063093334 0.72800004
-0.05360667 0.063353337 0.73100001
-0.052285716 0.063440003 0.73200005
-0.050891433 0.063440003 0.73200005
-0.049632385 0.06361334 0.73400003
-0.048234288 0.06361334 0.73400003
0.14051715 0.068380006 0.78900003
0.14634287 0.068293341 0.78800005
0.17486097 0.068293341 0.78800005
-0.10835239 0.065011434 0.73400003
-0.10666286 0.064834289 0.73200005
-0.10512477 0.064745717 0.73100001
-0.10330667 0.064480007 0.72800004
-0.10192001 0.064480007 0.72800004
-0.10025715 0.064302862 0.72600001
-0.098738104 0.064214289 0.72500002
-0.097088575 0.064037144 0.72300005
-0.095314294 0.063771434 0.72000003
-0.093812384 0.063682862 0.71900004
-0.092442863 0.063682862 0.71900004
-0.090820007 0.063505717 0.71700001
-0.089454293 0.063505717 0.71700001
-0.088088579 0.063505717 0.71700001
-0.086601913 0.063417144 0.71600002
-0.085238099 0.063417144 0.71600002
-0.083640009 0.063240007 0.71400005
-0.082280003 0.063240007 0.71400005
-0.080920003 0.063240007 0.71400005
-0.079448573 0.063151434 0.71300006
-0.078090481 0.063151434 0.71300006
-0.076840006 0.063240007 0.71400005
-0.075480007 0.063240007 0.71400005
-0.074120007 0.063240007 0.71400005
-0.072760008 0.063240007 0.71400005
-0.071400002 0.063240007 0.71400005
-0.070040002 0.063240007 0.71400005
-0.068680003 0.063240007 0.71400005
-0.067320004 0.063240007 0.71400005
-0.066144764 0.063417144 0.71600002
-0.064780958 0.063417144 0.71600002
-0.063682862 0.063682862 0.71900004
-0.062313337 0.063682862 0.71900004
-0.061028574 0.063771434 0.72000003
-0.059657145 0.063771434 0.72000003
-0.058447622 0.063948579 0.72200006
-0.057151433 0.064037144 0.72300005
-0.056005716 0.064302862 0.72600001
-0.054773338 0.064480007 0.72800004
-0.05360667 0.064745717 0.73100001
-0.052285716 0.064834289 0.73200005
-0.050891433 0.064834289 0.73200005
-0.049632385 0.065011434 0.73400003
-0.048365716 0.065188579 0.73600006
-0.046963811 0.065188579 0.73600006
-0.10864763 0.066590481 0.73600006
-0.10724572 0.066590481 0.73600006
-0.10526858 0.066228576 0.73200005
-0.10373238 0.066138096 0.73100001
-0.10206001 0.065957144 0.72900003
-0.10053334 0.065866672 0.72800004
-0.098874293 0.065685719 0.72600001
-0.097357146 0.065595239 0.72500002
-0.095711432 0.065414287 0.72300005
-0.094203815 0.065323815 0.72200006
-0.092571437 0.065142862 0.72000003
-0.091073342 0.065052383 0.71900004
-0.089703813 0.065052383 0.71900004
-0.088334292 0.065052383 0.71900004
-0.086722866 0.06487143 0.71700001
-0.085357152 0.06487143 0.71700001
-0.083874293 0.064780958 0.71600002
-0.082510479 0.064780958 0.71600002
-0.081146672 0.064780958 0.71600002
-0.079782866 0.064780958 0.71600002
-0.078419052 0.064780958 0.71600002
-0.077055246 0.064780958 0.71600002
-0.075480007 0.064600006 0.71400005
-0.074327625 0.064780958 0.71600002
-0.072963811 0.064780958 0.71600002
-0.071600005 0.064780958 0.71600002
-0.070236199 0.064780958 0.71600002
-0.068968579 0.06487143 0.71700001
-0.067602858 0.06487143 0.71700001
-0.066237144 0.06487143 0.71700001
-0.06487143 0.06487143 0.71700001
-0.063682862 0.065052383 0.71900004
-0.062400006 0.065142862 0.72000003
-0.061028574 0.065142862 0.72000003
-0.059822861 0.065323815 0.72200006
-0.058528576 0.065414287 0.72300005
-0.057388574 0.065685719 0.72600001
-0.056237146 0.065957144 0.72900003
-0.054848574 0.065957144 0.72900003
-0.053680003 0.066228576 0.73200005
-0.052285716 0.066228576 0.73200005
-0.051030479 0.066409528 0.73400003
-0.049632385 0.066409528 0.73400003
-0.048365716 0.066590481 0.73600006
-0.046963811 0.066590481 0.73600006
-0.045561906 0.066590481 0.73600006
-0.10739143 0.068084769 0.73700005
-0.1055562 0.067807622 0.73400003
-0.10373238 0.067530483 0.73100001
-0.10206001 0.067345716 0.72900003
-0.10067143 0.067345716 0.72900003
-0.099146672 0.067253336 0.72800004
-0.097491436 0.067068577 0.72600001
-0.095711432 0.06679143 0.72300005
-0.094203815 0.06669905 0.72200006
-0.092571437 0.066514291 0.72000003
-0.091073342 0.066421911 0.71900004
-0.089703813 0.066421911 0.71900004
-0.088334292 0.066421911 0.71900004
-0.086964771 0.066421911 0.71900004
-0.085595243 0.066421911 0.71900004
-0.083991431 0.066237144 0.71700001
-0.082625717 0.066237144 0.71700001
-0.081260003 0.066237144 0.71700001
-0.079782866 0.066144764 0.71600002
-0.078419052 0.066144764 0.71600002
-0.077055246 0.066144764 0.71600002
-0.075691432 0.066144764 0.71600002
-0.074327625 0.066144764 0.71600002
-0.072963811 0.066144764 0.71600002
-0.071600005 0.066144764 0.71600002
-0.070334293 0.066237144 0.71700001
-0.068968579 0.066237144 0.71700001
-0.067602858 0.066237144 0.71700001
-0.066237144 0.066237144 0.71700001
-0.065052383 0.066421911 0.71900004
-0.063682862 0.066421911 0.71900004
-0.062400006 0.066514291 0.72000003
-0.0611981 0.06669905 0.72200006
-0.059905719 0.06679143 0.72300005
-0.058690481 0.066976197 0.72500002
-0.057546671 0.067253336 0.72800004
-0.056237146 0.067345716 0.72900003
-0.05499905 0.067530483 0.73100001
-0.05360667 0.067530483 0.73100001
-0.052285716 0.067622863 0.73200005
-0.050891433 0.067622863 0.73200005
-0.049632385 0.067807622 0.73400003
-0.048365716 0.067992382 0.73600006
-0.046963811 0.067992382 0.73600006
-0.045561906 0.067992382 0.73600006
-0.10695429 0.069205716 0.73400003
-0.1055562 0.069205716 0.73400003
-0.10373238 0.068922862 0.73100001
-0.10206001 0.068734288 0.72900003
-0.10067143 0.068734288 0.72900003
-0.099146672 0.068640001 0.72800004
-0.097491436 0.068451434 0.72600001
-0.095976196 0.068357147 0.72500002
-0.094334289 0.068168573 0.72300005
-0.092571437 0.067885719 0.72000003
-0.091200009 0.067885719 0.72000003
-0.089703813 0.067791432 0.71900004
-0.088334292 0.067791432 0.71900004
-0.086964771 0.067791432 0.71900004
-0.085595243 0.067791432 0.71900004
-0.083991431 0.067602858 0.71700001
-0.082625717 0.067602858 0.71700001
-0.081260003 0.067602858 0.71700001
-0.079782866 0.067508578 0.71600002
-0.078419052 0.067508578 0.71600002
-0.077055246 0.067508578 0.71600002
-0.075691432 0.067508578 0.71600002
-0.074431434 0.067602858 0.71700001
-0.072963811 0.067508578 0.71600002
-0.071700007 0.067602858 0.71700001
-0.070334293 0.067602858 0.71700001
-0.068968579 0.067602858 0.71700001
-0.067791432 0.067791432 0.71900004
-0.066421911 0.067791432 0.71900004
-0.065052383 0.067791432 0.71900004
-0.063682862 0.067791432 0.71900004
-0.062573336 0.068074293 0.72200006
-0.061282862 0.068168573 0.72300005
-0.060071431 0.068357147 0.72500002
-0.058690481 0.068357147 0.72500002
-0.057546671 0.068640001 0.72800004
-0.056237146 0.068734288 0.72900003
-0.05499905 0.068922862 0.73100001
-0.053680003 0.06901715 0.73200005
-0.052285716 0.06901715 0.73200005
-0.050891433 0.06901715 0.73200005
-0.049767621 0.06939429 0.73600006
-0.04843143 0.069488578 0.73700005
-0.047027621 0.069488578 0.73700005
-0.047047623 0.071657151 0.76000005
-0.045600004 0.071657151 0.76000005
-0.10666286 0.070411436 0.73200005
-0.10526858 0.070411436 0.73200005
-0.10373238 0.070315242 0.73100001
-0.10234001 0.070315242 0.73100001
-0.10067143 0.07012286 0.72900003
-0.099146672 0.070026673 0.72800004
-0.097491436 0.069834292 0.72600001
-0.095976196 0.069738097 0.72500002
-0.094334289 0.069545716 0.72300005
-0.092957146 0.069545716 0.72300005
-0.091200009 0.069257148 0.72000003
-0.089828581 0.069257148 0.72000003
-0.088334292 0.069160961 0.71900004
-0.086964771 0.069160961 0.71900004
-0.085595243 0.069160961 0.71900004
-0.084225722 0.069160961 0.71900004
-0.082856193 0.069160961 0.71900004
-0.081486672 0.069160961 0.71900004
-0.079894289 0.068968579 0.71700001
-0.078528576 0.068968579 0.71700001
-0.077162862 0.068968579 0.71700001
-0.075797148 0.068968579 0.71700001
-0.074431434 0.068968579 0.71700001
-0.07306572 0.068968579 0.71700001
-0.071700007 0.068968579 0.71700001
-0.070530482 0.069160961 0.71900004
-0.069160961 0.069160961 0.71900004
-0.067791432 0.069160961 0.71900004
-0.066421911 0.069160961 0.71900004
-0.065052383 0.069160961 0.71900004
-0.063771434 0.069257148 0.72000003
-0.062573336 0.069449529 0.72200006
-0.061282862 0.069545716 0.72300005
-0.060071431 0.069738097 0.72500002
-0.058771431 0.069834292 0.72600001
-0.057546671 0.070026673 0.72800004
-0.056237146 0.07012286 0.72900003
-0.05499905 0.070315242 0.73100001
-0.053680003 0.070411436 0.73200005
-0.052285716 0.070411436 0.73200005
-0.051030479 0.070603818 0.73400003
-0.049767621 0.070796192 0.73600006
-0.048365716 0.070796192 0.73600006
-0.048367623 0.072912388 0.75800002
-0.047047623 0.073104769 0.76000005
-0.045600004 0.073104769 0.76000005
-0.044152383 0.073104769 0.76000005
-0.10526858 0.071805716 0.73200005
-0.10373238 0.071707621 0.73100001
-0.10234001 0.071707621 0.73100001
-0.10094763 0.071707621 0.73100001
-0.099282861 0.071511433 0.72900003
-0.097760007 0.071413338 0.72800004
-0.096108578 0.071217149 0.72600001
-0.094595246 0.071119055 0.72500002
-0.092957146 0.070922859 0.72300005
-0.091453336 0.070824765 0.72200006
-0.089828581 0.070628576 0.72000003
-0.088457152 0.070628576 0.72000003
-0.087085716 0.070628576 0.72000003
-0.085714288 0.070628576 0.72000003
-0.084225722 0.070530482 0.71900004
-0.082856193 0.070530482 0.71900004
-0.081486672 0.070530482 0.71900004
-0.079894289 0.070334293 0.71700001
-0.078528576 0.070334293 0.71700001
-0.077162862 0.070334293 0.71700001
-0.075797148 0.070334293 0.71700001
-0.074431434 0.070334293 0.71700001
-0.07306572 0.070334293 0.71700001
-0.071700007 0.070334293 0.71700001
-0.070530482 0.070530482 0.71900004
-0.069160961 0.070530482 0.71900004
-0.067791432 0.070530482 0.71900004
-0.066421911 0.070530482 0.71900004
-0.065052383 0.070530482 0.71900004
-0.063771434 0.070628576 0.72000003
-0.062573336 0.070824765 0.72200006
-0.061452385 0.071119055 0.72500002
-0.060154289 0.071217149 0.72600001
-0.058771431 0.071217149 0.72600001
-0.057546671 0.071413338 0.72800004
-0.056237146 0.071511433 0.72900003
-0.05499905 0.071707621 0.73100001
-0.053680003 0.071805716 0.73200005
-0.052285716 0.071805716 0.73200005
-0.051030479 0.072001912 0.73400003
-0.049835242 0.072296195 0.73700005
-0.04843143 0.072296195 0.73700005
-0.048367623 0.074356198 0.75800002
-0.046923812 0.074356198 0.75800002
-0.045600004 0.074552387 0.76000005
-0.044036195 0.074356198 0.75800002
-0.1055562 0.073400006 0.73400003
-0.1038743 0.073200002 0.73200005
-0.10234001 0.073100008 0.73100001
-0.10094763 0.073100008 0.73100001
-0.099282861 0.072900005 0.72900003
-0.097760007 0.072800003 0.72800004
-0.096108578 0.072600007 0.72600001
-0.094595246 0.072500005 0.72500002
-0.093214288 0.072500005 0.72500002
-0.091453336 0.072200008 0.72200006
-0.089828581 0.072000004 0.72000003
-0.088457152 0.072000004 0.72000003
-0.087085716 0.072000004 0.72000003
-0.085595243 0.071900003 0.71900004
-0.084225722 0.071900003 0.71900004
-0.082856193 0.071900003 0.71900004
-0.081486672 0.071900003 0.71900004
-0.080117151 0.071900003 0.71900004
-0.078747623 0.071900003 0.71900004
-0.077378102 0.071900003 0.71900004
-0.076008573 0.071900003 0.71900004
-0.074639052 0.071900003 0.71900004
-0.073269531 0.071900003 0.71900004
-0.071900003 0.071900003 0.71900004
-0.070530482 0.071900003 0.71900004
-0.069160961 0.071900003 0.71900004
-0.067885719 0.072000004 0.72000003
-0.066514291 0.072000004 0.72000003
-0.065142862 0.072000004 0.72000003
-0.063771434 0.072000004 0.72000003
-0.062573336 0.072200008 0.72200006
-0.061452385 0.072500005 0.72500002
-0.060154289 0.072600007 0.72600001
-0.058933336 0.072800003 0.72800004
-0.057546671 0.072800003 0.72800004
-0.056237146 0.072900005 0.72900003
-0.05499905 0.073100008 0.73100001
-0.053826671 0.073400006 0.73400003
-0.052571431 0.073600002 0.73600006
-0.051169526 0.073600002 0.73600006
-0.049970478 0.073900007 0.73900002
-0.048562862 0.073900007 0.73900002
-0.048367623 0.075800002 0.75800002
-0.046923812 0.075800002 0.75800002
-0.045480002 0.075800002 0.75800002
-0.044036195 0.075800002 0.75800002
-0.042704765 0.076000005 0.76000005
-0.041257147 0.076000005 0.76000005
-0.11289048 0.0769381 0.75500005
-0.11115715 0.07673429 0.75300002
-0.10957715 0.076632388 0.75200003
-0.1055562 0.0747981 0.73400003
-0.1038743 0.074594289 0.73200005
-0.10248001 0.074594289 0.73200005
-0.10094763 0.074492387 0.73100001
-0.099282861 0.074288577 0.72900003
-0.097760007 0.074186675 0.72800004
-0.096108578 0.073982865 0.72600001
-0.094595246 0.073880956 0.72500002
-0.093214288 0.073880956 0.72500002
-0.091453336 0.073575243 0.72200006
-0.090078101 0.073575243 0.72200006
-0.088457152 0.073371433 0.72000003
-0.087085716 0.073371433 0.72000003
-0.085714288 0.073371433 0.72000003
-0.084225722 0.073269531 0.71900004
-0.082856193 0.073269531 0.71900004
-0.081486672 0.073269531 0.71900004
-0.080117151 0.073269531 0.71900004
-0.078747623 0.073269531 0.71900004
-0.077378102 0.073269531 0.71900004
-0.076008573 0.073269531 0.71900004
-0.074639052 0.073269531 0.71900004
-0.073269531 0.073269531 0.71900004
-0.071900003 0.073269531 0.71900004
-0.070628576 0.073371433 0.72000003
-0.069257148 0.073371433 0.72000003
-0.067885719 0.073371433 0.72000003
-0.066514291 0.073371433 0.72000003
-0.065142862 0.073371433 0.72000003
-0.063948579 0.073575243 0.72200006
-0.062660001 0.073677145 0.72300005
-0.061537147 0.073982865 0.72600001
-0.060320005 0.074186675 0.72800004
-0.058933336 0.074186675 0.72800004
-0.057625718 0.074288577 0.72900003
-0.056237146 0.074288577 0.72900003
-0.05499905 0.074492387 0.73100001
-0.053826671 0.0747981 0.73400003
-0.052428573 0.0747981 0.73400003
-0.051169526 0.07500191 0.73600006
-0.049970478 0.075307623 0.73900002
-0.048957147 0.075919054 0.74500006
-0.048240002 0.077040002 0.75600004
-0.046800002 0.077040002 0.75600004
-0.045360003 0.077040002 0.75600004
-0.043920003 0.077040002 0.75600004
-0.042480003 0.077040002 0.75600004
-0.041148573 0.077243812 0.75800002
-0.11289048 0.078376196 0.75500005
-0.11115715 0.078168578 0.75300002
-0.10957715 0.07806477 0.75200003
-0.10814477 0.07806477 0.75200003
-0.1038743 0.075988576 0.73200005
-0.10234001 0.075884767 0.73100001
