# .PCD v0.7 - Point Cloud Data file format
VERSION 0.7
FIELDS x y z
SIZE 4 4 4
TYPE F F F
COUNT 1 1 1
WIDTH 1356
HEIGHT 1
VIEWPOINT 0 0 0 1 0 0 0
POINTS 1356
DATA ascii
-0.011888572 0.01439143 0.65700001
-0.010637144 0.01439143 0.65700001
-0.0093714288 0.014369525 0.65600002
-0.0081095239 0.01434762 0.65500003
-0.0068409527 0.014303811 0.65300006
-0.005588572 0.014281905 0.65200001
-0.0043466669 0.014281905 0.65200001
-0.0031000001 0.014260001 0.65100002
-0.0018600001 0.014260001 0.65100002
-0.00061904767 0.014238096 0.65000004
0.00061904767 0.014238096 0.65000004
0.0018514286 0.014194286 0.648
0.0030809527 0.014172382 0.64700001
0.0043133334 0.014172382 0.64700001
0.0055457149 0.014172382 0.64700001
0.0067780958 0.014172382 0.64700001
0.0080104768 0.014172382 0.64700001
0.0092428578 0.014172382 0.64700001
0.010491429 0.014194286 0.648
0.011725715 0.014194286 0.648
0.012960001 0.014194286 0.648
0.014194286 0.014194286 0.648
0.015428573 0.014194286 0.648
0.016662858 0.014194286 0.648
0.017897144 0.014194286 0.648
0.019190477 0.014238096 0.65000004
0.020428572 0.014238096 0.65000004
0.021700002 0.014260001 0.65100002
0.022940002 0.014260001 0.65100002
0.024217144 0.014281905 0.65200001
0.025459049 0.014281905 0.65200001
0.026741907 0.014303811 0.65300006
0.027985716 0.014303811 0.65300006
0.02931905 0.01434762 0.65500003
0.030613335 0.014369525 0.65600002
0.031960003 0.014413334 0.65800005
0.033314288 0.014457144 0.66000003
0.034623813 0.014479049 0.66100001
0.035937145 0.014500953 0.66200006
0.037254289 0.014522858 0.66300005
0.038517144 0.014522858 0.66300005
0.039780002 0.014522858 0.66300005
-0.017100001 0.015833335 0.66500002
-0.015738096 0.015738096 0.66100001
-0.014457144 0.015714286 0.66000003
-0.013160001 0.015666667 0.65800005
-0.011906668 0.015666667 0.65800005
-0.010653334 0.015666667 0.65800005
-0.0093857152 0.015642859 0.65700001
-0.0081219049 0.015619049 0.65600002
-0.0068723815 0.015619049 0.65600002
-0.0055971434 0.01554762 0.65300006
-0.0043533337 0.01554762 0.65300006
-0.003109524 0.01554762 0.65300006
-0.0018628573 0.015523811 0.65200001
-0.00062000006 0.015500001 0.65100002
0.00062000006 0.015500001 0.65100002
0.001857143 0.015476191 0.65000004
0.0030857145 0.015428573 0.648
0.0043200003 0.015428573 0.648
0.0055542863 0.015428573 0.648
0.0067885718 0.015428573 0.648
0.0080228578 0.015428573 0.648
0.0092571434 0.015428573 0.648
0.01052381 0.015476191 0.65000004
0.011725715 0.015428573 0.648
0.013000001 0.015476191 0.65000004
0.014194286 0.015428573 0.648
0.015476191 0.015476191 0.65000004
0.016714286 0.015476191 0.65000004
0.017952383 0.015476191 0.65000004
0.019190477 0.015476191 0.65000004
0.020460002 0.015500001 0.65100002
0.021700002 0.015500001 0.65100002
0.02297524 0.015523811 0.65200001
0.024254287 0.01554762 0.65300006
0.025498098 0.01554762 0.65300006
0.026741907 0.01554762 0.65300006
0.02807143 0.015595239 0.65500003
0.02931905 0.015595239 0.65500003
0.030706668 0.015666667 0.65800005
0.032057144 0.015714286 0.66000003
0.033364765 0.015738096 0.66100001
0.034676194 0.015761906 0.66200006
0.03599143 0.015785715 0.66300005
0.03736667 0.015833335 0.66500002
0.038633335 0.015833335 0.66500002
-0.017202858 0.017202858 0.66900003
-0.015785715 0.017048573 0.66300005
-0.014500953 0.017022857 0.66200006
-0.013220001 0.016997144 0.66100001
-0.011942858 0.01697143 0.66000003
-0.010653334 0.01692 0.65800005
-0.0094000008 0.01692 0.65800005
-0.0081342859 0.016894286 0.65700001
-0.0068723815 0.016868573 0.65600002
-0.0056228577 0.016868573 0.65600002
-0.0043733334 0.016868573 0.65600002
-0.0031190477 0.016842859 0.65500003
-0.0018657144 0.016791429 0.65300006
-0.0006209524 0.016765716 0.65200001
0.0006209524 0.016765716 0.65200001
0.0018600001 0.016740002 0.65100002
0.0030952382 0.016714286 0.65000004
0.0043333336 0.016714286 0.65000004
0.0055714292 0.016714286 0.65000004
0.0068095243 0.016714286 0.65000004
0.0080476198 0.016714286 0.65000004
0.0092857145 0.016714286 0.65000004
0.010540001 0.016740002 0.65100002
0.011761906 0.016714286 0.65000004
0.013000001 0.016714286 0.65000004
0.014238096 0.016714286 0.65000004
0.015500001 0.016740002 0.65100002
0.016740002 0.016740002 0.65100002
0.017980002 0.016740002 0.65100002
0.019249525 0.016765716 0.65200001
0.020491431 0.016765716 0.65200001
0.021733334 0.016765716 0.65200001
0.023010477 0.016791429 0.65300006
0.024254287 0.016791429 0.65300006
0.025576193 0.016842859 0.65500003
0.026823811 0.016842859 0.65500003
0.02807143 0.016842859 0.65500003
0.029408574 0.016894286 0.65700001
0.030706668 0.01692 0.65800005
0.032105718 0.016997144 0.66100001
0.033415239 0.017022857 0.66200006
0.034728575 0.017048573 0.66300005
0.036154289 0.017125715 0.66600001
0.037422858 0.017125715 0.66600001
0.038749527 0.01715143 0.66700006
-0.021245716 0.018670477 0.67600006
-0.019928573 0.018642858 0.67500001
-0.01861524 0.01861524 0.67400002
-0.017254287 0.018532382 0.671
-0.015880954 0.018421905 0.66700006
-0.014522858 0.01831143 0.66300005
-0.013240001 0.01828381 0.66200006
-0.011942858 0.018228572 0.66000003
-0.010685715 0.018228572 0.66000003
-0.0094285719 0.018228572 0.66000003
-0.0081342859 0.018145716 0.65700001
-0.0068828575 0.018145716 0.65700001
-0.0056228577 0.018118097 0.65600002
-0.0043733334 0.018118097 0.65600002
-0.0031238098 0.018118097 0.65600002
-0.0018714287 0.018090477 0.65500003
-0.00062190479 0.018035239 0.65300006
0.0006209524 0.018007619 0.65200001
0.0018628573 0.018007619 0.65200001
0.0031047622 0.018007619 0.65200001
0.0043466669 0.018007619 0.65200001
0.005588572 0.018007619 0.65200001
0.0068200002 0.017980002 0.65100002
0.0080600008 0.017980002 0.65100002
0.009300001 0.017980002 0.65100002
0.010540001 0.017980002 0.65100002
0.011780001 0.017980002 0.65100002
0.01302 0.017980002 0.65100002
0.014260001 0.017980002 0.65100002
0.015523811 0.018007619 0.65200001
0.016765716 0.018007619 0.65200001
0.018007619 0.018007619 0.65200001
0.01927905 0.018035239 0.65300006
0.020522859 0.018035239 0.65300006
0.021766668 0.018035239 0.65300006
0.023080954 0.018090477 0.65500003
0.024328573 0.018090477 0.65500003
0.02561524 0.018118097 0.65600002
0.026864763 0.018118097 0.65600002
0.028114287 0.018118097 0.65600002
0.029453335 0.018173335 0.65800005
0.030800002 0.018228572 0.66000003
0.032105718 0.018256191 0.66100001
0.033465717 0.01831143 0.66300005
0.034833334 0.018366668 0.66500002
0.036154289 0.018394288 0.66600001
0.03747905 0.018421905 0.66700006
0.038749527 0.018421905 0.66700006
-0.021245716 0.019958096 0.67600006
-0.019928573 0.019928573 0.67500001
-0.01861524 0.01989905 0.67400002
-0.017254287 0.019810477 0.671
-0.015928572 0.01975143 0.66900003
-0.014588572 0.019662859 0.66600001
-0.013260001 0.019574286 0.66300005
-0.011979048 0.019544763 0.66200006
-0.010701905 0.019515239 0.66100001
-0.0094285719 0.019485716 0.66000003
-0.0081466669 0.019426668 0.65800005
-0.0068828575 0.019397143 0.65700001
-0.0056314291 0.019397143 0.65700001
-0.0043800003 0.019397143 0.65700001
-0.0031238098 0.01936762 0.65600002
-0.0018742859 0.01936762 0.65600002
-0.00062380958 0.019338097 0.65500003
0.00062190479 0.01927905 0.65300006
0.0018657144 0.01927905 0.65300006
0.003109524 0.01927905 0.65300006
0.0043533337 0.01927905 0.65300006
0.0055971434 0.01927905 0.65300006
0.0068304767 0.019249525 0.65200001
0.0080723818 0.019249525 0.65200001
0.0093142865 0.019249525 0.65200001
0.010556191 0.019249525 0.65200001
0.011798096 0.019249525 0.65200001
0.013040001 0.019249525 0.65200001
0.014281905 0.019249525 0.65200001
0.015523811 0.019249525 0.65200001
0.016791429 0.01927905 0.65300006
0.018035239 0.01927905 0.65300006
0.01927905 0.01927905 0.65300006
0.020585716 0.019338097 0.65500003
0.021833334 0.019338097 0.65500003
0.023116192 0.01936762 0.65600002
0.024365716 0.01936762 0.65600002
0.025654288 0.019397143 0.65700001
0.026905715 0.019397143 0.65700001
0.028157145 0.019397143 0.65700001
0.02954286 0.019485716 0.66000003
0.030846668 0.019515239 0.66100001
0.032154288 0.019544763 0.66200006
0.033566669 0.019633334 0.66500002
0.034833334 0.019633334 0.66500002
0.036208574 0.019692382 0.66700006
0.03747905 0.019692382 0.66700006
0.038749527 0.019692382 0.66700006
-0.022633335 0.021340001 0.67900002
-0.021340001 0.021340001 0.67900002
-0.019958096 0.021245716 0.67600006
-0.01861524 0.021182859 0.67400002
-0.017254287 0.021088572 0.671
-0.015952382 0.021057144 0.67000002
-0.014610477 0.020962859 0.66700006
-0.013320001 0.02093143 0.66600001
-0.01205143 0.02093143 0.66600001
-0.010734286 0.020837145 0.66300005
-0.009457143 0.020805717 0.66200006
-0.0081714289 0.020742858 0.66000003
-0.006893334 0.020680001 0.65800005
-0.0056400006 0.020680001 0.65800005
-0.0043800003 0.020648573 0.65700001
-0.0031285717 0.020648573 0.65700001
-0.0018771429 0.020648573 0.65700001
-0.00062571431 0.020648573 0.65700001
0.00062571431 0.020648573 0.65700001
0.0018742859 0.020617144 0.65600002
0.0031238098 0.020617144 0.65600002
0.0043733334 0.020617144 0.65600002
0.0056228577 0.020617144 0.65600002
0.0068619051 0.020585716 0.65500003
0.0081095239 0.020585716 0.65500003
0.0093571432 0.020585716 0.65500003
0.010572381 0.020522859 0.65300006
0.011816191 0.020522859 0.65300006
0.013100001 0.020585716 0.65500003
0.01434762 0.020585716 0.65500003
0.015595239 0.020585716 0.65500003
0.016842859 0.020585716 0.65500003
0.018118097 0.020617144 0.65600002
0.01936762 0.020617144 0.65600002
0.020648573 0.020648573 0.65700001
0.021900002 0.020648573 0.65700001
0.023186669 0.020680001 0.65800005
0.024440002 0.020680001 0.65800005
0.02577143 0.020742858 0.66000003
0.027028574 0.020742858 0.66000003
0.028371431 0.020805717 0.66200006
0.029677145 0.020837145 0.66300005
0.031033335 0.020900002 0.66500002
0.032348573 0.02093143 0.66600001
0.03366762 0.020962859 0.66700006
0.034938097 0.020962859 0.66700006
0.036317144 0.021025715 0.66900003
0.037591431 0.021025715 0.66900003
0.039272383 0.021245716 0.67600006
-0.022633335 0.022633335 0.67900002
-0.021340001 0.022633335 0.67900002
-0.019958096 0.022533335 0.67600006
-0.018642858 0.022500001 0.67500001
-0.017280001 0.022400001 0.67200005
-0.015952382 0.022333335 0.67000002
-0.014676192 0.022333335 0.67000002
-0.013340001 0.022233335 0.66700006
-0.012069524 0.022233335 0.66700006
-0.010782857 0.022200001 0.66600001
-0.0094714295 0.022100002 0.66300005
-0.0081838099 0.022033336 0.66100001
-0.0069142859 0.022000002 0.66000003
-0.0056400006 0.021933334 0.65800005
-0.0043866672 0.021933334 0.65800005
-0.0031333335 0.021933334 0.65800005
-0.0018800001 0.021933334 0.65800005
-0.0006266667 0.021933334 0.65800005
0.0006266667 0.021933334 0.65800005
0.0018800001 0.021933334 0.65800005
0.0031285717 0.021900002 0.65700001
0.0043800003 0.021900002 0.65700001
0.0056314291 0.021900002 0.65700001
0.0068723815 0.021866668 0.65600002
0.0081219049 0.021866668 0.65600002
0.0093571432 0.021833334 0.65500003
0.010604762 0.021833334 0.65500003
0.011852382 0.021833334 0.65500003
0.013120001 0.021866668 0.65600002
0.014369525 0.021866668 0.65600002
0.015642859 0.021900002 0.65700001
0.016894286 0.021900002 0.65700001
0.018145716 0.021900002 0.65700001
0.019426668 0.021933334 0.65800005
0.020680001 0.021933334 0.65800005
0.022000002 0.022000002 0.66000003
0.023257144 0.022000002 0.66000003
0.024514288 0.022000002 0.66000003
0.025810478 0.022033336 0.66100001
0.027069526 0.022033336 0.66100001
0.028414287 0.022100002 0.66300005
0.029766669 0.022166668 0.66500002
0.031080002 0.022200001 0.66600001
0.032397144 0.022233335 0.66700006
0.033768572 0.022300001 0.66900003
0.03504286 0.022300001 0.66900003
0.036371432 0.022333335 0.67000002
0.037872385 0.022466669 0.67400002
0.039388575 0.022600001 0.67800003
0.040920004 0.022733334 0.68200004
-0.02137143 0.023961907 0.68000001
-0.020046668 0.023926668 0.67900002
-0.018670477 0.023820953 0.67600006
-0.017280001 0.023680001 0.67200005
-0.015976192 0.023644764 0.671
-0.014676192 0.023609525 0.67000002
-0.013380001 0.023574287 0.66900003
-0.012105715 0.023574287 0.66900003
-0.010799048 0.02350381 0.66700006
-0.0095000006 0.023433335 0.66500002
-0.0082085719 0.023362858 0.66300005
-0.0069352384 0.023327621 0.66200006
-0.0056657149 0.023292383 0.66100001
-0.0044000004 0.023257144 0.66000003
-0.0031428575 0.023257144 0.66000003
-0.0018857144 0.023257144 0.66000003
-0.0006266667 0.023186669 0.65800005
0.0006266667 0.023186669 0.65800005
0.0018800001 0.023186669 0.65800005
0.0031333335 0.023186669 0.65800005
0.0043866672 0.023186669 0.65800005
0.0056400006 0.023186669 0.65800005
0.0068828575 0.023151429 0.65700001
0.0081342859 0.023151429 0.65700001
0.0093857152 0.023151429 0.65700001
0.010620954 0.023116192 0.65600002
0.011888572 0.023151429 0.65700001
0.013160001 0.023186669 0.65800005
0.01439143 0.023151429 0.65700001
0.015666667 0.023186669 0.65800005
0.01692 0.023186669 0.65800005
0.018173335 0.023186669 0.65800005
0.019485716 0.023257144 0.66000003
0.020742858 0.023257144 0.66000003
0.022000002 0.023257144 0.66000003
0.023292383 0.023292383 0.66100001
0.024551431 0.023292383 0.66100001
0.025849525 0.023327621 0.66200006
0.02715143 0.023362858 0.66300005
0.028500002 0.023433335 0.66500002
0.029811431 0.023468573 0.66600001
0.031126669 0.02350381 0.66700006
0.032494288 0.023574287 0.66900003
0.033768572 0.023574287 0.66900003
0.035095241 0.023609525 0.67000002
0.036425717 0.023644764 0.671
0.037703812 0.023644764 0.671
0.039446671 0.023926668 0.67900002
0.040740002 0.023926668 0.67900002
-0.02137143 0.025257144 0.68000001
-0.020076191 0.025257144 0.68000001
-0.018753335 0.025220001 0.67900002
-0.017331429 0.025034288 0.67400002
-0.015976192 0.024922859 0.671
-0.014698097 0.024922859 0.671
-0.013380001 0.024848573 0.66900003
-0.012105715 0.024848573 0.66900003
-0.010799048 0.024774287 0.66700006
-0.0095142862 0.024737144 0.66600001
-0.0082085719 0.024625717 0.66300005
-0.0069352384 0.024588574 0.66200006
-0.0056742863 0.024588574 0.66200006
-0.0044066668 0.024551431 0.66100001
-0.0031476193 0.024551431 0.66100001
-0.0018885715 0.024551431 0.66100001
-0.00062857149 0.024514288 0.66000003
0.00062857149 0.024514288 0.66000003
0.0018857144 0.024514288 0.66000003
0.0031428575 0.024514288 0.66000003
0.0043866672 0.024440002 0.65800005
0.0056400006 0.024440002 0.65800005
0.006893334 0.024440002 0.65800005
0.0081466669 0.024440002 0.65800005
0.0093857152 0.024402859 0.65700001
0.010637144 0.024402859 0.65700001
0.011906668 0.024440002 0.65800005
0.013160001 0.024440002 0.65800005
0.014413334 0.024440002 0.65800005
0.015714286 0.024514288 0.66000003
0.01697143 0.024514288 0.66000003
0.018228572 0.024514288 0.66000003
0.019485716 0.024514288 0.66000003
0.020774286 0.024551431 0.66100001
0.022033336 0.024551431 0.66100001
0.023327621 0.024588574 0.66200006
0.024588574 0.024588574 0.66200006
0.025888573 0.024625717 0.66300005
0.027233334 0.024700001 0.66500002
0.028542859 0.024737144 0.66600001
0.029856192 0.024774287 0.66700006
0.031126669 0.024774287 0.66700006
0.032494288 0.024848573 0.66900003
0.03381905 0.024885716 0.67000002
0.035095241 0.024885716 0.67000002
0.036371432 0.024885716 0.67000002
0.038153335 0.025220001 0.67900002
0.039446671 0.025220001 0.67900002
-0.021465715 0.026669526 0.68300003
-0.020164764 0.026669526 0.68300003
-0.01886381 0.026669526 0.68300003
-0.017562859 0.026669526 0.68300003
-0.015976192 0.026200954 0.671
-0.014698097 0.026200954 0.671
-0.013400001 0.026161907 0.67000002
-0.01212381 0.026161907 0.67000002
-0.01083143 0.026122859 0.66900003
-0.0095285717 0.026044764 0.66700006
-0.0082457149 0.026005715 0.66600001
-0.0069457148 0.025888573 0.66300005
-0.0056742863 0.025849525 0.66200006
-0.0044133337 0.025849525 0.66200006
-0.0031476193 0.025810478 0.66100001
-0.0018885715 0.025810478 0.66100001
-0.00062952383 0.025810478 0.66100001
0.00062952383 0.025810478 0.66100001
0.0018885715 0.025810478 0.66100001
0.0031476193 0.025810478 0.66100001
0.0044000004 0.02577143 0.66000003
0.0056571434 0.02577143 0.66000003
0.0069142859 0.02577143 0.66000003
0.0081714289 0.02577143 0.66000003
0.0094285719 0.02577143 0.66000003
0.010701905 0.025810478 0.66100001
0.011960953 0.025810478 0.66100001
0.013220001 0.025810478 0.66100001
0.014479049 0.025810478 0.66100001
0.015738096 0.025810478 0.66100001
0.016997144 0.025810478 0.66100001
0.018256191 0.025810478 0.66100001
0.019515239 0.025810478 0.66100001
0.020805717 0.025849525 0.66200006
0.022066668 0.025849525 0.66200006
0.023327621 0.025849525 0.66200006
0.024625717 0.025888573 0.66300005
0.025888573 0.025888573 0.66300005
0.027274288 0.026005715 0.66600001
0.028585717 0.026044764 0.66700006
0.029856192 0.026044764 0.66700006
0.031220002 0.026122859 0.66900003
0.032542858 0.026161907 0.67000002
0.03381905 0.026161907 0.67000002
0.035147622 0.026200954 0.671
0.036425717 0.026200954 0.671
0.056597147 0.032682858 0.83700001
-0.020253334 0.028093334 0.68600005
-0.01889143 0.02801143 0.68400002
-0.017588573 0.02801143 0.68400002
-0.016285716 0.02801143 0.68400002
-0.014720001 0.027520001 0.67200005
-0.013400001 0.027438097 0.67000002
-0.01212381 0.027438097 0.67000002
-0.01083143 0.027397145 0.66900003
-0.0095571438 0.027397145 0.66900003
-0.0082457149 0.027274288 0.66600001
-0.0069771432 0.027274288 0.66600001
-0.0056828577 0.02715143 0.66300005
-0.0044200001 0.02715143 0.66300005
-0.0031523812 0.027110478 0.66200006
-0.0018914287 0.027110478 0.66200006
-0.00063047622 0.027110478 0.66200006
0.00063047622 0.027110478 0.66200006
0.0018914287 0.027110478 0.66200006
0.0031476193 0.027069526 0.66100001
0.0044066668 0.027069526 0.66100001
0.0056657149 0.027069526 0.66100001
0.0069247624 0.027069526 0.66100001
0.0081838099 0.027069526 0.66100001
0.0094428575 0.027069526 0.66100001
0.010718096 0.027110478 0.66200006
0.011979048 0.027110478 0.66200006
0.013240001 0.027110478 0.66200006
0.014500953 0.027110478 0.66200006
0.015761906 0.027110478 0.66200006
0.017022857 0.027110478 0.66200006
0.01828381 0.027110478 0.66200006
0.019544763 0.027110478 0.66200006
0.020805717 0.027110478 0.66200006
0.022100002 0.02715143 0.66300005
0.023362858 0.02715143 0.66300005
0.024700001 0.027233334 0.66500002
0.026005715 0.027274288 0.66600001
0.02731524 0.02731524 0.66700006
0.02867143 0.027397145 0.66900003
0.029945716 0.027397145 0.66900003
0.031266667 0.027438097 0.67000002
0.032542858 0.027438097 0.67000002
0.033869527 0.027479049 0.671
0.035147622 0.027479049 0.671
-0.020253334 0.029400002 0.68600005
-0.018946668 0.029400002 0.68600005
-0.017640002 0.029400002 0.68600005
-0.016333334 0.029400002 0.68600005
-0.014785715 0.028928574 0.67500001
-0.013420001 0.028757146 0.671
-0.01212381 0.028714288 0.67000002
-0.01084762 0.028714288 0.67000002
-0.0095571438 0.02867143 0.66900003
-0.0082580959 0.028585717 0.66700006
-0.0069876197 0.028585717 0.66700006
-0.0057000006 0.028500002 0.66500002
-0.0044333334 0.028500002 0.66500002
-0.003157143 0.028414287 0.66300005
-0.0018942858 0.028414287 0.66300005
-0.00063142861 0.028414287 0.66300005
0.00063047622 0.028371431 0.66200006
0.0018914287 0.028371431 0.66200006
0.0031523812 0.028371431 0.66200006
0.0044133337 0.028371431 0.66200006
0.0056742863 0.028371431 0.66200006
0.0069352384 0.028371431 0.66200006
0.0081961909 0.028371431 0.66200006
0.009457143 0.028371431 0.66200006
0.010718096 0.028371431 0.66200006
0.011979048 0.028371431 0.66200006
0.013240001 0.028371431 0.66200006
0.014500953 0.028371431 0.66200006
0.015761906 0.028371431 0.66200006
0.017022857 0.028371431 0.66200006
0.01828381 0.028371431 0.66200006
0.019574286 0.028414287 0.66300005
0.020837145 0.028414287 0.66300005
0.022100002 0.028414287 0.66300005
0.023433335 0.028500002 0.66500002
0.024700001 0.028500002 0.66500002
0.026044764 0.028585717 0.66700006
0.027397145 0.02867143 0.66900003
0.02867143 0.02867143 0.66900003
0.029990477 0.028714288 0.67000002
0.031313334 0.028757146 0.671
0.032640003 0.028800001 0.67200005
0.033920001 0.028800001 0.67200005
0.035200004 0.028800001 0.67200005
-0.01889143 0.030617144 0.68400002
-0.017588573 0.030617144 0.68400002
-0.016071429 0.030214287 0.67500001
-0.014785715 0.030214287 0.67500001
-0.013440001 0.030080002 0.67200005
-0.012141906 0.030035241 0.671
-0.01084762 0.029990477 0.67000002
-0.0095714293 0.029990477 0.67000002
-0.0082828579 0.029945716 0.66900003
-0.0070085721 0.029945716 0.66900003
-0.0057171434 0.029856192 0.66700006
-0.0044400003 0.029811431 0.66600001
-0.003166667 0.029766669 0.66500002
-0.0018942858 0.029677145 0.66300005
-0.0006333334 0.029766669 0.66500002
0.00063142861 0.029677145 0.66300005
0.0018942858 0.029677145 0.66300005
0.003157143 0.029677145 0.66300005
0.0044200001 0.029677145 0.66300005
0.0056828577 0.029677145 0.66300005
0.0069457148 0.029677145 0.66300005
0.0082085719 0.029677145 0.66300005
0.0094714295 0.029677145 0.66300005
0.010734286 0.029677145 0.66300005
0.011997144 0.029677145 0.66300005
0.013260001 0.029677145 0.66300005
0.014522858 0.029677145 0.66300005
0.015785715 0.029677145 0.66300005
0.017048573 0.029677145 0.66300005
0.01831143 0.029677145 0.66300005
0.019633334 0.029766669 0.66500002
0.020900002 0.029766669 0.66500002
0.022200001 0.029811431 0.66600001
0.023468573 0.029811431 0.66600001
0.024774287 0.029856192 0.66700006
0.026122859 0.029945716 0.66900003
0.027438097 0.029990477 0.67000002
0.028714288 0.029990477 0.67000002
0.030035241 0.030035241 0.671
0.031453334 0.030169526 0.67400002
0.032785717 0.030214287 0.67500001
0.034071431 0.030214287 0.67500001
0.035828575 0.030617144 0.68400002
0.037077144 0.030572383 0.68300003
0.038434289 0.030617144 0.68400002
-0.020253334 0.032013334 0.68600005
-0.01889143 0.031920001 0.68400002
-0.017588573 0.031920001 0.68400002
-0.016285716 0.031920001 0.68400002
-0.014873334 0.031686667 0.67900002
-0.013500001 0.031500001 0.67500001
-0.01216 0.03136 0.67200005
-0.01086381 0.031313334 0.671
-0.0095714293 0.031266667 0.67000002
-0.0082828579 0.031220002 0.66900003
-0.0070085721 0.031220002 0.66900003
-0.0057171434 0.031126669 0.66700006
-0.0044466672 0.031126669 0.66700006
-0.0031761907 0.031126669 0.66700006
-0.0019028572 0.031080002 0.66600001
-0.00063428574 0.031080002 0.66600001
0.0006333334 0.031033335 0.66500002
0.0019000001 0.031033335 0.66500002
0.003157143 0.030940002 0.66300005
0.0044200001 0.030940002 0.66300005
0.0056828577 0.030940002 0.66300005
0.0069457148 0.030940002 0.66300005
0.0082085719 0.030940002 0.66300005
0.0094714295 0.030940002 0.66300005
0.010734286 0.030940002 0.66300005
0.011997144 0.030940002 0.66300005
0.013260001 0.030940002 0.66300005
0.014522858 0.030940002 0.66300005
0.015833335 0.031033335 0.66500002
0.017100001 0.031033335 0.66500002
0.018366668 0.031033335 0.66500002
0.019662859 0.031080002 0.66600001
0.02093143 0.031080002 0.66600001
0.022233335 0.031126669 0.66700006
0.02350381 0.031126669 0.66700006
0.024848573 0.031220002 0.66900003
0.026122859 0.031220002 0.66900003
0.027479049 0.031313334 0.671
0.028800001 0.03136 0.67200005
0.030080002 0.03136 0.67200005
0.031500001 0.031500001 0.67500001
0.032834288 0.031546667 0.67600006
0.034424763 0.031826667 0.68200004
0.035776194 0.031873334 0.68300003
0.037131432 0.031920001 0.68400002
0.03854667 0.032013334 0.68600005
-0.020253334 0.033320002 0.68600005
-0.018946668 0.033320002 0.68600005
-0.017588573 0.033222858 0.68400002
-0.016261905 0.033174288 0.68300003
-0.014939048 0.033125717 0.68200004
-0.013580001 0.032980002 0.67900002
-0.012268572 0.032931432 0.67800003
-0.01086381 0.032591432 0.671
-0.0095857149 0.032591432 0.671
-0.0082952389 0.032542858 0.67000002
-0.0070085721 0.032494288 0.66900003
-0.0057342863 0.032494288 0.66900003
-0.0044600004 0.032494288 0.66900003
-0.0031761907 0.032397144 0.66700006
-0.0019028572 0.032348573 0.66600001
-0.00063428574 0.032348573 0.66600001
0.00063428574 0.032348573 0.66600001
0.0019000001 0.032300003 0.66500002
0.003166667 0.032300003 0.66500002
0.0044333334 0.032300003 0.66500002
0.0057000006 0.032300003 0.66500002
0.0069457148 0.032202858 0.66300005
0.0082085719 0.032202858 0.66300005
0.0094714295 0.032202858 0.66300005
0.010734286 0.032202858 0.66300005
0.011997144 0.032202858 0.66300005
0.013260001 0.032202858 0.66300005
0.014566667 0.032300003 0.66500002
0.015833335 0.032300003 0.66500002
0.017100001 0.032300003 0.66500002
0.018394288 0.032348573 0.66600001
0.019662859 0.032348573 0.66600001
0.02093143 0.032348573 0.66600001
0.022233335 0.032397144 0.66700006
0.023574287 0.032494288 0.66900003
0.024848573 0.032494288 0.66900003
0.026161907 0.032542858 0.67000002
0.027479049 0.032591432 0.671
0.028885717 0.032737143 0.67400002
0.030214287 0.032785717 0.67500001
0.031686667 0.032980002 0.67900002
0.033125717 0.033125717 0.68200004
0.034475241 0.033174288 0.68300003
0.035828575 0.033222858 0.68400002
0.037131432 0.033222858 0.68400002
0.03854667 0.033320002 0.68600005
-0.020282859 0.034677144 0.68700004
-0.018946668 0.03462667 0.68600005
-0.017588573 0.034525715 0.68400002
-0.016285716 0.034525715 0.68400002
-0.014939048 0.034424763 0.68200004
-0.013600001 0.034323812 0.68000001
-0.012286668 0.034273334 0.67900002
-0.010928572 0.034071431 0.67500001
-0.0096285725 0.034020953 0.67400002
-0.008320001 0.033920001 0.67200005
-0.0070295241 0.033869527 0.671
-0.0057514291 0.033869527 0.671
-0.0044666668 0.03381905 0.67000002
-0.0031857146 0.033768572 0.66900003
-0.0019114286 0.033768572 0.66900003
-0.00063714292 0.033768572 0.66900003
0.00063523813 0.03366762 0.66700006
0.0019057144 0.03366762 0.66700006
0.0031761907 0.03366762 0.66700006
0.0044400003 0.033617146 0.66600001
0.0057000006 0.033566669 0.66500002
0.0069666672 0.033566669 0.66500002
0.0082333339 0.033566669 0.66500002
0.0095000006 0.033566669 0.66500002
0.010734286 0.033465717 0.66300005
0.012033334 0.033566669 0.66500002
0.013300001 0.033566669 0.66500002
0.014588572 0.033617146 0.66600001
0.015880954 0.03366762 0.66700006
0.01715143 0.03366762 0.66700006
0.018477144 0.033768572 0.66900003
0.01975143 0.033768572 0.66900003
0.021025715 0.033768572 0.66900003
0.022366669 0.033869527 0.671
0.023644764 0.033869527 0.671
0.024960002 0.033920001 0.67200005
0.026240002 0.033920001 0.67200005
0.027520001 0.033920001 0.67200005
0.028885717 0.034020953 0.67400002
0.031733334 0.034323812 0.68000001
0.033174288 0.034475241 0.68300003
0.034525715 0.034525715 0.68400002
0.035828575 0.034525715 0.68400002
0.037131432 0.034525715 0.68400002
0.03854667 0.03462667 0.68600005
-0.018946668 0.035933334 0.68600005
-0.017640002 0.035933334 0.68600005
-0.016285716 0.035828575 0.68400002
-0.014960953 0.035776194 0.68300003
-0.01364 0.035723813 0.68200004
-0.012304762 0.03561905 0.68000001
-0.010944762 0.035409525 0.67600006
-0.0096428581 0.035357144 0.67500001
-0.008344762 0.035304762 0.67400002
-0.0070400005 0.035200004 0.67200005
-0.0057514291 0.035147622 0.671
-0.0044733337 0.035147622 0.671
-0.0031904764 0.035095241 0.67000002
-0.0019142858 0.035095241 0.67000002
-0.00063714292 0.03504286 0.66900003
0.00063714292 0.03504286 0.66900003
0.0019114286 0.03504286 0.66900003
0.0031761907 0.034938097 0.66700006
0.0044466672 0.034938097 0.66700006
0.005708572 0.034885716 0.66600001
0.0069771432 0.034885716 0.66600001
0.0082457149 0.034885716 0.66600001
0.0095000006 0.034833334 0.66500002
0.010766667 0.034833334 0.66500002
0.01205143 0.034885716 0.66600001
0.013320001 0.034885716 0.66600001
0.014610477 0.034938097 0.66700006
0.015880954 0.034938097 0.66700006
0.017202858 0.03504286 0.66900003
0.018477144 0.03504286 0.66900003
0.01975143 0.03504286 0.66900003
0.021057144 0.035095241 0.67000002
0.022366669 0.035147622 0.671
0.023644764 0.035147622 0.671
0.024960002 0.035200004 0.67200005
0.026240002 0.035200004 0.67200005
0.027601907 0.035304762 0.67400002
0.028928574 0.035357144 0.67500001
0.030348573 0.035514288 0.67800003
0.031826667 0.035723813 0.68200004
0.033174288 0.035776194 0.68300003
0.034525715 0.035828575 0.68400002
0.035828575 0.035828575 0.68400002
0.037240002 0.035933334 0.68600005
-0.018946668 0.037240002 0.68600005
-0.017640002 0.037240002 0.68600005
-0.016333334 0.037240002 0.68600005
-0.014982858 0.037131432 0.68400002
-0.013660001 0.037077144 0.68300003
-0.012340954 0.037022859 0.68200004
-0.011009525 0.036914289 0.68000001
-0.0096857147 0.036805715 0.67800003
-0.008357143 0.036642861 0.67500001
-0.007060953 0.036588576 0.67400002
-0.0057600006 0.036480002 0.67200005
-0.0044800001 0.036480002 0.67200005
-0.0031952383 0.036425717 0.671
-0.0019142858 0.036371432 0.67000002
-0.00063809525 0.036371432 0.67000002
0.00063714292 0.036317144 0.66900003
0.0019114286 0.036317144 0.66900003
0.0031857146 0.036317144 0.66900003
0.0044466672 0.036208574 0.66700006
0.0057171434 0.036208574 0.66700006
0.0069876197 0.036208574 0.66700006
0.0082457149 0.036154289 0.66600001
0.0095142862 0.036154289 0.66600001
0.010782857 0.036154289 0.66600001
0.012069524 0.036208574 0.66700006
0.013340001 0.036208574 0.66700006
0.014654287 0.036317144 0.66900003
0.015928572 0.036317144 0.66900003
0.017228572 0.036371432 0.67000002
0.018504763 0.036371432 0.67000002
0.019780954 0.036371432 0.67000002
0.021088572 0.036425717 0.671
0.022400001 0.036480002 0.67200005
0.023680001 0.036480002 0.67200005
0.025034288 0.036588576 0.67400002
0.026318097 0.036588576 0.67400002
0.027642859 0.036642861 0.67500001
0.02897143 0.036697146 0.67600006
0.030438097 0.036914289 0.68000001
0.031826667 0.037022859 0.68200004
0.033174288 0.037077144 0.68300003
0.034525715 0.037131432 0.68400002
0.035933334 0.037240002 0.68600005
0.037240002 0.037240002 0.68600005
-0.018946668 0.03854667 0.68600005
-0.017640002 0.03854667 0.68600005
-0.016333334 0.03854667 0.68600005
-0.015026668 0.03854667 0.68600005
-0.013680001 0.038434289 0.68400002
-0.012359048 0.038378097 0.68300003
-0.011009525 0.038209528 0.68000001
-0.0097000003 0.038153335 0.67900002
-0.008369524 0.037984766 0.67600006
-0.0070714289 0.037928574 0.67500001
-0.0057771434 0.037872385 0.67400002
-0.0044933334 0.037872385 0.67400002
-0.0032000002 0.037760001 0.67200005
-0.001917143 0.037703812 0.671
-0.00063904765 0.037703812 0.671
0.00063809525 0.03764762 0.67000002
0.0019142858 0.03764762 0.67000002
0.0031857146 0.037591431 0.66900003
0.0044600004 0.037591431 0.66900003
0.0057342863 0.037591431 0.66900003
0.0069876197 0.03747905 0.66700006
0.0082580959 0.03747905 0.66700006
0.0095285717 0.03747905 0.66700006
0.010799048 0.03747905 0.66700006
0.012069524 0.03747905 0.66700006
0.013380001 0.037591431 0.66900003
0.014654287 0.037591431 0.66900003
0.015928572 0.037591431 0.66900003
0.017228572 0.03764762 0.67000002
0.018532382 0.037703812 0.671
0.019810477 0.037703812 0.671
0.021120001 0.037760001 0.67200005
0.022466669 0.037872385 0.67400002
0.023750478 0.037872385 0.67400002
0.025071431 0.037928574 0.67500001
0.026357144 0.037928574 0.67500001
0.027683811 0.037984766 0.67600006
0.029100003 0.038153335 0.67900002
0.030438097 0.038209528 0.68000001
0.031826667 0.038321909 0.68200004
0.033174288 0.038378097 0.68300003
0.034525715 0.038434289 0.68400002
0.035933334 0.03854667 0.68600005
0.037240002 0.03854667 0.68600005
-0.017665716 0.03991143 0.68700004
-0.016404763 0.040027622 0.68900001
-0.015048573 0.03991143 0.68700004
-0.013720001 0.039853334 0.68600005
-0.012377144 0.039737146 0.68400002
-0.011041906 0.039620955 0.68200004
-0.0097000003 0.039446671 0.67900002
-0.008394286 0.039388575 0.67800003
-0.0070819054 0.039272383 0.67600006
-0.0057942863 0.039272383 0.67600006
-0.0044933334 0.039156195 0.67400002
-0.0032000002 0.039040003 0.67200005
-0.001917143 0.038981907 0.671
-0.00063904765 0.038981907 0.671
0.00063809525 0.038923811 0.67000002
0.0019142858 0.038923811 0.67000002
0.0031904764 0.038923811 0.67000002
0.0044600004 0.038865715 0.66900003
0.0057342863 0.038865715 0.66900003
0.0070085721 0.038865715 0.66900003
0.0082580959 0.038749527 0.66700006
0.0095285717 0.038749527 0.66700006
0.01083143 0.038865715 0.66900003
0.012105715 0.038865715 0.66900003
0.013380001 0.038865715 0.66900003
0.014676192 0.038923811 0.67000002
0.015952382 0.038923811 0.67000002
0.017254287 0.038981907 0.671
0.018532382 0.038981907 0.671
0.019840002 0.039040003 0.67200005
0.021182859 0.039156195 0.67400002
0.022466669 0.039156195 0.67400002
0.023750478 0.039156195 0.67400002
0.025071431 0.039214287 0.67500001
0.026396193 0.039272383 0.67600006
0.027765715 0.039388575 0.67800003
0.029100003 0.039446671 0.67900002
0.030527622 0.039620955 0.68200004
0.031826667 0.039620955 0.68200004
0.033174288 0.03967905 0.68300003
0.03462667 0.039853334 0.68600005
0.035933334 0.039853334 0.68600005
-0.017768573 0.041460004 0.69100004
-0.016452381 0.041460004 0.69100004
-0.015114287 0.041400004 0.69000006
-0.013740001 0.041220002 0.68700004
-0.012413334 0.041160002 0.68600005
-0.011058096 0.040980004 0.68300003
-0.0097428579 0.040920004 0.68200004
-0.008406667 0.040740002 0.67900002
-0.0071028578 0.040680002 0.67800003
-0.0058114291 0.040680002 0.67800003
-0.0045066671 0.040560003 0.67600006
-0.0032142859 0.040500004 0.67500001
-0.0019257144 0.040440004 0.67400002
-0.00064000004 0.040320002 0.67200005
0.00063904765 0.040260002 0.671
0.001917143 0.040260002 0.671
0.0031952383 0.040260002 0.671
0.0044666668 0.040200002 0.67000002
0.0057428577 0.040200002 0.67000002
0.0070190481 0.040200002 0.67000002
0.0082952389 0.040200002 0.67000002
0.0095714293 0.040200002 0.67000002
0.01086381 0.040260002 0.671
0.012141906 0.040260002 0.671
0.013420001 0.040260002 0.671
0.014720001 0.040320002 0.67200005
0.016000001 0.040320002 0.67200005
0.017280001 0.040320002 0.67200005
0.018560002 0.040320002 0.67200005
0.01989905 0.040440004 0.67400002
0.021182859 0.040440004 0.67400002
0.022500001 0.040500004 0.67500001
0.023785716 0.040500004 0.67500001
0.025182858 0.040680002 0.67800003
0.026513334 0.040740002 0.67900002
0.027806668 0.040740002 0.67900002
0.029142858 0.040800001 0.68000001
0.030527622 0.040920004 0.68200004
0.031873334 0.040980004 0.68300003
0.033222858 0.041040003 0.68400002
0.03462667 0.041160002 0.68600005
0.035933334 0.041160002 0.68600005
-0.017820001 0.042900003 0.69300002
-0.016500002 0.042900003 0.69300002
-0.015136192 0.042776193 0.69100004
-0.013800001 0.04271429 0.69000006
-0.01243143 0.042528573 0.68700004
-0.011074287 0.04234286 0.68400002
-0.0097428579 0.04221905 0.68200004
-0.008406667 0.042033337 0.67900002
-0.0071133338 0.042033337 0.67900002
-0.0058114291 0.04197143 0.67800003
-0.0045200004 0.04197143 0.67800003
-0.0032190478 0.04184762 0.67600006
-0.0019285716 0.041785717 0.67500001
-0.00064190483 0.041723814 0.67400002
0.00064285717 0.041785717 0.67500001
0.0019257144 0.041723814 0.67400002
0.0032000002 0.041600004 0.67200005
0.0044800001 0.041600004 0.67200005
0.0057600006 0.041600004 0.67200005
0.0070400005 0.041600004 0.67200005
0.00830762 0.041538097 0.671
0.0095857149 0.041538097 0.671
0.010880001 0.041600004 0.67200005
0.01216 0.041600004 0.67200005
0.013440001 0.041600004 0.67200005
0.014720001 0.041600004 0.67200005
0.016000001 0.041600004 0.67200005
0.017331429 0.041723814 0.67400002
0.01861524 0.041723814 0.67400002
0.01989905 0.041723814 0.67400002
0.021214288 0.041785717 0.67500001
0.022533335 0.04184762 0.67600006
0.02389143 0.04197143 0.67800003
0.025220001 0.042033337 0.67900002
0.026513334 0.042033337 0.67900002
0.027847622 0.04209524 0.68000001
0.029228574 0.04221905 0.68200004
0.030572383 0.042280953 0.68300003
0.031873334 0.042280953 0.68300003
0.033222858 0.04234286 0.68400002
0.03462667 0.04246667 0.68600005
0.035985716 0.042528573 0.68700004
-0.019167621 0.044283811 0.69400001
-0.017845716 0.044283811 0.69400001
-0.01652381 0.044283811 0.69400001
-0.015180001 0.044220004 0.69300002
-0.013820001 0.044092383 0.69100004
-0.012485716 0.044028573 0.69000006
-0.011122858 0.043837145 0.68700004
-0.009771429 0.043645717 0.68400002
-0.008419048 0.043390479 0.68000001
-0.0071133338 0.043326668 0.67900002
-0.0058200005 0.043326668 0.67900002
-0.0045200004 0.043262862 0.67800003
-0.0032285717 0.043262862 0.67800003
-0.0019314287 0.043135241 0.67600006
-0.00064285717 0.04307143 0.67500001
0.00064285717 0.04307143 0.67500001
0.0019257144 0.043007623 0.67400002
0.0032095241 0.043007623 0.67400002
0.0044933334 0.043007623 0.67400002
0.0057600006 0.042880002 0.67200005
0.0070400005 0.042880002 0.67200005
0.008320001 0.042880002 0.67200005
0.0096000005 0.042880002 0.67200005
0.010880001 0.042880002 0.67200005
0.01216 0.042880002 0.67200005
0.013440001 0.042880002 0.67200005
0.014763811 0.043007623 0.67400002
0.016047619 0.043007623 0.67400002
0.017331429 0.043007623 0.67400002
0.018642858 0.04307143 0.67500001
0.019958096 0.043135241 0.67600006
0.021245716 0.043135241 0.67600006
0.022600001 0.043262862 0.67800003
0.02389143 0.043262862 0.67800003
0.025220001 0.043326668 0.67900002
0.026552383 0.043390479 0.68000001
0.027929526 0.0435181 0.68200004
0.029228574 0.0435181 0.68200004
0.030572383 0.043581907 0.68300003
0.031920001 0.043645717 0.68400002
0.033222858 0.043645717 0.68400002
0.03462667 0.043773334 0.68600005
0.035933334 0.043773334 0.68600005
-0.01652381 0.045605719 0.69400001
-0.015180001 0.045540001 0.69300002
-0.013820001 0.045408573 0.69100004
-0.012485716 0.045342859 0.69000006
-0.011155238 0.045277145 0.68900001
-0.009800001 0.045080002 0.68600005
-0.00844381 0.044817146 0.68200004
-0.0071238098 0.044685718 0.68000001
-0.0058200005 0.044620004 0.67900002
-0.0045266668 0.044620004 0.67900002
-0.0032285717 0.044554289 0.67800003
-0.001937143 0.044554289 0.67800003
-0.00064380956 0.044422861 0.67600006
0.00064380956 0.044422861 0.67600006
0.0019285716 0.044357147 0.67500001
0.0032095241 0.044291433 0.67400002
0.0044933334 0.044291433 0.67400002
0.0057771434 0.044291433 0.67400002
0.007060953 0.044291433 0.67400002
0.008344762 0.044291433 0.67400002
0.0096285725 0.044291433 0.67400002
0.010912382 0.044291433 0.67400002
0.012196192 0.044291433 0.67400002
0.013480001 0.044291433 0.67400002
0.014785715 0.044357147 0.67500001
0.016071429 0.044357147 0.67500001
0.017382858 0.044422861 0.67600006
0.018725716 0.044554289 0.67800003
0.020017143 0.044554289 0.67800003
0.021340001 0.044620004 0.67900002
0.022633335 0.044620004 0.67900002
0.023926668 0.044620004 0.67900002
0.025257144 0.044685718 0.68000001
0.026630478 0.044817146 0.68200004
0.027929526 0.044817146 0.68200004
0.029271431 0.04488286 0.68300003
0.030617144 0.044948574 0.68400002
0.031920001 0.044948574 0.68400002
0.033320002 0.045080002 0.68600005
0.03462667 0.045080002 0.68600005
0.035933334 0.045080002 0.68600005
-0.015180001 0.046860002 0.69300002
-0.013820001 0.046724766 0.69100004
-0.012485716 0.046657145 0.69000006
-0.011155238 0.046589527 0.68900001
-0.0098142866 0.046454288 0.68700004
-0.0084933341 0.04638667 0.68600005
-0.0071447622 0.046116192 0.68200004
-0.005828572 0.045980956 0.68000001
-0.0045266668 0.045913335 0.67900002
-0.0032333336 0.045913335 0.67900002
-0.001937143 0.045845717 0.67800003
-0.00064571435 0.045845717 0.67800003
0.00064571435 0.045845717 0.67800003
0.0019314287 0.045710478 0.67600006
0.0032142859 0.04564286 0.67500001
0.0045000003 0.04564286 0.67500001
0.0057857148 0.04564286 0.67500001
0.0070714289 0.04564286 0.67500001
0.008357143 0.04564286 0.67500001
0.0096285725 0.045575242 0.67400002
0.010928572 0.04564286 0.67500001
0.012214286 0.04564286 0.67500001
0.013500001 0.04564286 0.67500001
0.014785715 0.04564286 0.67500001
0.016071429 0.04564286 0.67500001
0.017434286 0.045845717 0.67800003
0.018725716 0.045845717 0.67800003
0.020046668 0.045913335 0.67900002
0.02137143 0.045980956 0.68000001
0.022666669 0.045980956 0.68000001
0.023961907 0.045980956 0.68000001
0.02533143 0.046116192 0.68200004
0.026630478 0.046116192 0.68200004
0.027970478 0.046183813 0.68300003
0.029271431 0.046183813 0.68300003
0.030617144 0.046251431 0.68400002
0.031920001 0.046251431 0.68400002
0.033320002 0.04638667 0.68600005
0.034677144 0.046454288 0.68700004
-0.015180001 0.048180003 0.69300002
-0.013860001 0.048180003 0.69300002
-0.01250381 0.048040956 0.69100004
-0.011171429 0.047971431 0.69000006
-0.0098428577 0.047901906 0.68900001
-0.0084933341 0.047693338 0.68600005
-0.0071552387 0.047484767 0.68300003
-0.0058457148 0.047415242 0.68200004
-0.0045333337 0.047276195 0.68000001
-0.0032380954 0.047276195 0.68000001
-0.0019400001 0.04720667 0.67900002
-0.00064666668 0.04720667 0.67900002
0.00064666668 0.04720667 0.67900002
0.001937143 0.047137145 0.67800003
0.0032190478 0.046998098 0.67600006
0.0045066671 0.046998098 0.67600006
0.0057942863 0.046998098 0.67600006
0.0070819054 0.046998098 0.67600006
0.008369524 0.046998098 0.67600006
0.0096428581 0.046928573 0.67500001
0.010928572 0.046928573 0.67500001
0.012232382 0.046998098 0.67600006
0.013520001 0.046998098 0.67600006
0.01480762 0.046998098 0.67600006
0.01609524 0.046998098 0.67600006
0.017434286 0.047137145 0.67800003
0.018753335 0.04720667 0.67900002
0.020046668 0.04720667 0.67900002
0.02137143 0.047276195 0.68000001
0.022666669 0.047276195 0.68000001
0.024032382 0.047415242 0.68200004
0.02533143 0.047415242 0.68200004
0.026669526 0.047484767 0.68300003
0.027970478 0.047484767 0.68300003
0.029314287 0.047554288 0.68400002
0.030706668 0.047693338 0.68600005
0.032013334 0.047693338 0.68600005
0.033465717 0.047901906 0.68900001
0.034828573 0.047971431 0.69000006
0.03614286 0.047971431 0.69000006
0.037620004 0.048180003 0.69300002
-0.016690478 0.050071433 0.70100003
-0.015333334 0.050000004 0.70000005
-0.013940001 0.049785718 0.69700003
-0.012558096 0.049571432 0.69400001
-0.01118762 0.049357146 0.69100004
-0.0098571433 0.049285717 0.69000006
-0.0085057151 0.049071431 0.68700004
-0.0071657146 0.048857145 0.68400002
-0.0058628577 0.048857145 0.68400002
-0.0045533339 0.048785716 0.68300003
-0.0032476194 0.048714288 0.68200004
-0.0019485715 0.048714288 0.68200004
-0.00064952386 0.048714288 0.68200004
0.00064761908 0.04857143 0.68000001
0.0019400001 0.048500001 0.67900002
0.0032333336 0.048500001 0.67900002
0.0045266668 0.048500001 0.67900002
0.0058114291 0.048428576 0.67800003
0.0071028578 0.048428576 0.67800003
0.008394286 0.048428576 0.67800003
0.0096857147 0.048428576 0.67800003
0.010977143 0.048428576 0.67800003
0.012268572 0.048428576 0.67800003
0.013560001 0.048428576 0.67800003
0.014851429 0.048428576 0.67800003
0.016166668 0.048500001 0.67900002
0.017460002 0.048500001 0.67900002
0.018780954 0.04857143 0.68000001
0.020135239 0.048714288 0.68200004
0.021434287 0.048714288 0.68200004
0.022733334 0.048714288 0.68200004
0.02406762 0.048785716 0.68300003
0.025368573 0.048785716 0.68300003
0.026708573 0.048857145 0.68400002
0.028093334 0.049000002 0.68600005
0.02944286 0.049071431 0.68700004
0.030885717 0.049285717 0.69000006
0.032246668 0.049357146 0.69100004
0.033660002 0.049500003 0.69300002
0.034980003 0.049500003 0.69300002
0.036404766 0.049642861 0.69500005
-0.016690478 0.05140667 0.70100003
-0.015333334 0.051333338 0.70000005
-0.013960001 0.05118667 0.69800001
-0.012576192 0.050966669 0.69500005
-0.011236191 0.050893337 0.69400001
-0.0098714288 0.050673336 0.69100004
-0.0085304771 0.050526671 0.68900001
-0.0071657146 0.050160002 0.68400002
-0.0058628577 0.050160002 0.68400002
-0.0045533339 0.05008667 0.68300003
-0.0032523812 0.05008667 0.68300003
-0.0019514287 0.05008667 0.68300003
-0.00064952386 0.050013337 0.68200004
0.00064952386 0.050013337 0.68200004
0.0019428573 0.049866669 0.68000001
0.0032380954 0.049866669 0.68000001
0.0045266668 0.049793337 0.67900002
0.0058200005 0.049793337 0.67900002
0.0071133338 0.049793337 0.67900002
0.008394286 0.049720004 0.67800003
0.0096857147 0.049720004 0.67800003
0.010977143 0.049720004 0.67800003
0.012268572 0.049720004 0.67800003
0.013580001 0.049793337 0.67900002
0.014873334 0.049793337 0.67900002
0.016238097 0.050013337 0.68200004
0.017485715 0.049866669 0.68000001
0.018836191 0.050013337 0.68200004
0.020164764 0.05008667 0.68300003
0.021465715 0.05008667 0.68300003
0.022766668 0.05008667 0.68300003
0.02406762 0.05008667 0.68300003
0.025405716 0.050160002 0.68400002
0.026708573 0.050160002 0.68400002
0.028093334 0.05030667 0.68600005
0.029528573 0.050526671 0.68900001
0.030930478 0.050673336 0.69100004
0.032340001 0.050820004 0.69300002
0.033708572 0.050893337 0.69400001
0.035030477 0.050893337 0.69400001
0.036404766 0.050966669 0.69500005
-0.016738096 0.052892383 0.70300001
-0.015355239 0.052741908 0.70100003
-0.013960001 0.052516192 0.69800001
-0.012612382 0.052440956 0.69700003
-0.011236191 0.052215241 0.69400001
-0.0098714288 0.051989526 0.69100004
-0.0085428581 0.05191429 0.69000006
-0.0071866671 0.051613338 0.68600005
-0.0058628577 0.051462859 0.68400002
-0.0045600003 0.051462859 0.68400002
-0.0032523812 0.051387623 0.68300003
-0.0019514287 0.051387623 0.68300003
-0.00065047626 0.051387623 0.68300003
0.00065047626 0.051387623 0.68300003
0.0019485715 0.051312383 0.68200004
0.0032476194 0.051312383 0.68200004
0.0045333337 0.051161908 0.68000001
0.005828572 0.051161908 0.68000001
0.0071238098 0.051161908 0.68000001
0.008406667 0.051086672 0.67900002
0.0097000003 0.051086672 0.67900002
0.010993334 0.051086672 0.67900002
0.012286668 0.051086672 0.67900002
0.013600001 0.051161908 0.68000001
0.014895239 0.051161908 0.68000001
0.016238097 0.051312383 0.68200004
0.017537143 0.051312383 0.68200004
0.01886381 0.051387623 0.68300003
0.020164764 0.051387623 0.68300003
0.021465715 0.051387623 0.68300003
0.022800002 0.051462859 0.68400002
0.024102859 0.051462859 0.68400002
0.025480002 0.051613338 0.68600005
0.026786668 0.051613338 0.68600005
0.028216192 0.05183905 0.68900001
0.029571431 0.05191429 0.69000006
0.031020002 0.052140005 0.69300002
0.032386668 0.052215241 0.69400001
0.033757146 0.052290481 0.69500005
0.035080954 0.052290481 0.69500005
0.036509525 0.052440956 0.69700003
-0.013940001 0.053768575 0.69700003
-0.012612382 0.053768575 0.69700003
-0.011236191 0.053537145 0.69400001
-0.0098714288 0.053305719 0.69100004
-0.0085428581 0.053228576 0.69000006
-0.0071866671 0.052920002 0.68600005
-0.0058800005 0.052920002 0.68600005
-0.0045600003 0.05276572 0.68400002
-0.0032571431 0.05276572 0.68400002
-0.0019542859 0.05276572 0.68400002
-0.00065047626 0.052688576 0.68300003
0.00065047626 0.052688576 0.68300003
0.0019514287 0.052688576 0.68300003
0.0032523812 0.052688576 0.68300003
0.0045533339 0.052688576 0.68300003
0.0058457148 0.052611433 0.68200004
0.0071447622 0.052611433 0.68200004
0.008419048 0.052457146 0.68000001
0.0097142868 0.052457146 0.68000001
0.011009525 0.052457146 0.68000001
0.012304762 0.052457146 0.68000001
0.01364 0.052611433 0.68200004
0.014939048 0.052611433 0.68200004
0.016261905 0.052688576 0.68300003
0.017537143 0.052611433 0.68200004
0.01886381 0.052688576 0.68300003
0.020194286 0.05276572 0.68400002
0.021497143 0.05276572 0.68400002
0.022800002 0.05276572 0.68400002
0.024173334 0.052920002 0.68600005
0.025517145 0.052997146 0.68700004
0.026903812 0.053151432 0.68900001
0.028257145 0.053228576 0.69000006
0.029614288 0.053305719 0.69100004
0.031064764 0.053537145 0.69400001
0.032386668 0.053537145 0.69400001
0.033757146 0.053614289 0.69500005
0.035080954 0.053614289 0.69500005
0.036509525 0.053768575 0.69700003
0.037837144 0.053768575 0.69700003
-0.014000001 0.055333339 0.70000005
-0.012630477 0.055175241 0.69800001
-0.011252382 0.0549381 0.69500005
-0.0099000009 0.054780003 0.69300002
-0.0085552391 0.054621909 0.69100004
-0.0072180959 0.054463815 0.68900001
-0.005888572 0.054305717 0.68700004
-0.0045733335 0.05422667 0.68600005
-0.0032571431 0.054068577 0.68400002
-0.0019542859 0.054068577 0.68400002
-0.00065142859 0.054068577 0.68400002
0.00065142859 0.054068577 0.68400002
0.0019514287 0.053989526 0.68300003
0.0032523812 0.053989526 0.68300003
0.0045533339 0.053989526 0.68300003
0.0058542863 0.053989526 0.68300003
0.0071552387 0.053989526 0.68300003
0.008456191 0.053989526 0.68300003
0.0097428579 0.053910479 0.68200004
0.011041906 0.053910479 0.68200004
0.012340954 0.053910479 0.68200004
0.013660001 0.053989526 0.68300003
0.014960953 0.053989526 0.68300003
0.016261905 0.053989526 0.68300003
0.017562859 0.053989526 0.68300003
0.01889143 0.054068577 0.68400002
0.020194286 0.054068577 0.68400002
0.021497143 0.054068577 0.68400002
0.022866668 0.05422667 0.68600005
0.024173334 0.05422667 0.68600005
