# .PCD v0.7 - Point Cloud Data file format
VERSION 0.7
FIELDS x y z
SIZE 4 4 4
TYPE F F F
COUNT 1 1 1
WIDTH 1308
HEIGHT 1
VIEWPOINT 0 0 0 1 0 0 0
POINTS 1308
DATA ascii
0.0082333339 -0.012033334 0.66500002
0.0094714295 -0.011997144 0.66300005
0.010734286 -0.011997144 0.66300005
0.011997144 -0.011997144 0.66300005
0.013260001 -0.011997144 0.66300005
0.014500953 -0.011979048 0.66200006
0.015761906 -0.011979048 0.66200006
0.017048573 -0.011997144 0.66300005
0.01831143 -0.011997144 0.66300005
0.019633334 -0.012033334 0.66500002
0.02093143 -0.01205143 0.66600001
0.022066668 -0.011979048 0.66200006
0.023292383 -0.011960953 0.66100001
0.024551431 -0.011960953 0.66100001
0.025810478 -0.011960953 0.66100001
0.027110478 -0.011979048 0.66200006
0.028371431 -0.011979048 0.66200006
-0.044831432 -0.010734286 0.66300005
-0.043568574 -0.010734286 0.66300005
-0.042305715 -0.010734286 0.66300005
-0.041042861 -0.010734286 0.66300005
-0.039780002 -0.010734286 0.66300005
-0.038517144 -0.010734286 0.66300005
-0.03736667 -0.010766667 0.66500002
-0.03599143 -0.010734286 0.66300005
-0.034833334 -0.010766667 0.66500002
-0.033566669 -0.010766667 0.66500002
-0.032348573 -0.010782857 0.66600001
-0.031126669 -0.010799048 0.66700006
-0.029856192 -0.010799048 0.66700006
-0.028500002 -0.010766667 0.66500002
-0.027233334 -0.010766667 0.66500002
-0.025966669 -0.010766667 0.66500002
-0.024700001 -0.010766667 0.66500002
-0.023468573 -0.010782857 0.66600001
-0.022166668 -0.010766667 0.66500002
-0.020900002 -0.010766667 0.66500002
-0.019662859 -0.010782857 0.66600001
-0.018366668 -0.010766667 0.66500002
-0.017100001 -0.010766667 0.66500002
-0.015833335 -0.010766667 0.66500002
-0.014500953 -0.010718096 0.66200006
-0.013260001 -0.010734286 0.66300005
-0.011997144 -0.010734286 0.66300005
-0.010734286 -0.010734286 0.66300005
-0.009457143 -0.010718096 0.66200006
-0.0081961909 -0.010718096 0.66200006
-0.0069352384 -0.010718096 0.66200006
-0.0056657149 -0.010701905 0.66100001
-0.0044133337 -0.010718096 0.66200006
-0.0031523812 -0.010718096 0.66200006
-0.0018914287 -0.010718096 0.66200006
-0.00063142861 -0.010734286 0.66300005
0.00063142861 -0.010734286 0.66300005
0.0019000001 -0.010766667 0.66500002
0.0031714288 -0.010782857 0.66600001
0.0044200001 -0.010734286 0.66300005
0.0056828577 -0.010734286 0.66300005
0.0069352384 -0.010718096 0.66200006
0.0081961909 -0.010718096 0.66200006
0.009457143 -0.010718096 0.66200006
0.010718096 -0.010718096 0.66200006
0.011979048 -0.010718096 0.66200006
0.013240001 -0.010718096 0.66200006
0.014500953 -0.010718096 0.66200006
0.015761906 -0.010718096 0.66200006
0.017022857 -0.010718096 0.66200006
0.01828381 -0.010718096 0.66200006
0.019485716 -0.010685715 0.66000003
0.020742858 -0.010685715 0.66000003
0.022000002 -0.010685715 0.66000003
0.023257144 -0.010685715 0.66000003
0.024551431 -0.010701905 0.66100001
0.02577143 -0.010685715 0.66000003
0.027028574 -0.010685715 0.66000003
-0.045885716 -0.0094285719 0.66000003
-0.044696193 -0.0094428575 0.66100001
-0.04350286 -0.009457143 0.66200006
-0.042241909 -0.009457143 0.66200006
-0.040980954 -0.009457143 0.66200006
-0.039720003 -0.009457143 0.66200006
-0.038459051 -0.009457143 0.66200006
-0.037198097 -0.009457143 0.66200006
-0.03588286 -0.0094428575 0.66100001
-0.034676194 -0.009457143 0.66200006
-0.033415239 -0.009457143 0.66200006
-0.031960003 -0.0094000008 0.65800005
-0.030800002 -0.0094285719 0.66000003
-0.029587621 -0.0094428575 0.66100001
-0.028371431 -0.009457143 0.66200006
-0.027110478 -0.009457143 0.66200006
-0.025849525 -0.009457143 0.66200006
-0.024588574 -0.009457143 0.66200006
-0.023362858 -0.0094714295 0.66300005
-0.022100002 -0.0094714295 0.66300005
-0.020805717 -0.009457143 0.66200006
-0.019574286 -0.0094714295 0.66300005
-0.01828381 -0.009457143 0.66200006
-0.016997144 -0.0094428575 0.66100001
-0.015761906 -0.009457143 0.66200006
-0.014479049 -0.0094428575 0.66100001
-0.013220001 -0.0094428575 0.66100001
-0.011960953 -0.0094428575 0.66100001
-0.010701905 -0.0094428575 0.66100001
-0.0094285719 -0.0094285719 0.66000003
-0.0081714289 -0.0094285719 0.66000003
-0.0069247624 -0.0094428575 0.66100001
-0.0056571434 -0.0094285719 0.66000003
-0.0044066668 -0.0094428575 0.66100001
-0.0031476193 -0.0094428575 0.66100001
-0.0018857144 -0.0094285719 0.66000003
-0.00062952383 -0.0094428575 0.66100001
0.00063047622 -0.009457143 0.66200006
0.0018885715 -0.0094428575 0.66100001
0.0031476193 -0.0094428575 0.66100001
0.0044133337 -0.009457143 0.66200006
0.0056657149 -0.0094428575 0.66100001
0.0069247624 -0.0094428575 0.66100001
0.0081961909 -0.009457143 0.66200006
0.0094428575 -0.0094428575 0.66100001
0.010718096 -0.009457143 0.66200006
0.011979048 -0.009457143 0.66200006
0.013220001 -0.0094428575 0.66100001
0.014479049 -0.0094428575 0.66100001
0.015714286 -0.0094285719 0.66000003
0.016997144 -0.0094428575 0.66100001
0.018173335 -0.0094000008 0.65800005
0.019397143 -0.0093857152 0.65700001
0.020617144 -0.0093714288 0.65600002
0.021933334 -0.0094000008 0.65800005
0.023186669 -0.0094000008 0.65800005
0.024440002 -0.0094000008 0.65800005
0.025693335 -0.0094000008 0.65800005
0.026946668 -0.0094000008 0.65800005
-0.045885716 -0.0081714289 0.66000003
-0.044696193 -0.0081838099 0.66100001
-0.043437146 -0.0081838099 0.66100001
-0.042178098 -0.0081838099 0.66100001
-0.040919051 -0.0081838099 0.66100001
-0.039600004 -0.0081714289 0.66000003
-0.038226668 -0.0081466669 0.65800005
-0.036973335 -0.0081466669 0.65800005
-0.035665717 -0.0081342859 0.65700001
-0.034309525 -0.0081095239 0.65500003
-0.033061907 -0.0081095239 0.65500003
-0.031862859 -0.0081219049 0.65600002
-0.030660002 -0.0081342859 0.65700001
-0.029453335 -0.0081466669 0.65800005
-0.028157145 -0.0081342859 0.65700001
-0.026946668 -0.0081466669 0.65800005
-0.025693335 -0.0081466669 0.65800005
-0.024440002 -0.0081466669 0.65800005
-0.023186669 -0.0081466669 0.65800005
-0.021933334 -0.0081466669 0.65800005
-0.020648573 -0.0081342859 0.65700001
-0.019485716 -0.0081714289 0.66000003
-0.018228572 -0.0081714289 0.66000003
-0.01692 -0.0081466669 0.65800005
-0.015666667 -0.0081466669 0.65800005
-0.014413334 -0.0081466669 0.65800005
-0.013160001 -0.0081466669 0.65800005
-0.011906668 -0.0081466669 0.65800005
-0.010653334 -0.0081466669 0.65800005
-0.0093857152 -0.0081342859 0.65700001
-0.0081342859 -0.0081342859 0.65700001
-0.0068828575 -0.0081342859 0.65700001
-0.0056400006 -0.0081466669 0.65800005
-0.0043866672 -0.0081466669 0.65800005
-0.0031333335 -0.0081466669 0.65800005
-0.0018771429 -0.0081342859 0.65700001
-0.00062571431 -0.0081342859 0.65700001
0.00062380958 -0.0081095239 0.65500003
0.0018742859 -0.0081219049 0.65600002
0.0031190477 -0.0081095239 0.65500003
0.0043800003 -0.0081342859 0.65700001
0.0056314291 -0.0081342859 0.65700001
0.006893334 -0.0081466669 0.65800005
0.0081466669 -0.0081466669 0.65800005
0.0094000008 -0.0081466669 0.65800005
0.010685715 -0.0081714289 0.66000003
0.011960953 -0.0081838099 0.66100001
0.013160001 -0.0081466669 0.65800005
0.014413334 -0.0081466669 0.65800005
0.015595239 -0.0081095239 0.65500003
0.016791429 -0.0080847628 0.65300006
0.018090477 -0.0081095239 0.65500003
0.019338097 -0.0081095239 0.65500003
0.020617144 -0.0081219049 0.65600002
0.021866668 -0.0081219049 0.65600002
0.023116192 -0.0081219049 0.65600002
0.024365716 -0.0081219049 0.65600002
0.02561524 -0.0081219049 0.65600002
0.026905715 -0.0081342859 0.65700001
-0.045677144 -0.0068828575 0.65700001
-0.044425718 -0.0068828575 0.65700001
-0.043174289 -0.0068828575 0.65700001
-0.041859049 -0.0068723815 0.65600002
-0.040609527 -0.0068723815 0.65600002
-0.039360002 -0.0068723815 0.65600002
-0.038052384 -0.0068619051 0.65500003
-0.036804765 -0.0068619051 0.65500003
-0.035557143 -0.0068619051 0.65500003
-0.034309525 -0.0068619051 0.65500003
-0.033061907 -0.0068619051 0.65500003
-0.031814288 -0.0068619051 0.65500003
-0.030566668 -0.0068619051 0.65500003
-0.02931905 -0.0068619051 0.65500003
-0.02807143 -0.0068619051 0.65500003
-0.026823811 -0.0068619051 0.65500003
-0.025576193 -0.0068619051 0.65500003
-0.024365716 -0.0068723815 0.65600002
-0.023080954 -0.0068619051 0.65500003
-0.021833334 -0.0068619051 0.65500003
-0.020585716 -0.0068619051 0.65500003
-0.019338097 -0.0068619051 0.65500003
-0.018118097 -0.0068723815 0.65600002
-0.016868573 -0.0068723815 0.65600002
-0.015595239 -0.0068619051 0.65500003
-0.014369525 -0.0068723815 0.65600002
-0.013120001 -0.0068723815 0.65600002
-0.011870477 -0.0068723815 0.65600002
-0.010604762 -0.0068619051 0.65500003
-0.0093285721 -0.0068409527 0.65300006
-0.0080847628 -0.0068409527 0.65300006
-0.0068409527 -0.0068409527 0.65300006
-0.0055971434 -0.0068409527 0.65300006
-0.004366667 -0.0068619051 0.65500003
-0.003109524 -0.0068409527 0.65300006
-0.0018657144 -0.0068409527 0.65300006
-0.00062190479 -0.0068409527 0.65300006
0.00062190479 -0.0068409527 0.65300006
0.0018657144 -0.0068409527 0.65300006
0.003109524 -0.0068409527 0.65300006
0.0043533337 -0.0068409527 0.65300006
0.005588572 -0.0068304767 0.65200001
0.0068304767 -0.0068304767 0.65200001
0.0080600008 -0.0068200002 0.65100002
0.0093142865 -0.0068304767 0.65200001
0.01052381 -0.0068095243 0.65000004
0.011725715 -0.0067885718 0.648
0.012960001 -0.0067885718 0.648
0.014194286 -0.0067885718 0.648
0.015476191 -0.0068095243 0.65000004
0.016714286 -0.0068095243 0.65000004
0.017897144 -0.0067885718 0.648
0.019220002 -0.0068200002 0.65100002
0.020522859 -0.0068409527 0.65300006
0.021566669 -0.0067780958 0.64700001
0.02297524 -0.0068304767 0.65200001
0.024068573 -0.0067885718 0.648
0.025263811 -0.0067780958 0.64700001
0.026700955 -0.0068304767 0.65200001
0.027600002 -0.006746667 0.64400005
-0.045399051 -0.0055971434 0.65300006
-0.044290479 -0.0056142863 0.65500003
-0.043042861 -0.0056142863 0.65500003
-0.041795243 -0.0056142863 0.65500003
-0.040547621 -0.0056142863 0.65500003
-0.039300002 -0.0056142863 0.65500003
-0.037936192 -0.0055971434 0.65300006
-0.036692385 -0.0055971434 0.65300006
-0.035448574 -0.0055971434 0.65300006
-0.034204762 -0.0055971434 0.65300006
-0.032960955 -0.0055971434 0.65300006
-0.031717144 -0.0055971434 0.65300006
-0.030566668 -0.0056142863 0.65500003
-0.02931905 -0.0056142863 0.65500003
-0.02807143 -0.0056142863 0.65500003
-0.026741907 -0.0055971434 0.65300006
-0.025576193 -0.0056142863 0.65500003
-0.024328573 -0.0056142863 0.65500003
-0.023010477 -0.0055971434 0.65300006
-0.021766668 -0.0055971434 0.65300006
-0.020491431 -0.005588572 0.65200001
-0.019249525 -0.005588572 0.65200001
-0.018035239 -0.0055971434 0.65300006
-0.016791429 -0.0055971434 0.65300006
-0.01554762 -0.0055971434 0.65300006
-0.014303811 -0.0055971434 0.65300006
-0.013060001 -0.0055971434 0.65300006
-0.011798096 -0.005588572 0.65200001
-0.010556191 -0.005588572 0.65200001
-0.009300001 -0.0055800006 0.65100002
-0.0080476198 -0.0055714292 0.65000004
-0.0068095243 -0.0055714292 0.65000004
-0.0055714292 -0.0055714292 0.65000004
-0.0043333336 -0.0055714292 0.65000004
-0.0031047622 -0.005588572 0.65200001
-0.0018628573 -0.005588572 0.65200001
-0.0006209524 -0.005588572 0.65200001
0.00062000006 -0.0055800006 0.65100002
0.0018628573 -0.005588572 0.65200001
0.0031047622 -0.005588572 0.65200001
0.0043466669 -0.005588572 0.65200001
0.0055542863 -0.0055542863 0.648
0.0067780958 -0.0055457149 0.64700001
0.0080228578 -0.0055542863 0.648
0.0092571434 -0.0055542863 0.648
0.010491429 -0.0055542863 0.648
0.011689524 -0.0055371434 0.64600003
0.012940001 -0.0055457149 0.64700001
0.014172382 -0.0055457149 0.64700001
0.015428573 -0.0055542863 0.648
0.016662858 -0.0055542863 0.648
0.017897144 -0.0055542863 0.648
0.019131429 -0.0055542863 0.648
0.020334287 -0.0055457149 0.64700001
0.021533335 -0.0055371434 0.64600003
0.022763811 -0.0055371434 0.64600003
0.02403143 -0.0055457149 0.64700001
0.025224764 -0.0055371434 0.64600003
0.026496192 -0.0055457149 0.64700001
0.027600002 -0.0055200006 0.64400005
0.028826669 -0.0055200006 0.64400005
-0.046428576 -0.0043333336 0.65000004
-0.045399051 -0.0043533337 0.65300006
-0.044290479 -0.004366667 0.65500003
-0.042911433 -0.0043533337 0.65300006
-0.041667622 -0.0043533337 0.65300006
-0.04042381 -0.0043533337 0.65300006
-0.039180003 -0.0043533337 0.65300006
-0.037878096 -0.0043466669 0.65200001
-0.036692385 -0.0043533337 0.65300006
-0.035448574 -0.0043533337 0.65300006
-0.034204762 -0.0043533337 0.65300006
-0.032910477 -0.0043466669 0.65200001
-0.031668574 -0.0043466669 0.65200001
-0.030473335 -0.0043533337 0.65300006
-0.029229525 -0.0043533337 0.65300006
-0.027985716 -0.0043533337 0.65300006
-0.026700955 -0.0043466669 0.65200001
-0.025459049 -0.0043466669 0.65200001
-0.024217144 -0.0043466669 0.65200001
-0.02297524 -0.0043466669 0.65200001
-0.021733334 -0.0043466669 0.65200001
-0.020460002 -0.0043400005 0.65100002
-0.019220002 -0.0043400005 0.65100002
-0.018007619 -0.0043466669 0.65200001
-0.016765716 -0.0043466669 0.65200001
-0.015523811 -0.0043466669 0.65200001
-0.014281905 -0.0043466669 0.65200001
-0.013040001 -0.0043466669 0.65200001
-0.011780001 -0.0043400005 0.65100002
-0.010540001 -0.0043400005 0.65100002
-0.0092857145 -0.0043333336 0.65000004
-0.0080228578 -0.0043200003 0.648
-0.0067885718 -0.0043200003 0.648
-0.0055542863 -0.0043200003 0.648
-0.0043200003 -0.0043200003 0.648
-0.0030952382 -0.0043333336 0.65000004
-0.001857143 -0.0043333336 0.65000004
-0.00062000006 -0.0043400005 0.65100002
0.00061904767 -0.0043333336 0.65000004
0.001857143 -0.0043333336 0.65000004
0.0030952382 -0.0043333336 0.65000004
0.0043200003 -0.0043200003 0.648
0.0055371434 -0.004306667 0.64600003
0.0067676194 -0.004306667 0.64600003
0.0079980958 -0.004306667 0.64600003
0.0092285722 -0.004306667 0.64600003
0.010459049 -0.004306667 0.64600003
0.011689524 -0.004306667 0.64600003
0.012940001 -0.0043133334 0.64700001
0.014150477 -0.004306667 0.64600003
0.015404763 -0.0043133334 0.64700001
0.016637145 -0.0043133334 0.64700001
0.017869525 -0.0043133334 0.64700001
0.019101907 -0.0043133334 0.64700001
0.020302858 -0.004306667 0.64600003
0.021500001 -0.0043000001 0.64500004
0.022728574 -0.0043000001 0.64500004
0.023957144 -0.0043000001 0.64500004
0.025185715 -0.0043000001 0.64500004
0.026414288 -0.0043000001 0.64500004
0.027600002 -0.0042933337 0.64400005
0.028737145 -0.0042800005 0.64200002
-0.047373336 -0.0030761906 0.64600003
-0.046285719 -0.0030857145 0.648
-0.045051433 -0.0030857145 0.648
-0.044087622 -0.0031047622 0.65200001
-0.042780004 -0.0031000001 0.65100002
-0.041540004 -0.0031000001 0.65100002
-0.040300004 -0.0031000001 0.65100002
-0.039120004 -0.0031047622 0.65200001
-0.037820004 -0.0031000001 0.65100002
-0.036636192 -0.0031047622 0.65200001
-0.035394289 -0.0031047622 0.65200001
-0.034152385 -0.0031047622 0.65200001
-0.032860003 -0.0031000001 0.65100002
-0.031620003 -0.0031000001 0.65100002
-0.030426668 -0.0031047622 0.65200001
-0.029184764 -0.0031047622 0.65200001
-0.027900001 -0.0031000001 0.65100002
-0.026619049 -0.0030952382 0.65000004
-0.025263811 -0.0030809527 0.64700001
-0.024180003 -0.0031000001 0.65100002
-0.022940002 -0.0031000001 0.65100002
-0.021666668 -0.0030952382 0.65000004
-0.020428572 -0.0030952382 0.65000004
-0.019190477 -0.0030952382 0.65000004
-0.017980002 -0.0031000001 0.65100002
-0.016740002 -0.0031000001 0.65100002
-0.015476191 -0.0030952382 0.65000004
-0.014238096 -0.0030952382 0.65000004
-0.013000001 -0.0030952382 0.65000004
-0.011761906 -0.0030952382 0.65000004
-0.010491429 -0.0030857145 0.648
-0.0092428578 -0.0030809527 0.64700001
-0.0080104768 -0.0030809527 0.64700001
-0.0067780958 -0.0030809527 0.64700001
-0.0055371434 -0.0030761906 0.64600003
-0.0043133334 -0.0030809527 0.64700001
-0.0030857145 -0.0030857145 0.648
-0.001857143 -0.0030952382 0.65000004
-0.00061904767 -0.0030952382 0.65000004
0.00061714288 -0.0030857145 0.648
0.0018514286 -0.0030857145 0.648
0.0030857145 -0.0030857145 0.648
0.0043133334 -0.0030809527 0.64700001
0.0055371434 -0.0030761906 0.64600003
0.0067571434 -0.0030714287 0.64500004
0.0079857148 -0.0030714287 0.64500004
0.0092142867 -0.0030714287 0.64500004
0.010442858 -0.0030714287 0.64500004
0.011671429 -0.0030714287 0.64500004
0.012920001 -0.0030761906 0.64600003
0.014128572 -0.0030714287 0.64500004
0.015357144 -0.0030714287 0.64500004
0.016585715 -0.0030714287 0.64500004
0.017814286 -0.0030714287 0.64500004
0.019042859 -0.0030714287 0.64500004
0.02027143 -0.0030714287 0.64500004
0.021466669 -0.0030666669 0.64400005
0.022693334 -0.0030666669 0.64400005
0.023920001 -0.0030666669 0.64400005
0.025146669 -0.0030666669 0.64400005
0.026373334 -0.0030666669 0.64400005
0.027600002 -0.0030666669 0.64400005
0.028737145 -0.003057143 0.64200002
-0.04621429 -0.0018485716 0.64700001
-0.044981908 -0.0018485716 0.64700001
-0.043952383 -0.001857143 0.65000004
-0.04271429 -0.001857143 0.65000004
-0.041348573 -0.0018514286 0.648
-0.040114287 -0.0018514286 0.648
-0.038880002 -0.0018514286 0.648
-0.037645716 -0.0018514286 0.648
-0.036411431 -0.0018514286 0.648
-0.03512286 -0.0018485716 0.64700001
-0.033890478 -0.0018485716 0.64700001
-0.032708574 -0.0018514286 0.648
-0.031425714 -0.0018485716 0.64700001
-0.030193334 -0.0018485716 0.64700001
-0.028960954 -0.0018485716 0.64700001
-0.027728572 -0.0018485716 0.64700001
-0.026496192 -0.0018485716 0.64700001
-0.025185715 -0.0018428572 0.64500004
-0.02403143 -0.0018485716 0.64700001
-0.022799049 -0.0018485716 0.64700001
-0.021600001 -0.0018514286 0.648
-0.020365715 -0.0018514286 0.648
-0.019131429 -0.0018514286 0.648
-0.017952383 -0.001857143 0.65000004
-0.016714286 -0.001857143 0.65000004
-0.015476191 -0.001857143 0.65000004
-0.014238096 -0.001857143 0.65000004
-0.013000001 -0.001857143 0.65000004
-0.011725715 -0.0018514286 0.648
-0.010475239 -0.0018485716 0.64700001
-0.0092285722 -0.0018457144 0.64600003
-0.0079980958 -0.0018457144 0.64600003
-0.0067676194 -0.0018457144 0.64600003
-0.005528572 -0.0018428572 0.64500004
-0.004306667 -0.0018457144 0.64600003
-0.0030809527 -0.0018485716 0.64700001
-0.0018485716 -0.0018485716 0.64700001
-0.00061619049 -0.0018485716 0.64700001
0.00061619049 -0.0018485716 0.64700001
0.0018485716 -0.0018485716 0.64700001
0.0030761906 -0.0018457144 0.64600003
0.0043000001 -0.0018428572 0.64500004
0.0055200006 -0.0018400002 0.64400005
0.006746667 -0.0018400002 0.64400005
0.0079733338 -0.0018400002 0.64400005
0.0092000002 -0.0018400002 0.64400005
0.010426668 -0.0018400002 0.64400005
0.011653334 -0.0018400002 0.64400005
0.0129 -0.0018428572 0.64500004
0.014106668 -0.0018400002 0.64400005
0.015333334 -0.0018400002 0.64400005
0.016560001 -0.0018400002 0.64400005
0.017786669 -0.0018400002 0.64400005
0.019013334 -0.0018400002 0.64400005
0.020240001 -0.0018400002 0.64400005
0.021400001 -0.0018342858 0.64200002
0.022622859 -0.0018342858 0.64200002
0.023845715 -0.0018342858 0.64200002
0.025068574 -0.0018342858 0.64200002
0.02629143 -0.0018342858 0.64200002
0.027514288 -0.0018342858 0.64200002
0.028737145 -0.0018342858 0.64200002
-0.047373336 -0.00061523815 0.64600003
-0.046142861 -0.00061523815 0.64600003
-0.044912383 -0.00061523815 0.64600003
-0.043681908 -0.00061523815 0.64600003
-0.042582858 -0.00061714288 0.648
-0.041284766 -0.00061619049 0.64700001
-0.040052384 -0.00061619049 0.64700001
-0.038760003 -0.00061523815 0.64600003
-0.037529524 -0.00061523815 0.64600003
-0.036242861 -0.00061428576 0.64500004
-0.034960002 -0.00061333337 0.64400005
-0.033628572 -0.00061142864 0.64200002
-0.032405715 -0.00061142864 0.64200002
-0.031182859 -0.00061142864 0.64200002
-0.030053336 -0.00061333337 0.64400005
-0.028826669 -0.00061333337 0.64400005
-0.027600002 -0.00061333337 0.64400005
-0.026373334 -0.00061333337 0.64400005
-0.025068574 -0.00061142864 0.64200002
-0.023920001 -0.00061333337 0.64400005
-0.022693334 -0.00061333337 0.64400005
-0.021500001 -0.00061428576 0.64500004
-0.020334287 -0.00061619049 0.64700001
-0.019101907 -0.00061619049 0.64700001
-0.017869525 -0.00061619049 0.64700001
-0.016662858 -0.00061714288 0.648
-0.015428573 -0.00061714288 0.648
-0.014194286 -0.00061714288 0.648
-0.012960001 -0.00061714288 0.648
-0.01170762 -0.00061619049 0.64700001
-0.010442858 -0.00061428576 0.64500004
-0.0092142867 -0.00061428576 0.64500004
-0.0079733338 -0.00061333337 0.64400005
-0.006746667 -0.00061333337 0.64400005
-0.0055200006 -0.00061333337 0.64400005
-0.0043000001 -0.00061428576 0.64500004
-0.0030761906 -0.00061523815 0.64600003
-0.0018485716 -0.00061619049 0.64700001
-0.00061523815 -0.00061523815 0.64600003
0.00061523815 -0.00061523815 0.64600003
0.0018428572 -0.00061428576 0.64500004
0.0030714287 -0.00061428576 0.64500004
0.0042933337 -0.00061333337 0.64400005
0.0055028577 -0.00061142864 0.64200002
0.0067257145 -0.00061142864 0.64200002
0.0079485718 -0.00061142864 0.64200002
0.0091714291 -0.00061142864 0.64200002
0.010394286 -0.00061142864 0.64200002
0.011617144 -0.00061142864 0.64200002
0.012840001 -0.00061142864 0.64200002
0.014062858 -0.00061142864 0.64200002
0.015261906 -0.00061047624 0.64100003
0.016482858 -0.00061047624 0.64100003
0.017703811 -0.00061047624 0.64100003
0.018924763 -0.00061047624 0.64100003
0.020145716 -0.00061047624 0.64100003
0.021366669 -0.00061047624 0.64100003
0.02258762 -0.00061047624 0.64100003
0.023808572 -0.00061047624 0.64100003
0.025068574 -0.00061142864 0.64200002
0.02629143 -0.00061142864 0.64200002
0.027514288 -0.00061142864 0.64200002
-0.046142861 0.00061523815 0.64600003
-0.044912383 0.00061523815 0.64600003
-0.043681908 0.00061523815 0.64600003
-0.042517144 0.00061619049 0.64700001
-0.041220956 0.00061523815 0.64600003
-0.039990477 0.00061523815 0.64600003
-0.038700003 0.00061428576 0.64500004
-0.037471432 0.00061428576 0.64500004
-0.036074288 0.00061142864 0.64200002
-0.034851432 0.00061142864 0.64200002
-0.033576194 0.00061047624 0.64100003
-0.032355241 0.00061047624 0.64100003
-0.031134287 0.00061047624 0.64100003
-0.029960003 0.00061142864 0.64200002
-0.028692383 0.00061047624 0.64100003
-0.027471431 0.00061047624 0.64100003
-0.026250478 0.00061047624 0.64100003
-0.025029525 0.00061047624 0.64100003
-0.023808572 0.00061047624 0.64100003
-0.02258762 0.00061047624 0.64100003
-0.021400001 0.00061142864 0.64200002
-0.020177145 0.00061142864 0.64200002
-0.019042859 0.00061428576 0.64500004
-0.017869525 0.00061619049 0.64700001
-0.016662858 0.00061714288 0.648
-0.015404763 0.00061619049 0.64700001
-0.014172382 0.00061619049 0.64700001
-0.012940001 0.00061619049 0.64700001
-0.011653334 0.00061333337 0.64400005
-0.010394286 0.00061142864 0.64200002
-0.0091714291 0.00061142864 0.64200002
-0.0079485718 0.00061142864 0.64200002
-0.0067257145 0.00061142864 0.64200002
-0.0055028577 0.00061142864 0.64200002
-0.0042933337 0.00061333337 0.64400005
-0.0030666669 0.00061333337 0.64400005
-0.0018428572 0.00061428576 0.64500004
-0.00061142864 0.00061142864 0.64200002
0.00061047624 0.00061047624 0.64100003
0.0018285715 0.00060952385 0.64000005
0.0030428574 0.00060857146 0.63900006
0.0042666672 0.00060952385 0.64000005
0.0054857144 0.00060952385 0.64000005
0.0067047626 0.00060952385 0.64000005
0.0079238098 0.00060952385 0.64000005
0.009142858 0.00060952385 0.64000005
0.010361905 0.00060952385 0.64000005
0.011580953 0.00060952385 0.64000005
0.012820001 0.00061047624 0.64100003
0.014019049 0.00060952385 0.64000005
0.015238096 0.00060952385 0.64000005
0.016457144 0.00060952385 0.64000005
0.017676191 0.00060952385 0.64000005
0.018895239 0.00060952385 0.64000005
0.020114288 0.00060952385 0.64000005
0.021333335 0.00060952385 0.64000005
0.022552382 0.00060952385 0.64000005
0.023771429 0.00060952385 0.64000005
0.025029525 0.00061047624 0.64100003
0.026250478 0.00061047624 0.64100003
-0.044912383 0.0018457144 0.64600003
-0.043681908 0.0018457144 0.64600003
-0.04245143 0.0018457144 0.64600003
-0.041157145 0.0018428572 0.64500004
-0.039928574 0.0018428572 0.64500004
-0.038640004 0.0018400002 0.64400005
-0.037297145 0.0018342858 0.64200002
-0.036018096 0.0018314287 0.64100003
-0.034742858 0.0018285715 0.64000005
-0.033523813 0.0018285715 0.64000005
-0.032304764 0.0018285715 0.64000005
-0.031085717 0.0018285715 0.64000005
-0.029866669 0.0018285715 0.64000005
-0.02864762 0.0018285715 0.64000005
-0.027428573 0.0018285715 0.64000005
-0.026209526 0.0018285715 0.64000005
-0.02495143 0.0018257144 0.63900006
-0.023734286 0.0018257144 0.63900006
-0.022517145 0.0018257144 0.63900006
-0.021300001 0.0018257144 0.63900006
-0.020082859 0.0018257144 0.63900006
-0.018865716 0.0018257144 0.63900006
-0.017648572 0.0018257144 0.63900006
-0.016637145 0.0018485716 0.64700001
-0.015238096 0.0018285715 0.64000005
-0.014019049 0.0018285715 0.64000005
-0.01278 0.0018257144 0.63900006
-0.011580953 0.0018285715 0.64000005
-0.010345715 0.0018257144 0.63900006
-0.009142858 0.0018285715 0.64000005
-0.0079361908 0.0018314287 0.64100003
-0.0067152386 0.0018314287 0.64100003
-0.0054942863 0.0018314287 0.64100003
-0.0042800005 0.0018342858 0.64200002
-0.003057143 0.0018342858 0.64200002
-0.0018400002 0.0018400002 0.64400005
-0.00060761906 0.0018228573 0.63800001
0.00060571433 0.0018171429 0.63600004
0.0018114287 0.0018114287 0.634
0.0030238098 0.0018142859 0.63500005
0.0042333337 0.0018142859 0.63500005
0.0054685716 0.0018228573 0.63800001
0.0066838101 0.0018228573 0.63800001
0.0078990478 0.0018228573 0.63800001
0.0091142859 0.0018228573 0.63800001
0.010329524 0.0018228573 0.63800001
0.011544763 0.0018228573 0.63800001
0.01278 0.0018257144 0.63900006
0.013997144 0.0018257144 0.63900006
0.015190477 0.0018228573 0.63800001
0.016405715 0.0018228573 0.63800001
0.017620953 0.0018228573 0.63800001
0.018836191 0.0018228573 0.63800001
0.020051429 0.0018228573 0.63800001
0.021300001 0.0018257144 0.63900006
0.022517145 0.0018257144 0.63900006
0.023734286 0.0018257144 0.63900006
0.02495143 0.0018257144 0.63900006
-0.042385716 0.0030714287 0.64500004
-0.041157145 0.0030714287 0.64500004
-0.039866671 0.0030666669 0.64400005
-0.038640004 0.0030666669 0.64400005
-0.037239049 0.0030523811 0.64100003
-0.036018096 0.0030523811 0.64100003
-0.034742858 0.0030476192 0.64000005
-0.033523813 0.0030476192 0.64000005
-0.032254286 0.0030428574 0.63900006
-0.031037144 0.0030428574 0.63900006
-0.029820003 0.0030428574 0.63900006
-0.028602859 0.0030428574 0.63900006
-0.02734286 0.0030380955 0.63800001
-0.026127622 0.0030380955 0.63800001
-0.024834286 0.0030285716 0.63600004
-0.023622859 0.0030285716 0.63600004
-0.022481907 0.0030380955 0.63800001
-0.021200001 0.0030285716 0.63600004
-0.019957144 0.0030238098 0.63500005
-0.01874762 0.0030238098 0.63500005
-0.017565716 0.0030285716 0.63600004
-0.016328573 0.0030238098 0.63500005
-0.015142858 0.0030285716 0.63600004
-0.01393143 0.0030285716 0.63600004
-0.012720001 0.0030285716 0.63600004
-0.011544763 0.0030380955 0.63800001
-0.010280953 0.0030238098 0.63500005
-0.0090857148 0.0030285716 0.63600004
-0.0078742858 0.0030285716 0.63600004
-0.0066838101 0.0030380955 0.63800001
-0.0054514287 0.0030285716 0.63600004
-0.0042400002 0.0030285716 0.63600004
-0.0030190479 0.0030190479 0.634
-0.0018114287 0.0030190479 0.634
-0.00060380955 0.0030190479 0.634
0.00060190482 0.003009524 0.63200003
0.0018085715 0.0030142858 0.63300002
0.0030190479 0.0030190479 0.634
0.0042266669 0.0030190479 0.634
0.0054428573 0.0030238098 0.63500005
0.0066523813 0.0030238098 0.63500005
0.0078619057 0.0030238098 0.63500005
0.0090714293 0.0030238098 0.63500005
0.010280953 0.0030238098 0.63500005
0.011490477 0.0030238098 0.63500005
0.012720001 0.0030285716 0.63600004
0.01393143 0.0030285716 0.63600004
0.015142858 0.0030285716 0.63600004
0.016354287 0.0030285716 0.63600004
0.017565716 0.0030285716 0.63600004
0.018777143 0.0030285716 0.63600004
0.019988572 0.0030285716 0.63600004
0.021266667 0.0030380955 0.63800001
0.022481907 0.0030380955 0.63800001
0.023697145 0.0030380955 0.63800001
0.024912383 0.0030380955 0.63800001
-0.038520001 0.0042800005 0.64200002
-0.037180956 0.0042666672 0.64000005
-0.035961907 0.0042666672 0.64000005
-0.034688573 0.0042600003 0.63900006
-0.033471432 0.0042600003 0.63900006
-0.032203812 0.0042533334 0.63800001
-0.030988574 0.0042533334 0.63800001
-0.029680002 0.0042400002 0.63600004
-0.028468573 0.0042400002 0.63600004
-0.027257144 0.0042400002 0.63600004
-0.026004763 0.0042333337 0.63500005
-0.02479524 0.0042333337 0.63500005
-0.023585716 0.0042333337 0.63500005
-0.022376193 0.0042333337 0.63500005
-0.021166667 0.0042333337 0.63500005
-0.019925715 0.0042266669 0.634
-0.018718097 0.0042266669 0.634
-0.017538097 0.0042333337 0.63500005
-0.016302858 0.0042266669 0.634
-0.015119049 0.0042333337 0.63500005
-0.013909524 0.0042333337 0.63500005
-0.012700001 0.0042333337 0.63500005
-0.011490477 0.0042333337 0.63500005
-0.010264763 0.0042266669 0.634
-0.0090571437 0.0042266669 0.634
-0.0078619057 0.0042333337 0.63500005
-0.0066419053 0.0042266669 0.634
-0.0054342858 0.0042266669 0.634
-0.0042266669 0.0042266669 0.634
-0.0030142858 0.0042200005 0.63300002
-0.0018057144 0.0042133336 0.63200003
-0.00060190482 0.0042133336 0.63200003
0.00060095242 0.0042066667 0.63100004
0.0018057144 0.0042133336 0.63200003
0.0030142858 0.0042200005 0.63300002
0.0042200005 0.0042200005 0.63300002
0.0054257144 0.0042200005 0.63300002
0.0066419053 0.0042266669 0.634
0.0078495247 0.0042266669 0.634
0.0090428581 0.0042200005 0.63300002
0.010264763 0.0042266669 0.634
0.011472382 0.0042266669 0.634
0.012680001 0.0042266669 0.634
0.01388762 0.0042266669 0.634
0.015119049 0.0042333337 0.63500005
0.016328573 0.0042333337 0.63500005
0.017538097 0.0042333337 0.63500005
0.018777143 0.0042400002 0.63600004
0.019957144 0.0042333337 0.63500005
0.021200001 0.0042400002 0.63600004
0.02241143 0.0042400002 0.63600004
0.023622859 0.0042400002 0.63600004
0.17934191 0.0060066669 0.90100002
-0.037180956 0.0054857144 0.64000005
-0.035905715 0.005477143 0.63900006
-0.034688573 0.005477143 0.63900006
-0.03341905 0.0054685716 0.63800001
-0.032102861 0.0054514287 0.63600004
-0.030891431 0.0054514287 0.63600004
-0.029633336 0.0054428573 0.63500005
-0.028423812 0.0054428573 0.63500005
-0.027214287 0.0054428573 0.63500005
-0.025963811 0.0054342858 0.634
-0.024717145 0.0054257144 0.63300002
-0.02351143 0.0054257144 0.63300002
-0.022305716 0.0054257144 0.63300002
-0.021100001 0.0054257144 0.63300002
-0.019894287 0.0054257144 0.63300002
-0.018688573 0.0054257144 0.63300002
-0.017482858 0.0054257144 0.63300002
-0.016277144 0.0054257144 0.63300002
-0.015071429 0.0054257144 0.63300002
-0.01388762 0.0054342858 0.634
-0.012680001 0.0054342858 0.634
-0.011472382 0.0054342858 0.634
-0.010264763 0.0054342858 0.634
-0.0090428581 0.0054257144 0.63300002
-0.0078495247 0.0054342858 0.634
-0.0066314288 0.0054257144 0.63300002
-0.0054257144 0.0054257144 0.63300002
-0.0042133336 0.005417143 0.63200003
-0.0030047621 0.0054085716 0.63100004
-0.0018028573 0.0054085716 0.63100004
-0.00060095242 0.0054085716 0.63100004
0.00059904763 0.0053914287 0.62900001
0.0018057144 0.005417143 0.63200003
0.003009524 0.005417143 0.63200003
0.0042133336 0.005417143 0.63200003
0.005417143 0.005417143 0.63200003
0.0066314288 0.0054257144 0.63300002
0.0078371437 0.0054257144 0.63300002
0.0090285717 0.005417143 0.63200003
0.010248573 0.0054257144 0.63300002
0.011454286 0.0054257144 0.63300002
0.01266 0.0054257144 0.63300002
0.01388762 0.0054342858 0.634
0.01509524 0.0054342858 0.634
0.016328573 0.0054428573 0.63500005
0.017538097 0.0054428573 0.63500005
0.01874762 0.0054428573 0.63500005
0.019957144 0.0054428573 0.63500005
0.021200001 0.0054514287 0.63600004
0.02241143 0.0054514287 0.63600004
0.041160002 0.0075600003 0.88200003
-0.037122861 0.0066942861 0.63900006
-0.035905715 0.0066942861 0.63900006
-0.03447143 0.0066523813 0.63500005
-0.033261906 0.0066523813 0.63500005
-0.032052383 0.0066523813 0.63500005
-0.030794287 0.0066419053 0.634
-0.029586669 0.0066419053 0.634
-0.028334288 0.0066314288 0.63300002
-0.027085716 0.0066209529 0.63200003
-0.025881907 0.0066209529 0.63200003
-0.024678096 0.0066209529 0.63200003
-0.023474287 0.0066209529 0.63200003
-0.022235239 0.0066104764 0.63100004
-0.021033335 0.0066104764 0.63100004
-0.01983143 0.0066104764 0.63100004
-0.018629525 0.0066104764 0.63100004
-0.017372383 0.0065895244 0.62900001
-0.016174287 0.0065895244 0.62900001
-0.014952382 0.006579048 0.62800002
-0.013734287 0.006568572 0.62700003
-0.01254 0.006568572 0.62700003
-0.01136381 0.006579048 0.62800002
-0.010135239 0.0065580956 0.62600005
-0.0089714294 0.006579048 0.62800002
-0.0077752387 0.006579048 0.62800002
-0.006579048 0.006579048 0.62800002
-0.0053828573 0.006579048 0.62800002
-0.004186667 0.006579048 0.62800002
-0.0029904763 0.006579048 0.62800002
-0.0017942858 0.006579048 0.62800002
-0.0005980953 0.006579048 0.62800002
0.0005980953 0.006579048 0.62800002
0.001797143 0.0065895244 0.62900001
0.0029952384 0.0065895244 0.62900001
0.0042066667 0.0066104764 0.63100004
0.0054085716 0.0066104764 0.63100004
0.0066104764 0.0066104764 0.63100004
0.0078247627 0.0066209529 0.63200003
0.0090285717 0.0066209529 0.63200003
0.010232382 0.0066209529 0.63200003
0.011454286 0.0066314288 0.63300002
0.01266 0.0066314288 0.63300002
0.013865715 0.0066314288 0.63300002
0.015071429 0.0066314288 0.63300002
0.016302858 0.0066419053 0.634
0.017510477 0.0066419053 0.634
0.01874762 0.0066523813 0.63500005
0.019925715 0.0066419053 0.634
0.021133335 0.0066419053 0.634
0.037714288 0.0092190485 0.88000005
0.039390478 0.0092190485 0.88000005
0.041066669 0.0092190485 0.88000005
0.04274286 0.0092190485 0.88000005
0.04441905 0.0092190485 0.88000005
0.046095241 0.0092190485 0.88000005
-0.037085716 0.0081714289 0.66000003
-0.035828575 0.0081714289 0.66000003
-0.034623813 0.0081838099 0.66100001
-0.033415239 0.0081961909 0.66200006
-0.032057144 0.0081714289 0.66000003
-0.029586669 0.0078495247 0.634
-0.028289525 0.0078247627 0.63200003
-0.027085716 0.0078247627 0.63200003
-0.025881907 0.0078247627 0.63200003
-0.02463905 0.0078123813 0.63100004
-0.023437144 0.0078123813 0.63100004
-0.022235239 0.0078123813 0.63100004
-0.021033335 0.0078123813 0.63100004
-0.01983143 0.0078123813 0.63100004
-0.018570477 0.0077876197 0.62900001
-0.017372383 0.0077876197 0.62900001
-0.016148573 0.0077752387 0.62800002
-0.014952382 0.0077752387 0.62800002
-0.013734287 0.0077628577 0.62700003
-0.01254 0.0077628577 0.62700003
-0.011345715 0.0077628577 0.62700003
-0.010135239 0.0077504767 0.62600005
-0.0089571439 0.0077628577 0.62700003
-0.0077628577 0.0077628577 0.62700003
-0.006568572 0.0077628577 0.62700003
-0.0053742859 0.0077628577 0.62700003
-0.004186667 0.0077752387 0.62800002
-0.0029904763 0.0077752387 0.62800002
-0.0017942858 0.0077752387 0.62800002
-0.0005980953 0.0077752387 0.62800002
0.0005980953 0.0077752387 0.62800002
0.001797143 0.0077876197 0.62900001
0.0029952384 0.0077876197 0.62900001
0.0042066667 0.0078123813 0.63100004
0.0054085716 0.0078123813 0.63100004
0.0066104764 0.0078123813 0.63100004
0.0078247627 0.0078247627 0.63200003
0.0090285717 0.0078247627 0.63200003
0.010232382 0.0078247627 0.63200003
0.011436191 0.0078247627 0.63200003
0.012640001 0.0078247627 0.63200003
0.01384381 0.0078247627 0.63200003
0.01504762 0.0078247627 0.63200003
0.01625143 0.0078247627 0.63200003
0.01742762 0.0078123813 0.63100004
0.018718097 0.0078495247 0.634
-0.037141908 0.0094428575 0.66100001
-0.03588286 0.0094428575 0.66100001
-0.034623813 0.0094428575 0.66100001
-0.033314288 0.0094285719 0.66000003
-0.032057144 0.0094285719 0.66000003
-0.029586669 0.0090571437 0.634
-0.028289525 0.0090285717 0.63200003
-0.027042858 0.0090142861 0.63100004
-0.025840955 0.0090142861 0.63100004
-0.02463905 0.0090142861 0.63100004
-0.023437144 0.0090142861 0.63100004
-0.022235239 0.0090142861 0.63100004
-0.021033335 0.0090142861 0.63100004
-0.019768573 0.008985715 0.62900001
-0.018570477 0.008985715 0.62900001
-0.017344764 0.0089714294 0.62800002
-0.016148573 0.0089714294 0.62800002
-0.014952382 0.0089714294 0.62800002
-0.013734287 0.0089571439 0.62700003
-0.01254 0.0089571439 0.62700003
-0.011345715 0.0089571439 0.62700003
-0.010135239 0.0089428574 0.62600005
-0.0089571439 0.0089571439 0.62700003
-0.0077628577 0.0089571439 0.62700003
-0.006568572 0.0089571439 0.62700003
-0.0053742859 0.0089571439 0.62700003
-0.004186667 0.0089714294 0.62800002
-0.0029904763 0.0089714294 0.62800002
-0.0017942858 0.0089714294 0.62800002
-0.0005980953 0.0089714294 0.62800002
0.0005980953 0.0089714294 0.62800002
0.001797143 0.008985715 0.62900001
0.0029952384 0.008985715 0.62900001
0.0041933334 0.008985715 0.62900001
0.0053914287 0.008985715 0.62900001
0.0066104764 0.0090142861 0.63100004
0.0078123813 0.0090142861 0.63100004
0.0090285717 0.0090285717 0.63200003
0.010232382 0.0090285717 0.63200003
0.011436191 0.0090285717 0.63200003
0.012620001 0.0090142861 0.63100004
0.013821905 0.0090142861 0.63100004
0.015023811 0.0090142861 0.63100004
0.016225716 0.0090142861 0.63100004
0.01742762 0.0090142861 0.63100004
-0.037141908 0.010701905 0.66100001
-0.035828575 0.010685715 0.66000003
-0.034571432 0.010685715 0.66000003
-0.033213336 0.010653334 0.65800005
-0.031960003 0.010653334 0.65800005
-0.030660002 0.010637144 0.65700001
-0.028289525 0.010232382 0.63200003
-0.027042858 0.010216191 0.63100004
-0.025840955 0.010216191 0.63100004
-0.02463905 0.010216191 0.63100004
-0.023437144 0.010216191 0.63100004
-0.022164764 0.01018381 0.62900001
-0.020966668 0.01018381 0.62900001
-0.019768573 0.01018381 0.62900001
-0.018570477 0.01018381 0.62900001
-0.017344764 0.01016762 0.62800002
-0.016148573 0.01016762 0.62800002
-0.014952382 0.01016762 0.62800002
-0.013756191 0.01016762 0.62800002
-0.01254 0.010151429 0.62700003
-0.011345715 0.010151429 0.62700003
-0.010135239 0.010135239 0.62600005
-0.0089571439 0.010151429 0.62700003
-0.0077628577 0.010151429 0.62700003
-0.006568572 0.010151429 0.62700003
-0.0053742859 0.010151429 0.62700003
-0.0041800002 0.010151429 0.62700003
-0.0029857145 0.010151429 0.62700003
-0.0017942858 0.01016762 0.62800002
-0.0005980953 0.01016762 0.62800002
0.0005980953 0.01016762 0.62800002
0.001797143 0.01018381 0.62900001
0.0029952384 0.01018381 0.62900001
0.0042066667 0.010216191 0.63100004
0.0054085716 0.010216191 0.63100004
0.0066104764 0.010216191 0.63100004
0.0078247627 0.010232382 0.63200003
0.0090428581 0.010248573 0.63300002
0.010264763 0.010264763 0.634
0.011454286 0.010248573 0.63300002
0.01266 0.010248573 0.63300002
0.015523811 0.010556191 0.65200001
0.016765716 0.010556191 0.65200001
0.018007619 0.010556191 0.65200001
-0.037085716 0.011942858 0.66000003
-0.035828575 0.011942858 0.66000003
-0.034466669 0.011906668 0.65800005
-0.033213336 0.011906668 0.65800005
-0.031911429 0.011888572 0.65700001
-0.030613335 0.011870477 0.65600002
-0.02931905 0.011852382 0.65500003
-0.02807143 0.011852382 0.65500003
-0.025759049 0.011381906 0.62900001
-0.024560954 0.011381906 0.62900001
-0.023437144 0.011418096 0.63100004
-0.022235239 0.011418096 0.63100004
-0.021033335 0.011418096 0.63100004
-0.01983143 0.011418096 0.63100004
-0.018629525 0.011418096 0.63100004
-0.017344764 0.01136381 0.62800002
-0.016148573 0.01136381 0.62800002
-0.014952382 0.01136381 0.62800002
-0.013734287 0.011345715 0.62700003
-0.01254 0.011345715 0.62700003
-0.011345715 0.011345715 0.62700003
-0.010135239 0.01132762 0.62600005
-0.0089428574 0.01132762 0.62600005
-0.0077628577 0.011345715 0.62700003
-0.006568572 0.011345715 0.62700003
-0.0053742859 0.011345715 0.62700003
-0.0041800002 0.011345715 0.62700003
-0.0029857145 0.011345715 0.62700003
-0.0017942858 0.01136381 0.62800002
-0.00059904763 0.011381906 0.62900001
0.00059904763 0.011381906 0.62900001
0.0018028573 0.011418096 0.63100004
0.0030142858 0.011454286 0.63300002
0.0042133336 0.011436191 0.63200003
0.005417143 0.011436191 0.63200003
0.0066314288 0.011454286 0.63300002
0.0078495247 0.011472382 0.634
0.0090571437 0.011472382 0.634
0.010264763 0.011472382 0.634
0.01170762 0.01170762 0.64700001
0.012940001 0.01170762 0.64700001
0.014238096 0.011761906 0.65000004
0.015476191 0.011761906 0.65000004
0.016740002 0.011780001 0.65100002
0.017980002 0.011780001 0.65100002
-0.037085716 0.013200001 0.66000003
-0.035720002 0.013160001 0.65800005
-0.034414288 0.01314 0.65700001
-0.033112384 0.013120001 0.65600002
-0.031862859 0.013120001 0.65600002
-0.030566668 0.013100001 0.65500003
-0.029229525 0.013060001 0.65300006
-0.027900001 0.01302 0.65100002
-0.026619049 0.013000001 0.65000004
-0.025263811 0.012940001 0.64700001
-0.023920001 0.012880001 0.64400005
-0.022693334 0.012880001 0.64400005
-0.021400001 0.012840001 0.64200002
-0.020177145 0.012840001 0.64200002
-0.018895239 0.012800001 0.64000005
-0.017372383 0.012580001 0.62900001
-0.016148573 0.012560001 0.62800002
-0.014952382 0.012560001 0.62800002
-0.013756191 0.012560001 0.62800002
-0.012560001 0.012560001 0.62800002
-0.01136381 0.012560001 0.62800002
-0.010151429 0.01254 0.62700003
-0.0089571439 0.01254 0.62700003
-0.0077628577 0.01254 0.62700003
-0.006568572 0.01254 0.62700003
-0.0053742859 0.01254 0.62700003
-0.0041800002 0.01254 0.62700003
-0.0029904763 0.012560001 0.62800002
-0.001797143 0.012580001 0.62900001
-0.00060095242 0.012620001 0.63100004
0.00060857146 0.01278 0.63900006
0.0018257144 0.01278 0.63900006
0.0030285716 0.012720001 0.63600004
0.0042266669 0.012680001 0.634
0.0054428573 0.012700001 0.63500005
0.0066419053 0.012680001 0.634
0.0079114288 0.01278 0.63900006
0.0092285722 0.012920001 0.64600003
0.010475239 0.012940001 0.64700001
0.01170762 0.012940001 0.64700001
0.012960001 0.012960001 0.648
0.014238096 0.013000001 0.65000004
0.015476191 0.013000001 0.65000004
0.016740002 0.01302 0.65100002
0.017980002 0.01302 0.65100002
-0.037141908 0.014479049 0.66100001
-0.035828575 0.014457144 0.66000003
-0.034414288 0.01439143 0.65700001
-0.033112384 0.014369525 0.65600002
-0.031814288 0.01434762 0.65500003
-0.030473335 0.014303811 0.65300006
-0.029229525 0.014303811 0.65300006
-0.027900001 0.014260001 0.65100002
-0.026619049 0.014238096 0.65000004
-0.025263811 0.014172382 0.64700001
-0.023994287 0.014150477 0.64600003
-0.022693334 0.014106668 0.64400005
-0.021466669 0.014106668 0.64400005
-0.020177145 0.014062858 0.64200002
-0.018954286 0.014062858 0.64200002
-0.017676191 0.014019049 0.64000005
-0.016225716 0.013821905 0.63100004
-0.014976191 0.013778096 0.62900001
-0.013778096 0.013778096 0.62900001
-0.012620001 0.013821905 0.63100004
-0.011381906 0.013778096 0.62900001
-0.01016762 0.013756191 0.62800002
-0.0089714294 0.013756191 0.62800002
-0.0077628577 0.013734287 0.62700003
-0.006579048 0.013756191 0.62800002
-0.0053828573 0.013756191 0.62800002
-0.004186667 0.013756191 0.62800002
-0.0030047621 0.013821905 0.63100004
-0.0018114287 0.01388762 0.634
-0.00060761906 0.013975239 0.63800001
0.00060571433 0.01393143 0.63600004
0.0018171429 0.01393143 0.63600004
0.0030380955 0.013975239 0.63800001
0.0042333337 0.013909524 0.63500005
0.0054685716 0.013975239 0.63800001
0.0067152386 0.014040953 0.64100003
0.0079733338 0.014106668 0.64400005
0.0092285722 0.014150477 0.64600003
0.010475239 0.014172382 0.64700001
0.01170762 0.014172382 0.64700001
0.012960001 0.014194286 0.648
0.014238096 0.014238096 0.65000004
0.015476191 0.014238096 0.65000004
0.016740002 0.014260001 0.65100002
0.017980002 0.014260001 0.65100002
-0.037141908 0.015738096 0.66100001
-0.035828575 0.015714286 0.66000003
-0.034414288 0.015642859 0.65700001
-0.033112384 0.015619049 0.65600002
-0.031814288 0.015595239 0.65500003
-0.030473335 0.01554762 0.65300006
-0.029184764 0.015523811 0.65200001
-0.027900001 0.015500001 0.65100002
-0.026619049 0.015476191 0.65000004
-0.025302859 0.015428573 0.648
-0.023994287 0.015380953 0.64600003
-0.022728574 0.015357144 0.64500004
-0.021466669 0.015333334 0.64400005
-0.020240001 0.015333334 0.64400005
-0.018954286 0.015285715 0.64200002
-0.017703811 0.015261906 0.64100003
-0.016457144 0.015238096 0.64000005
-0.015238096 0.015238096 0.64000005
-0.014019049 0.015238096 0.64000005
-0.012760001 0.015190477 0.63800001
-0.011544763 0.015190477 0.63800001
-0.010216191 0.015023811 0.63100004
-0.008985715 0.014976191 0.62900001
-0.0077876197 0.014976191 0.62900001
-0.0066209529 0.01504762 0.63200003
-0.0053914287 0.014976191 0.62900001
-0.0042400002 0.015142858 0.63600004
-0.0030285716 0.015142858 0.63600004
-0.0018171429 0.015142858 0.63600004
-0.00060761906 0.015190477 0.63800001
0.00060761906 0.015190477 0.63800001
0.0018257144 0.015214287 0.63900006
0.0030428574 0.015214287 0.63900006
0.0042666672 0.015238096 0.64000005
0.0054942863 0.015261906 0.64100003
0.0067257145 0.015285715 0.64200002
0.0079733338 0.015333334 0.64400005
0.0092285722 0.015380953 0.64600003
0.010475239 0.015404763 0.64700001
0.01170762 0.015404763 0.64700001
0.012960001 0.015428573 0.648
0.014238096 0.015476191 0.65000004
0.015476191 0.015476191 0.65000004
0.016765716 0.015523811 0.65200001
0.018007619 0.015523811 0.65200001
-0.037198097 0.017022857 0.66200006
-0.035828575 0.01697143 0.66000003
-0.034466669 0.01692 0.65800005
-0.033061907 0.016842859 0.65500003
-0.031814288 0.016842859 0.65500003
-0.030473335 0.016791429 0.65300006
-0.029184764 0.016765716 0.65200001
-0.027857145 0.016714286 0.65000004
-0.026619049 0.016714286 0.65000004
-0.025302859 0.016662858 0.648
-0.02403143 0.016637145 0.64700001
-0.022728574 0.016585715 0.64500004
-0.021500001 0.016585715 0.64500004
-0.020240001 0.016560001 0.64400005
-0.019013334 0.016560001 0.64400005
-0.01773143 0.016508572 0.64200002
-0.016508572 0.016508572 0.64200002
-0.015261906 0.016482858 0.64100003
-0.014040953 0.016482858 0.64100003
-0.012800001 0.016457144 0.64000005
-0.011580953 0.016457144 0.64000005
-0.010345715 0.01643143 0.63900006
-0.0090857148 0.016354287 0.63600004
-0.0079114288 0.01643143 0.63900006
-0.0066838101 0.016405715 0.63800001
-0.005477143 0.01643143 0.63900006
-0.0042600003 0.01643143 0.63900006
-0.0030428574 0.01643143 0.63900006
-0.0018257144 0.01643143 0.63900006
-0.00060857146 0.01643143 0.63900006
0.00060952385 0.016457144 0.64000005
0.0018285715 0.016457144 0.64000005
0.0030523811 0.016482858 0.64100003
0.0042800005 0.016508572 0.64200002
0.0055028577 0.016508572 0.64200002
0.006746667 0.016560001 0.64400005
0.0079980958 0.016611429 0.64600003
0.0092428578 0.016637145 0.64700001
0.010475239 0.016637145 0.64700001
0.011725715 0.016662858 0.648
0.012960001 0.016662858 0.648
0.014238096 0.016714286 0.65000004
0.015500001 0.016740002 0.65100002
0.016765716 0.016765716 0.65200001
0.018007619 0.016765716 0.65200001
-0.037198097 0.01828381 0.66200006
-0.03588286 0.018256191 0.66100001
-0.034466669 0.018173335 0.65800005
-0.033112384 0.018118097 0.65600002
-0.031814288 0.018090477 0.65500003
-0.030473335 0.018035239 0.65300006
-0.029184764 0.018007619 0.65200001
-0.027900001 0.017980002 0.65100002
-0.026619049 0.017952383 0.65000004
-0.025302859 0.017897144 0.648
-0.02403143 0.017869525 0.64700001
-0.022763811 0.017841905 0.64600003
-0.021500001 0.017814286 0.64500004
-0.02027143 0.017814286 0.64500004
-0.019013334 0.017786669 0.64400005
-0.017786669 0.017786669 0.64400005
-0.016560001 0.017786669 0.64400005
-0.015285715 0.01773143 0.64200002
-0.014062858 0.01773143 0.64200002
-0.012820001 0.017703811 0.64100003
-0.011580953 0.017676191 0.64000005
-0.010329524 0.017620953 0.63800001
-0.0091285724 0.017648572 0.63900006
-0.0079114288 0.017648572 0.63900006
-0.0066942861 0.017648572 0.63900006
-0.005477143 0.017648572 0.63900006
-0.0042666672 0.017676191 0.64000005
-0.0030428574 0.017648572 0.63900006
-0.0018285715 0.017676191 0.64000005
-0.00061047624 0.017703811 0.64100003
0.00060952385 0.017676191 0.64000005
0.0018314287 0.017703811 0.64100003
0.003057143 0.01773143 0.64200002
0.0042800005 0.01773143 0.64200002
0.0055200006 0.017786669 0.64400005
0.0067571434 0.017814286 0.64500004
0.0079980958 0.017841905 0.64600003
0.0092428578 0.017869525 0.64700001
0.010475239 0.017869525 0.64700001
0.011725715 0.017897144 0.648
0.013000001 0.017952383 0.65000004
0.014260001 0.017980002 0.65100002
0.015500001 0.017980002 0.65100002
0.016765716 0.018007619 0.65200001
0.018007619 0.018007619 0.65200001
-0.037198097 0.019544763 0.66200006
-0.03588286 0.019515239 0.66100001
-0.034466669 0.019426668 0.65800005
-0.033112384 0.01936762 0.65600002
-0.031814288 0.019338097 0.65500003
-0.030473335 0.01927905 0.65300006
-0.029229525 0.01927905 0.65300006
