# .PCD v0.7 - Point Cloud Data file format
VERSION 0.7
FIELDS x y z
SIZE 4 4 4
TYPE F F F
COUNT 1 1 1
WIDTH 1357
HEIGHT 1
VIEWPOINT 0 0 0 1 0 0 0
POINTS 1357
DATA ascii
0.079909526 0.01894762 0.86500007
0.081557147 0.01894762 0.86500007
0.083204769 0.01894762 0.86500007
0.08485239 0.01894762 0.86500007
0.086700007 0.018991429 0.86700004
0.025538096 0.020595239 0.86500007
0.027185716 0.020595239 0.86500007
0.040366668 0.020595239 0.86500007
0.04201429 0.020595239 0.86500007
0.043661907 0.020595239 0.86500007
0.045309525 0.020595239 0.86500007
0.079632387 0.020523811 0.86200005
0.081274293 0.020523811 0.86200005
0.082916193 0.020523811 0.86200005
0.0845581 0.020523811 0.86200005
0.086200006 0.020523811 0.86200005
0.13545716 0.020523811 0.86200005
0.012314286 0.022165716 0.86200005
0.013956191 0.022165716 0.86200005
0.015598096 0.022165716 0.86200005
0.017240001 0.022165716 0.86200005
0.018838096 0.022114288 0.86000001
0.020523811 0.022165716 0.86200005
0.022165716 0.022165716 0.86200005
0.023807621 0.022165716 0.86200005
0.025449526 0.022165716 0.86200005
0.027091431 0.022165716 0.86200005
0.028733335 0.022165716 0.86200005
0.033659048 0.022165716 0.86200005
0.036942858 0.022165716 0.86200005
0.038584765 0.022165716 0.86200005
0.040226668 0.022165716 0.86200005
0.041868575 0.022165716 0.86200005
0.043510478 0.022165716 0.86200005
0.045152385 0.022165716 0.86200005
0.084361911 0.022114288 0.86000001
0.086000003 0.022114288 0.86000001
0.01064762 0.023752382 0.86000001
0.012285715 0.023752382 0.86000001
0.013923811 0.023752382 0.86000001
0.015525715 0.023697145 0.85800004
0.01716 0.023697145 0.85800004
0.018794287 0.023697145 0.85800004
0.020476192 0.023752382 0.86000001
0.022114288 0.023752382 0.86000001
0.023752382 0.023752382 0.86000001
0.025390478 0.023752382 0.86000001
0.027028574 0.023752382 0.86000001
0.033580955 0.023752382 0.86000001
0.036857147 0.023752382 0.86000001
0.038495239 0.023752382 0.86000001
-0.096171431 0.018068573 0.61200005
-0.095005721 0.018068573 0.61200005
-0.093840003 0.018068573 0.61200005
-0.092674293 0.018068573 0.61200005
-0.0916581 0.018098097 0.61300004
-0.090490483 0.018098097 0.61300004
-0.089468576 0.01812762 0.61400002
-0.088442862 0.018157143 0.61500001
-0.087271437 0.018157143 0.61500001
-0.086100005 0.018157143 0.61500001
-0.08492858 0.018157143 0.61500001
-0.083757147 0.018157143 0.61500001
-0.082451433 0.01812762 0.61400002
-0.081281908 0.01812762 0.61400002
-0.079981908 0.018098097 0.61300004
-0.07881429 0.018098097 0.61300004
-0.077646673 0.018098097 0.61300004
-0.076479055 0.018098097 0.61300004
-0.075188577 0.018068573 0.61200005
-0.074022859 0.018068573 0.61200005
-0.072857149 0.018068573 0.61200005
-0.071691431 0.018068573 0.61200005
-0.066700004 0.017980002 0.60900003
-0.065540001 0.017980002 0.60900003
-0.064274289 0.017950477 0.60800004
-0.063116193 0.017950477 0.60800004
-0.061856195 0.017920954 0.60700005
-0.060700003 0.017920954 0.60700005
-0.059445716 0.017891429 0.60600001
-0.022062859 0.02533143 0.85800004
0.0040857145 0.02533143 0.85800004
0.0057200002 0.02533143 0.85800004
0.007354286 0.02533143 0.85800004
0.0089676194 0.025272382 0.85600007
0.010598096 0.025272382 0.85600007
0.012228572 0.025272382 0.85600007
0.013826667 0.025213335 0.85400003
0.015453334 0.025213335 0.85400003
0.017080002 0.025213335 0.85400003
0.018706668 0.025213335 0.85400003
0.020333335 0.025213335 0.85400003
0.021960001 0.025213335 0.85400003
0.023586668 0.025213335 0.85400003
0.025272382 0.025272382 0.85600007
0.026902858 0.025272382 0.85600007
0.028533336 0.025272382 0.85600007
0.030163812 0.025272382 0.85600007
0.031720001 0.025213335 0.85400003
0.033424765 0.025272382 0.85600007
0.034973335 0.025213335 0.85400003
0.036685716 0.025272382 0.85600007
0.038316194 0.025272382 0.85600007
0.039946668 0.025272382 0.85600007
0.041577145 0.025272382 0.85600007
0.043207623 0.025272382 0.85600007
0.044838097 0.025272382 0.85600007
0.046468575 0.025272382 0.85600007
0.048099052 0.025272382 0.85600007
0.049729526 0.025272382 0.85600007
0.051240005 0.025213335 0.85400003
0.052866671 0.025213335 0.85400003
0.054620955 0.025272382 0.85600007
0.056251433 0.025272382 0.85600007
0.05788191 0.025272382 0.85600007
0.059373338 0.025213335 0.85400003
0.061000004 0.025213335 0.85400003
0.062626667 0.025213335 0.85400003
0.064403817 0.025272382 0.85600007
0.065880008 0.025213335 0.85400003
0.067506671 0.025213335 0.85400003
0.069133341 0.025213335 0.85400003
0.070760004 0.025213335 0.85400003
0.072556198 0.025272382 0.85600007
0.074186675 0.025272382 0.85600007
0.12769334 0.025213335 0.85400003
0.12932001 0.025213335 0.85400003
0.13257334 0.025213335 0.85400003
-0.10364953 0.019108573 0.60800004
-0.10266001 0.019140001 0.60900003
-0.10200001 0.019234287 0.61200005
-0.1008343 0.019234287 0.61200005
-0.099505723 0.019202858 0.611
-0.098502867 0.019234287 0.61200005
-0.097337149 0.019234287 0.61200005
-0.096171431 0.019234287 0.61200005
-0.095005721 0.019234287 0.61200005
-0.093840003 0.019234287 0.61200005
-0.092825718 0.019265715 0.61300004
-0.0916581 0.019265715 0.61300004
-0.090490483 0.019265715 0.61300004
-0.089322865 0.019265715 0.61300004
-0.088442862 0.019328572 0.61500001
-0.087271437 0.019328572 0.61500001
-0.086100005 0.019328572 0.61500001
-0.08492858 0.019328572 0.61500001
-0.083620958 0.019297143 0.61400002
-0.082585722 0.019328572 0.61500001
-0.081281908 0.019297143 0.61400002
-0.080112383 0.019297143 0.61400002
-0.078942865 0.019297143 0.61400002
-0.07777334 0.019297143 0.61400002
-0.076479055 0.019265715 0.61300004
-0.07531143 0.019265715 0.61300004
-0.074143812 0.019265715 0.61300004
-0.072857149 0.019234287 0.61200005
-0.071691431 0.019234287 0.61200005
-0.070525721 0.019234287 0.61200005
-0.069360003 0.019234287 0.61200005
-0.068082862 0.019202858 0.611
-0.066919051 0.019202858 0.611
-0.065755241 0.019202858 0.611
-0.064380005 0.019140001 0.60900003
-0.063220002 0.019140001 0.60900003
-0.061958101 0.019108573 0.60800004
-0.060800005 0.019108573 0.60800004
-0.059543815 0.019077145 0.60700005
-0.058387622 0.019077145 0.60700005
-0.022011431 0.026902858 0.85600007
-0.020380953 0.026902858 0.85600007
0.0089466674 0.026840001 0.85400003
0.010573334 0.026840001 0.85400003
0.012200001 0.026840001 0.85400003
0.013826667 0.026840001 0.85400003
0.015453334 0.026840001 0.85400003
0.017080002 0.026840001 0.85400003
0.018706668 0.026840001 0.85400003
0.020333335 0.026840001 0.85400003
0.021908572 0.026777145 0.85200006
0.023531429 0.026777145 0.85200006
0.025154287 0.026777145 0.85200006
0.026840001 0.026840001 0.85400003
0.028466668 0.026840001 0.85400003
0.030093335 0.026840001 0.85400003
0.031720001 0.026840001 0.85400003
0.033346668 0.026840001 0.85400003
0.034973335 0.026840001 0.85400003
0.036600001 0.026840001 0.85400003
0.038226668 0.026840001 0.85400003
0.039853334 0.026840001 0.85400003
0.041480001 0.026840001 0.85400003
0.043106668 0.026840001 0.85400003
0.044733338 0.026840001 0.85400003
0.046360005 0.026840001 0.85400003
0.08682286 0.026777145 0.85200006
-0.10480762 0.020266669 0.60800004
-0.10364953 0.020266669 0.60800004
-0.10266001 0.020300001 0.60900003
-0.10200001 0.020400001 0.61200005
-0.1008343 0.020400001 0.61200005
-0.099505723 0.020366669 0.611
-0.098502867 0.020400001 0.61200005
-0.097337149 0.020400001 0.61200005
-0.096171431 0.020400001 0.61200005
-0.095005721 0.020400001 0.61200005
-0.093840003 0.020400001 0.61200005
-0.092825718 0.020433335 0.61300004
-0.0916581 0.020433335 0.61300004
-0.090490483 0.020433335 0.61300004
-0.089322865 0.020433335 0.61300004
-0.088299051 0.020466669 0.61400002
-0.087271437 0.020500001 0.61500001
-0.086100005 0.020500001 0.61500001
-0.08492858 0.020500001 0.61500001
-0.083620958 0.020466669 0.61400002
-0.082585722 0.020500001 0.61500001
-0.081281908 0.020466669 0.61400002
-0.080112383 0.020466669 0.61400002
-0.078942865 0.020466669 0.61400002
-0.07777334 0.020466669 0.61400002
-0.076603815 0.020466669 0.61400002
-0.07531143 0.020433335 0.61300004
-0.074143812 0.020433335 0.61300004
-0.072976194 0.020433335 0.61300004
-0.071808577 0.020433335 0.61300004
-0.070525721 0.020400001 0.61200005
-0.069360003 0.020400001 0.61200005
-0.068194292 0.020400001 0.61200005
-0.067028575 0.020400001 0.61200005
-0.065862864 0.020400001 0.61200005
-0.06459143 0.020366669 0.611
-0.06342762 0.020366669 0.611
-0.062060002 0.020300001 0.60900003
-0.060800005 0.020266669 0.60800004
-0.059641909 0.020266669 0.60800004
-0.058483813 0.020266669 0.60800004
-0.057231434 0.020233335 0.60700005
-0.056075241 0.020233335 0.60700005
-0.00081142865 0.028400002 0.85200006
0.00081142865 0.028400002 0.85200006
0.0040571433 0.028400002 0.85200006
0.0089257145 0.028400002 0.85200006
0.010548572 0.028400002 0.85200006
0.01217143 0.028400002 0.85200006
0.013794286 0.028400002 0.85200006
0.015417144 0.028400002 0.85200006
0.017040001 0.028400002 0.85200006
0.018662859 0.028400002 0.85200006
0.023476193 0.028333336 0.85000002
0.025095239 0.028333336 0.85000002
0.026714288 0.028333336 0.85000002
0.033190478 0.028333336 0.85000002
-0.10596572 0.021424763 0.60800004
-0.10480762 0.021424763 0.60800004
-0.10364953 0.021424763 0.60800004
-0.10266001 0.021460002 0.60900003
-0.10183334 0.021530477 0.611
-0.10066953 0.021530477 0.611
-0.099668577 0.021565715 0.61200005
-0.098502867 0.021565715 0.61200005
-0.097337149 0.021565715 0.61200005
-0.096171431 0.021565715 0.61200005
-0.095005721 0.021565715 0.61200005
-0.093840003 0.021565715 0.61200005
-0.092825718 0.021600954 0.61300004
-0.0916581 0.021600954 0.61300004
-0.090490483 0.021600954 0.61300004
-0.089322865 0.021600954 0.61300004
-0.088299051 0.021636192 0.61400002
-0.087129526 0.021636192 0.61400002
-0.086100005 0.021671429 0.61500001
-0.08492858 0.021671429 0.61500001
-0.083620958 0.021636192 0.61400002
-0.082585722 0.021671429 0.61500001
-0.08141429 0.021671429 0.61500001
-0.080112383 0.021636192 0.61400002
-0.079071432 0.021671429 0.61500001
-0.077900007 0.021671429 0.61500001
-0.076603815 0.021636192 0.61400002
-0.07543429 0.021636192 0.61400002
-0.074264765 0.021636192 0.61400002
-0.072976194 0.021600954 0.61300004
-0.071808577 0.021600954 0.61300004
-0.070525721 0.021565715 0.61200005
-0.069360003 0.021565715 0.61200005
-0.068194292 0.021565715 0.61200005
-0.067028575 0.021565715 0.61200005
-0.065862864 0.021565715 0.61200005
-0.06459143 0.021530477 0.611
-0.06342762 0.021530477 0.611
-0.062263813 0.021530477 0.611
-0.060900003 0.021460002 0.60900003
-0.059641909 0.021424763 0.60800004
-0.058483813 0.021424763 0.60800004
-0.057325717 0.021424763 0.60800004
-0.056075241 0.021389525 0.60700005
-0.021857144 0.029952383 0.85000002
-0.0072857146 0.029952383 0.85000002
0.021805715 0.029881908 0.84800005
0.023420954 0.029881908 0.84800005
0.025036192 0.029881908 0.84800005
0.026651431 0.029881908 0.84800005
0.028266668 0.029881908 0.84800005
0.029881908 0.029881908 0.84800005
0.031497143 0.029881908 0.84800005
0.033112384 0.029881908 0.84800005
-0.1654543 0.032425717 0.87300003
-0.10810382 0.022545716 0.60700005
-0.10712381 0.022582859 0.60800004
-0.10596572 0.022582859 0.60800004
-0.10480762 0.022582859 0.60800004
-0.10364953 0.022582859 0.60800004
-0.10266001 0.022620002 0.60900003
-0.10183334 0.022694288 0.611
-0.10066953 0.022694288 0.611
-0.099505723 0.022694288 0.611
-0.098502867 0.022731431 0.61200005
-0.097337149 0.022731431 0.61200005
-0.096171431 0.022731431 0.61200005
-0.095005721 0.022731431 0.61200005
-0.093840003 0.022731431 0.61200005
-0.092825718 0.022768574 0.61300004
-0.0916581 0.022768574 0.61300004
-0.090490483 0.022768574 0.61300004
-0.089322865 0.022768574 0.61300004
-0.088299051 0.022805715 0.61400002
-0.087129526 0.022805715 0.61400002
-0.086100005 0.022842858 0.61500001
-0.08492858 0.022842858 0.61500001
-0.083757147 0.022842858 0.61500001
-0.082585722 0.022842858 0.61500001
-0.08141429 0.022842858 0.61500001
-0.080242865 0.022842858 0.61500001
-0.079071432 0.022842858 0.61500001
-0.077900007 0.022842858 0.61500001
-0.076728575 0.022842858 0.61500001
-0.07555715 0.022842858 0.61500001
-0.074264765 0.022805715 0.61400002
-0.072976194 0.022768574 0.61300004
-0.071808577 0.022768574 0.61300004
-0.070640959 0.022768574 0.61300004
-0.069360003 0.022731431 0.61200005
-0.068194292 0.022731431 0.61200005
-0.067028575 0.022731431 0.61200005
-0.065862864 0.022731431 0.61200005
-0.064697146 0.022731431 0.61200005
-0.063531436 0.022731431 0.61200005
-0.062263813 0.022694288 0.611
-0.060900003 0.022620002 0.60900003
-0.059641909 0.022582859 0.60800004
-0.058483813 0.022582859 0.60800004
-0.057325717 0.022582859 0.60800004
-0.056075241 0.022545716 0.60700005
-0.054919053 0.022545716 0.60700005
-0.036342859 0.031497143 0.84800005
-0.0056333337 0.031385716 0.84500003
0.020119049 0.031385716 0.84500003
0.021728573 0.031385716 0.84500003
0.023338096 0.031385716 0.84500003
0.024947621 0.031385716 0.84500003
0.026557144 0.031385716 0.84500003
0.028166668 0.031385716 0.84500003
0.029776193 0.031385716 0.84500003
0.032995239 0.031385716 0.84500003
-0.10810382 0.023701906 0.60700005
-0.10712381 0.023740955 0.60800004
-0.10596572 0.023740955 0.60800004
-0.10480762 0.023740955 0.60800004
-0.10364953 0.023740955 0.60800004
-0.10266001 0.023780001 0.60900003
-0.1015 0.023780001 0.60900003
-0.10066953 0.023858096 0.611
-0.099505723 0.023858096 0.611
-0.098502867 0.023897145 0.61200005
-0.097337149 0.023897145 0.61200005
-0.096171431 0.023897145 0.61200005
-0.095005721 0.023897145 0.61200005
-0.093840003 0.023897145 0.61200005
-0.092825718 0.023936192 0.61300004
-0.0916581 0.023936192 0.61300004
-0.090490483 0.023936192 0.61300004
-0.089322865 0.023936192 0.61300004
-0.088299051 0.02397524 0.61400002
-0.087129526 0.02397524 0.61400002
-0.086100005 0.024014287 0.61500001
-0.08492858 0.024014287 0.61500001
-0.083757147 0.024014287 0.61500001
-0.082720004 0.024053335 0.61600006
-0.081546672 0.024053335 0.61600006
-0.080242865 0.024014287 0.61500001
-0.079071432 0.024014287 0.61500001
-0.077900007 0.024014287 0.61500001
-0.076728575 0.024014287 0.61500001
-0.07555715 0.024014287 0.61500001
-0.074264765 0.02397524 0.61400002
-0.072976194 0.023936192 0.61300004
-0.071808577 0.023936192 0.61300004
-0.070640959 0.023936192 0.61300004
-0.069473341 0.023936192 0.61300004
-0.068194292 0.023897145 0.61200005
-0.067028575 0.023897145 0.61200005
-0.065862864 0.023897145 0.61200005
-0.064697146 0.023897145 0.61200005
-0.063531436 0.023897145 0.61200005
-0.062263813 0.023858096 0.611
-0.061100002 0.023858096 0.611
-0.059740003 0.023780001 0.60900003
-0.058483813 0.023740955 0.60800004
-0.057325717 0.023740955 0.60800004
-0.056075241 0.023701906 0.60700005
-0.054919053 0.023701906 0.60700005
-0.053762861 0.023701906 0.60700005
-0.052520003 0.02366286 0.60600001
-0.051365718 0.02366286 0.60600001
-0.034604765 0.032995239 0.84500003
-0.032995239 0.032995239 0.84500003
-0.031385716 0.032995239 0.84500003
-0.029776193 0.032995239 0.84500003
-0.028166668 0.032995239 0.84500003
-0.02007143 0.032917146 0.84300005
-0.0056200004 0.032917146 0.84300005
0.00080285722 0.032917146 0.84300005
0.016860001 0.032917146 0.84300005
0.018465716 0.032917146 0.84300005
0.02007143 0.032917146 0.84300005
0.021677144 0.032917146 0.84300005
0.023227621 0.032839049 0.84100002
0.024829526 0.032839049 0.84100002
0.026494287 0.032917146 0.84300005
0.028100003 0.032917146 0.84300005
0.029705716 0.032917146 0.84300005
0.056867622 0.032839049 0.84100002
-0.11083715 0.024694288 0.60300004
-0.10987049 0.02473524 0.60400003
-0.10872 0.02473524 0.60400003
-0.10810382 0.024858097 0.60700005
-0.10694762 0.024858097 0.60700005
-0.10596572 0.024899049 0.60800004
-0.10480762 0.024899049 0.60800004
-0.10364953 0.024899049 0.60800004
-0.10266001 0.024940001 0.60900003
-0.10183334 0.025021907 0.611
-0.10066953 0.025021907 0.611
-0.099505723 0.025021907 0.611
-0.098502867 0.025062859 0.61200005
-0.097337149 0.025062859 0.61200005
-0.096171431 0.025062859 0.61200005
-0.095160961 0.025103811 0.61300004
-0.093993336 0.025103811 0.61300004
-0.092825718 0.025103811 0.61300004
-0.0916581 0.025103811 0.61300004
-0.090490483 0.025103811 0.61300004
-0.089322865 0.025103811 0.61300004
-0.088299051 0.025144763 0.61400002
-0.087129526 0.025144763 0.61400002
-0.086100005 0.025185715 0.61500001
-0.08492858 0.025185715 0.61500001
-0.083757147 0.025185715 0.61500001
-0.082720004 0.025226668 0.61600006
-0.081546672 0.025226668 0.61600006
-0.080373339 0.025226668 0.61600006
-0.079200007 0.025226668 0.61600006
-0.078026675 0.025226668 0.61600006
-0.076853335 0.025226668 0.61600006
-0.07555715 0.025185715 0.61500001
-0.074385718 0.025185715 0.61500001
-0.07309524 0.025144763 0.61400002
-0.071808577 0.025103811 0.61300004
-0.070640959 0.025103811 0.61300004
-0.069473341 0.025103811 0.61300004
-0.068305716 0.025103811 0.61300004
-0.067028575 0.025062859 0.61200005
-0.065862864 0.025062859 0.61200005
-0.064697146 0.025062859 0.61200005
-0.063531436 0.025062859 0.61200005
-0.062365718 0.025062859 0.61200005
-0.061100002 0.025021907 0.611
-0.059740003 0.024940001 0.60900003
-0.058580004 0.024940001 0.60900003
-0.057325717 0.024899049 0.60800004
-0.056167621 0.024899049 0.60800004
-0.054919053 0.024858097 0.60700005
-0.053762861 0.024858097 0.60700005
-0.052520003 0.024817144 0.60600001
-0.051196195 0.02473524 0.60400003
-0.046285719 0.02457143 0.60000002
-0.032839049 0.034440953 0.84100002
-0.020023812 0.034440953 0.84100002
-0.018421905 0.034440953 0.84100002
-0.004004762 0.034440953 0.84100002
-0.0024028574 0.034440953 0.84100002
-0.00080095243 0.034440953 0.84100002
0.00079904764 0.034359049 0.83900005
0.0024028574 0.034440953 0.84100002
0.004004762 0.034440953 0.84100002
0.019976191 0.034359049 0.83900005
0.021574287 0.034359049 0.83900005
0.023172382 0.034359049 0.83900005
0.024770478 0.034359049 0.83900005
0.026368573 0.034359049 0.83900005
0.048741907 0.034359049 0.83900005
0.050340004 0.034359049 0.83900005
0.051938098 0.034359049 0.83900005
0.055134289 0.034359049 0.83900005
0.056732386 0.034359049 0.83900005
0.05833048 0.034359049 0.83900005
0.061526671 0.034359049 0.83900005
0.064722858 0.034359049 0.83900005
-0.11275905 0.025757145 0.60100001
-0.11161429 0.025757145 0.60100001
-0.11083715 0.025842858 0.60300004
-0.10987049 0.025885716 0.60400003
-0.10872 0.025885716 0.60400003
-0.10792572 0.025971429 0.60600001
-0.10694762 0.026014287 0.60700005
-0.10596572 0.026057145 0.60800004
-0.10480762 0.026057145 0.60800004
-0.10364953 0.026057145 0.60800004
-0.10266001 0.026100002 0.60900003
-0.10183334 0.026185716 0.611
-0.10066953 0.026185716 0.611
-0.099668577 0.026228573 0.61200005
-0.098502867 0.026228573 0.61200005
-0.097337149 0.026228573 0.61200005
-0.096171431 0.026228573 0.61200005
-0.095160961 0.026271431 0.61300004
-0.093993336 0.026271431 0.61300004
-0.092825718 0.026271431 0.61300004
-0.0916581 0.026271431 0.61300004
-0.090490483 0.026271431 0.61300004
-0.089468576 0.026314287 0.61400002
-0.088299051 0.026314287 0.61400002
-0.087271437 0.026357144 0.61500001
-0.086100005 0.026357144 0.61500001
-0.08492858 0.026357144 0.61500001
-0.083757147 0.026357144 0.61500001
-0.082720004 0.026400002 0.61600006
-0.081546672 0.026400002 0.61600006
-0.080373339 0.026400002 0.61600006
-0.079200007 0.026400002 0.61600006
-0.078026675 0.026400002 0.61600006
-0.076853335 0.026400002 0.61600006
-0.075680003 0.026400002 0.61600006
-0.074385718 0.026357144 0.61500001
-0.073214293 0.026357144 0.61500001
-0.071925722 0.026314287 0.61400002
-0.070640959 0.026271431 0.61300004
-0.069473341 0.026271431 0.61300004
-0.068305716 0.026271431 0.61300004
-0.067138098 0.026271431 0.61300004
-0.06597048 0.026271431 0.61300004
-0.064697146 0.026228573 0.61200005
-0.063531436 0.026228573 0.61200005
-0.062365718 0.026228573 0.61200005
-0.061100002 0.026185716 0.611
-0.059740003 0.026100002 0.60900003
-0.058580004 0.026100002 0.60900003
-0.057325717 0.026057145 0.60800004
-0.056167621 0.026057145 0.60800004
-0.054919053 0.026014287 0.60700005
-0.053762861 0.026014287 0.60700005
-0.052520003 0.025971429 0.60600001
-0.051280957 0.025928574 0.60500002
-0.04996286 0.025842858 0.60300004
-0.048733335 0.025800001 0.60200006
-0.047507621 0.025757145 0.60100001
-0.046285719 0.025714288 0.60000002
-0.045067623 0.02567143 0.59900004
-0.027966669 0.035957146 0.83900005
-0.019976191 0.035957146 0.83900005
-0.018378096 0.035957146 0.83900005
-0.01678 0.035957146 0.83900005
-0.015181906 0.035957146 0.83900005
-0.01358381 0.035957146 0.83900005
0.00079714291 0.035871431 0.83700001
0.018334286 0.035871431 0.83700001
0.019928573 0.035871431 0.83700001
0.023117144 0.035871431 0.83700001
0.02471143 0.035871431 0.83700001
0.026305716 0.035871431 0.83700001
0.034277145 0.035871431 0.83700001
0.048625719 0.035871431 0.83700001
0.050220001 0.035871431 0.83700001
0.051814288 0.035871431 0.83700001
-0.11352477 0.026812382 0.59900004
-0.11257143 0.026857145 0.60000002
-0.11161429 0.026901906 0.60100001
-0.11083715 0.026991431 0.60300004
-0.10968858 0.026991431 0.60300004
-0.10872 0.027036192 0.60400003
-0.10774763 0.027080955 0.60500002
-0.10694762 0.027170477 0.60700005
-0.10579143 0.027170477 0.60700005
-0.10480762 0.027215241 0.60800004
-0.10364953 0.027215241 0.60800004
-0.10266001 0.027260002 0.60900003
-0.10183334 0.027349526 0.611
-0.10066953 0.027349526 0.611
-0.099505723 0.027349526 0.611
-0.098502867 0.027394287 0.61200005
-0.097337149 0.027394287 0.61200005
-0.096171431 0.027394287 0.61200005
-0.095160961 0.027439049 0.61300004
-0.093993336 0.027439049 0.61300004
-0.092825718 0.027439049 0.61300004
-0.091807626 0.027483812 0.61400002
-0.090638101 0.027483812 0.61400002
-0.089468576 0.027483812 0.61400002
-0.088442862 0.027528573 0.61500001
-0.087413341 0.027573336 0.61600006
-0.086240008 0.027573336 0.61600006
-0.085066669 0.027573336 0.61600006
-0.083893336 0.027573336 0.61600006
-0.082720004 0.027573336 0.61600006
-0.081546672 0.027573336 0.61600006
-0.080373339 0.027573336 0.61600006
-0.079200007 0.027573336 0.61600006
-0.078026675 0.027573336 0.61600006
-0.076853335 0.027573336 0.61600006
-0.075680003 0.027573336 0.61600006
-0.074385718 0.027528573 0.61500001
-0.073214293 0.027528573 0.61500001
-0.071925722 0.027483812 0.61400002
-0.070756197 0.027483812 0.61400002
-0.069473341 0.027439049 0.61300004
-0.068305716 0.027439049 0.61300004
-0.067138098 0.027439049 0.61300004
-0.06597048 0.027439049 0.61300004
-0.064697146 0.027394287 0.61200005
-0.063531436 0.027394287 0.61200005
-0.062365718 0.027394287 0.61200005
-0.061100002 0.027349526 0.611
-0.059740003 0.027260002 0.60900003
-0.058580004 0.027260002 0.60900003
-0.057325717 0.027215241 0.60800004
-0.056167621 0.027215241 0.60800004
-0.055009529 0.027215241 0.60800004
-0.053762861 0.027170477 0.60700005
-0.052606668 0.027170477 0.60700005
-0.051280957 0.027080955 0.60500002
-0.04996286 0.026991431 0.60300004
-0.048733335 0.026946668 0.60200006
-0.047586668 0.026946668 0.60200006
-0.046285719 0.026857145 0.60000002
-0.045067623 0.026812382 0.59900004
-0.043853335 0.026767621 0.59800005
-0.0023857146 0.037376191 0.83500004
-0.00079523813 0.037376191 0.83500004
0.00079523813 0.037376191 0.83500004
0.0023857146 0.037376191 0.83500004
0.024652382 0.037376191 0.83500004
0.02624286 0.037376191 0.83500004
-0.11655715 0.027860003 0.597
-0.11561334 0.027906669 0.59800005
-0.1144743 0.027906669 0.59800005
-0.11352477 0.027953336 0.59900004
-0.11257143 0.028000003 0.60000002
-0.11161429 0.028046669 0.60100001
-0.11065334 0.028093334 0.60200006
-0.10968858 0.028140001 0.60300004
-0.10872 0.028186668 0.60400003
-0.10774763 0.028233334 0.60500002
-0.10694762 0.028326668 0.60700005
-0.10579143 0.028326668 0.60700005
-0.10480762 0.028373335 0.60800004
-0.10364953 0.028373335 0.60800004
-0.10266001 0.028420001 0.60900003
-0.10183334 0.028513335 0.611
-0.10066953 0.028513335 0.611
-0.099668577 0.028560001 0.61200005
-0.098502867 0.028560001 0.61200005
-0.097337149 0.028560001 0.61200005
-0.096171431 0.028560001 0.61200005
-0.095160961 0.028606668 0.61300004
-0.093993336 0.028606668 0.61300004
-0.092977151 0.028653335 0.61400002
-0.091807626 0.028653335 0.61400002
-0.090638101 0.028653335 0.61400002
-0.089614294 0.028700002 0.61500001
-0.088442862 0.028700002 0.61500001
-0.087413341 0.028746668 0.61600006
-0.086240008 0.028746668 0.61600006
-0.085066669 0.028746668 0.61600006
-0.083893336 0.028746668 0.61600006
-0.082720004 0.028746668 0.61600006
-0.081546672 0.028746668 0.61600006
-0.080373339 0.028746668 0.61600006
-0.079200007 0.028746668 0.61600006
-0.078026675 0.028746668 0.61600006
-0.076853335 0.028746668 0.61600006
-0.075680003 0.028746668 0.61600006
-0.07450667 0.028746668 0.61600006
-0.073214293 0.028700002 0.61500001
-0.071925722 0.028653335 0.61400002
-0.070756197 0.028653335 0.61400002
-0.069473341 0.028606668 0.61300004
-0.068305716 0.028606668 0.61300004
-0.067138098 0.028606668 0.61300004
-0.06597048 0.028606668 0.61300004
-0.064802863 0.028606668 0.61300004
-0.063531436 0.028560001 0.61200005
-0.062365718 0.028560001 0.61200005
-0.061200004 0.028560001 0.61200005
-0.059936196 0.028513335 0.611
-0.058580004 0.028420001 0.60900003
-0.057325717 0.028373335 0.60800004
-0.056167621 0.028373335 0.60800004
-0.055009529 0.028373335 0.60800004
-0.053762861 0.028326668 0.60700005
-0.052606668 0.028326668 0.60700005
-0.051196195 0.028186668 0.60400003
-0.04996286 0.028140001 0.60300004
-0.048733335 0.028093334 0.60200006
-0.047507621 0.028046669 0.60100001
-0.046285719 0.028000003 0.60000002
-0.044992384 0.027906669 0.59800005
-0.043780003 0.027860003 0.597
-0.042571433 0.027813336 0.59600002
-0.0039666668 0.038873337 0.83300006
-0.0023800002 0.038873337 0.83300006
-0.00079142861 0.038780004 0.83100003
0.0007933334 0.038873337 0.83300006
0.0023800002 0.038873337 0.83300006
0.0039666668 0.038873337 0.83300006
-0.11730001 0.028900001 0.59500003
-0.11636192 0.028948573 0.59600002
-0.11542001 0.028997146 0.597
-0.1144743 0.029045716 0.59800005
-0.11352477 0.029094288 0.59900004
-0.11257143 0.029142858 0.60000002
-0.11161429 0.029191431 0.60100001
-0.11065334 0.029240001 0.60200006
-0.10968858 0.029288573 0.60300004
-0.10872 0.029337145 0.60400003
-0.10774763 0.029385716 0.60500002
-0.10677143 0.029434288 0.60600001
-0.10579143 0.029482858 0.60700005
-0.10480762 0.02953143 0.60800004
-0.10364953 0.02953143 0.60800004
-0.10266001 0.029580003 0.60900003
-0.10183334 0.029677145 0.611
-0.10066953 0.029677145 0.611
-0.099668577 0.029725716 0.61200005
-0.098502867 0.029725716 0.61200005
-0.097337149 0.029725716 0.61200005
-0.096171431 0.029725716 0.61200005
-0.095160961 0.029774288 0.61300004
-0.093993336 0.029774288 0.61300004
-0.092977151 0.02982286 0.61400002
-0.091957152 0.02987143 0.61500001
-0.090785719 0.02987143 0.61500001
-0.089614294 0.02987143 0.61500001
-0.088586673 0.029920002 0.61600006
-0.087413341 0.029920002 0.61600006
-0.086240008 0.029920002 0.61600006
-0.085066669 0.029920002 0.61600006
-0.083893336 0.029920002 0.61600006
-0.082720004 0.029920002 0.61600006
-0.081679054 0.029968573 0.61700004
-0.080373339 0.029920002 0.61600006
-0.079200007 0.029920002 0.61600006
-0.078026675 0.029920002 0.61600006
-0.076853335 0.029920002 0.61600006
-0.075680003 0.029920002 0.61600006
-0.07450667 0.029920002 0.61600006
-0.073214293 0.02987143 0.61500001
-0.071925722 0.02982286 0.61400002
-0.070756197 0.02982286 0.61400002
-0.069473341 0.029774288 0.61300004
-0.068305716 0.029774288 0.61300004
-0.067138098 0.029774288 0.61300004
-0.06597048 0.029774288 0.61300004
-0.064802863 0.029774288 0.61300004
-0.063635245 0.029774288 0.61300004
-0.062365718 0.029725716 0.61200005
-0.061200004 0.029725716 0.61200005
-0.059936196 0.029677145 0.611
-0.058772385 0.029677145 0.611
-0.057420004 0.029580003 0.60900003
-0.056167621 0.02953143 0.60800004
-0.055009529 0.02953143 0.60800004
-0.053762861 0.029482858 0.60700005
-0.052606668 0.029482858 0.60700005
-0.051111434 0.029288573 0.60300004
-0.049797148 0.029191431 0.60100001
-0.048652384 0.029191431 0.60100001
-0.047428574 0.029142858 0.60000002
-0.046131432 0.029045716 0.59800005
-0.044917148 0.028997146 0.597
-0.043780003 0.028997146 0.597
-0.042500004 0.028900001 0.59500003
-0.041297145 0.028851431 0.59400004
-0.026117144 0.040362861 0.83100003
-0.02295143 0.040362861 0.83100003
-0.021317145 0.040265717 0.82900006
-0.019785715 0.040362861 0.83100003
-0.01026381 0.040265717 0.82900006
-0.0086847628 0.040265717 0.82900006
-0.0071057146 0.040265717 0.82900006
-0.005526667 0.040265717 0.82900006
-0.0039476193 0.040265717 0.82900006
-0.0023685715 0.040265717 0.82900006
-0.00078952388 0.040265717 0.82900006
0.00078952388 0.040265717 0.82900006
0.0023685715 0.040265717 0.82900006
0.0039476193 0.040265717 0.82900006
0.005526667 0.040265717 0.82900006
0.0071057146 0.040265717 0.82900006
0.0086847628 0.040265717 0.82900006
0.01026381 0.040265717 0.82900006
0.011842858 0.040265717 0.82900006
0.024475239 0.040265717 0.82900006
0.026054287 0.040265717 0.82900006
0.027633335 0.040265717 0.82900006
0.029212384 0.040265717 0.82900006
0.03079143 0.040265717 0.82900006
0.032370478 0.040265717 0.82900006
0.033949528 0.040265717 0.82900006
0.035528574 0.040265717 0.82900006
0.03710762 0.040265717 0.82900006
0.03868667 0.040265717 0.82900006
0.040265717 0.040265717 0.82900006
0.041844763 0.040265717 0.82900006
0.043423813 0.040265717 0.82900006
0.045002859 0.040265717 0.82900006
0.046581909 0.040265717 0.82900006
-0.11730001 0.030033335 0.59500003
-0.11616667 0.030033335 0.59500003
-0.11522667 0.030083811 0.59600002
-0.1144743 0.030184764 0.59800005
-0.11352477 0.03023524 0.59900004
-0.11257143 0.030285716 0.60000002
-0.11161429 0.030336192 0.60100001
-0.11065334 0.03038667 0.60200006
-0.10968858 0.030437145 0.60300004
-0.10872 0.030487621 0.60400003
-0.10756953 0.030487621 0.60400003
-0.10677143 0.030588573 0.60600001
-0.10579143 0.030639051 0.60700005
-0.10480762 0.030689526 0.60800004
-0.10382 0.030740002 0.60900003
-0.10299715 0.030840954 0.611
-0.10183334 0.030840954 0.611
-0.10066953 0.030840954 0.611
-0.099668577 0.030891431 0.61200005
-0.098502867 0.030891431 0.61200005
-0.097337149 0.030891431 0.61200005
-0.096328579 0.030941907 0.61300004
-0.095316194 0.030992383 0.61400002
-0.094300009 0.031042859 0.61500001
-0.093128577 0.031042859 0.61500001
-0.09210667 0.031093335 0.61600006
-0.090933338 0.031093335 0.61600006
-0.089760005 0.031093335 0.61600006
-0.088586673 0.031093335 0.61600006
-0.087413341 0.031093335 0.61600006
-0.086240008 0.031093335 0.61600006
-0.085066669 0.031093335 0.61600006
-0.084029533 0.031143812 0.61700004
-0.082854293 0.031143812 0.61700004
-0.081679054 0.031143812 0.61700004
-0.080503814 0.031143812 0.61700004
-0.079328574 0.031143812 0.61700004
-0.078153342 0.031143812 0.61700004
-0.076978102 0.031143812 0.61700004
-0.075680003 0.031093335 0.61600006
-0.07450667 0.031093335 0.61600006
-0.073333338 0.031093335 0.61600006
-0.07204286 0.031042859 0.61500001
-0.070871435 0.031042859 0.61500001
-0.069700003 0.031042859 0.61500001
-0.068417147 0.030992383 0.61400002
-0.067247622 0.030992383 0.61400002
-0.066078097 0.030992383 0.61400002
-0.064802863 0.030941907 0.61300004
-0.063635245 0.030941907 0.61300004
-0.062467624 0.030941907 0.61300004
-0.061300006 0.030941907 0.61300004
-0.06003429 0.030891431 0.61200005
-0.058868576 0.030891431 0.61200005
-0.057608575 0.030840954 0.611
-0.056260005 0.030740002 0.60900003
-0.055100005 0.030740002 0.60900003
-0.053851433 0.030689526 0.60800004
-0.052606668 0.030639051 0.60700005
-0.051196195 0.030487621 0.60400003
-0.049880002 0.03038667 0.60200006
-0.048652384 0.030336192 0.60100001
-0.047428574 0.030285716 0.60000002
-0.046208575 0.03023524 0.59900004
-0.044917148 0.030134289 0.597
-0.043780003 0.030134289 0.597
-0.042500004 0.030033335 0.59500003
-0.041297145 0.029982859 0.59400004
-0.021265715 0.041743811 0.82700002
-0.019690478 0.041743811 0.82700002
-0.018115239 0.041743811 0.82700002
-0.014964763 0.041743811 0.82700002
-0.013389525 0.041743811 0.82700002
-0.010239048 0.041743811 0.82700002
-0.0086638099 0.041743811 0.82700002
-0.0070885718 0.041743811 0.82700002
-0.0055133337 0.041743811 0.82700002
-0.0039380956 0.041743811 0.82700002
-0.0023628573 0.041743811 0.82700002
-0.00078761909 0.041743811 0.82700002
0.00078761909 0.041743811 0.82700002
0.013389525 0.041743811 0.82700002
0.051071431 0.04164286 0.82500005
0.05264286 0.04164286 0.82500005
0.071500003 0.04164286 0.82500005
0.073071435 0.04164286 0.82500005
0.074642859 0.04164286 0.82500005
0.076214291 0.04164286 0.82500005
0.079357147 0.04164286 0.82500005
-0.11803525 0.031061906 0.59300005
-0.11710286 0.031114288 0.59400004
-0.11616667 0.031166669 0.59500003
-0.11522667 0.03121905 0.59600002
-0.11428286 0.031271432 0.597
-0.11333524 0.031323813 0.59800005
-0.11238382 0.031376194 0.59900004
-0.11161429 0.031480953 0.60100001
-0.11065334 0.031533334 0.60200006
-0.10968858 0.031585716 0.60300004
-0.10854001 0.031585716 0.60300004
-0.10756953 0.031638097 0.60400003
-0.10677143 0.03174286 0.60600001
-0.10579143 0.031795241 0.60700005
-0.10480762 0.031847622 0.60800004
-0.10382 0.031900004 0.60900003
-0.10299715 0.032004762 0.611
-0.10183334 0.032004762 0.611
-0.1008343 0.032057144 0.61200005
-0.099668577 0.032057144 0.61200005
-0.098502867 0.032057144 0.61200005
-0.097496197 0.032109525 0.61300004
-0.096328579 0.032109525 0.61300004
-0.095316194 0.032161906 0.61400002
-0.094300009 0.032214288 0.61500001
-0.093128577 0.032214288 0.61500001
-0.09210667 0.032266669 0.61600006
-0.090933338 0.032266669 0.61600006
-0.089760005 0.032266669 0.61600006
-0.088586673 0.032266669 0.61600006
-0.087555245 0.03231905 0.61700004
-0.086380005 0.03231905 0.61700004
-0.085204765 0.03231905 0.61700004
-0.084029533 0.03231905 0.61700004
-0.082854293 0.03231905 0.61700004
-0.081679054 0.03231905 0.61700004
-0.080503814 0.03231905 0.61700004
-0.079328574 0.03231905 0.61700004
-0.078153342 0.03231905 0.61700004
-0.076978102 0.03231905 0.61700004
-0.075802863 0.03231905 0.61700004
-0.074627623 0.03231905 0.61700004
-0.073333338 0.032266669 0.61600006
-0.072160006 0.032266669 0.61600006
-0.070871435 0.032214288 0.61500001
-0.069700003 0.032214288 0.61500001
-0.068528578 0.032214288 0.61500001
-0.067357145 0.032214288 0.61500001
-0.066078097 0.032161906 0.61400002
-0.064908579 0.032161906 0.61400002
-0.063739054 0.032161906 0.61400002
-0.062467624 0.032109525 0.61300004
-0.061300006 0.032109525 0.61300004
-0.06003429 0.032057144 0.61200005
-0.058868576 0.032057144 0.61200005
-0.057608575 0.032004762 0.611
-0.056260005 0.031900004 0.60900003
-0.055100005 0.031900004 0.60900003
-0.053851433 0.031847622 0.60800004
-0.052606668 0.031795241 0.60700005
-0.051196195 0.031638097 0.60400003
-0.049880002 0.031533334 0.60200006
-0.048652384 0.031480953 0.60100001
-0.047428574 0.031428572 0.60000002
-0.046131432 0.031323813 0.59800005
-0.044917148 0.031271432 0.597
-0.043780003 0.031271432 0.597
-0.042500004 0.031166669 0.59500003
-0.041297145 0.031114288 0.59400004
-0.040030479 0.031009525 0.59200001
-0.024357144 0.043214288 0.82500005
-0.022785716 0.043214288 0.82500005
-0.021214288 0.043214288 0.82500005
-0.019595239 0.043109525 0.82300001
-0.01807143 0.043214288 0.82500005
-0.016500002 0.043214288 0.82500005
-0.014928573 0.043214288 0.82500005
-0.010214286 0.043214288 0.82500005
-0.0086428579 0.043214288 0.82500005
-0.0070714289 0.043214288 0.82500005
-0.0055000004 0.043214288 0.82500005
-0.0039285715 0.043214288 0.82500005
-0.002357143 0.043214288 0.82500005
-0.00078571436 0.043214288 0.82500005
0.00078571436 0.043214288 0.82500005
0.035271432 0.043109525 0.82300001
0.036839049 0.043109525 0.82300001
0.03840667 0.043109525 0.82300001
0.039974287 0.043109525 0.82300001
0.041541908 0.043109525 0.82300001
0.046244767 0.043109525 0.82300001
0.049380004 0.043109525 0.82300001
0.050947621 0.043109525 0.82300001
0.052515242 0.043109525 0.82300001
0.054082859 0.043109525 0.82300001
0.05565048 0.043109525 0.82300001
0.057218097 0.043109525 0.82300001
0.068191431 0.043109525 0.82300001
-0.11803525 0.032191429 0.59300005
-0.11710286 0.032245718 0.59400004
-0.11597144 0.032245718 0.59400004
-0.11503334 0.032300003 0.59500003
-0.11428286 0.032408573 0.597
-0.11333524 0.032462858 0.59800005
-0.11238382 0.032517146 0.59900004
-0.11161429 0.032625716 0.60100001
-0.11065334 0.032680001 0.60200006
-0.10968858 0.032734286 0.60300004
-0.10872 0.032788575 0.60400003
-0.10756953 0.032788575 0.60400003
-0.10677143 0.032897145 0.60600001
-0.10579143 0.032951429 0.60700005
-0.10480762 0.033005718 0.60800004
-0.10382 0.033060003 0.60900003
-0.10299715 0.033168573 0.611
-0.10200001 0.033222858 0.61200005
-0.1008343 0.033222858 0.61200005
-0.099668577 0.033222858 0.61200005
-0.098502867 0.033222858 0.61200005
-0.097496197 0.033277147 0.61300004
-0.096328579 0.033277147 0.61300004
-0.095316194 0.033331431 0.61400002
-0.094300009 0.033385716 0.61500001
-0.093128577 0.033385716 0.61500001
-0.09210667 0.033440001 0.61600006
-0.090933338 0.033440001 0.61600006
-0.089905716 0.033494286 0.61700004
-0.088730484 0.033494286 0.61700004
-0.087555245 0.033494286 0.61700004
-0.086380005 0.033494286 0.61700004
-0.085204765 0.033494286 0.61700004
-0.084029533 0.033494286 0.61700004
-0.082854293 0.033494286 0.61700004
-0.081679054 0.033494286 0.61700004
-0.080503814 0.033494286 0.61700004
-0.079328574 0.033494286 0.61700004
-0.078153342 0.033494286 0.61700004
-0.076978102 0.033494286 0.61700004
-0.075802863 0.033494286 0.61700004
-0.074627623 0.033494286 0.61700004
-0.073452383 0.033494286 0.61700004
-0.072160006 0.033440001 0.61600006
-0.070986673 0.033440001 0.61600006
-0.069813341 0.033440001 0.61600006
-0.068528578 0.033385716 0.61500001
-0.067357145 0.033385716 0.61500001
-0.06618572 0.033385716 0.61500001
-0.065014288 0.033385716 0.61500001
-0.063739054 0.033331431 0.61400002
-0.062569529 0.033331431 0.61400002
-0.061300006 0.033277147 0.61300004
-0.060132384 0.033277147 0.61300004
-0.058868576 0.033222858 0.61200005
-0.057702862 0.033222858 0.61200005
-0.056444764 0.033168573 0.611
-0.055100005 0.033060003 0.60900003
-0.053851433 0.033005718 0.60800004
-0.052606668 0.032951429 0.60700005
-0.051280957 0.03284286 0.60500002
-0.04996286 0.032734286 0.60300004
-0.048652384 0.032625716 0.60100001
-0.047428574 0.032571431 0.60000002
-0.046131432 0.032462858 0.59800005
-0.044917148 0.032408573 0.597
-0.043633334 0.032300003 0.59500003
-0.042428575 0.032245718 0.59400004
-0.04122762 0.032191429 0.59300005
-0.040030479 0.032137144 0.59200001
-0.027433336 0.044677146 0.82300001
-0.025865717 0.044677146 0.82300001
-0.024298096 0.044677146 0.82300001
-0.022730477 0.044677146 0.82300001
-0.021111431 0.044568576 0.82100004
-0.019547621 0.044568576 0.82100004
-0.017983811 0.044568576 0.82100004
0.016420001 0.044568576 0.82100004
0.017983811 0.044568576 0.82100004
0.019547621 0.044568576 0.82100004
0.021111431 0.044568576 0.82100004
0.02267524 0.044568576 0.82100004
0.024239048 0.044568576 0.82100004
0.032058097 0.044568576 0.82100004
0.033621907 0.044568576 0.82100004
0.035185717 0.044568576 0.82100004
0.036749527 0.044568576 0.82100004
0.038313337 0.044568576 0.82100004
0.039877146 0.044568576 0.82100004
0.041440956 0.044568576 0.82100004
0.043004766 0.044568576 0.82100004
0.046132386 0.044568576 0.82100004
-0.11876287 0.033208575 0.59100002
-0.1178362 0.033264764 0.59200001
-0.11690572 0.033320956 0.59300005
-0.1157762 0.033320956 0.59300005
-0.11503334 0.033433337 0.59500003
-0.11428286 0.033545718 0.597
-0.11333524 0.033601906 0.59800005
-0.11238382 0.033658098 0.59900004
-0.11161429 0.033770479 0.60100001
-0.11065334 0.033826668 0.60200006
-0.10968858 0.03388286 0.60300004
-0.10872 0.033939049 0.60400003
-0.10756953 0.033939049 0.60400003
-0.10677143 0.034051429 0.60600001
-0.10579143 0.034107622 0.60700005
-0.10480762 0.03416381 0.60800004
-0.10382 0.034220003 0.60900003
-0.10299715 0.034332383 0.611
-0.10200001 0.034388572 0.61200005
-0.1008343 0.034388572 0.61200005
-0.099668577 0.034388572 0.61200005
-0.098502867 0.034388572 0.61200005
-0.097496197 0.034444764 0.61300004
-0.096328579 0.034444764 0.61300004
-0.095316194 0.034500953 0.61400002
-0.094453342 0.034613337 0.61600006
-0.093280002 0.034613337 0.61600006
-0.09210667 0.034613337 0.61600006
-0.090933338 0.034613337 0.61600006
-0.089905716 0.034669526 0.61700004
-0.088730484 0.034669526 0.61700004
-0.087555245 0.034669526 0.61700004
-0.086380005 0.034669526 0.61700004
-0.085204765 0.034669526 0.61700004
-0.084029533 0.034669526 0.61700004
-0.082854293 0.034669526 0.61700004
-0.081811436 0.034725718 0.61800003
-0.080634288 0.034725718 0.61800003
-0.079457149 0.034725718 0.61800003
-0.078280002 0.034725718 0.61800003
-0.076978102 0.034669526 0.61700004
-0.075802863 0.034669526 0.61700004
-0.074627623 0.034669526 0.61700004
-0.073452383 0.034669526 0.61700004
-0.072160006 0.034613337 0.61600006
-0.070986673 0.034613337 0.61600006
-0.069813341 0.034613337 0.61600006
-0.068640001 0.034613337 0.61600006
-0.067466669 0.034613337 0.61600006
-0.06618572 0.034557145 0.61500001
-0.065014288 0.034557145 0.61500001
-0.063842863 0.034557145 0.61500001
-0.062569529 0.034500953 0.61400002
-0.061400004 0.034500953 0.61400002
-0.060132384 0.034444764 0.61300004
-0.058868576 0.034388572 0.61200005
-0.057702862 0.034388572 0.61200005
-0.056444764 0.034332383 0.611
-0.055100005 0.034220003 0.60900003
-0.053851433 0.03416381 0.60800004
-0.052606668 0.034107622 0.60700005
-0.051196195 0.033939049 0.60400003
-0.04996286 0.03388286 0.60300004
-0.048733335 0.033826668 0.60200006
-0.047428574 0.033714287 0.60000002
-0.046208575 0.033658098 0.59900004
-0.044917148 0.033545718 0.597
-0.043633334 0.033433337 0.59500003
-0.042428575 0.033377144 0.59400004
-0.041158099 0.033264764 0.59200001
-0.039962858 0.033208575 0.59100002
-0.038705718 0.033096194 0.58900005
-0.037328575 0.032871429 0.58500004
-0.036276191 0.032927621 0.58600003
-0.0195 0.046020001 0.81900007
-0.017940002 0.046020001 0.81900007
0.014820001 0.046020001 0.81900007
0.016340001 0.04590762 0.81700003
0.017896192 0.04590762 0.81700003
0.0195 0.046020001 0.81900007
0.021008573 0.04590762 0.81700003
0.022564763 0.04590762 0.81700003
0.024120955 0.04590762 0.81700003
0.025677145 0.04590762 0.81700003
0.027233334 0.04590762 0.81700003
-0.12019525 0.034101907 0.58700001
-0.11968572 0.034276191 0.59000003
-0.11856192 0.034276191 0.59000003
-0.11763715 0.034334287 0.59100002
-0.11670858 0.034392383 0.59200001
-0.1157762 0.034450479 0.59300005
-0.11484001 0.034508575 0.59400004
-0.11409143 0.034624763 0.59600002
-0.11333524 0.034740955 0.59800005
-0.11238382 0.034799051 0.59900004
-0.11161429 0.034915239 0.60100001
-0.11065334 0.034973335 0.60200006
-0.10968858 0.03503143 0.60300004
-0.10872 0.035089526 0.60400003
-0.10774763 0.035147622 0.60500002
-0.10677143 0.035205718 0.60600001
-0.10579143 0.03526381 0.60700005
-0.10480762 0.035321906 0.60800004
-0.10382 0.035380002 0.60900003
-0.10299715 0.035496194 0.611
-0.10200001 0.03555429 0.61200005
-0.1008343 0.03555429 0.61200005
-0.099668577 0.03555429 0.61200005
-0.098663814 0.035612382 0.61300004
-0.097496197 0.035612382 0.61300004
-0.096328579 0.035612382 0.61300004
-0.095471434 0.035728574 0.61500001
-0.094453342 0.03578667 0.61600006
-0.093280002 0.03578667 0.61600006
-0.09210667 0.03578667 0.61600006
-0.090933338 0.03578667 0.61600006
-0.089905716 0.035844766 0.61700004
-0.088730484 0.035844766 0.61700004
-0.087555245 0.035844766 0.61700004
-0.086380005 0.035844766 0.61700004
-0.085204765 0.035844766 0.61700004
-0.084029533 0.035844766 0.61700004
-0.082988575 0.035902858 0.61800003
-0.081811436 0.035902858 0.61800003
-0.080634288 0.035902858 0.61800003
-0.079457149 0.035902858 0.61800003
-0.078280002 0.035902858 0.61800003
-0.077102862 0.035902858 0.61800003
-0.075925723 0.035902858 0.61800003
-0.074748576 0.035902858 0.61800003
-0.073452383 0.035844766 0.61700004
-0.072277151 0.035844766 0.61700004
-0.070986673 0.03578667 0.61600006
-0.069813341 0.03578667 0.61600006
-0.068640001 0.03578667 0.61600006
-0.067466669 0.03578667 0.61600006
-0.06618572 0.035728574 0.61500001
-0.065014288 0.035728574 0.61500001
-0.063842863 0.035728574 0.61500001
-0.06267143 0.035728574 0.61500001
-0.061400004 0.035670478 0.61400002
-0.060132384 0.035612382 0.61300004
-0.058868576 0.03555429 0.61200005
-0.057702862 0.03555429 0.61200005
-0.056444764 0.035496194 0.611
-0.055100005 0.035380002 0.60900003
-0.053851433 0.035321906 0.60800004
-0.052606668 0.03526381 0.60700005
-0.051196195 0.035089526 0.60400003
-0.04996286 0.03503143 0.60300004
-0.048733335 0.034973335 0.60200006
-0.047507621 0.034915239 0.60100001
-0.046208575 0.034799051 0.59900004
-0.044992384 0.034740955 0.59800005
-0.043633334 0.034566671 0.59500003
-0.042428575 0.034508575 0.59400004
-0.041158099 0.034392383 0.59200001
-0.03989524 0.034276191 0.59000003
-0.03857429 0.034101907 0.58700001
-0.037328575 0.033985715 0.58500004
-0.036152385 0.033927619 0.58400005
-0.019452382 0.047463812 0.81700003
-0.017896192 0.047463812 0.81700003
-0.00077809527 0.047463812 0.81700003
0.00077809527 0.047463812 0.81700003
0.0023342858 0.047463812 0.81700003
0.0038904764 0.047463812 0.81700003
0.0163 0.047347624 0.81500006
0.017852383 0.047347624 0.81500006
0.019404763 0.047347624 0.81500006
0.020957144 0.047347624 0.81500006
0.022509525 0.047347624 0.81500006
0.024061907 0.047347624 0.81500006
0.025582859 0.047289528 0.81400001
0.027133334 0.047289528 0.81400001
0.028719049 0.047347624 0.81500006
0.058214288 0.047347624 0.81500006
-0.12312858 0.035100002 0.58500004
-0.12131334 0.035220001 0.58700001
-0.12019525 0.035220001 0.58700001
-0.11928001 0.035280004 0.588
-0.11836096 0.035340004 0.58900005
-0.1174381 0.035400003 0.59000003
-0.11651143 0.035460003 0.59100002
-0.11558096 0.035520002 0.59200001
-0.11464667 0.035580002 0.59300005
-0.11390001 0.035700001 0.59500003
-0.11333524 0.035880003 0.59800005
-0.11238382 0.035940003 0.59900004
-0.11161429 0.036060002 0.60100001
-0.11065334 0.036120001 0.60200006
-0.10968858 0.036180001 0.60300004
-0.10872 0.036240004 0.60400003
-0.10756953 0.036240004 0.60400003
-0.10659525 0.036300004 0.60500002
-0.10579143 0.036420003 0.60700005
-0.10480762 0.036480002 0.60800004
-0.10364953 0.036480002 0.60800004
-0.10299715 0.036660001 0.611
-0.10200001 0.036720004 0.61200005
-0.1008343 0.036720004 0.61200005
-0.099668577 0.036720004 0.61200005
-0.098663814 0.036780003 0.61300004
-0.097496197 0.036780003 0.61300004
-0.096485719 0.036840003 0.61400002
-0.095471434 0.036900003 0.61500001
-0.094453342 0.036960002 0.61600006
-0.093280002 0.036960002 0.61600006
-0.09210667 0.036960002 0.61600006
-0.091080956 0.037020002 0.61700004
-0.089905716 0.037020002 0.61700004
-0.088730484 0.037020002 0.61700004
-0.087555245 0.037020002 0.61700004
-0.086380005 0.037020002 0.61700004
-0.085204765 0.037020002 0.61700004
-0.084165722 0.037080001 0.61800003
-0.082988575 0.037080001 0.61800003
-0.081811436 0.037080001 0.61800003
-0.080634288 0.037080001 0.61800003
-0.079585716 0.037140001 0.61900002
-0.078280002 0.037080001 0.61800003
-0.077102862 0.037080001 0.61800003
-0.075925723 0.037080001 0.61800003
-0.074748576 0.037080001 0.61800003
-0.073571436 0.037080001 0.61800003
-0.072277151 0.037020002 0.61700004
-0.071101911 0.037020002 0.61700004
-0.069926672 0.037020002 0.61700004
-0.068640001 0.036960002 0.61600006
-0.067466669 0.036960002 0.61600006
-0.066293336 0.036960002 0.61600006
-0.065120004 0.036960002 0.61600006
-0.063842863 0.036900003 0.61500001
-0.06267143 0.036900003 0.61500001
-0.061400004 0.036840003 0.61400002
-0.060132384 0.036780003 0.61300004
-0.058964767 0.036780003 0.61300004
-0.057702862 0.036720004 0.61200005
-0.056444764 0.036660001 0.611
-0.055100005 0.036540002 0.60900003
-0.053851433 0.036480002 0.60800004
-0.052606668 0.036420003 0.60700005
-0.051280957 0.036300004 0.60500002
-0.04996286 0.036180001 0.60300004
-0.048733335 0.036120001 0.60200006
-0.047586668 0.036120001 0.60200006
-0.046285719 0.036000002 0.60000002
-0.044992384 0.035880003 0.59800005
-0.043780003 0.035820004 0.597
-0.042428575 0.035640001 0.59400004
-0.041088574 0.035460003 0.59100002
-0.039827622 0.035340004 0.58900005
