# .PCD v0.7 - Point Cloud Data file format
VERSION 0.7
FIELDS x y z
SIZE 4 4 4
TYPE F F F
COUNT 1 1 1
WIDTH 1370
HEIGHT 1
VIEWPOINT 0 0 0 1 0 0 0
POINTS 1370
DATA ascii
-0.028560001 0.082182862 0.61200005
-0.027394287 0.082182862 0.61200005
-0.026228573 0.082182862 0.61200005
-0.025062859 0.082182862 0.61200005
-0.023897145 0.082182862 0.61200005
-0.022731431 0.082182862 0.61200005
-0.021565715 0.082182862 0.61200005
-0.020400001 0.082182862 0.61200005
-0.019234287 0.082182862 0.61200005
-0.018068573 0.082182862 0.61200005
-0.016902858 0.082182862 0.61200005
-0.015737144 0.082182862 0.61200005
-0.014571429 0.082182862 0.61200005
-0.013405715 0.082182862 0.61200005
-0.012220001 0.08204858 0.611
-0.011074287 0.082182862 0.61200005
-0.0099085718 0.082182862 0.61200005
-0.0087428577 0.082182862 0.61200005
-0.0075771431 0.082182862 0.61200005
-0.006411429 0.082182862 0.61200005
-0.0052457144 0.082182862 0.61200005
-0.0040800003 0.082182862 0.61200005
-0.002914286 0.082182862 0.61200005
-0.0017485715 0.082182862 0.61200005
-0.00058190478 0.08204858 0.611
0.00058190478 0.08204858 0.611
0.0017457145 0.08204858 0.611
0.0029095239 0.08204858 0.611
0.0040733335 0.08204858 0.611
0.0052457144 0.082182862 0.61200005
0.006421905 0.082317151 0.61300004
0.0075895241 0.082317151 0.61300004
0.0087571433 0.082317151 0.61300004
0.0099247629 0.082317151 0.61300004
0.011092382 0.082317151 0.61300004
0.012260001 0.082317151 0.61300004
0.013405715 0.082182862 0.61200005
0.014595239 0.082317151 0.61300004
0.015762858 0.082317151 0.61300004
0.016930478 0.082317151 0.61300004
0.018098097 0.082317151 0.61300004
0.019297143 0.082451433 0.61400002
0.020433335 0.082317151 0.61300004
0.021600954 0.082317151 0.61300004
0.022805715 0.082451433 0.61400002
0.023936192 0.082317151 0.61300004
0.025103811 0.082317151 0.61300004
0.026271431 0.082317151 0.61300004
0.027394287 0.082182862 0.61200005
0.028560001 0.082182862 0.61200005
0.029677145 0.08204858 0.611
0.030840954 0.08204858 0.611
0.032004762 0.08204858 0.611
0.033168573 0.08204858 0.611
0.034220003 0.081780009 0.60900003
-0.067357145 0.083757147 0.61500001
-0.06618572 0.083757147 0.61500001
-0.065014288 0.083757147 0.61500001
-0.063842863 0.083757147 0.61500001
-0.06267143 0.083757147 0.61500001
-0.061600003 0.083893336 0.61600006
-0.060426671 0.083893336 0.61600006
-0.059157148 0.083757147 0.61500001
-0.057985719 0.083757147 0.61500001
-0.056814291 0.083757147 0.61500001
-0.055642862 0.083757147 0.61500001
-0.054471433 0.083757147 0.61500001
-0.053300004 0.083757147 0.61500001
-0.052043814 0.083620958 0.61400002
-0.050874289 0.083620958 0.61400002
-0.049704764 0.083620958 0.61400002
-0.048456192 0.083484769 0.61300004
-0.047365718 0.083620958 0.61400002
-0.046120957 0.083484769 0.61300004
-0.044953335 0.083484769 0.61300004
-0.043857146 0.083620958 0.61400002
-0.042687621 0.083620958 0.61400002
-0.041450478 0.083484769 0.61300004
-0.04028286 0.083484769 0.61300004
-0.039115239 0.083484769 0.61300004
-0.037947621 0.083484769 0.61300004
-0.036720004 0.08334858 0.61200005
-0.03555429 0.08334858 0.61200005
-0.034388572 0.08334858 0.61200005
-0.033222858 0.08334858 0.61200005
-0.032057144 0.08334858 0.61200005
-0.030891431 0.08334858 0.61200005
-0.029725716 0.08334858 0.61200005
-0.028560001 0.08334858 0.61200005
-0.027394287 0.08334858 0.61200005
-0.026228573 0.08334858 0.61200005
-0.025062859 0.08334858 0.61200005
-0.023897145 0.08334858 0.61200005
-0.022731431 0.08334858 0.61200005
-0.021565715 0.08334858 0.61200005
-0.020400001 0.08334858 0.61200005
-0.019234287 0.08334858 0.61200005
-0.018068573 0.08334858 0.61200005
-0.016902858 0.08334858 0.61200005
-0.015737144 0.08334858 0.61200005
-0.01454762 0.083212383 0.611
-0.01338381 0.083212383 0.611
-0.012220001 0.083212383 0.611
-0.011056191 0.083212383 0.611
-0.0098923817 0.083212383 0.611
-0.0087285722 0.083212383 0.611
-0.0075647626 0.083212383 0.611
-0.0064009526 0.083212383 0.611
-0.0052457144 0.08334858 0.61200005
-0.0040733335 0.083212383 0.611
-0.0029095239 0.083212383 0.611
-0.0017457145 0.083212383 0.611
-0.00058190478 0.083212383 0.611
0.00058190478 0.083212383 0.611
0.0017457145 0.083212383 0.611
0.0029095239 0.083212383 0.611
0.0040733335 0.083212383 0.611
0.0052457144 0.08334858 0.61200005
0.006411429 0.08334858 0.61200005
0.0075771431 0.08334858 0.61200005
0.0087428577 0.08334858 0.61200005
0.0099085718 0.08334858 0.61200005
0.011074287 0.08334858 0.61200005
0.012240001 0.08334858 0.61200005
0.01338381 0.083212383 0.611
0.014571429 0.08334858 0.61200005
0.015737144 0.08334858 0.61200005
0.016902858 0.08334858 0.61200005
0.01803905 0.083212383 0.611
0.019265715 0.083484769 0.61300004
0.020400001 0.08334858 0.61200005
0.021565715 0.08334858 0.61200005
0.022731431 0.08334858 0.61200005
0.023897145 0.08334858 0.61200005
0.025062859 0.08334858 0.61200005
0.026228573 0.08334858 0.61200005
0.027349526 0.083212383 0.611
0.028513335 0.083212383 0.611
0.029580003 0.082940005 0.60900003
0.030840954 0.083212383 0.611
0.031900004 0.082940005 0.60900003
0.033060003 0.082940005 0.60900003
0.03416381 0.082803816 0.60800004
0.035380002 0.082940005 0.60900003
0.036660001 0.083212383 0.611
0.037947621 0.083484769 0.61300004
0.039115239 0.083484769 0.61300004
0.040348575 0.083620958 0.61400002
-0.067357145 0.08492858 0.61500001
-0.06618572 0.08492858 0.61500001
-0.065120004 0.085066669 0.61600006
-0.063946672 0.085066669 0.61600006
-0.06267143 0.08492858 0.61500001
-0.061600003 0.085066669 0.61600006
-0.060328577 0.08492858 0.61500001
-0.059157148 0.08492858 0.61500001
-0.057985719 0.08492858 0.61500001
-0.056814291 0.08492858 0.61500001
-0.055642862 0.08492858 0.61500001
-0.054471433 0.08492858 0.61500001
-0.053213336 0.084790483 0.61400002
-0.052043814 0.084790483 0.61400002
-0.050874289 0.084790483 0.61400002
-0.049704764 0.084790483 0.61400002
-0.048535243 0.084790483 0.61400002
-0.047365718 0.084790483 0.61400002
-0.046120957 0.084652387 0.61300004
-0.044953335 0.084652387 0.61300004
-0.043785717 0.084652387 0.61300004
-0.0426181 0.084652387 0.61300004
-0.041450478 0.084652387 0.61300004
-0.04028286 0.084652387 0.61300004
-0.039051432 0.08451429 0.61200005
-0.037885718 0.08451429 0.61200005
-0.036720004 0.08451429 0.61200005
-0.03555429 0.08451429 0.61200005
-0.034388572 0.08451429 0.61200005
-0.033222858 0.08451429 0.61200005
-0.032057144 0.08451429 0.61200005
-0.030891431 0.08451429 0.61200005
-0.029725716 0.08451429 0.61200005
-0.028560001 0.08451429 0.61200005
-0.027394287 0.08451429 0.61200005
-0.026228573 0.08451429 0.61200005
-0.025062859 0.08451429 0.61200005
-0.023897145 0.08451429 0.61200005
-0.022694288 0.084376194 0.611
-0.021565715 0.08451429 0.61200005
-0.020400001 0.08451429 0.61200005
-0.019202858 0.084376194 0.611
-0.01803905 0.084376194 0.611
-0.016875239 0.084376194 0.611
-0.015660001 0.084100008 0.60900003
-0.014500001 0.084100008 0.60900003
-0.013340001 0.084100008 0.60900003
-0.012180001 0.084100008 0.60900003
-0.011020001 0.084100008 0.60900003
-0.0098600006 0.084100008 0.60900003
-0.0087000001 0.084100008 0.60900003
-0.0075400006 0.084100008 0.60900003
-0.0063800006 0.084100008 0.60900003
-0.0052200002 0.084100008 0.60900003
-0.0040600002 0.084100008 0.60900003
-0.0029000002 0.084100008 0.60900003
-0.0017400001 0.084100008 0.60900003
-0.00058000005 0.084100008 0.60900003
0.00057904766 0.083961911 0.60800004
0.0017400001 0.084100008 0.60900003
0.0029000002 0.084100008 0.60900003
0.0040600002 0.084100008 0.60900003
0.005237143 0.084376194 0.611
0.0064009526 0.084376194 0.611
0.0075647626 0.084376194 0.611
0.0087285722 0.084376194 0.611
0.0098923817 0.084376194 0.611
0.011056191 0.084376194 0.611
0.012220001 0.084376194 0.611
0.01338381 0.084376194 0.611
0.01454762 0.084376194 0.611
0.01571143 0.084376194 0.611
0.016875239 0.084376194 0.611
0.01803905 0.084376194 0.611
0.019234287 0.08451429 0.61200005
0.020366669 0.084376194 0.611
0.021530477 0.084376194 0.611
0.022620002 0.084100008 0.60900003
0.023780001 0.084100008 0.60900003
0.025021907 0.084376194 0.611
0.026100002 0.084100008 0.60900003
0.027260002 0.084100008 0.60900003
0.028420001 0.084100008 0.60900003
0.02953143 0.083961911 0.60800004
0.030689526 0.083961911 0.60800004
0.031847622 0.083961911 0.60800004
0.032951429 0.083823815 0.60700005
0.034107622 0.083823815 0.60700005
0.035321906 0.083961911 0.60800004
0.036480002 0.083961911 0.60800004
0.037823811 0.084376194 0.611
0.039051432 0.08451429 0.61200005
0.040151432 0.084376194 0.611
0.041315243 0.084376194 0.611
0.063005716 0.082304768 0.59600002
0.064140953 0.082304768 0.59600002
0.065385722 0.082442865 0.597
0.066522859 0.082442865 0.597
-0.067247622 0.085960008 0.61400002
-0.06618572 0.086100005 0.61500001
-0.065014288 0.086100005 0.61500001
-0.063842863 0.086100005 0.61500001
-0.06267143 0.086100005 0.61500001
-0.061500005 0.086100005 0.61500001
-0.060328577 0.086100005 0.61500001
-0.059157148 0.086100005 0.61500001
-0.057985719 0.086100005 0.61500001
-0.056814291 0.086100005 0.61500001
-0.055642862 0.086100005 0.61500001
-0.054471433 0.086100005 0.61500001
-0.053213336 0.085960008 0.61400002
-0.052043814 0.085960008 0.61400002
-0.050874289 0.085960008 0.61400002
-0.049704764 0.085960008 0.61400002
-0.048535243 0.085960008 0.61400002
-0.047288574 0.085820004 0.61300004
-0.046120957 0.085820004 0.61300004
-0.044953335 0.085820004 0.61300004
-0.043785717 0.085820004 0.61300004
-0.0426181 0.085820004 0.61300004
-0.041450478 0.085820004 0.61300004
-0.04028286 0.085820004 0.61300004
-0.039051432 0.085680008 0.61200005
-0.037885718 0.085680008 0.61200005
-0.036720004 0.085680008 0.61200005
-0.03555429 0.085680008 0.61200005
-0.034388572 0.085680008 0.61200005
-0.033222858 0.085680008 0.61200005
-0.032057144 0.085680008 0.61200005
-0.030891431 0.085680008 0.61200005
-0.029725716 0.085680008 0.61200005
-0.028560001 0.085680008 0.61200005
-0.027349526 0.085540004 0.611
-0.026185716 0.085540004 0.611
-0.025021907 0.085540004 0.611
-0.023897145 0.085680008 0.61200005
-0.022694288 0.085540004 0.611
-0.021530477 0.085540004 0.611
-0.020366669 0.085540004 0.611
-0.019202858 0.085540004 0.611
-0.01803905 0.085540004 0.611
-0.01682 0.085260004 0.60900003
-0.015660001 0.085260004 0.60900003
-0.014500001 0.085260004 0.60900003
-0.013340001 0.085260004 0.60900003
-0.01216 0.085120007 0.60800004
-0.011001905 0.085120007 0.60800004
-0.0098438105 0.085120007 0.60800004
-0.0086857146 0.085120007 0.60800004
-0.0075400006 0.085260004 0.60900003
-0.0063800006 0.085260004 0.60900003
-0.0052200002 0.085260004 0.60900003
-0.0040533338 0.085120007 0.60800004
-0.0029000002 0.085260004 0.60900003
-0.0017371429 0.085120007 0.60800004
-0.00057904766 0.085120007 0.60800004
0.00057904766 0.085120007 0.60800004
0.0017371429 0.085120007 0.60800004
0.0028952383 0.085120007 0.60800004
0.0040533338 0.085120007 0.60800004
0.0052114287 0.085120007 0.60800004
0.0063695242 0.085120007 0.60800004
0.0075276196 0.085120007 0.60800004
0.0086857146 0.085120007 0.60800004
0.0098600006 0.085260004 0.60900003
0.011020001 0.085260004 0.60900003
0.012180001 0.085260004 0.60900003
0.013340001 0.085260004 0.60900003
0.014500001 0.085260004 0.60900003
0.015660001 0.085260004 0.60900003
0.01682 0.085260004 0.60900003
0.017980002 0.085260004 0.60900003
0.019140001 0.085260004 0.60900003
0.020300001 0.085260004 0.60900003
0.021460002 0.085260004 0.60900003
0.022582859 0.085120007 0.60800004
0.023740955 0.085120007 0.60800004
0.024940001 0.085260004 0.60900003
0.026057145 0.085120007 0.60800004
0.027215241 0.085120007 0.60800004
0.028373335 0.085120007 0.60800004
0.02953143 0.085120007 0.60800004
0.030689526 0.085120007 0.60800004
0.031795241 0.084980004 0.60700005
0.032951429 0.084980004 0.60700005
0.034107622 0.084980004 0.60700005
0.035321906 0.085120007 0.60800004
0.036420003 0.084980004 0.60700005
0.037638098 0.085120007 0.60800004
0.038860004 0.085260004 0.60900003
0.03995429 0.085120007 0.60800004
0.041112382 0.085120007 0.60800004
0.042200956 0.084980004 0.60700005
0.043357145 0.084980004 0.60700005
0.044513337 0.084980004 0.60700005
0.045669526 0.084980004 0.60700005
0.064834289 0.10248001 0.73200005
0.066228576 0.10248001 0.73200005
0.06166286 0.083160006 0.59400004
0.063005716 0.083440006 0.59600002
0.064140953 0.083440006 0.59600002
0.065385722 0.083580002 0.597
0.066522859 0.083580002 0.597
0.067660004 0.083580002 0.597
-0.067357145 0.087271437 0.61500001
-0.06618572 0.087271437 0.61500001
-0.065120004 0.087413341 0.61600006
-0.063946672 0.087413341 0.61600006
-0.06267143 0.087271437 0.61500001
-0.061500005 0.087271437 0.61500001
-0.060328577 0.087271437 0.61500001
-0.059157148 0.087271437 0.61500001
-0.057985719 0.087271437 0.61500001
-0.056721907 0.087129526 0.61400002
-0.055642862 0.087271437 0.61500001
-0.054471433 0.087271437 0.61500001
-0.053213336 0.087129526 0.61400002
-0.052043814 0.087129526 0.61400002
-0.050874289 0.087129526 0.61400002
-0.049623813 0.086987622 0.61300004
-0.048456192 0.086987622 0.61300004
-0.047288574 0.086987622 0.61300004
-0.046120957 0.086987622 0.61300004
-0.044953335 0.086987622 0.61300004
-0.043785717 0.086987622 0.61300004
-0.0426181 0.086987622 0.61300004
-0.041450478 0.086987622 0.61300004
-0.040217146 0.086845718 0.61200005
-0.039051432 0.086845718 0.61200005
-0.037885718 0.086845718 0.61200005
-0.036720004 0.086845718 0.61200005
-0.03555429 0.086845718 0.61200005
-0.034388572 0.086845718 0.61200005
-0.033222858 0.086845718 0.61200005
-0.032057144 0.086845718 0.61200005
-0.030891431 0.086845718 0.61200005
-0.029725716 0.086845718 0.61200005
-0.028513335 0.086703815 0.611
-0.027349526 0.086703815 0.611
-0.026185716 0.086703815 0.611
-0.025021907 0.086703815 0.611
-0.023858096 0.086703815 0.611
-0.022694288 0.086703815 0.611
-0.021530477 0.086703815 0.611
-0.020366669 0.086703815 0.611
-0.019140001 0.086420007 0.60900003
-0.017980002 0.086420007 0.60900003
-0.01682 0.086420007 0.60900003
-0.015634287 0.086278103 0.60800004
-0.014476191 0.086278103 0.60800004
-0.013318096 0.086278103 0.60800004
-0.01216 0.086278103 0.60800004
-0.011001905 0.086278103 0.60800004
-0.0098438105 0.086278103 0.60800004
-0.0086857146 0.086278103 0.60800004
-0.0075276196 0.086278103 0.60800004
-0.0063695242 0.086278103 0.60800004
-0.0052114287 0.086278103 0.60800004
-0.0040533338 0.086278103 0.60800004
-0.0028952383 0.086278103 0.60800004
-0.0017371429 0.086278103 0.60800004
-0.00057904766 0.086278103 0.60800004
0.00057904766 0.086278103 0.60800004
0.0017371429 0.086278103 0.60800004
0.0028952383 0.086278103 0.60800004
0.0040533338 0.086278103 0.60800004
0.0052114287 0.086278103 0.60800004
0.0063695242 0.086278103 0.60800004
0.0075276196 0.086278103 0.60800004
0.0086857146 0.086278103 0.60800004
0.0098438105 0.086278103 0.60800004
0.011001905 0.086278103 0.60800004
0.012180001 0.086420007 0.60900003
0.013340001 0.086420007 0.60900003
0.014500001 0.086420007 0.60900003
0.015660001 0.086420007 0.60900003
0.016792381 0.086278103 0.60800004
0.017950477 0.086278103 0.60800004
0.019108573 0.086278103 0.60800004
0.020266669 0.086278103 0.60800004
0.021424763 0.086278103 0.60800004
0.022582859 0.086278103 0.60800004
0.023740955 0.086278103 0.60800004
0.024899049 0.086278103 0.60800004
0.026057145 0.086278103 0.60800004
0.027215241 0.086278103 0.60800004
0.028373335 0.086278103 0.60800004
0.029482858 0.0861362 0.60700005
0.030639051 0.0861362 0.60700005
0.031795241 0.0861362 0.60700005
0.032897145 0.085994288 0.60600001
0.034051429 0.085994288 0.60600001
0.03526381 0.0861362 0.60700005
0.036420003 0.0861362 0.60700005
0.037638098 0.086278103 0.60800004
0.038796194 0.086278103 0.60800004
0.03995429 0.086278103 0.60800004
0.041044764 0.0861362 0.60700005
0.042131431 0.085994288 0.60600001
0.043357145 0.0861362 0.60700005
0.044513337 0.0861362 0.60700005
0.045669526 0.0861362 0.60700005
0.046825718 0.0861362 0.60700005
0.047981907 0.0861362 0.60700005
0.049138099 0.0861362 0.60700005
0.050294288 0.0861362 0.60700005
0.051365718 0.085994288 0.60600001
0.06166286 0.084291436 0.59400004
0.062900007 0.08443334 0.59500003
0.064033337 0.08443334 0.59500003
0.065276198 0.084575243 0.59600002
0.066411436 0.084575243 0.59600002
0.067660004 0.084717147 0.597
-0.067466669 0.088586673 0.61600006
-0.066293336 0.088586673 0.61600006
-0.065120004 0.088586673 0.61600006
-0.063946672 0.088586673 0.61600006
-0.062773339 0.088586673 0.61600006
-0.061600003 0.088586673 0.61600006
-0.060426671 0.088586673 0.61600006
-0.059157148 0.088442862 0.61500001
-0.057985719 0.088442862 0.61500001
-0.056721907 0.088299051 0.61400002
-0.055552386 0.088299051 0.61400002
-0.054382861 0.088299051 0.61400002
-0.053213336 0.088299051 0.61400002
-0.052043814 0.088299051 0.61400002
-0.050791431 0.088155247 0.61300004
-0.049623813 0.088155247 0.61300004
-0.048456192 0.088155247 0.61300004
-0.047288574 0.088155247 0.61300004
-0.046120957 0.088155247 0.61300004
-0.044953335 0.088155247 0.61300004
-0.043785717 0.088155247 0.61300004
-0.0426181 0.088155247 0.61300004
-0.041450478 0.088155247 0.61300004
-0.040217146 0.088011436 0.61200005
-0.039051432 0.088011436 0.61200005
-0.037885718 0.088011436 0.61200005
-0.036720004 0.088011436 0.61200005
-0.03555429 0.088011436 0.61200005
-0.034388572 0.088011436 0.61200005
-0.033168573 0.087867625 0.611
-0.032004762 0.087867625 0.611
-0.030840954 0.087867625 0.611
-0.029677145 0.087867625 0.611
-0.028513335 0.087867625 0.611
-0.027349526 0.087867625 0.611
-0.026185716 0.087867625 0.611
-0.025021907 0.087867625 0.611
-0.023858096 0.087867625 0.611
-0.022694288 0.087867625 0.611
-0.021530477 0.087867625 0.611
-0.020300001 0.087580003 0.60900003
-0.019140001 0.087580003 0.60900003
-0.017980002 0.087580003 0.60900003
-0.016792381 0.087436199 0.60800004
-0.015634287 0.087436199 0.60800004
-0.014476191 0.087436199 0.60800004
-0.013318096 0.087436199 0.60800004
-0.01216 0.087436199 0.60800004
-0.011001905 0.087436199 0.60800004
-0.0098438105 0.087436199 0.60800004
-0.0086857146 0.087436199 0.60800004
-0.0075276196 0.087436199 0.60800004
-0.0063695242 0.087436199 0.60800004
-0.0052028573 0.087292388 0.60700005
-0.0040466669 0.087292388 0.60700005
-0.0028904765 0.087292388 0.60700005
-0.0017342858 0.087292388 0.60700005
-0.00057904766 0.087436199 0.60800004
0.00057809526 0.087292388 0.60700005
0.0017371429 0.087436199 0.60800004
0.0028904765 0.087292388 0.60700005
0.0040466669 0.087292388 0.60700005
0.0052028573 0.087292388 0.60700005
0.0063590482 0.087292388 0.60700005
0.0075152386 0.087292388 0.60700005
0.008671429 0.087292388 0.60700005
0.0098276194 0.087292388 0.60700005
0.01098381 0.087292388 0.60700005
0.012140001 0.087292388 0.60700005
0.013318096 0.087436199 0.60800004
0.014476191 0.087436199 0.60800004
0.015634287 0.087436199 0.60800004
0.016792381 0.087436199 0.60800004
0.017920954 0.087292388 0.60700005
0.019077145 0.087292388 0.60700005
0.020233335 0.087292388 0.60700005
0.021389525 0.087292388 0.60700005
0.022545716 0.087292388 0.60700005
0.023701906 0.087292388 0.60700005
0.024858097 0.087292388 0.60700005
0.026014287 0.087292388 0.60700005
0.027170477 0.087292388 0.60700005
0.028326668 0.087292388 0.60700005
0.029482858 0.087292388 0.60700005
0.030639051 0.087292388 0.60700005
0.031690478 0.087004766 0.60500002
0.03284286 0.087004766 0.60500002
0.034051429 0.087148577 0.60600001
0.03526381 0.087292388 0.60700005
0.036360003 0.087148577 0.60600001
0.037514288 0.087148577 0.60600001
0.038668573 0.087148577 0.60600001
0.039822862 0.087148577 0.60600001
0.040977146 0.087148577 0.60600001
0.042131431 0.087148577 0.60600001
0.043285716 0.087148577 0.60600001
0.044440001 0.087148577 0.60600001
0.04559429 0.087148577 0.60600001
0.046748575 0.087148577 0.60600001
0.047981907 0.087292388 0.60700005
0.049138099 0.087292388 0.60700005
0.050211433 0.087148577 0.60600001
0.051365718 0.087148577 0.60600001
0.052433338 0.087004766 0.60500002
0.053497147 0.086860955 0.60400003
0.054738101 0.087004766 0.60500002
0.055798098 0.086860955 0.60400003
0.059200004 0.085135244 0.59200001
0.060327623 0.085135244 0.59200001
0.061559051 0.085279055 0.59300005
0.06279429 0.085422866 0.59400004
0.064033337 0.08556667 0.59500003
0.065166675 0.08556667 0.59500003
0.066300005 0.08556667 0.59500003
0.067546673 0.085710481 0.59600002
0.068797149 0.085854292 0.597
-0.067466669 0.089760005 0.61600006
-0.066293336 0.089760005 0.61600006
-0.065120004 0.089760005 0.61600006
-0.063946672 0.089760005 0.61600006
-0.062773339 0.089760005 0.61600006
-0.061600003 0.089760005 0.61600006
-0.060426671 0.089760005 0.61600006
-0.059157148 0.089614294 0.61500001
-0.057985719 0.089614294 0.61500001
-0.056721907 0.089468576 0.61400002
-0.055552386 0.089468576 0.61400002
-0.054382861 0.089468576 0.61400002
-0.053213336 0.089468576 0.61400002
-0.051959053 0.089322865 0.61300004
-0.050791431 0.089322865 0.61300004
-0.049623813 0.089322865 0.61300004
-0.048456192 0.089322865 0.61300004
-0.047288574 0.089322865 0.61300004
-0.046120957 0.089322865 0.61300004
-0.044953335 0.089322865 0.61300004
-0.043785717 0.089322865 0.61300004
-0.0426181 0.089322865 0.61300004
-0.04138286 0.089177147 0.61200005
-0.040217146 0.089177147 0.61200005
-0.039051432 0.089177147 0.61200005
-0.037885718 0.089177147 0.61200005
-0.036720004 0.089177147 0.61200005
-0.03555429 0.089177147 0.61200005
-0.034332383 0.089031436 0.611
-0.033168573 0.089031436 0.611
-0.032004762 0.089031436 0.611
-0.030840954 0.089031436 0.611
-0.029677145 0.089031436 0.611
-0.028513335 0.089031436 0.611
-0.027349526 0.089031436 0.611
-0.026185716 0.089031436 0.611
-0.025021907 0.089031436 0.611
-0.023858096 0.089031436 0.611
-0.022694288 0.089031436 0.611
-0.021530477 0.089031436 0.611
-0.020300001 0.088740006 0.60900003
-0.019140001 0.088740006 0.60900003
-0.017950477 0.088594295 0.60800004
-0.016792381 0.088594295 0.60800004
-0.015634287 0.088594295 0.60800004
-0.014476191 0.088594295 0.60800004
-0.013318096 0.088594295 0.60800004
-0.012140001 0.088448577 0.60700005
-0.01098381 0.088448577 0.60700005
-0.0098276194 0.088448577 0.60700005
-0.008671429 0.088448577 0.60700005
-0.0075152386 0.088448577 0.60700005
-0.0063590482 0.088448577 0.60700005
-0.0052028573 0.088448577 0.60700005
-0.0040466669 0.088448577 0.60700005
-0.0028904765 0.088448577 0.60700005
-0.0017342858 0.088448577 0.60700005
-0.00057809526 0.088448577 0.60700005
0.00057809526 0.088448577 0.60700005
0.0017342858 0.088448577 0.60700005
0.0028904765 0.088448577 0.60700005
0.0040466669 0.088448577 0.60700005
0.0052028573 0.088448577 0.60700005
0.0063590482 0.088448577 0.60700005
0.0075028576 0.088302866 0.60600001
0.0086571435 0.088302866 0.60600001
0.0098114293 0.088302866 0.60600001
0.010929525 0.088011436 0.60400003
0.012120001 0.088302866 0.60600001
0.013296192 0.088448577 0.60700005
0.014452382 0.088448577 0.60700005
0.015608572 0.088448577 0.60700005
0.016764764 0.088448577 0.60700005
0.017891429 0.088302866 0.60600001
0.019045716 0.088302866 0.60600001
0.020200001 0.088302866 0.60600001
0.021354288 0.088302866 0.60600001
0.022508573 0.088302866 0.60600001
0.02366286 0.088302866 0.60600001
0.024817144 0.088302866 0.60600001
0.025971429 0.088302866 0.60600001
0.027125716 0.088302866 0.60600001
0.028280001 0.088302866 0.60600001
0.029434288 0.088302866 0.60600001
0.030588573 0.088302866 0.60600001
0.031638097 0.088011436 0.60400003
0.032788575 0.088011436 0.60400003
0.033939049 0.088011436 0.60400003
0.035147622 0.088157147 0.60500002
0.036300004 0.088157147 0.60500002
0.037452385 0.088157147 0.60500002
0.038604766 0.088157147 0.60500002
0.039757144 0.088157147 0.60500002
0.040909525 0.088157147 0.60500002
0.042061906 0.088157147 0.60500002
0.043142859 0.088011436 0.60400003
0.044366669 0.088157147 0.60500002
0.045443814 0.088011436 0.60400003
0.046671432 0.088157147 0.60500002
0.047823813 0.088157147 0.60500002
0.048976194 0.088157147 0.60500002
0.050128575 0.088157147 0.60500002
0.051196195 0.088011436 0.60400003
0.052260004 0.087865718 0.60300004
0.053320002 0.087720007 0.60200006
0.054557145 0.087865718 0.60300004
0.060327623 0.086262859 0.59200001
0.061455242 0.086262859 0.59200001
0.062688574 0.086408578 0.59300005
0.063925721 0.086554289 0.59400004
0.065057144 0.086554289 0.59400004
0.066188574 0.086554289 0.59400004
0.067320004 0.086554289 0.59400004
0.068681911 0.086845718 0.59600002
0.069817148 0.086845718 0.59600002
-0.068751432 0.091080956 0.61700004
-0.067466669 0.090933338 0.61600006
-0.066293336 0.090933338 0.61600006
-0.065120004 0.090933338 0.61600006
-0.063946672 0.090933338 0.61600006
-0.062773339 0.090933338 0.61600006
-0.061600003 0.090933338 0.61600006
-0.060426671 0.090933338 0.61600006
-0.059157148 0.090785719 0.61500001
-0.057985719 0.090785719 0.61500001
-0.056721907 0.090638101 0.61400002
-0.055552386 0.090638101 0.61400002
-0.054382861 0.090638101 0.61400002
-0.053213336 0.090638101 0.61400002
-0.051959053 0.090490483 0.61300004
-0.050791431 0.090490483 0.61300004
-0.049623813 0.090490483 0.61300004
-0.048456192 0.090490483 0.61300004
-0.047288574 0.090490483 0.61300004
-0.046120957 0.090490483 0.61300004
-0.044953335 0.090490483 0.61300004
-0.043785717 0.090490483 0.61300004
-0.0426181 0.090490483 0.61300004
-0.04138286 0.090342864 0.61200005
-0.040217146 0.090342864 0.61200005
-0.039051432 0.090342864 0.61200005
-0.037885718 0.090342864 0.61200005
-0.036720004 0.090342864 0.61200005
-0.03555429 0.090342864 0.61200005
-0.034388572 0.090342864 0.61200005
-0.033168573 0.090195246 0.611
-0.032004762 0.090195246 0.611
-0.030840954 0.090195246 0.611
-0.029677145 0.090195246 0.611
-0.028513335 0.090195246 0.611
-0.027349526 0.090195246 0.611
-0.026185716 0.090195246 0.611
-0.024940001 0.089900009 0.60900003
-0.023780001 0.089900009 0.60900003
-0.022620002 0.089900009 0.60900003
-0.021460002 0.089900009 0.60900003
-0.020266669 0.089752384 0.60800004
-0.019108573 0.089752384 0.60800004
-0.017950477 0.089752384 0.60800004
-0.016792381 0.089752384 0.60800004
-0.015634287 0.089752384 0.60800004
-0.014452382 0.089604765 0.60700005
-0.013296192 0.089604765 0.60700005
-0.012140001 0.089604765 0.60700005
-0.01098381 0.089604765 0.60700005
-0.0098276194 0.089604765 0.60700005
-0.008671429 0.089604765 0.60700005
-0.0075152386 0.089604765 0.60700005
-0.0063590482 0.089604765 0.60700005
-0.0051942859 0.089457147 0.60600001
-0.0040400005 0.089457147 0.60600001
-0.0028857144 0.089457147 0.60600001
-0.0017314287 0.089457147 0.60600001
-0.00057714287 0.089457147 0.60600001
0.00057714287 0.089457147 0.60600001
0.0017314287 0.089457147 0.60600001
0.0028857144 0.089457147 0.60600001
0.0040400005 0.089457147 0.60600001
0.0051942859 0.089457147 0.60600001
0.0063485717 0.089457147 0.60600001
0.0074780956 0.08916191 0.60400003
0.0086428579 0.089309528 0.60500002
0.0097790482 0.08916191 0.60400003
0.010911429 0.089014292 0.60300004
0.012060001 0.089014292 0.60300004
0.013208573 0.089014292 0.60300004
0.014357144 0.089014292 0.60300004
0.015505715 0.089014292 0.60300004
0.016681906 0.08916191 0.60400003
0.017832382 0.08916191 0.60400003
0.018982857 0.08916191 0.60400003
0.020100001 0.089014292 0.60300004
0.021283811 0.08916191 0.60400003
0.022434287 0.08916191 0.60400003
0.023584763 0.08916191 0.60400003
0.02473524 0.08916191 0.60400003
0.025885716 0.08916191 0.60400003
0.026991431 0.089014292 0.60300004
0.028140001 0.089014292 0.60300004
0.029288573 0.089014292 0.60300004
0.030437145 0.089014292 0.60300004
0.031533334 0.088866673 0.60200006
0.032680001 0.088866673 0.60200006
0.033826668 0.088866673 0.60200006
0.034973335 0.088866673 0.60200006
0.036180001 0.089014292 0.60300004
0.037328575 0.089014292 0.60300004
0.038477145 0.089014292 0.60300004
0.039625715 0.089014292 0.60300004
0.04077429 0.089014292 0.60300004
0.041853335 0.088866673 0.60200006
0.043000001 0.088866673 0.60200006
0.044146668 0.088866673 0.60200006
0.045218099 0.088719055 0.60100001
0.046285719 0.088571437 0.60000002
0.047428574 0.088571437 0.60000002
0.04857143 0.088571437 0.60000002
0.04971429 0.088571437 0.60000002
0.050941907 0.088719055 0.60100001
0.052000005 0.088571437 0.60000002
0.053142861 0.088571437 0.60000002
0.054285716 0.088571437 0.60000002
0.055428576 0.088571437 0.60000002
0.056382861 0.0882762 0.59800005
0.057521909 0.0882762 0.59800005
0.058366671 0.087833337 0.59500003
0.059300005 0.087538101 0.59300005
0.060021907 0.086947627 0.58900005
0.061247624 0.087095246 0.59000003
0.062477145 0.087242864 0.59100002
0.063710481 0.087390482 0.59200001
0.064838096 0.087390482 0.59200001
0.06607715 0.087538101 0.59300005
0.067320004 0.087685719 0.59400004
0.068566673 0.087833337 0.59500003
0.069700003 0.087833337 0.59500003
-0.069926672 0.092256196 0.61700004
-0.068751432 0.092256196 0.61700004
-0.067576192 0.092256196 0.61700004
-0.06640096 0.092256196 0.61700004
-0.06522572 0.092256196 0.61700004
-0.063946672 0.09210667 0.61600006
-0.062773339 0.09210667 0.61600006
-0.061600003 0.09210667 0.61600006
-0.060426671 0.09210667 0.61600006
-0.059253339 0.09210667 0.61600006
-0.058080003 0.09210667 0.61600006
-0.056814291 0.091957152 0.61500001
-0.055642862 0.091957152 0.61500001
-0.054382861 0.091807626 0.61400002
-0.053213336 0.091807626 0.61400002
-0.051959053 0.0916581 0.61300004
-0.050791431 0.0916581 0.61300004
-0.049623813 0.0916581 0.61300004
-0.048456192 0.0916581 0.61300004
-0.047288574 0.0916581 0.61300004
-0.046120957 0.0916581 0.61300004
-0.044953335 0.0916581 0.61300004
-0.043785717 0.0916581 0.61300004
-0.0426181 0.0916581 0.61300004
-0.04138286 0.091508575 0.61200005
-0.040217146 0.091508575 0.61200005
-0.039051432 0.091508575 0.61200005
-0.037885718 0.091508575 0.61200005
-0.036720004 0.091508575 0.61200005
-0.03555429 0.091508575 0.61200005
-0.034388572 0.091508575 0.61200005
-0.033222858 0.091508575 0.61200005
-0.032004762 0.091359057 0.611
-0.030840954 0.091359057 0.611
-0.029677145 0.091359057 0.611
-0.028513335 0.091359057 0.611
-0.027349526 0.091359057 0.611
-0.026100002 0.091060005 0.60900003
-0.024940001 0.091060005 0.60900003
-0.023780001 0.091060005 0.60900003
-0.022620002 0.091060005 0.60900003
-0.021424763 0.090910479 0.60800004
-0.020266669 0.090910479 0.60800004
-0.019108573 0.090910479 0.60800004
-0.017950477 0.090910479 0.60800004
-0.016792381 0.090910479 0.60800004
-0.015608572 0.090760961 0.60700005
-0.014452382 0.090760961 0.60700005
-0.013296192 0.090760961 0.60700005
-0.012140001 0.090760961 0.60700005
-0.010965715 0.090611435 0.60600001
-0.0098114293 0.090611435 0.60600001
-0.0086571435 0.090611435 0.60600001
-0.0075028576 0.090611435 0.60600001
-0.0063485717 0.090611435 0.60600001
-0.0051942859 0.090611435 0.60600001
-0.0040400005 0.090611435 0.60600001
-0.0028857144 0.090611435 0.60600001
-0.0017314287 0.090611435 0.60600001
-0.00057714287 0.090611435 0.60600001
0.00057714287 0.090611435 0.60600001
0.0017314287 0.090611435 0.60600001
0.0028857144 0.090611435 0.60600001
0.0040400005 0.090611435 0.60600001
0.005177143 0.090312384 0.60400003
0.0063276193 0.090312384 0.60400003
0.0074780956 0.090312384 0.60400003
0.0086285723 0.090312384 0.60400003
0.009762858 0.090162866 0.60300004
0.010911429 0.090162866 0.60300004
0.012060001 0.090162866 0.60300004
0.013208573 0.090162866 0.60300004
0.014357144 0.090162866 0.60300004
0.015505715 0.090162866 0.60300004
0.016654287 0.090162866 0.60300004
0.017802859 0.090162866 0.60300004
0.018951429 0.090162866 0.60300004
0.020100001 0.090162866 0.60300004
0.021248573 0.090162866 0.60300004
0.022397144 0.090162866 0.60300004
0.023545716 0.090162866 0.60300004
0.024694288 0.090162866 0.60300004
0.025842858 0.090162866 0.60300004
0.026991431 0.090162866 0.60300004
0.028046669 0.089863814 0.60100001
0.029240001 0.09001334 0.60200006
0.03038667 0.09001334 0.60200006
0.031480953 0.089863814 0.60100001
0.032625716 0.089863814 0.60100001
0.033770479 0.089863814 0.60100001
0.034915239 0.089863814 0.60100001
0.036060002 0.089863814 0.60100001
0.037204765 0.089863814 0.60100001
0.038413335 0.09001334 0.60200006
0.039494287 0.089863814 0.60100001
0.04063905 0.089863814 0.60100001
0.041714288 0.089714289 0.60000002
0.042857144 0.089714289 0.60000002
0.044000003 0.089714289 0.60000002
0.045067623 0.08956477 0.59900004
0.046131432 0.089415245 0.59800005
0.047270481 0.089415245 0.59800005
0.048409525 0.089415245 0.59800005
0.049548574 0.089415245 0.59800005
0.050772384 0.08956477 0.59900004
0.051913336 0.08956477 0.59900004
0.053054288 0.08956477 0.59900004
0.05419524 0.08956477 0.59900004
0.055336192 0.08956477 0.59900004
0.056382861 0.089415245 0.59800005
0.057425719 0.089265719 0.597
0.058268577 0.088817149 0.59400004
0.059200004 0.088518098 0.59200001
0.059920006 0.087920003 0.588
0.061040003 0.087920003 0.588
0.06226572 0.088069528 0.58900005
-0.069926672 0.093431436 0.61700004
-0.068751432 0.093431436 0.61700004
-0.067576192 0.093431436 0.61700004
-0.06640096 0.093431436 0.61700004
-0.06522572 0.093431436 0.61700004
-0.063946672 0.093280002 0.61600006
-0.062773339 0.093280002 0.61600006
-0.061600003 0.093280002 0.61600006
-0.060426671 0.093280002 0.61600006
-0.059253339 0.093280002 0.61600006
-0.058080003 0.093280002 0.61600006
-0.056814291 0.093128577 0.61500001
-0.055642862 0.093128577 0.61500001
-0.054382861 0.092977151 0.61400002
-0.053213336 0.092977151 0.61400002
-0.051959053 0.092825718 0.61300004
-0.050791431 0.092825718 0.61300004
-0.049623813 0.092825718 0.61300004
-0.048456192 0.092825718 0.61300004
-0.047288574 0.092825718 0.61300004
-0.046120957 0.092825718 0.61300004
-0.044953335 0.092825718 0.61300004
-0.043785717 0.092825718 0.61300004
-0.042548575 0.092674293 0.61200005
-0.04138286 0.092674293 0.61200005
-0.040217146 0.092674293 0.61200005
-0.039051432 0.092674293 0.61200005
-0.037885718 0.092674293 0.61200005
-0.036720004 0.092674293 0.61200005
-0.03555429 0.092674293 0.61200005
-0.034388572 0.092674293 0.61200005
-0.033168573 0.09252286 0.611
-0.032004762 0.09252286 0.611
-0.030840954 0.09252286 0.611
-0.029677145 0.09252286 0.611
-0.028513335 0.09252286 0.611
-0.027349526 0.09252286 0.611
-0.026100002 0.092220008 0.60900003
-0.024940001 0.092220008 0.60900003
-0.023780001 0.092220008 0.60900003
-0.022620002 0.092220008 0.60900003
-0.021424763 0.092068575 0.60800004
-0.020266669 0.092068575 0.60800004
-0.019108573 0.092068575 0.60800004
-0.017950477 0.092068575 0.60800004
-0.016792381 0.092068575 0.60800004
-0.015608572 0.09191715 0.60700005
-0.014452382 0.09191715 0.60700005
-0.013296192 0.09191715 0.60700005
-0.012140001 0.09191715 0.60700005
-0.010965715 0.091765717 0.60600001
-0.0098114293 0.091765717 0.60600001
-0.0086571435 0.091765717 0.60600001
-0.0075028576 0.091765717 0.60600001
-0.0063485717 0.091765717 0.60600001
-0.0051942859 0.091765717 0.60600001
-0.0040333336 0.091614291 0.60500002
-0.0028857144 0.091765717 0.60600001
-0.0017314287 0.091765717 0.60600001
-0.00057714287 0.091765717 0.60600001
0.00057714287 0.091765717 0.60600001
0.0017314287 0.091765717 0.60600001
0.0028857144 0.091765717 0.60600001
0.0040400005 0.091765717 0.60600001
0.005177143 0.091462865 0.60400003
0.0063276193 0.091462865 0.60400003
0.0074657146 0.091311432 0.60300004
0.0086142858 0.091311432 0.60300004
0.009762858 0.091311432 0.60300004
0.010911429 0.091311432 0.60300004
0.012060001 0.091311432 0.60300004
0.013186667 0.091160007 0.60200006
0.014333334 0.091160007 0.60200006
0.015454287 0.091008574 0.60100001
0.016626667 0.091160007 0.60200006
0.017802859 0.091311432 0.60300004
0.018951429 0.091311432 0.60300004
0.020100001 0.091311432 0.60300004
0.021248573 0.091311432 0.60300004
0.022397144 0.091311432 0.60300004
0.023545716 0.091311432 0.60300004
0.024694288 0.091311432 0.60300004
0.025800001 0.091160007 0.60200006
0.026901906 0.091008574 0.60100001
0.028000003 0.090857148 0.60000002
0.029191431 0.091008574 0.60100001
0.030336192 0.091008574 0.60100001
0.031428572 0.090857148 0.60000002
0.032571431 0.090857148 0.60000002
0.033714287 0.090857148 0.60000002
0.034857146 0.090857148 0.60000002
0.036000002 0.090857148 0.60000002
0.037080955 0.090705723 0.59900004
0.038285717 0.090857148 0.60000002
0.039362859 0.090705723 0.59900004
0.040503811 0.090705723 0.59900004
0.041644763 0.090705723 0.59900004
0.04271429 0.09055429 0.59800005
0.043853335 0.09055429 0.59800005
0.044992384 0.09055429 0.59800005
0.046054289 0.090402864 0.597
0.04719143 0.090402864 0.597
0.048328575 0.090402864 0.597
0.049465716 0.090402864 0.597
0.050687622 0.09055429 0.59800005
0.051826671 0.09055429 0.59800005
0.053054288 0.090705723 0.59900004
0.05419524 0.090705723 0.59900004
0.055243813 0.09055429 0.59800005
0.056288574 0.090402864 0.597
0.057233337 0.090100005 0.59500003
0.058072384 0.089645721 0.59200001
0.058800004 0.089040004 0.588
0.059716195 0.088737145 0.58600003
0.060832385 0.088737145 0.58600003
0.062054291 0.088888578 0.58700001
-0.069926672 0.094606675 0.61700004
-0.068751432 0.094606675 0.61700004
-0.067576192 0.094606675 0.61700004
-0.06640096 0.094606675 0.61700004
-0.065120004 0.094453342 0.61600006
-0.063946672 0.094453342 0.61600006
-0.062773339 0.094453342 0.61600006
-0.061600003 0.094453342 0.61600006
-0.060426671 0.094453342 0.61600006
-0.059253339 0.094453342 0.61600006
-0.058080003 0.094453342 0.61600006
-0.056814291 0.094300009 0.61500001
-0.055642862 0.094300009 0.61500001
-0.054382861 0.094146676 0.61400002
-0.053213336 0.094146676 0.61400002
-0.052043814 0.094146676 0.61400002
-0.050791431 0.093993336 0.61300004
-0.049623813 0.093993336 0.61300004
-0.048456192 0.093993336 0.61300004
-0.047288574 0.093993336 0.61300004
-0.046120957 0.093993336 0.61300004
-0.044953335 0.093993336 0.61300004
-0.043714289 0.093840003 0.61200005
-0.042548575 0.093840003 0.61200005
-0.04138286 0.093840003 0.61200005
-0.040217146 0.093840003 0.61200005
-0.039051432 0.093840003 0.61200005
-0.037885718 0.093840003 0.61200005
-0.036720004 0.093840003 0.61200005
-0.03555429 0.093840003 0.61200005
-0.034388572 0.093840003 0.61200005
-0.033168573 0.09368667 0.611
-0.032004762 0.09368667 0.611
-0.030840954 0.09368667 0.611
-0.029677145 0.09368667 0.611
-0.028513335 0.09368667 0.611
-0.027349526 0.09368667 0.611
-0.026100002 0.093380004 0.60900003
-0.024940001 0.093380004 0.60900003
-0.023780001 0.093380004 0.60900003
-0.022620002 0.093380004 0.60900003
-0.021424763 0.093226671 0.60800004
-0.020266669 0.093226671 0.60800004
-0.019108573 0.093226671 0.60800004
-0.017920954 0.093073338 0.60700005
-0.016764764 0.093073338 0.60700005
-0.015608572 0.093073338 0.60700005
-0.014452382 0.093073338 0.60700005
-0.013296192 0.093073338 0.60700005
-0.012140001 0.093073338 0.60700005
-0.010965715 0.092920005 0.60600001
-0.0098114293 0.092920005 0.60600001
-0.0086571435 0.092920005 0.60600001
-0.0075028576 0.092920005 0.60600001
-0.0063485717 0.092920005 0.60600001
-0.0051857145 0.092766672 0.60500002
-0.0040333336 0.092766672 0.60500002
-0.0028809526 0.092766672 0.60500002
-0.0017285715 0.092766672 0.60500002
-0.00057619053 0.092766672 0.60500002
0.00057619053 0.092766672 0.60500002
0.0017257144 0.092613339 0.60400003
0.0028761907 0.092613339 0.60400003
0.0040266667 0.092613339 0.60400003
0.005177143 0.092613339 0.60400003
0.0063276193 0.092613339 0.60400003
0.0074657146 0.092460006 0.60300004
0.0086142858 0.092460006 0.60300004
0.009762858 0.092460006 0.60300004
0.010911429 0.092460006 0.60300004
0.012060001 0.092460006 0.60300004
0.013186667 0.092306674 0.60200006
0.014333334 0.092306674 0.60200006
0.015454287 0.092153341 0.60100001
0.016626667 0.092306674 0.60200006
0.017773334 0.092306674 0.60200006
0.018920001 0.092306674 0.60200006
0.020066667 0.092306674 0.60200006
0.021213334 0.092306674 0.60200006
0.022360001 0.092306674 0.60200006
0.023506667 0.092306674 0.60200006
0.024653334 0.092306674 0.60200006
0.025714288 0.092000008 0.60000002
0.026857145 0.092000008 0.60000002
0.028000003 0.092000008 0.60000002
0.029142858 0.092000008 0.60000002
0.030285716 0.092000008 0.60000002
0.031428572 0.092000008 0.60000002
0.032517146 0.091846675 0.59900004
0.033658098 0.091846675 0.59900004
0.034799051 0.091846675 0.59900004
0.035940003 0.091846675 0.59900004
0.037019052 0.091693342 0.59800005
0.038221907 0.091846675 0.59900004
0.039297145 0.091693342 0.59800005
0.040436193 0.091693342 0.59800005
0.041505717 0.091540009 0.597
0.042642862 0.091540009 0.597
0.043780003 0.091540009 0.597
0.044917148 0.091540009 0.597
0.045977145 0.091386676 0.59600002
0.047112383 0.091386676 0.59600002
0.04824762 0.091386676 0.59600002
0.049382862 0.091386676 0.59600002
0.050518099 0.091386676 0.59600002
0.051826671 0.091693342 0.59800005
0.052877147 0.091540009 0.597
0.054104764 0.091693342 0.59800005
0.055243813 0.091693342 0.59800005
0.056100003 0.091233343 0.59500003
0.056271434 0.089700006 0.58500004
0.057287622 0.089546673 0.58400005
0.058500003 0.089700006 0.58500004
0.05961429 0.089700006 0.58500004
0.060728576 0.089700006 0.58500004
-0.069926672 0.095781907 0.61700004
-0.068751432 0.095781907 0.61700004
-0.067576192 0.095781907 0.61700004
-0.06640096 0.095781907 0.61700004
-0.06522572 0.095781907 0.61700004
-0.063946672 0.095626675 0.61600006
-0.062773339 0.095626675 0.61600006
-0.061600003 0.095626675 0.61600006
-0.060426671 0.095626675 0.61600006
-0.059253339 0.095626675 0.61600006
-0.058080003 0.095626675 0.61600006
-0.05690667 0.095626675 0.61600006
-0.055642862 0.095471434 0.61500001
-0.054471433 0.095471434 0.61500001
-0.053300004 0.095471434 0.61500001
-0.052043814 0.095316194 0.61400002
-0.050874289 0.095316194 0.61400002
-0.049704764 0.095316194 0.61400002
-0.048456192 0.095160961 0.61300004
-0.047288574 0.095160961 0.61300004
-0.046120957 0.095160961 0.61300004
-0.044953335 0.095160961 0.61300004
-0.043785717 0.095160961 0.61300004
-0.042548575 0.095005721 0.61200005
-0.04138286 0.095005721 0.61200005
-0.040217146 0.095005721 0.61200005
-0.039051432 0.095005721 0.61200005
-0.037885718 0.095005721 0.61200005
-0.036720004 0.095005721 0.61200005
-0.03555429 0.095005721 0.61200005
-0.034388572 0.095005721 0.61200005
-0.033168573 0.094850481 0.611
-0.032004762 0.094850481 0.611
-0.030840954 0.094850481 0.611
-0.029677145 0.094850481 0.611
-0.028513335 0.094850481 0.611
-0.027349526 0.094850481 0.611
-0.026100002 0.094540007 0.60900003
-0.024940001 0.094540007 0.60900003
-0.023780001 0.094540007 0.60900003
-0.022620002 0.094540007 0.60900003
-0.021424763 0.094384767 0.60800004
-0.020266669 0.094384767 0.60800004
-0.019077145 0.094229527 0.60700005
-0.017920954 0.094229527 0.60700005
-0.016764764 0.094229527 0.60700005
-0.015608572 0.094229527 0.60700005
-0.014452382 0.094229527 0.60700005
-0.013296192 0.094229527 0.60700005
-0.012120001 0.094074294 0.60600001
-0.010965715 0.094074294 0.60600001
-0.0098114293 0.094074294 0.60600001
-0.0086571435 0.094074294 0.60600001
-0.0075028576 0.094074294 0.60600001
-0.0063485717 0.094074294 0.60600001
-0.0051857145 0.093919054 0.60500002
-0.0040333336 0.093919054 0.60500002
-0.0028809526 0.093919054 0.60500002
-0.0017285715 0.093919054 0.60500002
-0.00057619053 0.093919054 0.60500002
0.00057619053 0.093919054 0.60500002
0.0017285715 0.093919054 0.60500002
0.0028761907 0.093763813 0.60400003
0.0040266667 0.093763813 0.60400003
0.005177143 0.093763813 0.60400003
0.0063276193 0.093763813 0.60400003
0.0074657146 0.093608581 0.60300004
0.0086142858 0.093608581 0.60300004
0.009762858 0.093608581 0.60300004
0.010911429 0.093608581 0.60300004
0.012060001 0.093608581 0.60300004
0.013186667 0.09345334 0.60200006
0.014309525 0.0932981 0.60100001
0.015454287 0.0932981 0.60100001
0.016599048 0.0932981 0.60100001
0.017743811 0.0932981 0.60100001
0.018857144 0.09314286 0.60000002
0.020000001 0.09314286 0.60000002
0.021142859 0.09314286 0.60000002
0.022285717 0.09314286 0.60000002
0.023428572 0.09314286 0.60000002
0.02457143 0.09314286 0.60000002
0.025714288 0.09314286 0.60000002
0.026857145 0.09314286 0.60000002
0.028000003 0.09314286 0.60000002
0.029094288 0.092987627 0.59900004
0.03023524 0.092987627 0.59900004
0.031376194 0.092987627 0.59900004
0.032517146 0.092987627 0.59900004
0.033658098 0.092987627 0.59900004
0.034799051 0.092987627 0.59900004
0.035880003 0.092832386 0.59800005
0.036957145 0.092677146 0.597
0.03809429 0.092677146 0.597
0.039231431 0.092677146 0.597
0.040368576 0.092677146 0.597
0.041505717 0.092677146 0.597
0.042642862 0.092677146 0.597
0.04370667 0.092521913 0.59600002
0.044917148 0.092677146 0.597
0.045977145 0.092521913 0.59600002
0.047112383 0.092521913 0.59600002
0.04824762 0.092521913 0.59600002
0.049382862 0.092521913 0.59600002
0.050433338 0.092366673 0.59500003
0.051653337 0.092521913 0.59600002
0.052788574 0.092521913 0.59600002
0.053923812 0.092521913 0.59600002
0.05496667 0.092366673 0.59500003
0.056100003 0.092366673 0.59500003
0.056175243 0.090659052 0.58400005
0.057287622 0.090659052 0.58400005
0.058500003 0.090814292 0.58500004
0.05961429 0.090814292 0.58500004
0.060624767 0.090659052 0.58400005
0.061737146 0.090659052 0.58400005
-0.070040002 0.097114295 0.61800003
-0.068751432 0.096957147 0.61700004
-0.067576192 0.096957147 0.61700004
-0.06640096 0.096957147 0.61700004
-0.06522572 0.096957147 0.61700004
-0.064050481 0.096957147 0.61700004
-0.062773339 0.096800007 0.61600006
-0.061600003 0.096800007 0.61600006
-0.060426671 0.096800007 0.61600006
-0.059253339 0.096800007 0.61600006
-0.058080003 0.096800007 0.61600006
-0.05690667 0.096800007 0.61600006
-0.055733338 0.096800007 0.61600006
-0.054471433 0.096642867 0.61500001
-0.053300004 0.096642867 0.61500001
-0.052128576 0.096642867 0.61500001
-0.050874289 0.096485719 0.61400002
-0.049704764 0.096485719 0.61400002
-0.048535243 0.096485719 0.61400002
-0.047365718 0.096485719 0.61400002
-0.046120957 0.096328579 0.61300004
-0.044953335 0.096328579 0.61300004
-0.043785717 0.096328579 0.61300004
-0.0426181 0.096328579 0.61300004
-0.04138286 0.096171431 0.61200005
-0.040217146 0.096171431 0.61200005
-0.039051432 0.096171431 0.61200005
-0.037885718 0.096171431 0.61200005
-0.036720004 0.096171431 0.61200005
-0.03555429 0.096171431 0.61200005
-0.034388572 0.096171431 0.61200005
-0.033222858 0.096171431 0.61200005
-0.032004762 0.096014291 0.611
-0.030840954 0.096014291 0.611
-0.029677145 0.096014291 0.611
-0.028513335 0.096014291 0.611
-0.027349526 0.096014291 0.611
-0.026100002 0.095700003 0.60900003
-0.024940001 0.095700003 0.60900003
-0.023780001 0.095700003 0.60900003
-0.022582859 0.095542863 0.60800004
-0.021424763 0.095542863 0.60800004
-0.020266669 0.095542863 0.60800004
-0.019077145 0.095385723 0.60700005
-0.017920954 0.095385723 0.60700005
-0.016764764 0.095385723 0.60700005
-0.015608572 0.095385723 0.60700005
-0.014428573 0.095228575 0.60600001
-0.013274287 0.095228575 0.60600001
-0.012120001 0.095228575 0.60600001
-0.010965715 0.095228575 0.60600001
-0.0098114293 0.095228575 0.60600001
-0.0086571435 0.095228575 0.60600001
-0.0074904766 0.095071435 0.60500002
-0.0063380958 0.095071435 0.60500002
-0.0051857145 0.095071435 0.60500002
-0.0040266667 0.094914295 0.60400003
-0.0028761907 0.094914295 0.60400003
-0.0017257144 0.094914295 0.60400003
-0.00057523814 0.094914295 0.60400003
0.00057523814 0.094914295 0.60400003
0.0017257144 0.094914295 0.60400003
0.0028761907 0.094914295 0.60400003
0.0040266667 0.094914295 0.60400003
0.0051685716 0.094757147 0.60300004
0.0063276193 0.094914295 0.60400003
0.0074657146 0.094757147 0.60300004
0.0086142858 0.094757147 0.60300004
0.009762858 0.094757147 0.60300004
0.010911429 0.094757147 0.60300004
0.012060001 0.094757147 0.60300004
0.013186667 0.094600007 0.60200006
0.014333334 0.094600007 0.60200006
0.015454287 0.094442867 0.60100001
0.016599048 0.094442867 0.60100001
0.017714286 0.094285719 0.60000002
0.018857144 0.094285719 0.60000002
0.020000001 0.094285719 0.60000002
0.021142859 0.094285719 0.60000002
0.022285717 0.094285719 0.60000002
0.023428572 0.094285719 0.60000002
0.02457143 0.094285719 0.60000002
0.025714288 0.094285719 0.60000002
0.026857145 0.094285719 0.60000002
0.027953336 0.094128579 0.59900004
0.029094288 0.094128579 0.59900004
0.03023524 0.094128579 0.59900004
0.031376194 0.094128579 0.59900004
0.032517146 0.094128579 0.59900004
0.033658098 0.094128579 0.59900004
0.034740955 0.093971431 0.59800005
0.035880003 0.093971431 0.59800005
0.036957145 0.093814291 0.597
0.038030479 0.093657151 0.59600002
