# .PCD v0.7 - Point Cloud Data file format
VERSION 0.7
FIELDS x y z
SIZE 4 4 4
TYPE F F F
COUNT 1 1 1
WIDTH 1340
HEIGHT 1
VIEWPOINT 0 0 0 1 0 0 0
POINTS 1340
DATA ascii
-0.060140003 0.04720667 0.67900002
-0.058846671 0.04720667 0.67900002
-0.057553336 0.04720667 0.67900002
-0.056177147 0.047137145 0.67800003
-0.054723814 0.046998098 0.67600006
-0.053594287 0.047137145 0.67800003
-0.052148573 0.046998098 0.67600006
-0.050785717 0.046928573 0.67500001
-0.049500003 0.046928573 0.67500001
-0.048142862 0.046859052 0.67400002
-0.046859052 0.046859052 0.67400002
-0.045575242 0.046859052 0.67400002
-0.044160005 0.046720002 0.67200005
-0.043007623 0.046859052 0.67400002
-0.041723814 0.046859052 0.67400002
-0.040440004 0.046859052 0.67400002
-0.039214287 0.046928573 0.67500001
-0.037984766 0.046998098 0.67600006
-0.036697146 0.046998098 0.67600006
-0.035514288 0.047137145 0.67800003
-0.03422286 0.047137145 0.67800003
-0.032980002 0.04720667 0.67900002
-0.031686667 0.04720667 0.67900002
-0.030393336 0.04720667 0.67900002
-0.029142858 0.047276195 0.68000001
-0.027929526 0.047415242 0.68200004
-0.026708573 0.047554288 0.68400002
-0.025591429 0.047901906 0.68900001
-0.024314288 0.047971431 0.69000006
-0.023000002 0.047971431 0.69000006
-0.021717144 0.048040956 0.69100004
-0.02037143 0.047971431 0.69000006
-0.019057143 0.047971431 0.69000006
-0.071940005 0.049500003 0.69300002
-0.070620008 0.049500003 0.69300002
-0.069100007 0.049357146 0.69100004
-0.067685716 0.049285717 0.69000006
-0.066275239 0.049214289 0.68900001
-0.06477429 0.049071431 0.68700004
-0.063373335 0.049000002 0.68600005
-0.061795242 0.048785716 0.68300003
-0.06040572 0.048714288 0.68200004
-0.05910667 0.048714288 0.68200004
-0.057638098 0.04857143 0.68000001
-0.056342863 0.04857143 0.68000001
-0.05496667 0.048500001 0.67900002
-0.053673338 0.048500001 0.67900002
-0.052380003 0.048500001 0.67900002
-0.051086672 0.048500001 0.67900002
-0.049720004 0.048428576 0.67800003
-0.048428576 0.048428576 0.67800003
-0.047137145 0.048428576 0.67800003
-0.045845717 0.048428576 0.67800003
-0.044554289 0.048428576 0.67800003
-0.043135241 0.048285719 0.67600006
-0.04197143 0.048428576 0.67800003
-0.040680002 0.048428576 0.67800003
-0.039388575 0.048428576 0.67800003
-0.038153335 0.048500001 0.67900002
-0.036860004 0.048500001 0.67900002
-0.035566669 0.048500001 0.67900002
-0.034323812 0.04857143 0.68000001
-0.033028573 0.04857143 0.68000001
-0.031826667 0.048714288 0.68200004
-0.030527622 0.048714288 0.68200004
-0.029271431 0.048785716 0.68300003
-0.028093334 0.049000002 0.68600005
-0.026903812 0.049214289 0.68900001
-0.025628572 0.049285717 0.69000006
-0.024420002 0.049500003 0.69300002
-0.023100002 0.049500003 0.69300002
-0.021780001 0.049500003 0.69300002
-0.020400954 0.049357146 0.69100004
-0.072043814 0.050893337 0.69400001
-0.070620008 0.050820004 0.69300002
-0.069100007 0.050673336 0.69100004
-0.067783818 0.050673336 0.69100004
-0.066371433 0.050600003 0.69000006
-0.064962864 0.050526671 0.68900001
-0.063373335 0.05030667 0.68600005
-0.062066671 0.05030667 0.68600005
-0.060494289 0.05008667 0.68300003
-0.059193335 0.05008667 0.68300003
-0.057807624 0.050013337 0.68200004
-0.056508575 0.050013337 0.68200004
-0.055047624 0.049866669 0.68000001
-0.053752385 0.049866669 0.68000001
-0.052457146 0.049866669 0.68000001
-0.051086672 0.049793337 0.67900002
-0.049793337 0.049793337 0.67900002
-0.048500001 0.049793337 0.67900002
-0.04720667 0.049793337 0.67900002
-0.045845717 0.049720004 0.67800003
-0.044554289 0.049720004 0.67800003
-0.043262862 0.049720004 0.67800003
-0.042033337 0.049793337 0.67900002
-0.040740002 0.049793337 0.67900002
-0.039446671 0.049793337 0.67900002
-0.038153335 0.049793337 0.67900002
-0.036860004 0.049793337 0.67900002
-0.03561905 0.049866669 0.68000001
-0.034323812 0.049866669 0.68000001
-0.033125717 0.050013337 0.68200004
-0.031826667 0.050013337 0.68200004
-0.030572383 0.05008667 0.68300003
-0.029400002 0.05030667 0.68600005
-0.028216192 0.050526671 0.68900001
-0.026942858 0.050600003 0.69000006
-0.025665715 0.050673336 0.69100004
-0.024420002 0.050820004 0.69300002
-0.023100002 0.050820004 0.69300002
-0.021811429 0.050893337 0.69400001
-0.020460002 0.050820004 0.69300002
-0.072355241 0.052440956 0.69700003
-0.070823811 0.052290481 0.69500005
-0.069300003 0.052140005 0.69300002
-0.067783818 0.051989526 0.69100004
-0.066371433 0.05191429 0.69000006
-0.064962864 0.05183905 0.68900001
-0.063465722 0.051688574 0.68700004
-0.062066671 0.051613338 0.68600005
-0.060582861 0.051462859 0.68400002
-0.059280004 0.051462859 0.68400002
-0.057892386 0.051387623 0.68300003
-0.056508575 0.051312383 0.68200004
-0.055209529 0.051312383 0.68200004
-0.053752385 0.051161908 0.68000001
-0.052457146 0.051161908 0.68000001
-0.051161908 0.051161908 0.68000001
-0.049793337 0.051086672 0.67900002
-0.048500001 0.051086672 0.67900002
-0.04720667 0.051086672 0.67900002
-0.045913335 0.051086672 0.67900002
-0.044620004 0.051086672 0.67900002
-0.043326668 0.051086672 0.67900002
-0.042033337 0.051086672 0.67900002
-0.040740002 0.051086672 0.67900002
-0.039504763 0.051161908 0.68000001
-0.038209528 0.051161908 0.68000001
-0.036914289 0.051161908 0.68000001
-0.03561905 0.051161908 0.68000001
-0.034424763 0.051312383 0.68200004
-0.033174288 0.051387623 0.68300003
-0.031920001 0.051462859 0.68400002
-0.030706668 0.051613338 0.68600005
-0.029528573 0.05183905 0.68900001
-0.028257145 0.05191429 0.69000006
-0.026942858 0.05191429 0.69000006
-0.025665715 0.051989526 0.69100004
-0.024420002 0.052140005 0.69300002
-0.023133336 0.052215241 0.69400001
-0.021811429 0.052215241 0.69400001
-0.020489525 0.052215241 0.69400001
-0.07368286 0.053768575 0.69700003
-0.072355241 0.053768575 0.69700003
-0.070823811 0.053614289 0.69500005
-0.069400005 0.053537145 0.69400001
-0.067980006 0.053460002 0.69300002
-0.06646762 0.053305719 0.69100004
-0.065057144 0.053228576 0.69000006
-0.063465722 0.052997146 0.68700004
-0.062157147 0.052997146 0.68700004
-0.060760003 0.052920002 0.68600005
-0.059280004 0.05276572 0.68400002
-0.057977147 0.05276572 0.68400002
-0.056591433 0.052688576 0.68300003
-0.055290479 0.052688576 0.68300003
-0.053910479 0.052611433 0.68200004
-0.052611433 0.052611433 0.68200004
-0.051161908 0.052457146 0.68000001
-0.049866669 0.052457146 0.68000001
-0.04857143 0.052457146 0.68000001
-0.047276195 0.052457146 0.68000001
-0.045980956 0.052457146 0.68000001
-0.044685718 0.052457146 0.68000001
-0.043390479 0.052457146 0.68000001
-0.04209524 0.052457146 0.68000001
-0.040800001 0.052457146 0.68000001
-0.039504763 0.052457146 0.68000001
-0.038209528 0.052457146 0.68000001
-0.037022859 0.052611433 0.68200004
-0.035723813 0.052611433 0.68200004
-0.034475241 0.052688576 0.68300003
-0.033320002 0.052920002 0.68600005
-0.032060001 0.052997146 0.68700004
-0.030840954 0.053151432 0.68900001
-0.029571431 0.053228576 0.69000006
-0.028257145 0.053228576 0.69000006
-0.026981907 0.053305719 0.69100004
-0.025665715 0.053305719 0.69100004
-0.02445524 0.053537145 0.69400001
-0.023133336 0.053537145 0.69400001
-0.021842858 0.053614289 0.69500005
-0.02051905 0.053614289 0.69500005
-0.075333342 0.055333339 0.70000005
-0.073788576 0.055175241 0.69800001
-0.07245905 0.055175241 0.69800001
-0.071027622 0.055096194 0.69700003
-0.069500007 0.0549381 0.69500005
-0.068078101 0.05485905 0.69400001
-0.06646762 0.054621909 0.69100004
-0.065151431 0.054621909 0.69100004
-0.063742861 0.054542862 0.69000006
-0.062338099 0.054463815 0.68900001
-0.060760003 0.05422667 0.68600005
-0.059453338 0.05422667 0.68600005
-0.057977147 0.054068577 0.68400002
-0.05667429 0.054068577 0.68400002
-0.055290479 0.053989526 0.68300003
-0.053989526 0.053989526 0.68300003
-0.052611433 0.053910479 0.68200004
-0.051312383 0.053910479 0.68200004
-0.049866669 0.053752385 0.68000001
-0.04857143 0.053752385 0.68000001
-0.047276195 0.053752385 0.68000001
-0.045980956 0.053752385 0.68000001
-0.044685718 0.053752385 0.68000001
-0.043390479 0.053752385 0.68000001
-0.04209524 0.053752385 0.68000001
-0.040800001 0.053752385 0.68000001
-0.039620955 0.053910479 0.68200004
-0.038378097 0.053989526 0.68300003
-0.037077144 0.053989526 0.68300003
-0.035776194 0.053989526 0.68300003
-0.034525715 0.054068577 0.68400002
-0.033320002 0.05422667 0.68600005
-0.032060001 0.054305717 0.68700004
-0.030840954 0.054463815 0.68900001
-0.029571431 0.054542862 0.69000006
-0.028298097 0.054621909 0.69100004
-0.026981907 0.054621909 0.69100004
-0.025740001 0.054780003 0.69300002
-0.024490478 0.0549381 0.69500005
-0.023166668 0.0549381 0.69500005
-0.021905717 0.055096194 0.69700003
-0.020578096 0.055096194 0.69700003
-0.074000008 0.056666672 0.70000005
-0.07245905 0.056504767 0.69800001
-0.071027622 0.056423813 0.69700003
-0.069500007 0.056261908 0.69500005
-0.068176195 0.056261908 0.69500005
-0.066660002 0.056100003 0.69300002
-0.065151431 0.055938099 0.69100004
-0.063742861 0.055857148 0.69000006
-0.062338099 0.055776194 0.68900001
-0.060760003 0.055533338 0.68600005
-0.059453338 0.055533338 0.68600005
-0.05814667 0.055533338 0.68600005
-0.05667429 0.055371433 0.68400002
-0.055371433 0.055371433 0.68400002
-0.054068577 0.055371433 0.68400002
-0.052688576 0.055290479 0.68300003
-0.051312383 0.055209529 0.68200004
-0.050013337 0.055209529 0.68200004
-0.04857143 0.055047624 0.68000001
-0.047276195 0.055047624 0.68000001
-0.045980956 0.055047624 0.68000001
-0.044685718 0.055047624 0.68000001
-0.0435181 0.055209529 0.68200004
-0.04221905 0.055209529 0.68200004
-0.040920004 0.055209529 0.68200004
-0.03967905 0.055290479 0.68300003
-0.038434289 0.055371433 0.68400002
-0.037131432 0.055371433 0.68400002
-0.035933334 0.055533338 0.68600005
-0.03462667 0.055533338 0.68600005
-0.033368573 0.055614289 0.68700004
-0.032153334 0.055776194 0.68900001
-0.030885717 0.055857148 0.69000006
-0.029614288 0.055938099 0.69100004
-0.028298097 0.055938099 0.69100004
-0.027060002 0.056100003 0.69300002
-0.025777144 0.056180958 0.69400001
-0.024490478 0.056261908 0.69500005
-0.023233335 0.056423813 0.69700003
-0.021905717 0.056423813 0.69700003
-0.020578096 0.056423813 0.69700003
-0.074105717 0.05808286 0.70100003
-0.072666675 0.058000002 0.70000005
-0.071129531 0.05783429 0.69800001
-0.069700003 0.057751432 0.69700003
-0.068176195 0.057585716 0.69500005
-0.066660002 0.057420004 0.69300002
-0.065340005 0.057420004 0.69300002
-0.063835241 0.057254288 0.69100004
-0.062428575 0.057171434 0.69000006
-0.06102572 0.057088576 0.68900001
-0.059540004 0.05692286 0.68700004
-0.05814667 0.056840003 0.68600005
-0.056840003 0.056840003 0.68600005
-0.055533338 0.056840003 0.68600005
-0.054068577 0.05667429 0.68400002
-0.052688576 0.056591433 0.68300003
-0.051387623 0.056591433 0.68300003
-0.05008667 0.056591433 0.68300003
-0.048714288 0.056508575 0.68200004
-0.047415242 0.056508575 0.68200004
-0.045980956 0.056342863 0.68000001
-0.044817146 0.056508575 0.68200004
-0.0435181 0.056508575 0.68200004
-0.04221905 0.056508575 0.68200004
-0.040980004 0.056591433 0.68300003
-0.039737146 0.05667429 0.68400002
-0.038434289 0.05667429 0.68400002
-0.037131432 0.05667429 0.68400002
-0.035933334 0.056840003 0.68600005
-0.034677144 0.05692286 0.68700004
-0.033465717 0.057088576 0.68900001
-0.032153334 0.057088576 0.68900001
-0.030885717 0.057171434 0.69000006
-0.029614288 0.057254288 0.69100004
-0.028380001 0.057420004 0.69300002
-0.027060002 0.057420004 0.69300002
-0.025777144 0.057502862 0.69400001
-0.024560954 0.057751432 0.69700003
-0.023233335 0.057751432 0.69700003
-0.021937145 0.05783429 0.69800001
-0.02060762 0.05783429 0.69800001
-0.074105717 0.059418101 0.70100003
-0.072666675 0.059333336 0.70000005
-0.071129531 0.059163813 0.69800001
-0.069700003 0.059079051 0.69700003
-0.068176195 0.058909528 0.69500005
-0.066756196 0.058824766 0.69400001
-0.065340005 0.058740005 0.69300002
-0.064020008 0.058740005 0.69300002
-0.062519051 0.058570482 0.69100004
-0.061114289 0.058485717 0.69000006
-0.059713338 0.058400955 0.68900001
-0.058231432 0.058231432 0.68700004
-0.05692286 0.058231432 0.68700004
-0.055533338 0.05814667 0.68600005
-0.05422667 0.05814667 0.68600005
-0.05276572 0.057977147 0.68400002
-0.051462859 0.057977147 0.68400002
-0.050160002 0.057977147 0.68400002
-0.048785716 0.057892386 0.68300003
-0.047484767 0.057892386 0.68300003
-0.046116192 0.057807624 0.68200004
-0.044817146 0.057807624 0.68200004
-0.043581907 0.057892386 0.68300003
-0.042280953 0.057892386 0.68300003
-0.041040003 0.057977147 0.68400002
-0.039737146 0.057977147 0.68400002
-0.03854667 0.05814667 0.68600005
-0.037240002 0.05814667 0.68600005
-0.035985716 0.058231432 0.68700004
-0.034778096 0.058400955 0.68900001
-0.033514287 0.058485717 0.69000006
-0.032200001 0.058485717 0.69000006
-0.030930478 0.058570482 0.69100004
-0.029614288 0.058570482 0.69100004
-0.028380001 0.058740005 0.69300002
-0.027099049 0.058824766 0.69400001
-0.025814287 0.058909528 0.69500005
-0.024596192 0.059163813 0.69800001
-0.023266668 0.059163813 0.69800001
-0.022000002 0.059333336 0.70000005
-0.02060762 0.059163813 0.69800001
-0.074105717 0.060753338 0.70100003
-0.072770484 0.060753338 0.70100003
-0.071333341 0.060666669 0.70000005
-0.069800004 0.060493339 0.69800001
-0.068372384 0.06040667 0.69700003
-0.066852383 0.060233336 0.69500005
-0.065434292 0.060146671 0.69400001
-0.064020008 0.060060006 0.69300002
-0.062519051 0.059886672 0.69100004
-0.061114289 0.059800003 0.69000006
-0.059713338 0.059713338 0.68900001
-0.058400955 0.059713338 0.68900001
-0.057088576 0.059713338 0.68900001
-0.055614289 0.059540004 0.68700004
-0.054305717 0.059540004 0.68700004
-0.052920002 0.059453338 0.68600005
-0.051613338 0.059453338 0.68600005
-0.050160002 0.059280004 0.68400002
-0.048857145 0.059280004 0.68400002
-0.047484767 0.059193335 0.68300003
-0.046183813 0.059193335 0.68300003
-0.04488286 0.059193335 0.68300003
-0.043581907 0.059193335 0.68300003
-0.04234286 0.059280004 0.68400002
-0.041040003 0.059280004 0.68400002
-0.039853334 0.059453338 0.68600005
-0.03854667 0.059453338 0.68600005
-0.037294287 0.059540004 0.68700004
-0.036090478 0.059713338 0.68900001
-0.034828573 0.059800003 0.69000006
-0.033514287 0.059800003 0.69000006
-0.032200001 0.059800003 0.69000006
-0.030930478 0.059886672 0.69100004
-0.029700002 0.060060006 0.69300002
-0.028420955 0.060146671 0.69400001
-0.027099049 0.060146671 0.69400001
-0.025888573 0.06040667 0.69700003
-0.024596192 0.060493339 0.69800001
-0.023333335 0.060666669 0.70000005
-0.022000002 0.060666669 0.70000005
-0.020666668 0.060666669 0.70000005
-0.074105717 0.062088575 0.70100003
-0.072770484 0.062088575 0.70100003
-0.071333341 0.062000003 0.70000005
-0.069800004 0.061822861 0.69800001
-0.068372384 0.061734289 0.69700003
-0.066852383 0.061557148 0.69500005
-0.065434292 0.061468575 0.69400001
-0.064020008 0.061380003 0.69300002
-0.062519051 0.061202861 0.69100004
-0.061202861 0.061202861 0.69100004
-0.059800003 0.061114289 0.69000006
-0.058485717 0.061114289 0.69000006
-0.057088576 0.06102572 0.68900001
-0.055776194 0.06102572 0.68900001
-0.054463815 0.06102572 0.68900001
-0.052997146 0.060848575 0.68700004
-0.051613338 0.060760003 0.68600005
-0.05030667 0.060760003 0.68600005
-0.048857145 0.060582861 0.68400002
-0.047554288 0.060582861 0.68400002
-0.046251431 0.060582861 0.68400002
-0.044948574 0.060582861 0.68400002
-0.043645717 0.060582861 0.68400002
-0.04246667 0.060760003 0.68600005
-0.041160002 0.060760003 0.68600005
-0.03991143 0.060848575 0.68700004
-0.038602859 0.060848575 0.68700004
-0.037402861 0.06102572 0.68900001
-0.03614286 0.061114289 0.69000006
-0.034828573 0.061114289 0.69000006
-0.033514287 0.061114289 0.69000006
-0.032246668 0.061202861 0.69100004
-0.030930478 0.061202861 0.69100004
-0.029700002 0.061380003 0.69300002
-0.028420955 0.061468575 0.69400001
-0.027138097 0.061557148 0.69500005
-0.025888573 0.061734289 0.69700003
-0.024666669 0.062000003 0.70000005
-0.023333335 0.062000003 0.70000005
-0.02203143 0.062088575 0.70100003
-0.020666668 0.062000003 0.70000005
-0.071639054 0.063604765 0.70300001
-0.070000008 0.06333334 0.70000005
-0.068470478 0.063152388 0.69800001
-0.067044765 0.063061908 0.69700003
-0.065528579 0.062880956 0.69500005
-0.064204767 0.062880956 0.69500005
-0.062790483 0.062790483 0.69400001
-0.061380003 0.062700003 0.69300002
-0.060060006 0.062700003 0.69300002
-0.058570482 0.062519051 0.69100004
-0.057171434 0.062428575 0.69000006
-0.055857148 0.062428575 0.69000006
-0.054542862 0.062428575 0.69000006
-0.053228576 0.062428575 0.69000006
-0.05183905 0.062338099 0.68900001
-0.050526671 0.062338099 0.68900001
-0.049071431 0.062157147 0.68700004
-0.04776286 0.062157147 0.68700004
-0.046454288 0.062157147 0.68700004
-0.045145717 0.062157147 0.68700004
-0.043837145 0.062157147 0.68700004
-0.042528573 0.062157147 0.68700004
-0.041340001 0.062338099 0.68900001
-0.040027622 0.062338099 0.68900001
-0.038771432 0.062428575 0.69000006
-0.037457146 0.062428575 0.69000006
-0.03614286 0.062428575 0.69000006
-0.034828573 0.062428575 0.69000006
-0.033562858 0.062519051 0.69100004
-0.032246668 0.062519051 0.69100004
-0.031020002 0.062700003 0.69300002
-0.029785717 0.062880956 0.69500005
-0.028543811 0.063061908 0.69700003
-0.027255239 0.063152388 0.69800001
-0.026000002 0.06333334 0.70000005
-0.024701906 0.063423812 0.70100003
-0.023366667 0.063423812 0.70100003
-0.02203143 0.063423812 0.70100003
-0.020696191 0.063423812 0.70100003
-0.074528575 0.065128572 0.70500004
-0.07318572 0.065128572 0.70500004
-0.071639054 0.064943813 0.70300001
-0.070100002 0.064759053 0.70100003
-0.068666674 0.064666674 0.70000005
-0.067044765 0.064389527 0.69700003
-0.065717146 0.064389527 0.69700003
-0.064204767 0.064204767 0.69500005
-0.062880956 0.064204767 0.69500005
-0.061468575 0.064112388 0.69400001
-0.060060006 0.064020008 0.69300002
-0.058570482 0.063835241 0.69100004
-0.057254288 0.063835241 0.69100004
-0.055857148 0.063742861 0.69000006
-0.054542862 0.063742861 0.69000006
-0.053228576 0.063742861 0.69000006
-0.05191429 0.063742861 0.69000006
-0.050526671 0.063650481 0.68900001
-0.049214289 0.063650481 0.68900001
-0.047901906 0.063650481 0.68900001
-0.046589527 0.063650481 0.68900001
-0.045277145 0.063650481 0.68900001
-0.043964766 0.063650481 0.68900001
-0.042652383 0.063650481 0.68900001
-0.041400004 0.063742861 0.69000006
-0.040085718 0.063742861 0.69000006
-0.038771432 0.063742861 0.69000006
-0.037511431 0.063835241 0.69100004
-0.036195241 0.063835241 0.69100004
-0.034879051 0.063835241 0.69100004
-0.033660002 0.064020008 0.69300002
-0.032340001 0.064020008 0.69300002
-0.031064764 0.064112388 0.69400001
-0.029785717 0.064204767 0.69500005
-0.028543811 0.064389527 0.69700003
-0.027255239 0.064481907 0.69800001
-0.026000002 0.064666674 0.70000005
-0.024701906 0.064759053 0.70100003
-0.023366667 0.064759053 0.70100003
-0.022094287 0.064943813 0.70300001
-0.020696191 0.064759053 0.70100003
-0.076194294 0.066754289 0.708
-0.074845716 0.066754289 0.708
-0.071740955 0.066377148 0.70400006
-0.070300005 0.066282861 0.70300001
-0.068764769 0.066094287 0.70100003
-0.067140959 0.065811433 0.69800001
-0.065717146 0.065717146 0.69700003
-0.064389527 0.065717146 0.69700003
-0.062880956 0.065528579 0.69500005
-0.061468575 0.065434292 0.69400001
-0.060146671 0.065434292 0.69400001
-0.058740005 0.065340005 0.69300002
-0.057254288 0.065151431 0.69100004
-0.055938099 0.065151431 0.69100004
-0.054542862 0.065057144 0.69000006
-0.053228576 0.065057144 0.69000006
-0.05191429 0.065057144 0.69000006
-0.050600003 0.065057144 0.69000006
-0.049285717 0.065057144 0.69000006
-0.047901906 0.064962864 0.68900001
-0.046589527 0.064962864 0.68900001
-0.045277145 0.064962864 0.68900001
-0.043964766 0.064962864 0.68900001
-0.04271429 0.065057144 0.69000006
-0.041400004 0.065057144 0.69000006
-0.040143814 0.065151431 0.69100004
-0.03882762 0.065151431 0.69100004
-0.037511431 0.065151431 0.69100004
-0.036195241 0.065151431 0.69100004
-0.034980003 0.065340005 0.69300002
-0.033660002 0.065340005 0.69300002
-0.032386668 0.065434292 0.69400001
-0.031109527 0.065528579 0.69500005
-0.029785717 0.065528579 0.69500005
-0.028584763 0.065811433 0.69800001
-0.027333336 0.066000007 0.70000005
-0.026037145 0.066094287 0.70100003
-0.024701906 0.066094287 0.70100003
-0.023433335 0.066282861 0.70300001
-0.022094287 0.066282861 0.70300001
-0.020755239 0.066282861 0.70300001
-0.019416193 0.066282861 0.70300001
-0.076194294 0.068102859 0.708
-0.074845716 0.068102859 0.708
-0.073393337 0.068006672 0.70700002
-0.071842864 0.067814291 0.70500004
-0.070400007 0.067718096 0.70400006
-0.068960957 0.067621909 0.70300001
-0.067429528 0.067429528 0.70100003
-0.065811433 0.067140959 0.69800001
-0.064389527 0.067044765 0.69700003
-0.063061908 0.067044765 0.69700003
-0.061557148 0.066852383 0.69500005
-0.060233336 0.066852383 0.69500005
-0.058824766 0.066756196 0.69400001
-0.057420004 0.066660002 0.69300002
-0.055938099 0.06646762 0.69100004
-0.054621909 0.06646762 0.69100004
-0.053305719 0.06646762 0.69100004
-0.051989526 0.06646762 0.69100004
-0.050600003 0.066371433 0.69000006
-0.049285717 0.066371433 0.69000006
-0.047971431 0.066371433 0.69000006
-0.046657145 0.066371433 0.69000006
-0.045342859 0.066371433 0.69000006
-0.044028573 0.066371433 0.69000006
-0.04271429 0.066371433 0.69000006
-0.041460004 0.06646762 0.69100004
-0.040143814 0.06646762 0.69100004
-0.03882762 0.06646762 0.69100004
-0.037511431 0.06646762 0.69100004
-0.036300004 0.066660002 0.69300002
-0.034980003 0.066660002 0.69300002
-0.033708572 0.066756196 0.69400001
-0.032433335 0.066852383 0.69500005
-0.031109527 0.066852383 0.69500005
-0.02987143 0.067044765 0.69700003
-0.028584763 0.067140959 0.69800001
-0.027372383 0.067429528 0.70100003
-0.026037145 0.067429528 0.70100003
-0.024772383 0.067621909 0.70300001
-0.023433335 0.067621909 0.70300001
-0.022125715 0.067718096 0.70400006
-0.020784764 0.067718096 0.70400006
-0.019471429 0.067814291 0.70500004
-0.018128572 0.067814291 0.70500004
-0.076409526 0.069647625 0.71000004
-0.075057149 0.069647625 0.71000004
-0.073497146 0.069451436 0.708
-0.072046675 0.069353335 0.70700002
-0.070500001 0.069157146 0.70500004
-0.068960957 0.068960957 0.70300001
-0.067429528 0.068764769 0.70100003
-0.066000007 0.068666674 0.70000005
-0.064481907 0.068470478 0.69800001
-0.063152388 0.068470478 0.69800001
-0.061734289 0.068372384 0.69700003
-0.060233336 0.068176195 0.69500005
-0.058909528 0.068176195 0.69500005
-0.057502862 0.068078101 0.69400001
-0.056100003 0.067980006 0.69300002
-0.054621909 0.067783818 0.69100004
-0.053305719 0.067783818 0.69100004
-0.051989526 0.067783818 0.69100004
-0.050673336 0.067783818 0.69100004
-0.049357146 0.067783818 0.69100004
-0.047971431 0.067685716 0.69000006
-0.046657145 0.067685716 0.69000006
-0.045342859 0.067685716 0.69000006
-0.044028573 0.067685716 0.69000006
-0.042776193 0.067783818 0.69100004
-0.041460004 0.067783818 0.69100004
-0.040143814 0.067783818 0.69100004
-0.03882762 0.067783818 0.69100004
-0.037620004 0.067980006 0.69300002
-0.036300004 0.067980006 0.69300002
-0.035030477 0.068078101 0.69400001
-0.033708572 0.068078101 0.69400001
-0.032433335 0.068176195 0.69500005
-0.031199049 0.068372384 0.69700003
-0.029914288 0.068470478 0.69800001
-0.028666668 0.068666674 0.70000005
-0.027372383 0.068764769 0.70100003
-0.02611143 0.068960957 0.70300001
-0.024772383 0.068960957 0.70300001
-0.023466669 0.069059052 0.70400006
-0.022125715 0.069059052 0.70400006
-0.020784764 0.069059052 0.70400006
-0.019471429 0.069157146 0.70500004
-0.018180002 0.069353335 0.70700002
-0.07673239 0.071300007 0.71300006
-0.075162865 0.071100004 0.71100003
-0.073497146 0.070800006 0.708
-0.072046675 0.070700005 0.70700002
-0.070500001 0.070500001 0.70500004
-0.069059052 0.070400007 0.70400006
-0.067621909 0.070300005 0.70300001
-0.066094287 0.070100002 0.70100003
-0.064666674 0.070000008 0.70000005
-0.063152388 0.069800004 0.69800001
-0.061822861 0.069800004 0.69800001
-0.06040667 0.069700003 0.69700003
-0.058909528 0.069500007 0.69500005
-0.057502862 0.069400005 0.69400001
-0.056180958 0.069400005 0.69400001
-0.054780003 0.069300003 0.69300002
-0.053305719 0.069100007 0.69100004
-0.051989526 0.069100007 0.69100004
-0.050673336 0.069100007 0.69100004
-0.049357146 0.069100007 0.69100004
-0.048040956 0.069100007 0.69100004
-0.046724766 0.069100007 0.69100004
-0.045408573 0.069100007 0.69100004
-0.044092383 0.069100007 0.69100004
-0.042776193 0.069100007 0.69100004
-0.041460004 0.069100007 0.69100004
-0.040143814 0.069100007 0.69100004
-0.038940001 0.069300003 0.69300002
-0.037620004 0.069300003 0.69300002
-0.036352385 0.069400005 0.69400001
-0.035030477 0.069400005 0.69400001
-0.033757146 0.069500007 0.69500005
-0.032433335 0.069500007 0.69500005
-0.031199049 0.069700003 0.69700003
-0.029914288 0.069800004 0.69800001
-0.028666668 0.070000008 0.70000005
-0.027372383 0.070100002 0.70100003
-0.02611143 0.070300005 0.70300001
-0.024772383 0.070300005 0.70300001
-0.023466669 0.070400007 0.70400006
-0.022157144 0.070500001 0.70500004
-0.020814287 0.070500001 0.70500004
-0.019526668 0.070700005 0.70700002
-0.018180002 0.070700005 0.70700002
-0.076840006 0.072760008 0.71400005
-0.07537429 0.072658099 0.71300006
-0.073704764 0.072352387 0.71000004
-0.072148576 0.072148576 0.708
-0.070700005 0.072046675 0.70700002
-0.069059052 0.071740955 0.70400006
-0.067621909 0.071639054 0.70300001
-0.066094287 0.071435243 0.70100003
-0.064759053 0.071435243 0.70100003
-0.06333334 0.071333341 0.70000005
-0.062000003 0.071333341 0.70000005
-0.060493339 0.071129531 0.69800001
-0.059079051 0.071027622 0.69700003
-0.057585716 0.070823811 0.69500005
-0.056261908 0.070823811 0.69500005
-0.05485905 0.070721909 0.69400001
-0.053460002 0.070620008 0.69300002
-0.052140005 0.070620008 0.69300002
-0.050820004 0.070620008 0.69300002
-0.049500003 0.070620008 0.69300002
-0.048040956 0.070416197 0.69100004
-0.046724766 0.070416197 0.69100004
-0.045408573 0.070416197 0.69100004
-0.044092383 0.070416197 0.69100004
-0.042776193 0.070416197 0.69100004
-0.041460004 0.070416197 0.69100004
-0.040260002 0.070620008 0.69300002
-0.038940001 0.070620008 0.69300002
-0.037674289 0.070721909 0.69400001
-0.036352385 0.070721909 0.69400001
-0.035080954 0.070823811 0.69500005
-0.033757146 0.070823811 0.69500005
-0.032526668 0.071027622 0.69700003
-0.031199049 0.071027622 0.69700003
-0.030000001 0.071333341 0.70000005
-0.028666668 0.071333341 0.70000005
-0.027450478 0.071639054 0.70300001
-0.02611143 0.071639054 0.70300001
-0.024807621 0.071740955 0.70400006
-0.023500001 0.071842864 0.70500004
-0.022251431 0.072148576 0.708
-0.020873334 0.072046675 0.70700002
-0.019554287 0.072148576 0.708
-0.018205715 0.072148576 0.708
-0.076840006 0.074120007 0.71400005
-0.07537429 0.074016199 0.71300006
-0.073497146 0.073497146 0.708
-0.072046675 0.073393337 0.70700002
-0.070500001 0.07318572 0.70500004
-0.069059052 0.073081911 0.70400006
-0.067621909 0.072978102 0.70300001
-0.066282861 0.072978102 0.70300001
-0.064759053 0.072770484 0.70100003
-0.063423812 0.072770484 0.70100003
-0.062000003 0.072666675 0.70000005
-0.060493339 0.07245905 0.69800001
-0.059079051 0.072355241 0.69700003
-0.057585716 0.072147623 0.69500005
-0.056261908 0.072147623 0.69500005
-0.0549381 0.072147623 0.69500005
-0.053537145 0.072043814 0.69400001
-0.052215241 0.072043814 0.69400001
-0.050893337 0.072043814 0.69400001
-0.049500003 0.071940005 0.69300002
-0.048180003 0.071940005 0.69300002
-0.046860002 0.071940005 0.69300002
-0.045540001 0.071940005 0.69300002
-0.044220004 0.071940005 0.69300002
-0.042900003 0.071940005 0.69300002
-0.041580003 0.071940005 0.69300002
-0.040318098 0.072043814 0.69400001
-0.038996194 0.072043814 0.69400001
-0.037728574 0.072147623 0.69500005
-0.036404766 0.072147623 0.69500005
-0.035080954 0.072147623 0.69500005
-0.033757146 0.072147623 0.69500005
-0.032526668 0.072355241 0.69700003
-0.031199049 0.072355241 0.69700003
-0.030000001 0.072666675 0.70000005
-0.028707622 0.072770484 0.70100003
-0.027450478 0.072978102 0.70300001
-0.026148573 0.073081911 0.70400006
-0.024842858 0.07318572 0.70500004
-0.023600001 0.073497146 0.708
-0.022314288 0.073704764 0.71000004
-0.020902859 0.073497146 0.708
-0.019554287 0.073497146 0.708
-0.018257145 0.073704764 0.71000004
-0.016904764 0.073704764 0.71000004
-0.076840006 0.075480007 0.71400005
-0.07537429 0.07537429 0.71300006
-0.073497146 0.074845716 0.708
-0.072148576 0.074845716 0.708
-0.070700005 0.074740008 0.70700002
-0.069353335 0.074740008 0.70700002
-0.067718096 0.074422859 0.70400006
-0.066282861 0.07431715 0.70300001
-0.064943813 0.07431715 0.70300001
-0.063423812 0.074105717 0.70100003
-0.062000003 0.074000008 0.70000005
-0.060666669 0.074000008 0.70000005
-0.059163813 0.073788576 0.69800001
-0.057751432 0.07368286 0.69700003
-0.056423813 0.07368286 0.69700003
-0.0549381 0.073471434 0.69500005
-0.053614289 0.073471434 0.69500005
-0.052215241 0.073365718 0.69400001
-0.050893337 0.073365718 0.69400001
-0.049571432 0.073365718 0.69400001
-0.048180003 0.073260002 0.69300002
-0.046927623 0.073365718 0.69400001
-0.045605719 0.073365718 0.69400001
-0.044283811 0.073365718 0.69400001
-0.042961907 0.073365718 0.69400001
-0.041640002 0.073365718 0.69400001
-0.040376194 0.073471434 0.69500005
-0.039052382 0.073471434 0.69500005
-0.037728574 0.073471434 0.69500005
-0.036404766 0.073471434 0.69500005
-0.035181906 0.07368286 0.69700003
-0.033854287 0.07368286 0.69700003
-0.032526668 0.07368286 0.69700003
-0.031243812 0.073788576 0.69800001
-0.030000001 0.074000008 0.70000005
-0.028707622 0.074105717 0.70100003
-0.027450478 0.07431715 0.70300001
-0.026185716 0.074528575 0.70500004
-0.024913335 0.074740008 0.70700002
-0.023600001 0.074845716 0.708
-0.022314288 0.075057149 0.71000004
-0.020902859 0.074845716 0.708
-0.019609526 0.075057149 0.71000004
-0.018257145 0.075057149 0.71000004
-0.016904764 0.075057149 0.71000004
-0.078747623 0.077378102 0.71900004
-0.076840006 0.076840006 0.71400005
-0.07537429 0.07673239 0.71300006
-0.073808573 0.07651715 0.71100003
-0.072352387 0.076409526 0.71000004
-0.070800006 0.076194294 0.708
-0.069353335 0.07608667 0.70700002
-0.067814291 0.07587143 0.70500004
-0.066377148 0.075763814 0.70400006
-0.064943813 0.075656198 0.70300001
-0.063604765 0.075656198 0.70300001
-0.062088575 0.075440958 0.70100003
-0.060753338 0.075440958 0.70100003
-0.059333336 0.075333342 0.70000005
-0.05783429 0.075118102 0.69800001
-0.056423813 0.075010478 0.69700003
-0.055096194 0.075010478 0.69700003
-0.053614289 0.074795246 0.69500005
-0.052290481 0.074795246 0.69500005
-0.050966669 0.074795246 0.69500005
-0.049642861 0.074795246 0.69500005
-0.048249528 0.074687622 0.69400001
-0.046927623 0.074687622 0.69400001
-0.045671433 0.074795246 0.69500005
-0.044283811 0.074687622 0.69400001
-0.043023814 0.074795246 0.69500005
-0.041700002 0.074795246 0.69500005
-0.040376194 0.074795246 0.69500005
-0.039052382 0.074795246 0.69500005
-0.037837144 0.075010478 0.69700003
-0.036509525 0.075010478 0.69700003
-0.035181906 0.075010478 0.69700003
-0.033854287 0.075010478 0.69700003
-0.032573335 0.075118102 0.69800001
-0.031333335 0.075333342 0.70000005
-0.030042859 0.075440958 0.70100003
-0.028707622 0.075440958 0.70100003
-0.027450478 0.075656198 0.70300001
-0.026185716 0.07587143 0.70500004
-0.024913335 0.07608667 0.70700002
-0.023600001 0.076194294 0.708
-0.022314288 0.076409526 0.71000004
-0.020961907 0.076409526 0.71000004
-0.019609526 0.076409526 0.71000004
-0.018257145 0.076409526 0.71000004
-0.016928572 0.07651715 0.71100003
-0.015000001 0.080714293 0.75000006
-0.013571429 0.080714293 0.75000006
-0.012142858 0.080714293 0.75000006
-0.078857146 0.078857146 0.72000003
-0.077378102 0.078747623 0.71900004
-0.075480007 0.078200005 0.71400005
-0.074120007 0.078200005 0.71400005
-0.072658099 0.078090481 0.71300006
-0.071300007 0.078090481 0.71300006
-0.069647625 0.077761911 0.71000004
-0.068006672 0.07743334 0.70700002
-0.066660002 0.07743334 0.70700002
-0.065036193 0.07710477 0.70400006
-0.063604765 0.076995246 0.70300001
-0.06226572 0.076995246 0.70300001
-0.060753338 0.076776199 0.70100003
-0.059418101 0.076776199 0.70100003
-0.058000002 0.076666668 0.70000005
-0.056666672 0.076666668 0.70000005
-0.055333339 0.076666668 0.70000005
-0.053845719 0.076447621 0.69800001
-0.052516192 0.076447621 0.69800001
-0.051113337 0.076338097 0.69700003
-0.049785718 0.076338097 0.69700003
-0.048458099 0.076338097 0.69700003
-0.04713048 0.076338097 0.69700003
-0.045802861 0.076338097 0.69700003
-0.044347622 0.07611905 0.69500005
-0.043147624 0.076338097 0.69700003
-0.041820005 0.076338097 0.69700003
-0.040492382 0.076338097 0.69700003
-0.039164763 0.076338097 0.69700003
-0.037837144 0.076338097 0.69700003
-0.036509525 0.076338097 0.69700003
-0.035232384 0.076447621 0.69800001
-0.033902861 0.076447621 0.69800001
-0.032573335 0.076447621 0.69800001
-0.031333335 0.076666668 0.70000005
-0.030042859 0.076776199 0.70100003
-0.028789526 0.076995246 0.70300001
-0.027489526 0.07710477 0.70400006
-0.026185716 0.077214293 0.70500004
-0.024948573 0.077542864 0.708
-0.023666669 0.077761911 0.71000004
-0.022345716 0.077871434 0.71100003
-0.02099143 0.077871434 0.71100003
-0.019637143 0.077871434 0.71100003
-0.018334286 0.078090481 0.71300006
-0.016976191 0.078090481 0.71300006
-0.014960001 0.081923813 0.74800003
-0.013535239 0.081923813 0.74800003
-0.012110477 0.081923813 0.74800003
-0.079076193 0.080451436 0.72200006
-0.077162862 0.079894289 0.71700001
-0.075691432 0.079782866 0.71600002
-0.074120007 0.079560004 0.71400005
-0.072760008 0.079560004 0.71400005
-0.071400002 0.079560004 0.71400005
-0.069745719 0.079225719 0.71100003
-0.06829524 0.079114288 0.71000004
-0.066660002 0.078780003 0.70700002
-0.065128572 0.078557149 0.70500004
-0.063695244 0.078445718 0.70400006
-0.06226572 0.078334294 0.70300001
-0.060926672 0.078334294 0.70300001
-0.059587624 0.078334294 0.70300001
-0.05808286 0.078111432 0.70100003
-0.056747623 0.078111432 0.70100003
-0.055333339 0.078000002 0.70000005
-0.054000005 0.078000002 0.70000005
-0.052516192 0.077777147 0.69800001
-0.05118667 0.077777147 0.69800001
-0.049785718 0.077665716 0.69700003
-0.048458099 0.077665716 0.69700003
-0.04713048 0.077665716 0.69700003
-0.045802861 0.077665716 0.69700003
-0.044475242 0.077665716 0.69700003
-0.043147624 0.077665716 0.69700003
-0.041820005 0.077665716 0.69700003
-0.040492382 0.077665716 0.69700003
-0.039220955 0.077777147 0.69800001
-0.037891433 0.077777147 0.69800001
-0.036561906 0.077777147 0.69800001
-0.035333335 0.078000002 0.70000005
-0.033902861 0.077777147 0.69800001
-0.032666668 0.078000002 0.70000005
-0.031378098 0.078111432 0.70100003
-0.030128574 0.078334294 0.70300001
-0.028789526 0.078334294 0.70300001
-0.027489526 0.078445718 0.70400006
-0.026185716 0.078557149 0.70500004
-0.024948573 0.078891434 0.708
-0.023666669 0.079114288 0.71000004
-0.022345716 0.079225719 0.71100003
-0.02099143 0.079225719 0.71100003
-0.019692382 0.079448573 0.71300006
-0.018334286 0.079448573 0.71300006
-0.016976191 0.079448573 0.71300006
-0.014940001 0.083237149 0.74700004
-0.079076193 0.081826672 0.72200006
-0.077378102 0.081486672 0.71900004
-0.076008573 0.081486672 0.71900004
-0.074431434 0.081260003 0.71700001
-0.072963811 0.081146672 0.71600002
-0.071400002 0.080920003 0.71400005
-0.069941908 0.080806673 0.71300006
-0.06829524 0.080466673 0.71000004
-0.066754289 0.080240004 0.708
-0.065313339 0.080126673 0.70700002
-0.063785717 0.079900004 0.70500004
-0.062354289 0.079786673 0.70400006
-0.060926672 0.079673335 0.70300001
-0.059587624 0.079673335 0.70300001
-0.05808286 0.079446673 0.70100003
-0.056747623 0.079446673 0.70100003
-0.055333339 0.079333335 0.70000005
-0.054000005 0.079333335 0.70000005
-0.052666672 0.079333335 0.70000005
-0.05118667 0.079106674 0.69800001
-0.049857147 0.079106674 0.69800001
-0.048458099 0.078993335 0.69700003
-0.047198098 0.079106674 0.69800001
-0.045802861 0.078993335 0.69700003
-0.044475242 0.078993335 0.69700003
-0.043147624 0.078993335 0.69700003
-0.041820005 0.078993335 0.69700003
-0.040550478 0.079106674 0.69800001
-0.039220955 0.079106674 0.69800001
-0.037891433 0.079106674 0.69800001
-0.036666669 0.079333335 0.70000005
-0.035333335 0.079333335 0.70000005
-0.034000002 0.079333335 0.70000005
-0.032713335 0.079446673 0.70100003
-0.031378098 0.079446673 0.70100003
-0.030128574 0.079673335 0.70300001
-0.028830478 0.079786673 0.70400006
-0.027528573 0.079900004 0.70500004
-0.026260002 0.080126673 0.70700002
-0.024948573 0.080240004 0.708
-0.023666669 0.080466673 0.71000004
-0.022345716 0.080580004 0.71100003
-0.02099143 0.080580004 0.71100003
-0.019692382 0.080806673 0.71300006
-0.018360002 0.080920003 0.71400005
-0.017000001 0.080920003 0.71400005
-0.014860001 0.084206671 0.74300003
-0.013444763 0.084206671 0.74300003
-0.079076193 0.083201908 0.72200006
-0.077485718 0.082971431 0.72000003
-0.076008573 0.082856193 0.71900004
-0.074431434 0.082625717 0.71700001
-0.072963811 0.082510479 0.71600002
-0.071600005 0.082510479 0.71600002
-0.069941908 0.082164764 0.71300006
-0.068391435 0.081934288 0.71100003
-0.066754289 0.081588574 0.708
-0.065313339 0.081473336 0.70700002
-0.063785717 0.081242859 0.70500004
-0.062354289 0.081127621 0.70400006
-0.060926672 0.081012383 0.70300001
-0.059587624 0.081012383 0.70300001
-0.058248576 0.081012383 0.70300001
-0.056747623 0.080781907 0.70100003
-0.055412386 0.080781907 0.70100003
-0.054000005 0.080666669 0.70000005
-0.052666672 0.080666669 0.70000005
-0.051333338 0.080666669 0.70000005
-0.049857147 0.080436192 0.69800001
-0.048527621 0.080436192 0.69800001
-0.047198098 0.080436192 0.69800001
-0.045802861 0.080320954 0.69700003
-0.044475242 0.080320954 0.69700003
-0.043209527 0.080436192 0.69800001
-0.041880004 0.080436192 0.69800001
-0.040550478 0.080436192 0.69800001
-0.039333336 0.080666669 0.70000005
-0.038000003 0.080666669 0.70000005
-0.03671905 0.080781907 0.70100003
-0.035383813 0.080781907 0.70100003
-0.034048572 0.080781907 0.70100003
-0.032713335 0.080781907 0.70100003
-0.03146762 0.081012383 0.70300001
-0.030128574 0.081012383 0.70300001
-0.028830478 0.081127621 0.70400006
-0.027528573 0.081242859 0.70500004
-0.026260002 0.081473336 0.70700002
-0.024948573 0.081588574 0.708
-0.023666669 0.08181905 0.71000004
-0.022345716 0.081934288 0.71100003
-0.02099143 0.081934288 0.71100003
-0.019720001 0.082280003 0.71400005
-0.01841143 0.082510479 0.71600002
-0.01707143 0.082625717 0.71700001
-0.01462 0.084239051 0.73100001
-0.013245715 0.084354289 0.73200005
-0.012029525 0.085621908 0.74300003
-0.010614286 0.085621908 0.74300003
-0.080938101 0.086568579 0.73900002
-0.077808574 0.084694289 0.72300005
-0.076114289 0.08434286 0.72000003
-0.074742861 0.08434286 0.72000003
-0.07306572 0.083991431 0.71700001
-0.071600005 0.083874293 0.71600002
-0.070040002 0.083640009 0.71400005
-0.068583816 0.083522864 0.71300006
-0.066754289 0.082937151 0.708
-0.065405719 0.082937151 0.708
-0.063966669 0.082820006 0.70700002
-0.062442861 0.082585722 0.70500004
-0.061013337 0.082468577 0.70400006
-0.059672385 0.082468577 0.70400006
-0.058248576 0.082351431 0.70300001
-0.056909528 0.082351431 0.70300001
-0.055412386 0.082117148 0.70100003
-0.054077145 0.082117148 0.70100003
-0.052741908 0.082117148 0.70100003
-0.051333338 0.082000002 0.70000005
-0.050000004 0.082000002 0.70000005
-0.048527621 0.081765719 0.69800001
-0.047198098 0.081765719 0.69800001
-0.045868576 0.081765719 0.69800001
-0.044475242 0.081648573 0.69700003
-0.043209527 0.081765719 0.69800001
-0.041880004 0.081765719 0.69800001
-0.04066667 0.082000002 0.70000005
-0.039333336 0.082000002 0.70000005
-0.038054287 0.082117148 0.70100003
-0.03671905 0.082117148 0.70100003
-0.035383813 0.082117148 0.70100003
-0.034048572 0.082117148 0.70100003
-0.032806668 0.082351431 0.70300001
-0.03146762 0.082351431 0.70300001
-0.03017143 0.082468577 0.70400006
-0.028830478 0.082468577 0.70400006
-0.027528573 0.082585722 0.70500004
-0.026260002 0.082820006 0.70700002
-0.024948573 0.082937151 0.708
-0.023666669 0.083171435 0.71000004
-0.022345716 0.08328858 0.71100003
-0.02099143 0.08328858 0.71100003
-0.01977524 0.083874293 0.71600002
-0.018488573 0.084225722 0.71900004
-0.017119048 0.084225722 0.71900004
-0.016012382 0.085631438 0.73100001
-0.01462 0.085631438 0.73100001
-0.01322762 0.085631438 0.73100001
-0.011980954 0.086685717 0.74000001
-0.082345717 0.087976195 0.73900002
-0.080938101 0.087976195 0.73900002
-0.078131437 0.086428575 0.72600001
-0.076114289 0.085714288 0.72000003
-0.074639052 0.085595243 0.71900004
-0.073269531 0.085595243 0.71900004
-0.071700007 0.085357152 0.71700001
-0.070040002 0.085000008 0.71400005
-0.068583816 0.084880956 0.71300006
-0.066942863 0.084523812 0.71000004
-0.065405719 0.084285721 0.708
-0.063966669 0.084166676 0.70700002
-0.062442861 0.083928578 0.70500004
-0.061013337 0.083809532 0.70400006
-0.059672385 0.083809532 0.70400006
-0.058248576 0.083690479 0.70300001
-0.056909528 0.083690479 0.70300001
-0.055412386 0.083452389 0.70100003
-0.054077145 0.083452389 0.70100003
-0.052741908 0.083452389 0.70100003
-0.05140667 0.083452389 0.70100003
-0.050000004 0.083333336 0.70000005
-0.048666671 0.083333336 0.70000005
-0.047333337 0.083333336 0.70000005
-0.045868576 0.083095245 0.69800001
-0.044539049 0.083095245 0.69800001
-0.043209527 0.083095245 0.69800001
-0.041880004 0.083095245 0.69800001
-0.04066667 0.083333336 0.70000005
-0.039389525 0.083452389 0.70100003
-0.038054287 0.083452389 0.70100003
-0.03671905 0.083452389 0.70100003
-0.035383813 0.083452389 0.70100003
-0.034048572 0.083452389 0.70100003
-0.032806668 0.083690479 0.70300001
-0.03146762 0.083690479 0.70300001
-0.03017143 0.083809532 0.70400006
-0.02887143 0.083928578 0.70500004
-0.027606668 0.084166676 0.70700002
-0.026260002 0.084166676 0.70700002
-0.024948573 0.084285721 0.708
-0.023666669 0.084523812 0.71000004
-0.022408573 0.084880956 0.71300006
-0.021050477 0.084880956 0.71300006
-0.019858096 0.085595243 0.71900004
-0.018488573 0.085595243 0.71900004
-0.017142858 0.085714288 0.72000003
-0.015968572 0.086785719 0.72900003
-0.014580001 0.086785719 0.72900003
-0.01322762 0.087023817 0.73100001
-0.011835239 0.087023817 0.73100001
-0.082122862 0.089141913 0.73700005
-0.080390483 0.088779055 0.73400003
-0.078454293 0.088174291 0.72900003
-0.076431431 0.087448575 0.72300005
-0.074742861 0.087085716 0.72000003
-0.073371433 0.087085716 0.72000003
-0.071700007 0.086722866 0.71700001
-0.070040002 0.086360008 0.71400005
-0.068583816 0.086239055 0.71300006
-0.066942863 0.085876197 0.71000004
-0.065405719 0.085634291 0.708
-0.063966669 0.085513338 0.70700002
-0.062620007 0.085513338 0.70700002
-0.061100002 0.085271433 0.70500004
-0.059672385 0.08515048 0.70400006
-0.058331434 0.08515048 0.70400006
-0.056909528 0.085029528 0.70300001
-0.055570479 0.085029528 0.70300001
-0.054077145 0.084787622 0.70100003
-0.052741908 0.084787622 0.70100003
-0.05140667 0.084787622 0.70100003
-0.050000004 0.084666669 0.70000005
-0.048666671 0.084666669 0.70000005
-0.047333337 0.084666669 0.70000005
-0.046000004 0.084666669 0.70000005
-0.044539049 0.084424764 0.69800001
-0.043333337 0.084666669 0.70000005
-0.042000003 0.084666669 0.70000005
-0.04066667 0.084666669 0.70000005
-0.039389525 0.084787622 0.70100003
-0.038054287 0.084787622 0.70100003
-0.03671905 0.084787622 0.70100003
-0.035484765 0.085029528 0.70300001
-0.034145717 0.085029528 0.70300001
-0.032806668 0.085029528 0.70300001
-0.03146762 0.085029528 0.70300001
-0.03017143 0.08515048 0.70400006
-0.02887143 0.085271433 0.70500004
-0.027606668 0.085513338 0.70700002
-0.026260002 0.085513338 0.70700002
-0.024948573 0.085634291 0.708
-0.023766669 0.086239055 0.71300006
-0.022440001 0.086360008 0.71400005
-0.021168573 0.086722866 0.71700001
-0.019858096 0.086964771 0.71900004
-0.018514287 0.087085716 0.72000003
-0.017190477 0.087327622 0.72200006
-0.015946668 0.088053338 0.72800004
-0.014560001 0.088053338 0.72800004
-0.01319143 0.088174291 0.72900003
-0.011802858 0.088174291 0.72900003
-0.010442858 0.088416196 0.73100001
-0.082122862 0.090545721 0.73700005
-0.080390483 0.090177149 0.73400003
-0.078669526 0.089808576 0.73100001
-0.076642863 0.089071438 0.72500002
-0.075054288 0.088825718 0.72300005
-0.073371433 0.088457152 0.72000003
-0.071900003 0.088334292 0.71900004
-0.070236199 0.087965719 0.71600002
-0.068583816 0.087597147 0.71300006
-0.066942863 0.087228574 0.71000004
-0.065590478 0.087228574 0.71000004
-0.064057149 0.086982861 0.708
-0.062620007 0.086860009 0.70700002
-0.061100002 0.086614288 0.70500004
-0.059757147 0.086614288 0.70500004
-0.058248576 0.086368576 0.70300001
-0.056909528 0.086368576 0.70300001
-0.055570479 0.086368576 0.70300001
-0.054231431 0.086368576 0.70300001
-0.052741908 0.086122863 0.70100003
-0.05140667 0.086122863 0.70100003
-0.050071433 0.086122863 0.70100003
-0.048736192 0.086122863 0.70100003
-0.047333337 0.086000003 0.70000005
-0.046000004 0.086000003 0.70000005
-0.04466667 0.086000003 0.70000005
-0.043333337 0.086000003 0.70000005
-0.042000003 0.086000003 0.70000005
-0.040724766 0.086122863 0.70100003
-0.039389525 0.086122863 0.70100003
-0.038054287 0.086122863 0.70100003
-0.036823813 0.086368576 0.70300001
-0.035484765 0.086368576 0.70300001
-0.034145717 0.086368576 0.70300001
-0.032853335 0.086491436 0.70400006
-0.031512383 0.086491436 0.70400006
-0.030214287 0.086614288 0.70500004
-0.028953334 0.086860009 0.70700002
-0.027606668 0.086860009 0.70700002
-0.026297145 0.086982861 0.708
-0.02501905 0.087228574 0.71000004
-0.023766669 0.087597147 0.71300006
-0.022502858 0.087965719 0.71600002
-0.021168573 0.088088579 0.71700001
-0.019885715 0.088457152 0.72000003
-0.018514287 0.088457152 0.72000003
-0.017214287 0.088825718 0.72300005
-0.015946668 0.089440003 0.72800004
-0.014560001 0.089440003 0.72800004
-0.013173334 0.089440003 0.72800004
-0.011786668 0.089440003 0.72800004
-0.010414287 0.089562863 0.72900003
-0.0090257153 0.089562863 0.72900003
-0.0076580956 0.089808576 0.73100001
-0.080171436 0.091325723 0.73200005
-0.078454293 0.090951435 0.72900003
-0.076642863 0.090452388 0.72500002
-0.074742861 0.089828581 0.72000003
-0.073371433 0.089828581 0.72000003
-0.071900003 0.089703813 0.71900004
-0.070236199 0.089329533 0.71600002
-0.068680003 0.089080006 0.71400005
-0.06703715 0.088705719 0.71100003
-0.065590478 0.088580959 0.71000004
-0.064057149 0.088331431 0.708
-0.062708579 0.088331431 0.708
-0.061273336 0.088206671 0.70700002
-0.059757147 0.087957151 0.70500004
-0.058414288 0.087957151 0.70500004
-0.056909528 0.087707624 0.70300001
-0.055570479 0.087707624 0.70300001
-0.054231431 0.087707624 0.70300001
-0.052892383 0.087707624 0.70300001
-0.051553335 0.087707624 0.70300001
-0.050071433 0.087458104 0.70100003
-0.048736192 0.087458104 0.70100003
-0.047400955 0.087458104 0.70100003
-0.046000004 0.087333336 0.70000005
-0.04466667 0.087333336 0.70000005
-0.043333337 0.087333336 0.70000005
-0.042060003 0.087458104 0.70100003
-0.040724766 0.087458104 0.70100003
-0.039389525 0.087458104 0.70100003
-0.038162861 0.087707624 0.70300001
-0.036823813 0.087707624 0.70300001
-0.035484765 0.087707624 0.70300001
-0.034145717 0.087707624 0.70300001
-0.032853335 0.087832384 0.70400006
-0.031557146 0.087957151 0.70500004
-0.030214287 0.087957151 0.70500004
-0.028953334 0.088206671 0.70700002
-0.027645716 0.088331431 0.708
-0.026297145 0.088331431 0.708
-0.02501905 0.088580959 0.71000004
-0.023800002 0.089080006 0.71400005
-0.022502858 0.089329533 0.71600002
-0.021168573 0.089454293 0.71700001
-0.019858096 0.089703813 0.71900004
-0.018514287 0.089828581 0.72000003
-0.017142858 0.089828581 0.72000003
-0.015880954 0.090452388 0.72500002
-0.014520001 0.090577148 0.72600001
-0.013137144 0.090577148 0.72600001
-0.011786668 0.090826675 0.72800004
-0.010400001 0.090826675 0.72800004
-0.0090257153 0.090951435 0.72900003
-0.0076371431 0.090951435 0.72900003
-0.080061913 0.092593342 0.73100001
-0.07834667 0.09221334 0.72800004
-0.076642863 0.091833338 0.72500002
-0.074950479 0.091453336 0.72200006
-0.073371433 0.091200009 0.72000003
-0.071900003 0.091073342 0.71900004
-0.070236199 0.09069334 0.71600002
-0.068680003 0.090440005 0.71400005
