# .PCD v0.7 - Point Cloud Data file format
VERSION 0.7
FIELDS x y z
SIZE 4 4 4
TYPE F F F
COUNT 1 1 1
WIDTH 1400
HEIGHT 1
VIEWPOINT 0 0 0 1 0 0 0
POINTS 1400
DATA ascii
0.080191433 0.051145718 0.66300005
0.081454292 0.051145718 0.66300005
0.08271715 0.051145718 0.66300005
0.084233336 0.051300004 0.66500002
0.085500002 0.051300004 0.66500002
0.08689715 0.051377147 0.66600001
0.088165723 0.051377147 0.66600001
0.089568578 0.051454291 0.66700006
0.090839051 0.051454291 0.66700006
0.092385717 0.051608574 0.66900003
0.093660004 0.051608574 0.66900003
0.094934292 0.051608574 0.66900003
0.09620858 0.051608574 0.66900003
0.097628579 0.051685717 0.67000002
0.098904766 0.051685717 0.67000002
0.10033048 0.05176286 0.671
0.10160857 0.05176286 0.671
0.10304001 0.051840004 0.67200005
0.10432 0.051840004 0.67200005
0.10560001 0.051840004 0.67200005
0.1071981 0.05199429 0.67400002
0.10864286 0.052071434 0.67500001
0.11009143 0.052148573 0.67600006
0.11170858 0.05230286 0.67800003
0.11316667 0.052380003 0.67900002
0.11446001 0.052380003 0.67900002
0.11592381 0.052457146 0.68000001
0.11721905 0.052457146 0.68000001
0.11851429 0.052457146 0.68000001
0.12016191 0.052611433 0.68200004
0.12163906 0.052688576 0.68300003
0.12294001 0.052688576 0.68300003
0.12442286 0.05276572 0.68400002
0.12627715 0.052997146 0.68700004
0.12758572 0.052997146 0.68700004
0.12926953 0.053151432 0.68900001
0.13058192 0.053151432 0.68900001
0.13208573 0.053228576 0.69000006
0.13340001 0.053228576 0.69000006
0.13490953 0.053305719 0.69100004
0.13622573 0.053305719 0.69100004
0.053040955 0.053040955 0.671
0.054157145 0.052882861 0.66900003
0.055265717 0.052724764 0.66700006
0.056536194 0.052724764 0.66700006
0.057806671 0.052724764 0.66700006
0.059077147 0.052724764 0.66700006
0.060257148 0.052645717 0.66600001
0.061525717 0.052645717 0.66600001
0.062511429 0.052408576 0.66300005
0.063774288 0.052408576 0.66300005
0.065037146 0.052408576 0.66300005
0.066300005 0.052408576 0.66300005
0.067460954 0.052329529 0.66200006
0.068721913 0.052329529 0.66200006
0.069982864 0.052329529 0.66200006
0.071351431 0.052408576 0.66300005
0.07261429 0.052408576 0.66300005
0.073877148 0.052408576 0.66300005
0.075140007 0.052408576 0.66300005
0.076402865 0.052408576 0.66300005
0.077665716 0.052408576 0.66300005
0.078928575 0.052408576 0.66300005
0.080191433 0.052408576 0.66300005
0.081331432 0.052329529 0.66200006
0.08271715 0.052408576 0.66300005
0.083980009 0.052408576 0.66300005
0.085500002 0.05256667 0.66500002
0.086766675 0.05256667 0.66500002
0.088165723 0.052645717 0.66600001
0.089434288 0.052645717 0.66600001
0.090839051 0.052724764 0.66700006
0.092109531 0.052724764 0.66700006
0.093380004 0.052724764 0.66700006
0.094934292 0.052882861 0.66900003
0.09620858 0.052882861 0.66900003
0.09748286 0.052882861 0.66900003
0.098757148 0.052882861 0.66900003
0.10018096 0.052961908 0.67000002
0.10160857 0.053040955 0.671
0.10304001 0.053120002 0.67200005
0.10432 0.053120002 0.67200005
0.10560001 0.053120002 0.67200005
0.10688001 0.053120002 0.67200005
0.10848191 0.0532781 0.67400002
0.11009143 0.053436194 0.67600006
0.11170858 0.053594287 0.67800003
0.11300001 0.053594287 0.67800003
0.11446001 0.053673338 0.67900002
0.11575334 0.053673338 0.67900002
0.11721905 0.053752385 0.68000001
0.11851429 0.053752385 0.68000001
0.12016191 0.053910479 0.68200004
0.12163906 0.053989526 0.68300003
0.12294001 0.053989526 0.68300003
0.12442286 0.054068577 0.68400002
0.12627715 0.054305717 0.68700004
0.12758572 0.054305717 0.68700004
0.12926953 0.054463815 0.68900001
0.13077144 0.054542862 0.69000006
0.13208573 0.054542862 0.69000006
0.13340001 0.054542862 0.69000006
0.13530001 0.054780003 0.69300002
0.13662001 0.054780003 0.69300002
0.052882861 0.054157145 0.66900003
0.05399524 0.05399524 0.66700006
0.055182859 0.05391429 0.66600001
0.056451432 0.05391429 0.66600001
0.057720006 0.05391429 0.66600001
0.058988575 0.05391429 0.66600001
0.060166672 0.053833336 0.66500002
0.061433338 0.053833336 0.66500002
0.062417146 0.05359048 0.66200006
0.063678101 0.05359048 0.66200006
0.064939052 0.05359048 0.66200006
0.066100001 0.053509526 0.66100001
0.067359053 0.053509526 0.66100001
0.068618096 0.053509526 0.66100001
0.069877148 0.053509526 0.66100001
0.071136191 0.053509526 0.66100001
0.072504766 0.05359048 0.66200006
0.073765717 0.05359048 0.66200006
0.075026669 0.05359048 0.66200006
0.076287627 0.05359048 0.66200006
0.077548578 0.05359048 0.66200006
0.07880953 0.05359048 0.66200006
0.080070481 0.05359048 0.66200006
0.081331432 0.05359048 0.66200006
0.082592383 0.05359048 0.66200006
0.083853342 0.05359048 0.66200006
0.08524286 0.053671431 0.66300005
0.086505719 0.053671431 0.66300005
0.088033341 0.053833336 0.66500002
0.089300007 0.053833336 0.66500002
0.090702862 0.05391429 0.66600001
0.092109531 0.05399524 0.66700006
0.093380004 0.05399524 0.66700006
0.094650485 0.05399524 0.66700006
0.09620858 0.054157145 0.66900003
0.09748286 0.054157145 0.66900003
0.098757148 0.054157145 0.66900003
0.10018096 0.0542381 0.67000002
0.10160857 0.05431905 0.671
0.10304001 0.054400004 0.67200005
0.10432 0.054400004 0.67200005
0.10560001 0.054400004 0.67200005
0.10688001 0.054400004 0.67200005
0.10848191 0.054561909 0.67400002
0.11009143 0.054723814 0.67600006
0.11137906 0.054723814 0.67600006
0.11300001 0.054885719 0.67800003
0.11446001 0.05496667 0.67900002
0.11575334 0.05496667 0.67900002
0.11721905 0.055047624 0.68000001
0.11851429 0.055047624 0.68000001
0.12016191 0.055209529 0.68200004
0.12163906 0.055290479 0.68300003
0.12294001 0.055290479 0.68300003
0.12478667 0.055533338 0.68600005
0.12627715 0.055614289 0.68700004
0.12758572 0.055614289 0.68700004
0.12926953 0.055776194 0.68900001
0.13077144 0.055857148 0.69000006
0.13227715 0.055938099 0.69100004
0.13359334 0.055938099 0.69100004
0.13530001 0.056100003 0.69300002
0.13681716 0.056180958 0.69400001
0.13813905 0.056180958 0.69400001
0.051145718 0.054934289 0.66300005
0.052645717 0.055182859 0.66600001
0.053833336 0.055100005 0.66500002
0.054934289 0.054934289 0.66300005
0.056197148 0.054934289 0.66300005
0.057460003 0.054934289 0.66300005
0.058722861 0.054934289 0.66300005
0.059895243 0.054851431 0.66200006
0.061063815 0.054768573 0.66100001
0.062322862 0.054768573 0.66100001
0.063581906 0.054768573 0.66100001
0.064742863 0.054685719 0.66000003
0.066000007 0.054685719 0.66000003
0.067257144 0.054685719 0.66000003
0.068514287 0.054685719 0.66000003
0.069771431 0.054685719 0.66000003
0.071028575 0.054685719 0.66000003
0.072395243 0.054768573 0.66100001
0.073542863 0.054685719 0.66000003
0.074913338 0.054768573 0.66100001
0.076172389 0.054768573 0.66100001
0.077431433 0.054768573 0.66100001
0.078690484 0.054768573 0.66100001
0.079949528 0.054768573 0.66100001
0.081208579 0.054768573 0.66100001
0.082467623 0.054768573 0.66100001
0.083853342 0.054851431 0.66200006
0.085114293 0.054851431 0.66200006
0.086505719 0.054934289 0.66300005
0.087768577 0.054934289 0.66300005
0.089031436 0.054934289 0.66300005
0.090566672 0.055100005 0.66500002
0.091971435 0.055182859 0.66600001
0.093240008 0.055182859 0.66600001
0.094650485 0.055265717 0.66700006
0.095920958 0.055265717 0.66700006
0.09748286 0.055431433 0.66900003
0.098757148 0.055431433 0.66900003
0.10003144 0.055431433 0.66900003
0.10160857 0.055597145 0.671
0.10288668 0.055597145 0.671
0.10432 0.055680003 0.67200005
0.10560001 0.055680003 0.67200005
0.10688001 0.055680003 0.67200005
0.10848191 0.055845719 0.67400002
0.10992858 0.055928577 0.67500001
0.11137906 0.056011431 0.67600006
0.11300001 0.056177147 0.67800003
0.11446001 0.056260005 0.67900002
0.11575334 0.056260005 0.67900002
0.11721905 0.056342863 0.68000001
0.11886287 0.056508575 0.68200004
0.12016191 0.056508575 0.68200004
0.12163906 0.056591433 0.68300003
0.12312001 0.05667429 0.68400002
0.12478667 0.056840003 0.68600005
0.12627715 0.05692286 0.68700004
0.12758572 0.05692286 0.68700004
0.12926953 0.057088576 0.68900001
0.13077144 0.057171434 0.69000006
0.13227715 0.057254288 0.69100004
0.13359334 0.057254288 0.69100004
0.13549525 0.057502862 0.69400001
0.13681716 0.057502862 0.69400001
0.050033338 0.056366671 0.66500002
0.051145718 0.056197148 0.66300005
0.052408576 0.056197148 0.66300005
0.053671431 0.056197148 0.66300005
0.054934289 0.056197148 0.66300005
0.056112386 0.056112386 0.66200006
0.057373337 0.056112386 0.66200006
0.058634289 0.056112386 0.66200006
0.059804767 0.056027621 0.66100001
0.061063815 0.056027621 0.66100001
0.062322862 0.056027621 0.66100001
0.063485719 0.05594286 0.66000003
0.064546674 0.055773336 0.65800005
0.065800004 0.055773336 0.65800005
0.06705334 0.055773336 0.65800005
0.06830667 0.055773336 0.65800005
0.069560006 0.055773336 0.65800005
0.070813335 0.055773336 0.65800005
0.072066672 0.055773336 0.65800005
0.073320001 0.055773336 0.65800005
0.074800007 0.05594286 0.66000003
0.076057151 0.05594286 0.66000003
0.077314287 0.05594286 0.66000003
0.078571431 0.05594286 0.66000003
0.079828575 0.05594286 0.66000003
0.081085719 0.05594286 0.66000003
0.082342863 0.05594286 0.66000003
0.083726674 0.056027621 0.66100001
0.085114293 0.056112386 0.66200006
0.086375244 0.056112386 0.66200006
0.087636195 0.056112386 0.66200006
0.089031436 0.056197148 0.66300005
0.090566672 0.056366671 0.66500002
0.091971435 0.056451432 0.66600001
0.093240008 0.056451432 0.66600001
0.094650485 0.056536194 0.66700006
0.095920958 0.056536194 0.66700006
0.097191438 0.056536194 0.66700006
0.098757148 0.056705717 0.66900003
0.10003144 0.056705717 0.66900003
0.10160857 0.05687524 0.671
0.10288668 0.05687524 0.671
0.10432 0.056960005 0.67200005
0.10560001 0.056960005 0.67200005
0.10688001 0.056960005 0.67200005
0.10848191 0.057129528 0.67400002
0.10992858 0.05721429 0.67500001
0.11137906 0.057299051 0.67600006
0.11300001 0.057468574 0.67800003
0.11429144 0.057468574 0.67800003
0.11575334 0.057553336 0.67900002
0.11721905 0.057638098 0.68000001
0.11886287 0.057807624 0.68200004
0.1203381 0.057892386 0.68300003
0.12163906 0.057892386 0.68300003
0.12312001 0.057977147 0.68400002
0.12478667 0.05814667 0.68600005
0.12627715 0.058231432 0.68700004
0.12758572 0.058231432 0.68700004
0.12926953 0.058400955 0.68900001
0.13077144 0.058485717 0.69000006
0.13227715 0.058570482 0.69100004
0.13398001 0.058740005 0.69300002
0.13549525 0.058824766 0.69400001
0.13681716 0.058824766 0.69400001
0.13813905 0.058824766 0.69400001
0.048840005 0.057720006 0.66600001
0.049882859 0.057460003 0.66300005
0.051068574 0.057373337 0.66200006
0.052329529 0.057373337 0.66200006
0.05359048 0.057373337 0.66200006
0.054851431 0.057373337 0.66200006
0.056027621 0.057286669 0.66100001
0.057286669 0.057286669 0.66100001
0.05854572 0.057286669 0.66100001
0.059533339 0.057026669 0.65800005
0.060786672 0.057026669 0.65800005
0.062040005 0.057026669 0.65800005
0.063293338 0.057026669 0.65800005
0.064546674 0.057026669 0.65800005
0.065800004 0.057026669 0.65800005
0.06705334 0.057026669 0.65800005
0.068202861 0.056940004 0.65700001
0.06945429 0.056940004 0.65700001
0.070813335 0.057026669 0.65800005
0.071957149 0.056940004 0.65700001
0.073320001 0.057026669 0.65800005
0.074573338 0.057026669 0.65800005
0.075826675 0.057026669 0.65800005
0.077080004 0.057026669 0.65800005
0.078333341 0.057026669 0.65800005
0.079828575 0.057200003 0.66000003
0.081085719 0.057200003 0.66000003
0.082342863 0.057200003 0.66000003
0.083600007 0.057200003 0.66000003
0.084985718 0.057286669 0.66100001
0.086244769 0.057286669 0.66100001
0.087636195 0.057373337 0.66200006
0.089031436 0.057460003 0.66300005
0.090294294 0.057460003 0.66300005
0.091833338 0.057633337 0.66500002
0.093100004 0.057633337 0.66500002
0.094508581 0.057720006 0.66600001
0.095777147 0.057720006 0.66600001
0.097191438 0.057806671 0.66700006
0.098461911 0.057806671 0.66700006
0.10003144 0.057980005 0.66900003
0.10145715 0.05806667 0.67000002
0.10288668 0.058153339 0.671
0.10432 0.058240004 0.67200005
0.10560001 0.058240004 0.67200005
0.10688001 0.058240004 0.67200005
0.10848191 0.058413338 0.67400002
0.10992858 0.058500003 0.67500001
0.11137906 0.058586672 0.67600006
0.11300001 0.058760002 0.67800003
0.11429144 0.058760002 0.67800003
0.11575334 0.058846671 0.67900002
0.11721905 0.058933336 0.68000001
0.11886287 0.05910667 0.68200004
0.1203381 0.059193335 0.68300003
0.12163906 0.059193335 0.68300003
0.12312001 0.059280004 0.68400002
0.12478667 0.059453338 0.68600005
0.12627715 0.059540004 0.68700004
0.12795715 0.059713338 0.68900001
0.12945715 0.059800003 0.69000006
0.13077144 0.059800003 0.69000006
0.13266 0.060060006 0.69300002
0.13398001 0.060060006 0.69300002
0.13530001 0.060060006 0.69300002
0.13681716 0.060146671 0.69400001
0.13813905 0.060146671 0.69400001
0.04714286 0.058457147 0.66000003
0.048400003 0.058457147 0.66000003
0.049882859 0.058722861 0.66300005
0.050991431 0.05854572 0.66100001
0.052171431 0.058457147 0.66000003
0.053266671 0.058280002 0.65800005
0.054520003 0.058280002 0.65800005
0.055773336 0.058280002 0.65800005
0.056940004 0.058191434 0.65700001
0.058191434 0.058191434 0.65700001
0.059352383 0.058102861 0.65600002
0.060601909 0.058102861 0.65600002
0.061851434 0.058102861 0.65600002
0.063100956 0.058102861 0.65600002
0.064252384 0.058014289 0.65500003
0.065600008 0.058102861 0.65600002
0.06684953 0.058102861 0.65600002
0.068099052 0.058102861 0.65600002
0.069348574 0.058102861 0.65600002
0.070598103 0.058102861 0.65600002
0.071957149 0.058191434 0.65700001
0.073208578 0.058191434 0.65700001
0.074460007 0.058191434 0.65700001
0.075711437 0.058191434 0.65700001
0.076962866 0.058191434 0.65700001
0.078333341 0.058280002 0.65800005
0.07958667 0.058280002 0.65800005
0.080840006 0.058280002 0.65800005
0.082093336 0.058280002 0.65800005
0.083346672 0.058280002 0.65800005
0.084857151 0.058457147 0.66000003
0.086114295 0.058457147 0.66000003
0.087371431 0.058457147 0.66000003
0.088897146 0.058634289 0.66200006
0.090158097 0.058634289 0.66200006
0.091557153 0.058722861 0.66300005
0.092820004 0.058722861 0.66300005
0.09436667 0.058900002 0.66500002
0.095633343 0.058900002 0.66500002
0.09704572 0.058988575 0.66600001
0.098314293 0.058988575 0.66600001
0.099732384 0.059077147 0.66700006
0.10130572 0.059254289 0.66900003
0.10258 0.059254289 0.66900003
0.10416477 0.059431434 0.671
0.10544287 0.059431434 0.671
0.10688001 0.059520002 0.67200005
0.10848191 0.059697147 0.67400002
0.10992858 0.05978572 0.67500001
0.11137906 0.059874289 0.67600006
0.11300001 0.060051434 0.67800003
0.11429144 0.060051434 0.67800003
0.11575334 0.060140003 0.67900002
0.11721905 0.060228575 0.68000001
0.11886287 0.06040572 0.68200004
0.1203381 0.060494289 0.68300003
0.12163906 0.060494289 0.68300003
0.12312001 0.060582861 0.68400002
0.12478667 0.060760003 0.68600005
0.12627715 0.060848575 0.68700004
0.12795715 0.06102572 0.68900001
0.12945715 0.061114289 0.69000006
0.13096096 0.061202861 0.69100004
0.13266 0.061380003 0.69300002
0.13417335 0.061468575 0.69400001
0.13549525 0.061468575 0.69400001
0.13681716 0.061468575 0.69400001
0.1383381 0.061557148 0.69500005
0.04192286 0.059442863 0.65700001
0.043174289 0.059442863 0.65700001
0.044493336 0.059533339 0.65800005
0.045746669 0.059533339 0.65800005
0.047000002 0.059533339 0.65800005
0.048400003 0.059714291 0.66000003
0.049431432 0.059442863 0.65700001
0.050760005 0.059533339 0.65800005
0.052013338 0.059533339 0.65800005
0.053185716 0.059442863 0.65700001
0.054354288 0.059352383 0.65600002
0.055603813 0.059352383 0.65600002
0.05676667 0.059261907 0.65500003
0.058014289 0.059261907 0.65500003
0.059261907 0.059261907 0.65500003
0.060509529 0.059261907 0.65500003
0.061757147 0.059261907 0.65500003
0.063100956 0.059352383 0.65600002
0.064056195 0.059080955 0.65300006
0.065500006 0.059261907 0.65500003
0.066747621 0.059261907 0.65500003
0.067995243 0.059261907 0.65500003
0.069242865 0.059261907 0.65500003
0.070598103 0.059352383 0.65600002
0.071847625 0.059352383 0.65600002
0.073208578 0.059442863 0.65700001
0.074346669 0.059352383 0.65600002
0.075596198 0.059352383 0.65600002
0.076962866 0.059442863 0.65700001
0.078214288 0.059442863 0.65700001
0.079465717 0.059442863 0.65700001
0.080717146 0.059442863 0.65700001
0.082093336 0.059533339 0.65800005
0.083346672 0.059533339 0.65800005
0.084600009 0.059533339 0.65800005
0.086114295 0.059714291 0.66000003
0.087371431 0.059714291 0.66000003
0.088762864 0.059804767 0.66100001
0.090158097 0.059895243 0.66200006
0.091419056 0.059895243 0.66200006
0.092820004 0.05998572 0.66300005
0.094082862 0.05998572 0.66300005
0.095633343 0.060166672 0.66500002
0.096900009 0.060166672 0.66500002
0.098314293 0.060257148 0.66600001
0.099732384 0.060347624 0.66700006
0.10100286 0.060347624 0.66700006
0.10258 0.060528576 0.66900003
0.10400953 0.060619052 0.67000002
0.10544287 0.060709529 0.671
0.10688001 0.060800005 0.67200005
0.10848191 0.060980957 0.67400002
0.10992858 0.061071433 0.67500001
0.1112143 0.061071433 0.67500001
0.11266667 0.061161909 0.67600006
0.11395429 0.061161909 0.67600006
0.11575334 0.061433338 0.67900002
0.11721905 0.061523814 0.68000001
0.11886287 0.061704766 0.68200004
0.1203381 0.061795242 0.68300003
0.12181715 0.061885718 0.68400002
0.12348001 0.062066671 0.68600005
0.12478667 0.062066671 0.68600005
0.12627715 0.062157147 0.68700004
0.12814286 0.062428575 0.69000006
0.12964477 0.062519051 0.69100004
0.13134001 0.062700003 0.69300002
0.13285144 0.062790483 0.69400001
0.13436668 0.062880956 0.69500005
0.13569048 0.062880956 0.69500005
0.1370143 0.062880956 0.69500005
0.1383381 0.062880956 0.69500005
0.04192286 0.060694288 0.65700001
0.043240003 0.060786672 0.65800005
0.044493336 0.060786672 0.65800005
0.045746669 0.060786672 0.65800005
0.047000002 0.060786672 0.65800005
0.048253335 0.060786672 0.65800005
0.049506672 0.060786672 0.65800005
0.050682861 0.060694288 0.65700001
0.05185524 0.060601909 0.65600002
0.053023811 0.060509529 0.65500003
0.054271434 0.060509529 0.65500003
0.055519052 0.060509529 0.65500003
0.056593336 0.060324766 0.65300006
0.057837147 0.060324766 0.65300006
0.059080955 0.060324766 0.65300006
0.060324766 0.060324766 0.65300006
0.061568577 0.060324766 0.65300006
0.062716193 0.060232386 0.65200001
0.063958101 0.060232386 0.65200001
0.065500006 0.060509529 0.65500003
0.066543818 0.060324766 0.65300006
0.067787625 0.060324766 0.65300006
0.069031432 0.060324766 0.65300006
0.07027524 0.060324766 0.65300006
0.071738102 0.060509529 0.65500003
0.072985716 0.060509529 0.65500003
0.074233338 0.060509529 0.65500003
0.07548096 0.060509529 0.65500003
0.07684572 0.060601909 0.65600002
0.078095242 0.060601909 0.65600002
0.079344764 0.060601909 0.65600002
0.080717146 0.060694288 0.65700001
0.081968576 0.060694288 0.65700001
0.083346672 0.060786672 0.65800005
0.084600009 0.060786672 0.65800005
0.085853338 0.060786672 0.65800005
0.087371431 0.060971431 0.66000003
0.088628575 0.060971431 0.66000003
0.090021908 0.061063815 0.66100001
0.091419056 0.061156195 0.66200006
0.092820004 0.061248574 0.66300005
0.094082862 0.061248574 0.66300005
0.095345721 0.061248574 0.66300005
0.096900009 0.061433338 0.66500002
0.098314293 0.061525717 0.66600001
0.099582866 0.061525717 0.66600001
0.10100286 0.061618101 0.66700006
0.10258 0.06180286 0.66900003
0.10400953 0.061895244 0.67000002
0.10544287 0.061987624 0.671
0.10688001 0.062080003 0.67200005
0.10848191 0.062264767 0.67400002
0.10976572 0.062264767 0.67400002
0.1112143 0.062357146 0.67500001
0.11300001 0.062634289 0.67800003
0.11429144 0.062634289 0.67800003
0.11575334 0.062726669 0.67900002
0.11721905 0.062819049 0.68000001
0.11886287 0.063003816 0.68200004
0.1203381 0.063096195 0.68300003
0.12181715 0.063188575 0.68400002
0.12348001 0.063373335 0.68600005
0.12496858 0.063465722 0.68700004
0.12664478 0.063650481 0.68900001
0.12814286 0.063742861 0.69000006
0.12964477 0.063835241 0.69100004
0.13134001 0.064020008 0.69300002
0.13285144 0.064112388 0.69400001
0.13436668 0.064204767 0.69500005
0.13569048 0.064204767 0.69500005
0.1370143 0.064204767 0.69500005
0.1387362 0.064389527 0.69700003
0.040609527 0.061851434 0.65600002
0.041859049 0.061851434 0.65600002
0.043174289 0.061945718 0.65700001
0.044425718 0.061945718 0.65700001
0.045677144 0.061945718 0.65700001
0.046642859 0.061568577 0.65300006
0.04788667 0.061568577 0.65300006
0.049055241 0.06147429 0.65200001
0.050297145 0.06147429 0.65200001
0.051539052 0.06147429 0.65200001
0.052700002 0.061380003 0.65100002
0.05402286 0.06147429 0.65200001
0.055264767 0.06147429 0.65200001
0.056506671 0.06147429 0.65200001
0.057748575 0.06147429 0.65200001
0.059080955 0.061568577 0.65300006
0.060324766 0.061568577 0.65300006
0.061568577 0.061568577 0.65300006
0.062812388 0.061568577 0.65300006
0.064056195 0.061568577 0.65300006
0.065300003 0.061568577 0.65300006
0.066543818 0.061568577 0.65300006
0.067787625 0.061568577 0.65300006
0.068925716 0.06147429 0.65200001
0.070167623 0.06147429 0.65200001
0.071519054 0.061568577 0.65300006
0.072762862 0.061568577 0.65300006
0.074006669 0.061568577 0.65300006
0.075250484 0.061568577 0.65300006
0.076728575 0.061757147 0.65500003
0.077976197 0.061757147 0.65500003
0.079344764 0.061851434 0.65600002
0.080594294 0.061851434 0.65600002
0.081968576 0.061945718 0.65700001
0.083220005 0.061945718 0.65700001
0.084600009 0.062040005 0.65800005
0.085853338 0.062040005 0.65800005
0.087106675 0.062040005 0.65800005
0.088628575 0.062228575 0.66000003
0.090021908 0.062322862 0.66100001
0.09128096 0.062322862 0.66100001
0.092680007 0.062417146 0.66200006
0.093940958 0.062417146 0.66200006
0.095345721 0.062511429 0.66300005
0.096900009 0.062700003 0.66500002
0.098166674 0.062700003 0.66500002
0.099582866 0.06279429 0.66600001
0.10100286 0.062888578 0.66700006
0.10258 0.063077144 0.66900003
0.10400953 0.063171431 0.67000002
0.10544287 0.063265719 0.671
0.10688001 0.063360006 0.67200005
0.10848191 0.063548572 0.67400002
0.10992858 0.063642859 0.67500001
0.1112143 0.063642859 0.67500001
0.11300001 0.063925721 0.67800003
0.11429144 0.063925721 0.67800003
0.11575334 0.064020008 0.67900002
0.11721905 0.064114287 0.68000001
0.11886287 0.064302862 0.68200004
0.1203381 0.064397149 0.68300003
0.12181715 0.064491436 0.68400002
0.12366001 0.06477429 0.68700004
0.12496858 0.06477429 0.68700004
0.12664478 0.064962864 0.68900001
0.12814286 0.065057144 0.69000006
0.12964477 0.065151431 0.69100004
0.13134001 0.065340005 0.69300002
0.13285144 0.065434292 0.69400001
0.13436668 0.065528579 0.69500005
0.13569048 0.065528579 0.69500005
0.1370143 0.065528579 0.69500005
0.1387362 0.065717146 0.69700003
0.040671431 0.063197143 0.65700001
0.04192286 0.063197143 0.65700001
0.043108575 0.063100956 0.65600002
0.044358097 0.063100956 0.65600002
0.045607623 0.063100956 0.65600002
0.04657143 0.062716193 0.65200001
0.047740005 0.062620007 0.65100002
0.048904765 0.062523812 0.65000004
0.050142862 0.062523812 0.65000004
0.051380955 0.062523812 0.65000004
0.052457146 0.062331434 0.648
0.053940002 0.062620007 0.65100002
0.055180002 0.062620007 0.65100002
0.056420002 0.062620007 0.65100002
0.057660002 0.062620007 0.65100002
0.058990479 0.062716193 0.65200001
0.060232386 0.062716193 0.65200001
0.06147429 0.062716193 0.65200001
0.062716193 0.062716193 0.65200001
0.063958101 0.062716193 0.65200001
0.065200001 0.062716193 0.65200001
0.066441908 0.062716193 0.65200001
0.067683816 0.062716193 0.65200001
0.068820007 0.062620007 0.65100002
0.070060007 0.062620007 0.65100002
0.071409531 0.062716193 0.65200001
0.072651431 0.062716193 0.65200001
0.073893338 0.062716193 0.65200001
0.075135246 0.062716193 0.65200001
0.076494291 0.062812388 0.65300006
0.077738099 0.062812388 0.65300006
0.078981914 0.062812388 0.65300006
0.080471434 0.063004769 0.65500003
0.081843816 0.063100956 0.65600002
0.083220005 0.063197143 0.65700001
0.084471434 0.063197143 0.65700001
0.085722864 0.063197143 0.65700001
0.087106675 0.063293338 0.65800005
0.088360004 0.063293338 0.65800005
0.089885719 0.063485719 0.66000003
0.091142863 0.063485719 0.66000003
0.092540003 0.063581906 0.66100001
0.093940958 0.063678101 0.66200006
0.09520191 0.063678101 0.66200006
0.096608579 0.063774288 0.66300005
0.098166674 0.063966669 0.66500002
0.099582866 0.064062864 0.66600001
0.10100286 0.064159051 0.66700006
0.10258 0.064351432 0.66900003
0.10400953 0.064447626 0.67000002
0.10544287 0.064543813 0.671
0.10688001 0.064640008 0.67200005
0.10848191 0.064832382 0.67400002
0.10992858 0.064928576 0.67500001
0.1112143 0.064928576 0.67500001
0.11266667 0.065024763 0.67600006
0.11429144 0.065217145 0.67800003
0.11575334 0.065313339 0.67900002
0.11721905 0.065409526 0.68000001
0.11886287 0.065601908 0.68200004
0.1205143 0.065794289 0.68400002
0.12217334 0.065986671 0.68600005
0.12366001 0.066082865 0.68700004
0.12533239 0.066275239 0.68900001
0.12664478 0.066275239 0.68900001
0.12832858 0.06646762 0.69100004
0.13002001 0.066660002 0.69300002
0.13152954 0.066756196 0.69400001
0.13285144 0.066756196 0.69400001
0.13436668 0.066852383 0.69500005
0.13569048 0.066852383 0.69500005
0.1370143 0.066852383 0.69500005
0.1387362 0.067044765 0.69700003
0.039420001 0.064448573 0.65700001
0.040609527 0.064350478 0.65600002
0.041859049 0.064350478 0.65600002
0.043108575 0.064350478 0.65600002
0.04415524 0.064056195 0.65300006
0.045399051 0.064056195 0.65300006
0.04657143 0.063958101 0.65200001
0.047520004 0.063565716 0.648
0.04875429 0.063565716 0.648
0.049988575 0.063565716 0.648
0.051222861 0.063565716 0.648
0.052376192 0.063467622 0.64700001
0.053608574 0.063467622 0.64700001
0.054840956 0.063467622 0.64700001
0.056420002 0.063860007 0.65100002
0.057571433 0.063761912 0.65000004
0.058447622 0.063369527 0.64600003
0.05977048 0.063467622 0.64700001
0.061002862 0.063467622 0.64700001
0.062235244 0.063467622 0.64700001
0.063467622 0.063467622 0.64700001
0.064800002 0.063565716 0.648
0.066034287 0.063565716 0.648
0.067476198 0.063761912 0.65000004
0.068714291 0.063761912 0.65000004
0.069952384 0.063761912 0.65000004
0.071300007 0.063860007 0.65100002
0.072540008 0.063860007 0.65100002
0.073893338 0.063958101 0.65200001
0.075135246 0.063958101 0.65200001
0.076377146 0.063958101 0.65200001
0.077738099 0.064056195 0.65300006
0.078981914 0.064056195 0.65300006
0.080225721 0.064056195 0.65300006
0.081719056 0.064252384 0.65500003
0.083093338 0.064350478 0.65600002
0.084471434 0.064448573 0.65700001
0.085722864 0.064448573 0.65700001
0.087106675 0.064546674 0.65800005
0.088360004 0.064546674 0.65800005
0.089613341 0.064546674 0.65800005
0.091142863 0.064742863 0.66000003
0.092540003 0.064840958 0.66100001
0.093799055 0.064840958 0.66100001
0.09520191 0.064939052 0.66200006
0.096608579 0.065037146 0.66300005
0.098166674 0.065233335 0.66500002
0.099582866 0.065331429 0.66600001
0.10100286 0.065429531 0.66700006
0.10258 0.06562572 0.66900003
0.10400953 0.065723814 0.67000002
0.10544287 0.065821908 0.671
0.10688001 0.065920003 0.67200005
0.10848191 0.066116191 0.67400002
0.10992858 0.066214293 0.67500001
0.1112143 0.066214293 0.67500001
0.11266667 0.066312388 0.67600006
0.11429144 0.066508576 0.67800003
0.11575334 0.066606671 0.67900002
0.11721905 0.066704765 0.68000001
0.11886287 0.066900954 0.68200004
0.1205143 0.06709715 0.68400002
0.12235144 0.067391433 0.68700004
0.12402001 0.067587622 0.68900001
0.12533239 0.067587622 0.68900001
0.12682858 0.067685716 0.69000006
0.12832858 0.067783818 0.69100004
0.13002001 0.067980006 0.69300002
0.13152954 0.068078101 0.69400001
0.13285144 0.068078101 0.69400001
0.13436668 0.068176195 0.69500005
0.13608097 0.068372384 0.69700003
0.1370143 0.068176195 0.69500005
0.1387362 0.068372384 0.69700003
0.040547621 0.065500006 0.65500003
0.041795243 0.065500006 0.65500003
0.043042861 0.065500006 0.65500003
0.044087622 0.065200001 0.65200001
0.04519048 0.065000005 0.65000004
0.046428576 0.065000005 0.65000004
0.047520004 0.064800002 0.648
0.04875429 0.064800002 0.648
0.049911432 0.064700007 0.64700001
0.051222861 0.064800002 0.648
0.052376192 0.064700007 0.64700001
0.053608574 0.064700007 0.64700001
0.054756194 0.064600006 0.64600003
0.055986669 0.064600006 0.64600003
0.057128575 0.064500004 0.64500004
0.058357146 0.064500004 0.64500004
0.059585717 0.064500004 0.64500004
0.060814291 0.064500004 0.64500004
0.062139053 0.064600006 0.64600003
0.063467622 0.064700007 0.64700001
0.064700007 0.064700007 0.64700001
0.065932386 0.064700007 0.64700001
0.067268573 0.064800002 0.648
0.068714291 0.065000005 0.65000004
0.069952384 0.065000005 0.65000004
0.071300007 0.065100007 0.65100002
0.072540008 0.065100007 0.65100002
0.073780008 0.065100007 0.65100002
0.075020008 0.065100007 0.65100002
0.076377146 0.065200001 0.65200001
0.077619053 0.065200001 0.65200001
0.078860961 0.065200001 0.65200001
0.080225721 0.065300003 0.65300006
0.081469528 0.065300003 0.65300006
0.08296667 0.065500006 0.65500003
0.08434286 0.065600008 0.65600002
0.085722864 0.065700002 0.65700001
0.086974293 0.065700002 0.65700001
0.088225722 0.065700002 0.65700001
0.089613341 0.065800004 0.65800005
0.09086667 0.065800004 0.65800005
0.092120007 0.065800004 0.65800005
0.093657151 0.066000007 0.66000003
0.095058098 0.066100001 0.66100001
0.096608579 0.066300005 0.66300005
0.098166674 0.066500001 0.66500002
0.099582866 0.066600002 0.66600001
0.10100286 0.066700004 0.66700006
0.10227334 0.066700004 0.66700006
0.10400953 0.067000002 0.67000002
0.10528572 0.067000002 0.67000002
0.10672096 0.067100003 0.671
0.10848191 0.067400001 0.67400002
0.10976572 0.067400001 0.67400002
0.1112143 0.067500003 0.67500001
0.11266667 0.067600004 0.67600006
0.11395429 0.067600004 0.67600006
0.11558287 0.067800008 0.67800003
0.11704668 0.067900002 0.67900002
0.11903715 0.068300001 0.68300003
0.12086667 0.068600006 0.68600005
0.12235144 0.068700008 0.68700004
0.12402001 0.068900004 0.68900001
0.1255143 0.069000006 0.69000006
0.12701239 0.069100007 0.69100004
0.12832858 0.069100007 0.69100004
0.13002001 0.069300003 0.69300002
0.13152954 0.069400005 0.69400001
0.13285144 0.069400005 0.69400001
0.13436668 0.069500007 0.69500005
0.13608097 0.069700003 0.69700003
0.1370143 0.069500007 0.69500005
0.042780004 0.066340007 0.65100002
0.043952383 0.066238098 0.65000004
0.04519048 0.066238098 0.65000004
0.046428576 0.066238098 0.65000004
0.047446668 0.065932386 0.64700001
0.04867905 0.065932386 0.64700001
0.049988575 0.066034287 0.648
0.051143814 0.065932386 0.64700001
0.052295242 0.065830484 0.64600003
0.053525716 0.065830484 0.64600003
0.054671433 0.065728575 0.64500004
0.055900004 0.065728575 0.64500004
0.057040002 0.065626673 0.64400005
0.05826667 0.065626673 0.64400005
0.059493337 0.065626673 0.64400005
0.060814291 0.065728575 0.64500004
0.062042862 0.065728575 0.64500004
0.063271433 0.065728575 0.64500004
0.064500004 0.065728575 0.64500004
0.065830484 0.065830484 0.64600003
0.067164764 0.065932386 0.64700001
0.068502858 0.066034287 0.648
0.069737144 0.066034287 0.648
0.071190484 0.066238098 0.65000004
0.072428577 0.066238098 0.65000004
0.073666669 0.066238098 0.65000004
0.075020008 0.066340007 0.65100002
0.076260008 0.066340007 0.65100002
0.077619053 0.066441908 0.65200001
0.078860961 0.066441908 0.65200001
0.080225721 0.066543818 0.65300006
0.081469528 0.066543818 0.65300006
0.082713336 0.066543818 0.65300006
0.084214292 0.066747621 0.65500003
0.085592389 0.06684953 0.65600002
0.086974293 0.066951431 0.65700001
0.088225722 0.066951431 0.65700001
0.089613341 0.06705334 0.65800005
0.09086667 0.06705334 0.65800005
0.092120007 0.06705334 0.65800005
0.093373336 0.06705334 0.65800005
0.095058098 0.067359053 0.66100001
0.096608579 0.067562863 0.66300005
0.098166674 0.067766674 0.66500002
0.099582866 0.067868575 0.66600001
0.10100286 0.067970477 0.66700006
0.10227334 0.067970477 0.66700006
0.10400953 0.068276197 0.67000002
0.10528572 0.068276197 0.67000002
0.10672096 0.068378098 0.671
0.10848191 0.068683811 0.67400002
0.10976572 0.068683811 0.67400002
0.1112143 0.06878572 0.67500001
0.11266667 0.068887621 0.67600006
0.11395429 0.068887621 0.67600006
0.11558287 0.069091432 0.67800003
0.11704668 0.069193341 0.67900002
0.11903715 0.069600955 0.68300003
0.12104286 0.070008576 0.68700004
0.12270763 0.070212387 0.68900001
0.12402001 0.070212387 0.68900001
0.1255143 0.070314288 0.69000006
0.12701239 0.070416197 0.69100004
0.1287 0.070620008 0.69300002
0.13002001 0.070620008 0.69300002
0.13171905 0.070823811 0.69500005
0.13304287 0.070823811 0.69500005
0.13475335 0.071027622 0.69700003
0.1362762 0.071129531 0.69800001
0.041348573 0.067268573 0.648
0.04271429 0.067476198 0.65000004
0.043817144 0.067268573 0.648
0.045051433 0.067268573 0.648
0.046285719 0.067268573 0.648
0.047373336 0.067060955 0.64600003
0.048603814 0.067060955 0.64600003
0.049757145 0.066957146 0.64500004
0.050906669 0.066853337 0.64400005
0.052133337 0.066853337 0.64400005
0.053360004 0.066853337 0.64400005
0.054417148 0.066645719 0.64200002
0.055640005 0.066645719 0.64200002
0.056862861 0.066645719 0.64200002
0.058085717 0.066645719 0.64200002
0.059493337 0.066853337 0.64400005
0.060720004 0.066853337 0.64400005
0.061946671 0.066853337 0.64400005
0.063271433 0.066957146 0.64500004
0.064500004 0.066957146 0.64500004
0.065728575 0.066957146 0.64500004
0.067164764 0.067164764 0.64700001
0.068397149 0.067164764 0.64700001
0.069629528 0.067164764 0.64700001
0.070971437 0.067268573 0.648
0.072205722 0.067268573 0.648
0.073440008 0.067268573 0.648
0.07490477 0.067476198 0.65000004
0.076142862 0.067476198 0.65000004
0.077500008 0.067580007 0.65100002
0.078860961 0.067683816 0.65200001
0.080102861 0.067683816 0.65200001
0.081344768 0.067683816 0.65200001
0.082713336 0.067787625 0.65300006
0.084214292 0.067995243 0.65500003
0.085592389 0.068099052 0.65600002
0.086974293 0.068202861 0.65700001
0.088225722 0.068202861 0.65700001
0.089477152 0.068202861 0.65700001
0.09086667 0.06830667 0.65800005
0.092120007 0.06830667 0.65800005
0.093373336 0.06830667 0.65800005
0.095058098 0.068618096 0.66100001
0.096462861 0.068721913 0.66200006
0.098166674 0.06903334 0.66500002
0.099582866 0.069137149 0.66600001
0.10100286 0.069240957 0.66700006
0.10258 0.069448575 0.66900003
0.10400953 0.069552384 0.67000002
0.10528572 0.069552384 0.67000002
0.10672096 0.069656193 0.671
0.10848191 0.06996762 0.67400002
0.10992858 0.070071436 0.67500001
0.1112143 0.070071436 0.67500001
0.11266667 0.070175245 0.67600006
0.11429144 0.070382863 0.67800003
0.11575334 0.070486672 0.67900002
0.11704668 0.070486672 0.67900002
0.11903715 0.070901908 0.68300003
0.12139525 0.071524769 0.68900001
0.12270763 0.071524769 0.68900001
0.12420001 0.071628578 0.69000006
0.1255143 0.071628578 0.69000006
0.12701239 0.071732387 0.69100004
0.12832858 0.071732387 0.69100004
0.13020763 0.072043814 0.69400001
0.13209811 0.072355241 0.69700003
0.13304287 0.072147623 0.69500005
0.13494667 0.07245905 0.69800001
0.13666667 0.072666675 0.70000005
0.041348573 0.068502858 0.648
0.042385716 0.068185717 0.64500004
0.043546669 0.068080008 0.64400005
0.044773336 0.068080008 0.64400005
0.046000004 0.068080008 0.64400005
0.047226671 0.068080008 0.64400005
0.048453335 0.068080008 0.64400005
0.049525719 0.067868575 0.64200002
0.050748575 0.067868575 0.64200002
0.051971432 0.067868575 0.64200002
0.053194288 0.067868575 0.64200002
0.054332383 0.067762859 0.64100003
0.055640005 0.067868575 0.64200002
0.056862861 0.067868575 0.64200002
0.058085717 0.067868575 0.64200002
0.059308574 0.067868575 0.64200002
0.060720004 0.068080008 0.64400005
0.061946671 0.068080008 0.64400005
0.063173339 0.068080008 0.64400005
0.064400002 0.068080008 0.64400005
0.065626673 0.068080008 0.64400005
0.067060955 0.068291433 0.64600003
0.068397149 0.068397149 0.64700001
0.069629528 0.068397149 0.64700001
0.070861906 0.068397149 0.64700001
0.072205722 0.068502858 0.648
0.073440008 0.068502858 0.648
0.07490477 0.068714291 0.65000004
0.076142862 0.068714291 0.65000004
0.077500008 0.068820007 0.65100002
0.078740008 0.068820007 0.65100002
0.080102861 0.068925716 0.65200001
0.081344768 0.068925716 0.65200001
0.082713336 0.069031432 0.65300006
0.084214292 0.069242865 0.65500003
0.085592389 0.069348574 0.65600002
0.086841911 0.069348574 0.65600002
0.088225722 0.06945429 0.65700001
0.089477152 0.06945429 0.65700001
0.09086667 0.069560006 0.65800005
0.092120007 0.069560006 0.65800005
0.093373336 0.069560006 0.65800005
0.094914295 0.069771431 0.66000003
0.096462861 0.069982864 0.66200006
0.097871438 0.070088573 0.66300005
0.099582866 0.070405722 0.66600001
0.10100286 0.070511431 0.66700006
0.10258 0.070722863 0.66900003
0.10400953 0.070828579 0.67000002
0.10528572 0.070828579 0.67000002
0.10672096 0.070934288 0.671
0.10848191 0.07125143 0.67400002
0.10976572 0.07125143 0.67400002
0.1112143 0.071357146 0.67500001
0.11266667 0.071462862 0.67600006
0.11429144 0.071674287 0.67800003
0.11575334 0.071780004 0.67900002
0.11704668 0.071780004 0.67900002
0.11973429 0.072625719 0.68700004
0.12104286 0.072625719 0.68700004
0.12270763 0.072837144 0.68900001
0.12420001 0.07294286 0.69000006
0.1256962 0.073048577 0.69100004
0.12756382 0.073365718 0.69400001
0.12888572 0.073365718 0.69400001
0.13095811 0.073788576 0.69800001
0.13266668 0.074000008 0.70000005
0.134 0.074000008 0.70000005
0.039619051 0.068876192 0.64000005
0.040710479 0.06866096 0.63800001
0.041794289 0.06844572 0.63600004
0.043140955 0.06866096 0.63800001
0.044425718 0.068768576 0.63900006
0.045571432 0.06866096 0.63800001
0.046860002 0.068768576 0.63900006
0.048001908 0.06866096 0.63800001
0.049217146 0.06866096 0.63800001
0.050511431 0.068768576 0.63900006
0.051647622 0.06866096 0.63800001
0.05286286 0.06866096 0.63800001
0.05416286 0.068768576 0.63900006
0.055380005 0.068768576 0.63900006
0.05668572 0.068876192 0.64000005
0.057904765 0.068876192 0.64000005
0.059123814 0.068876192 0.64000005
0.060342859 0.068876192 0.64000005
0.06175429 0.069091432 0.64200002
0.06297715 0.069091432 0.64200002
0.064200006 0.069091432 0.64200002
0.065626673 0.069306672 0.64400005
0.066957146 0.069414288 0.64500004
0.068185717 0.069414288 0.64500004
0.069414288 0.069414288 0.64500004
0.070642859 0.069414288 0.64500004
0.071982861 0.069521911 0.64600003
0.07332667 0.069629528 0.64700001
0.074674293 0.069737144 0.648
0.075908579 0.069737144 0.648
0.077380955 0.069952384 0.65000004
0.078619055 0.069952384 0.65000004
0.079980008 0.070060007 0.65100002
0.081220008 0.070060007 0.65100002
0.082586668 0.070167623 0.65200001
0.083957151 0.07027524 0.65300006
0.085461907 0.070490479 0.65500003
0.086841911 0.070598103 0.65600002
0.088091433 0.070598103 0.65600002
0.089477152 0.070705719 0.65700001
0.090728581 0.070705719 0.65700001
0.092120007 0.070813335 0.65800005
0.093373336 0.070813335 0.65800005
0.094914295 0.071028575 0.66000003
0.096462861 0.071243815 0.66200006
0.097871438 0.071351431 0.66300005
0.099582866 0.071674287 0.66600001
0.10100286 0.071781911 0.66700006
0.10258 0.071997151 0.66900003
0.10400953 0.072104767 0.67000002
0.10528572 0.072104767 0.67000002
0.10672096 0.072212383 0.671
0.10816 0.072320007 0.67200005
0.10976572 0.072535239 0.67400002
0.1112143 0.072642863 0.67500001
0.11266667 0.072750479 0.67600006
0.11429144 0.072965719 0.67800003
0.11575334 0.073073335 0.67900002
0.11721905 0.073180959 0.68000001
0.11973429 0.073934294 0.68700004
0.12139525 0.074149527 0.68900001
0.12288572 0.07425715 0.69000006
0.12438001 0.074364766 0.69100004
0.1256962 0.074364766 0.69100004
0.12774763 0.074795246 0.69500005
0.12962858 0.075118102 0.69800001
0.13133334 0.075333342 0.70000005
0.13285621 0.075440958 0.70100003
0.034145717 0.068890482 0.62900001
0.036948573 0.069657147 0.63600004
0.038160004 0.069657147 0.63600004
0.039371431 0.069657147 0.63600004
0.040519051 0.069547623 0.63500005
0.041662861 0.0694381 0.634
0.042938098 0.069547623 0.63500005
0.044147622 0.069547623 0.63500005
0.045428574 0.069657147 0.63600004
0.046640001 0.069657147 0.63600004
0.047851432 0.069657147 0.63600004
0.049062859 0.069657147 0.63600004
0.05027429 0.069657147 0.63600004
0.051485717 0.069657147 0.63600004
0.052697148 0.069657147 0.63600004
0.054078098 0.069876194 0.63800001
0.055293337 0.069876194 0.63800001
0.056597147 0.069985718 0.63900006
0.057814289 0.069985718 0.63900006
0.059031431 0.069985718 0.63900006
0.060342859 0.070095241 0.64000005
0.061561909 0.070095241 0.64000005
0.062879048 0.070204765 0.64100003
0.064100005 0.070204765 0.64100003
0.065422863 0.070314288 0.64200002
0.066645719 0.070314288 0.64200002
0.068080008 0.070533335 0.64400005
0.069306672 0.070533335 0.64400005
0.070533335 0.070533335 0.64400005
0.07187143 0.070642859 0.64500004
0.07332667 0.070861906 0.64700001
0.074559055 0.070861906 0.64700001
0.075791433 0.070861906 0.64700001
0.077380955 0.071190484 0.65000004
0.078619055 0.071190484 0.65000004
0.079857148 0.071190484 0.65000004
0.081220008 0.071300007 0.65100002
0.082586668 0.071409531 0.65200001
0.083957151 0.071519054 0.65300006
0.085461907 0.071738102 0.65500003
0.086841911 0.071847625 0.65600002
0.088091433 0.071847625 0.65600002
0.089477152 0.071957149 0.65700001
0.090728581 0.071957149 0.65700001
0.092120007 0.072066672 0.65800005
0.093657151 0.072285719 0.66000003
0.095058098 0.072395243 0.66100001
0.096462861 0.072504766 0.66200006
0.098166674 0.072833337 0.66500002
0.099582866 0.07294286 0.66600001
0.10100286 0.073052384 0.66700006
0.10258 0.073271431 0.66900003
0.10400953 0.073380955 0.67000002
0.10528572 0.073380955 0.67000002
0.10672096 0.073490478 0.671
0.10816 0.073600002 0.67200005
0.10976572 0.073819056 0.67400002
0.11137906 0.074038103 0.67600006
0.11300001 0.07425715 0.67800003
0.11462858 0.074476197 0.68000001
0.11626477 0.074695244 0.68200004
0.1177362 0.074804768 0.68300003
0.12157144 0.075571433 0.69000006
0.12306382 0.075680956 0.69100004
0.12492001 0.076009527 0.69400001
0.12642382 0.07611905 0.69500005
0.12829906 0.076447621 0.69800001
0.13000001 0.076666668 0.70000005
0.034145717 0.070088573 0.62900001
0.035512384 0.070422865 0.63200003
0.036774289 0.070534289 0.63300002
0.038040001 0.07064572 0.634
0.039309528 0.070757151 0.63500005
0.040455241 0.07064572 0.634
0.041597147 0.070534289 0.63300002
0.042870481 0.07064572 0.634
0.044078097 0.07064572 0.634
0.045285717 0.07064572 0.634
0.046493337 0.07064572 0.634
0.047700956 0.07064572 0.634
0.048908576 0.07064572 0.634
0.050116193 0.07064572 0.634
0.051404767 0.070757151 0.63500005
0.05261429 0.070757151 0.63500005
0.053823814 0.070757151 0.63500005
0.055033337 0.070757151 0.63500005
0.056331433 0.070868574 0.63600004
0.057723813 0.071091436 0.63800001
0.058939051 0.071091436 0.63800001
0.060154289 0.071091436 0.63800001
0.061465718 0.071202859 0.63900006
0.06268286 0.071202859 0.63900006
0.063900001 0.071202859 0.63900006
0.065219052 0.07131429 0.64000005
0.06654191 0.071425721 0.64100003
0.067868575 0.071537144 0.64200002
0.069091432 0.071537144 0.64200002
0.070533335 0.071760006 0.64400005
0.07187143 0.07187143 0.64500004
0.073213339 0.071982861 0.64600003
0.074559055 0.072094291 0.64700001
0.075791433 0.072094291 0.64700001
0.077142864 0.072205722 0.648
0.07837715 0.072205722 0.648
0.079857148 0.072428577 0.65000004
0.081220008 0.072540008 0.65100002
0.082586668 0.072651431 0.65200001
0.083957151 0.072762862 0.65300006
0.085200958 0.072762862 0.65300006
0.086841911 0.073097147 0.65600002
0.088091433 0.073097147 0.65600002
0.089477152 0.073208578 0.65700001
0.090728581 0.073208578 0.65700001
0.092120007 0.073320001 0.65800005
0.093657151 0.073542863 0.66000003
0.095058098 0.073654294 0.66100001
0.096462861 0.073765717 0.66200006
0.098166674 0.074100003 0.66500002
0.099582866 0.074211434 0.66600001
0.10100286 0.074322864 0.66700006
0.10258 0.074545719 0.66900003
0.10400953 0.07465715 0.67000002
0.10544287 0.074768573 0.671
0.10672096 0.074768573 0.671
0.10816 0.074880004 0.67200005
0.10992858 0.075214289 0.67500001
0.11170858 0.075548574 0.67800003
0.11300001 0.075548574 0.67800003
0.11496572 0.07599429 0.68200004
0.11643524 0.076105721 0.68300003
0.11790858 0.076217145 0.68400002
0.12157144 0.076885723 0.69000006
0.12413239 0.077665716 0.69700003
0.12492001 0.077331431 0.69400001
0.12642382 0.077442862 0.69500005
0.12829906 0.077777147 0.69800001
0.031951431 0.071740001 0.63300002
0.033157144 0.071740001 0.63300002
0.034254286 0.07151334 0.63100004
0.035512384 0.071626671 0.63200003
0.036716193 0.071626671 0.63200003
0.037980001 0.071740001 0.63300002
0.039247621 0.07185334 0.634
0.04039143 0.071740001 0.63300002
0.041597147 0.071740001 0.63300002
0.042802859 0.071740001 0.63300002
0.044008575 0.071740001 0.63300002
0.045142859 0.071626671 0.63200003
0.046420004 0.071740001 0.63300002
0.047625717 0.071740001 0.63300002
0.048831433 0.071740001 0.63300002
0.050037146 0.071740001 0.63300002
0.051323812 0.07185334 0.634
0.052531432 0.07185334 0.634
0.053739052 0.07185334 0.634
0.054946668 0.07185334 0.634
0.056242861 0.07196667 0.63500005
0.057542861 0.072080001 0.63600004
0.058754291 0.072080001 0.63600004
0.060154289 0.07230667 0.63800001
0.061369527 0.07230667 0.63800001
0.062584765 0.07230667 0.63800001
0.063900001 0.072420008 0.63900006
0.065219052 0.072533339 0.64000005
0.066438101 0.072533339 0.64000005
0.067762859 0.07264667 0.64100003
0.069091432 0.072760008 0.64200002
0.070533335 0.07298667 0.64400005
0.071760006 0.07298667 0.64400005
0.073213339 0.073213339 0.64600003
0.074443817 0.073213339 0.64600003
0.075791433 0.07332667 0.64700001
0.077142864 0.073440008 0.648
0.07837715 0.073440008 0.648
0.079857148 0.073666669 0.65000004
0.081095241 0.073666669 0.65000004
0.082586668 0.073893338 0.65200001
0.083828576 0.073893338 0.65200001
0.085200958 0.074006669 0.65300006
0.086709529 0.074233338 0.65500003
0.088091433 0.074346669 0.65600002
0.089477152 0.074460007 0.65700001
0.09086667 0.074573338 0.65800005
0.092400007 0.074800007 0.66000003
0.093799055 0.074913338 0.66100001
0.09520191 0.075026669 0.66200006
0.096462861 0.075026669 0.66200006
0.098166674 0.075366668 0.66500002
0.099582866 0.075480007 0.66600001
0.10100286 0.075593337 0.66700006
0.10258 0.075820006 0.66900003
0.10400953 0.075933337 0.67000002
0.10544287 0.076046668 0.671
0.10688001 0.076160006 0.67200005
0.10848191 0.076386675 0.67400002
0.10992858 0.076500006 0.67500001
0.11187334 0.076953337 0.67900002
0.11333334 0.077066675 0.68000001
0.11496572 0.077293336 0.68200004
0.11660572 0.077520005 0.68400002
0.12157144 0.078200005 0.69000006
0.12413239 0.078993335 0.69700003
0.1251 0.078766674 0.69500005
0.12696953 0.079106674 0.69800001
0.019454287 0.071332388 0.61900002
0.020600002 0.071217149 0.61800003
0.021741906 0.071101911 0.61700004
0.022917144 0.071101911 0.61700004
0.024053335 0.070986673 0.61600006
0.025226668 0.070986673 0.61600006
0.028326668 0.06994953 0.60700005
0.029482858 0.06994953 0.60700005
0.030538097 0.069719054 0.60500002
0.03436286 0.072945721 0.63300002
0.035568573 0.072945721 0.63300002
0.036716193 0.072830483 0.63200003
0.037920002 0.072830483 0.63200003
0.039185718 0.072945721 0.63300002
0.04039143 0.072945721 0.63300002
0.041531432 0.072830483 0.63200003
0.042735241 0.072830483 0.63200003
0.043869525 0.072715245 0.63100004
0.045071431 0.072715245 0.63100004
0.046273336 0.072715245 0.63100004
0.047550481 0.072830483 0.63200003
0.04875429 0.072830483 0.63200003
0.049958099 0.072830483 0.63200003
0.051242862 0.072945721 0.63300002
0.052448574 0.072945721 0.63300002
0.053654291 0.072945721 0.63300002
0.054946668 0.07306096 0.634
0.056154288 0.07306096 0.634
0.057361908 0.07306096 0.634
0.058661908 0.073176198 0.63500005
0.059965719 0.073291436 0.63600004
0.061177146 0.073291436 0.63600004
0.062584765 0.073521912 0.63800001
0.063900001 0.07363715 0.63900006
0.065117151 0.07363715 0.63900006
0.066438101 0.073752388 0.64000005
0.067762859 0.073867626 0.64100003
0.069091432 0.073982865 0.64200002
0.070533335 0.074213341 0.64400005
0.071760006 0.074213341 0.64400005
0.073100008 0.074328579 0.64500004
0.074443817 0.074443817 0.64600003
0.075674288 0.074443817 0.64600003
0.077023812 0.074559055 0.64700001
0.07837715 0.074674293 0.648
0.079611436 0.074674293 0.648
0.081095241 0.07490477 0.65000004
0.082460009 0.075020008 0.65100002
0.083828576 0.075135246 0.65200001
0.085200958 0.075250484 0.65300006
0.086841911 0.075596198 0.65600002
0.088091433 0.075596198 0.65600002
