# .PCD v0.7 - Point Cloud Data file format
VERSION 0.7
FIELDS x y z
SIZE 4 4 4
TYPE F F F
COUNT 1 1 1
WIDTH 1346
HEIGHT 1
VIEWPOINT 0 0 0 1 0 0 0
POINTS 1346
DATA ascii
0.018128572 0.015442858 0.70500004
0.019471429 0.015442858 0.70500004
-0.029444763 0.017119048 0.71900004
-0.027997145 0.01707143 0.71700001
-0.02663143 0.01707143 0.71700001
-0.025230478 0.017047619 0.71600002
-0.023800002 0.017000001 0.71400005
-0.022408573 0.016976191 0.71300006
-0.021050477 0.016976191 0.71300006
-0.019692382 0.016976191 0.71300006
-0.018334286 0.016976191 0.71300006
-0.016928572 0.016928572 0.71100003
-0.015574287 0.016928572 0.71100003
-0.014220001 0.016928572 0.71100003
-0.012865715 0.016928572 0.71100003
-0.011511429 0.016928572 0.71100003
-0.010157144 0.016928572 0.71100003
-0.0088028582 0.016928572 0.71100003
-0.0074485717 0.016928572 0.71100003
-0.0060857148 0.016904764 0.71000004
-0.0047333338 0.016904764 0.71000004
-0.0033809526 0.016904764 0.71000004
-0.0020285717 0.016904764 0.71000004
-0.00067619054 0.016904764 0.71000004
0.00067428575 0.016857143 0.708
0.0020228573 0.016857143 0.708
0.0033714287 0.016857143 0.708
0.0047133337 0.016833335 0.70700002
0.0060600005 0.016833335 0.70700002
0.0074066673 0.016833335 0.70700002
0.0087533342 0.016833335 0.70700002
0.010100001 0.016833335 0.70700002
0.011446668 0.016833335 0.70700002
0.012793334 0.016833335 0.70700002
0.014140001 0.016833335 0.70700002
0.015442858 0.016785715 0.70500004
0.016761906 0.016761906 0.70400006
0.018102858 0.016761906 0.70400006
0.019416193 0.016738096 0.70300001
0.020755239 0.016738096 0.70300001
-0.032183811 0.018488573 0.71900004
-0.030814288 0.018488573 0.71900004
-0.029362859 0.018437143 0.71700001
-0.027997145 0.018437143 0.71700001
-0.026520003 0.018360002 0.71400005
-0.025160002 0.018360002 0.71400005
-0.023766669 0.018334286 0.71300006
-0.022408573 0.018334286 0.71300006
-0.02099143 0.018282859 0.71100003
-0.019637143 0.018282859 0.71100003
-0.018282859 0.018282859 0.71100003
-0.016904764 0.018257145 0.71000004
-0.015574287 0.018282859 0.71100003
-0.014200001 0.018257145 0.71000004
-0.01284762 0.018257145 0.71000004
-0.011495239 0.018257145 0.71000004
-0.010142858 0.018257145 0.71000004
-0.0087904772 0.018257145 0.71000004
-0.0074380958 0.018257145 0.71000004
-0.0060857148 0.018257145 0.71000004
-0.0047200001 0.018205715 0.708
-0.0033714287 0.018205715 0.708
-0.0020228573 0.018205715 0.708
-0.00067428575 0.018205715 0.708
0.00067428575 0.018205715 0.708
0.0020200002 0.018180002 0.70700002
0.0033666668 0.018180002 0.70700002
0.0047133337 0.018180002 0.70700002
0.0060600005 0.018180002 0.70700002
0.0074066673 0.018180002 0.70700002
0.0087285722 0.018128572 0.70500004
0.010071429 0.018128572 0.70500004
0.011414287 0.018128572 0.70500004
0.012757144 0.018128572 0.70500004
0.014080001 0.018102858 0.70400006
0.015420954 0.018102858 0.70400006
0.016738096 0.018077144 0.70300001
0.018102858 0.018102858 0.70400006
0.019416193 0.018077144 0.70300001
0.020696191 0.018025715 0.70100003
-0.035989527 0.019692382 0.71300006
-0.033460002 0.019802859 0.71700001
-0.032094289 0.019802859 0.71700001
-0.030728573 0.019802859 0.71700001
-0.029362859 0.019802859 0.71700001
-0.027958097 0.01977524 0.71600002
-0.026520003 0.019720001 0.71400005
-0.025124764 0.019692382 0.71300006
-0.023700001 0.019637143 0.71100003
-0.022345716 0.019637143 0.71100003
-0.02099143 0.019637143 0.71100003
-0.019609526 0.019609526 0.71000004
-0.018257145 0.019609526 0.71000004
-0.016857143 0.019554287 0.708
-0.015552382 0.019609526 0.71000004
-0.014160001 0.019554287 0.708
-0.01281143 0.019554287 0.708
-0.011462858 0.019554287 0.708
-0.010114286 0.019554287 0.708
-0.0087904772 0.019609526 0.71000004
-0.0074380958 0.019609526 0.71000004
-0.0060685719 0.019554287 0.708
-0.0047200001 0.019554287 0.708
-0.0033714287 0.019554287 0.708
-0.0020228573 0.019554287 0.708
-0.00067428575 0.019554287 0.708
0.00067333336 0.019526668 0.70700002
0.0020200002 0.019526668 0.70700002
0.0033571431 0.019471429 0.70500004
0.0047000004 0.019471429 0.70500004
0.0060428577 0.019471429 0.70500004
0.0073857149 0.019471429 0.70500004
0.0087285722 0.019471429 0.70500004
0.010071429 0.019471429 0.70500004
0.011414287 0.019471429 0.70500004
0.012739048 0.01944381 0.70400006
0.014080001 0.01944381 0.70400006
0.015399049 0.019416193 0.70300001
0.016738096 0.019416193 0.70300001
0.018077144 0.019416193 0.70300001
0.019416193 0.019416193 0.70300001
0.020696191 0.019360954 0.70100003
0.02203143 0.019360954 0.70100003
-0.04977905 0.02113905 0.71600002
-0.048212383 0.021050477 0.71300006
-0.046722859 0.02099143 0.71100003
-0.045496192 0.021050477 0.71300006
-0.0441381 0.021050477 0.71300006
-0.042660002 0.02099143 0.71100003
-0.041305717 0.02099143 0.71100003
-0.039951432 0.02099143 0.71100003
-0.038597144 0.02099143 0.71100003
-0.037190478 0.020961907 0.71000004
-0.035838097 0.020961907 0.71000004
-0.034534287 0.02099143 0.71100003
-0.033180002 0.02099143 0.71100003
-0.03191524 0.021050477 0.71300006
-0.030471431 0.02099143 0.71100003
-0.029117145 0.02099143 0.71100003
-0.027762858 0.02099143 0.71100003
-0.026408574 0.02099143 0.71100003
-0.02501905 0.020961907 0.71000004
-0.023666669 0.020961907 0.71000004
-0.022314288 0.020961907 0.71000004
-0.020902859 0.020902859 0.708
-0.019554287 0.020902859 0.708
-0.018205715 0.020902859 0.708
-0.016833335 0.020873334 0.70700002
-0.015486668 0.020873334 0.70700002
-0.014140001 0.020873334 0.70700002
-0.012793334 0.020873334 0.70700002
-0.011446668 0.020873334 0.70700002
-0.010100001 0.020873334 0.70700002
-0.0087657152 0.020902859 0.708
-0.0074066673 0.020873334 0.70700002
-0.0060600005 0.020873334 0.70700002
-0.0047133337 0.020873334 0.70700002
-0.0033571431 0.020814287 0.70500004
-0.0020200002 0.020873334 0.70700002
-0.00067142863 0.020814287 0.70500004
0.00067047623 0.020784764 0.70400006
0.0020114286 0.020784764 0.70400006
0.0033523813 0.020784764 0.70400006
0.0046933335 0.020784764 0.70400006
0.0060342862 0.020784764 0.70400006
0.0073752385 0.020784764 0.70400006
0.0087161912 0.020784764 0.70400006
0.010057144 0.020784764 0.70400006
0.011398096 0.020784764 0.70400006
0.012720954 0.020755239 0.70300001
0.014060001 0.020755239 0.70300001
0.015399049 0.020755239 0.70300001
0.016738096 0.020755239 0.70300001
0.018077144 0.020755239 0.70300001
0.019416193 0.020755239 0.70300001
0.020696191 0.020696191 0.70100003
0.02203143 0.020696191 0.70100003
0.023366667 0.020696191 0.70100003
-0.05114286 0.022502858 0.71600002
-0.04977905 0.022502858 0.71600002
-0.048212383 0.022408573 0.71300006
-0.046722859 0.022345716 0.71100003
-0.045496192 0.022408573 0.71300006
-0.0441381 0.022408573 0.71300006
-0.042660002 0.022345716 0.71100003
-0.041305717 0.022345716 0.71100003
-0.039951432 0.022345716 0.71100003
-0.038542859 0.022314288 0.71000004
-0.037085716 0.022251431 0.708
-0.035737146 0.022251431 0.708
-0.034388572 0.022251431 0.708
-0.033040002 0.022251431 0.708
-0.031691432 0.022251431 0.708
-0.030342858 0.022251431 0.708
-0.028994288 0.022251431 0.708
-0.027645716 0.022251431 0.708
-0.026371431 0.022314288 0.71000004
-0.024948573 0.022251431 0.708
-0.023600001 0.022251431 0.708
-0.022251431 0.022251431 0.708
-0.020873334 0.022220001 0.70700002
-0.019526668 0.022220001 0.70700002
-0.018180002 0.022220001 0.70700002
-0.016785715 0.022157144 0.70500004
-0.015442858 0.022157144 0.70500004
-0.014140001 0.022220001 0.70700002
-0.012757144 0.022157144 0.70500004
-0.011446668 0.022220001 0.70700002
-0.010100001 0.022220001 0.70700002
-0.0087533342 0.022220001 0.70700002
-0.0074066673 0.022220001 0.70700002
-0.0060600005 0.022220001 0.70700002
-0.0047000004 0.022157144 0.70500004
-0.0033523813 0.022125715 0.70400006
-0.0020114286 0.022125715 0.70400006
-0.00067047623 0.022125715 0.70400006
0.00067047623 0.022125715 0.70400006
0.0020085715 0.022094287 0.70300001
0.0033476192 0.022094287 0.70300001
0.0046866671 0.022094287 0.70300001
0.0060257148 0.022094287 0.70300001
0.0073647625 0.022094287 0.70300001
0.0087038102 0.022094287 0.70300001
0.010042857 0.022094287 0.70300001
0.011381906 0.022094287 0.70300001
0.012720954 0.022094287 0.70300001
0.014060001 0.022094287 0.70300001
0.015399049 0.022094287 0.70300001
0.016738096 0.022094287 0.70300001
0.018077144 0.022094287 0.70300001
0.019360954 0.02203143 0.70100003
0.020696191 0.02203143 0.70100003
0.02203143 0.02203143 0.70100003
0.023333335 0.022000002 0.70000005
-0.053720005 0.023800002 0.71400005
-0.052360002 0.023800002 0.71400005
-0.051000003 0.023800002 0.71400005
-0.049570478 0.023766669 0.71300006
-0.048212383 0.023766669 0.71300006
-0.046722859 0.023700001 0.71100003
-0.045368575 0.023700001 0.71100003
-0.04401429 0.023700001 0.71100003
-0.042660002 0.023700001 0.71100003
-0.041305717 0.023700001 0.71100003
-0.03989524 0.023666669 0.71000004
-0.038434289 0.023600001 0.708
-0.037085716 0.023600001 0.708
-0.035737146 0.023600001 0.708
-0.034340002 0.023566669 0.70700002
-0.033040002 0.023600001 0.708
-0.031691432 0.023600001 0.708
-0.030300003 0.023566669 0.70700002
-0.028953334 0.023566669 0.70700002
-0.027606668 0.023566669 0.70700002
-0.026260002 0.023566669 0.70700002
-0.024913335 0.023566669 0.70700002
-0.023500001 0.023500001 0.70500004
-0.022220001 0.023566669 0.70700002
-0.020814287 0.023500001 0.70500004
-0.019471429 0.023500001 0.70500004
-0.018128572 0.023500001 0.70500004
-0.016785715 0.023500001 0.70500004
-0.015442858 0.023500001 0.70500004
-0.014100001 0.023500001 0.70500004
-0.012757144 0.023500001 0.70500004
-0.011414287 0.023500001 0.70500004
-0.010071429 0.023500001 0.70500004
-0.0087285722 0.023500001 0.70500004
-0.0073857149 0.023500001 0.70500004
-0.0060428577 0.023500001 0.70500004
-0.0046933335 0.023466669 0.70400006
-0.0033523813 0.023466669 0.70400006
-0.0020114286 0.023466669 0.70400006
-0.00067047623 0.023466669 0.70400006
0.00066952384 0.023433335 0.70300001
0.0020085715 0.023433335 0.70300001
0.0033476192 0.023433335 0.70300001
0.0046866671 0.023433335 0.70300001
0.0060257148 0.023433335 0.70300001
0.0073647625 0.023433335 0.70300001
0.0087038102 0.023433335 0.70300001
0.010042857 0.023433335 0.70300001
0.011381906 0.023433335 0.70300001
0.012720954 0.023433335 0.70300001
0.014060001 0.023433335 0.70300001
0.015355239 0.023366667 0.70100003
0.016690478 0.023366667 0.70100003
0.018025715 0.023366667 0.70100003
0.019360954 0.023366667 0.70100003
0.020696191 0.023366667 0.70100003
0.02203143 0.023366667 0.70100003
0.023333335 0.023333335 0.70000005
-0.055002861 0.025124764 0.71300006
-0.053644765 0.025124764 0.71300006
-0.05228667 0.025124764 0.71300006
-0.050928574 0.025124764 0.71300006
-0.049431432 0.025054287 0.71100003
-0.048077147 0.025054287 0.71100003
-0.046657145 0.02501905 0.71000004
-0.045304764 0.02501905 0.71000004
-0.04401429 0.025054287 0.71100003
-0.042600002 0.02501905 0.71000004
-0.041247621 0.02501905 0.71000004
-0.03989524 0.02501905 0.71000004
-0.038434289 0.024948573 0.708
-0.037085716 0.024948573 0.708
-0.035686668 0.024913335 0.70700002
-0.034340002 0.024913335 0.70700002
-0.033040002 0.024948573 0.708
-0.031646669 0.024913335 0.70700002
-0.030300003 0.024913335 0.70700002
-0.028953334 0.024913335 0.70700002
-0.027528573 0.024842858 0.70500004
-0.026185716 0.024842858 0.70500004
-0.024842858 0.024842858 0.70500004
-0.023466669 0.024807621 0.70400006
-0.022125715 0.024807621 0.70400006
-0.020784764 0.024807621 0.70400006
-0.01944381 0.024807621 0.70400006
-0.018102858 0.024807621 0.70400006
-0.016761906 0.024807621 0.70400006
-0.015420954 0.024807621 0.70400006
-0.014080001 0.024807621 0.70400006
-0.012739048 0.024807621 0.70400006
-0.011398096 0.024807621 0.70400006
-0.010057144 0.024807621 0.70400006
-0.0087161912 0.024807621 0.70400006
-0.0073752385 0.024807621 0.70400006
-0.0060342862 0.024807621 0.70400006
-0.0046866671 0.024772383 0.70300001
-0.0033476192 0.024772383 0.70300001
-0.0020085715 0.024772383 0.70300001
-0.00066952384 0.024772383 0.70300001
0.00066952384 0.024772383 0.70300001
0.0020085715 0.024772383 0.70300001
0.0033476192 0.024772383 0.70300001
0.0046866671 0.024772383 0.70300001
0.0060257148 0.024772383 0.70300001
0.0073647625 0.024772383 0.70300001
0.0086790482 0.024701906 0.70100003
0.010014286 0.024701906 0.70100003
0.011381906 0.024772383 0.70300001
0.012684762 0.024701906 0.70100003
0.014020001 0.024701906 0.70100003
0.015355239 0.024701906 0.70100003
0.016690478 0.024701906 0.70100003
0.018025715 0.024701906 0.70100003
0.019360954 0.024701906 0.70100003
0.020696191 0.024701906 0.70100003
0.02203143 0.024701906 0.70100003
0.023366667 0.024701906 0.70100003
0.024701906 0.024701906 0.70100003
-0.056202862 0.026408574 0.71100003
-0.054848574 0.026408574 0.71100003
-0.05341905 0.026371431 0.71000004
-0.052140005 0.026408574 0.71100003
-0.050785717 0.026408574 0.71100003
-0.049361907 0.026371431 0.71000004
-0.048009526 0.026371431 0.71000004
-0.046657145 0.026371431 0.71000004
-0.045177147 0.026297145 0.708
-0.043952383 0.026371431 0.71000004
-0.042480003 0.026297145 0.708
-0.041131433 0.026297145 0.708
-0.039782859 0.026297145 0.708
-0.038434289 0.026297145 0.708
-0.037033334 0.026260002 0.70700002
-0.035686668 0.026260002 0.70700002
-0.034340002 0.026260002 0.70700002
-0.032993335 0.026260002 0.70700002
-0.031646669 0.026260002 0.70700002
-0.030214287 0.026185716 0.70500004
-0.02887143 0.026185716 0.70500004
-0.027528573 0.026185716 0.70500004
-0.026148573 0.026148573 0.70400006
-0.024807621 0.026148573 0.70400006
-0.023433335 0.02611143 0.70300001
-0.022094287 0.02611143 0.70300001
-0.020755239 0.02611143 0.70300001
-0.019416193 0.02611143 0.70300001
-0.018077144 0.02611143 0.70300001
-0.016738096 0.02611143 0.70300001
-0.015399049 0.02611143 0.70300001
-0.014060001 0.02611143 0.70300001
-0.012739048 0.026148573 0.70400006
-0.011398096 0.026148573 0.70400006
-0.010057144 0.026148573 0.70400006
-0.0087038102 0.02611143 0.70300001
-0.0073647625 0.02611143 0.70300001
-0.0060257148 0.02611143 0.70300001
-0.0046866671 0.02611143 0.70300001
-0.0033476192 0.02611143 0.70300001
-0.0020085715 0.02611143 0.70300001
-0.00066952384 0.02611143 0.70300001
0.00066761911 0.026037145 0.70100003
0.0020028572 0.026037145 0.70100003
0.0033476192 0.02611143 0.70300001
0.0046733338 0.026037145 0.70100003
0.0060085719 0.026037145 0.70100003
0.0073438101 0.026037145 0.70100003
0.0086790482 0.026037145 0.70100003
0.010014286 0.026037145 0.70100003
0.011349524 0.026037145 0.70100003
0.012684762 0.026037145 0.70100003
0.014020001 0.026037145 0.70100003
0.015355239 0.026037145 0.70100003
0.016690478 0.026037145 0.70100003
0.018025715 0.026037145 0.70100003
0.019360954 0.026037145 0.70100003
0.020696191 0.026037145 0.70100003
0.02203143 0.026037145 0.70100003
0.023333335 0.026000002 0.70000005
0.024701906 0.026037145 0.70100003
-0.061273336 0.027606668 0.70700002
-0.06026572 0.027762858 0.71100003
-0.058911432 0.027762858 0.71100003
-0.057557147 0.027762858 0.71100003
-0.056123812 0.027723812 0.71000004
-0.054771431 0.027723812 0.71000004
-0.053268574 0.027645716 0.708
-0.051920004 0.027645716 0.708
-0.05057143 0.027645716 0.708
-0.04922286 0.027645716 0.708
-0.04787429 0.027645716 0.708
-0.046525717 0.027645716 0.708
-0.045177147 0.027645716 0.708
-0.043828573 0.027645716 0.708
-0.042420004 0.027606668 0.70700002
-0.041131433 0.027645716 0.708
-0.039726671 0.027606668 0.70700002
-0.038380001 0.027606668 0.70700002
-0.037033334 0.027606668 0.70700002
-0.035585716 0.027528573 0.70500004
-0.034242861 0.027528573 0.70500004
-0.032900002 0.027528573 0.70500004
-0.031557146 0.027528573 0.70500004
-0.030214287 0.027528573 0.70500004
-0.02887143 0.027528573 0.70500004
-0.027489526 0.027489526 0.70400006
-0.02611143 0.027450478 0.70300001
-0.024772383 0.027450478 0.70300001
-0.023433335 0.027450478 0.70300001
-0.022094287 0.027450478 0.70300001
-0.020696191 0.027372383 0.70100003
-0.019360954 0.027372383 0.70100003
-0.018025715 0.027372383 0.70100003
-0.016690478 0.027372383 0.70100003
-0.015355239 0.027372383 0.70100003
-0.014020001 0.027372383 0.70100003
-0.012720954 0.027450478 0.70300001
-0.011381906 0.027450478 0.70300001
-0.010042857 0.027450478 0.70300001
-0.0086790482 0.027372383 0.70100003
-0.0073647625 0.027450478 0.70300001
-0.0060257148 0.027450478 0.70300001
-0.0046733338 0.027372383 0.70100003
-0.0033380955 0.027372383 0.70100003
-0.0020028572 0.027372383 0.70100003
-0.00066761911 0.027372383 0.70100003
0.00066761911 0.027372383 0.70100003
0.0020028572 0.027372383 0.70100003
0.0033380955 0.027372383 0.70100003
0.0046733338 0.027372383 0.70100003
0.0060085719 0.027372383 0.70100003
0.0073438101 0.027372383 0.70100003
0.0086666672 0.027333336 0.70000005
0.010000001 0.027333336 0.70000005
0.011349524 0.027372383 0.70100003
0.012684762 0.027372383 0.70100003
0.014020001 0.027372383 0.70100003
0.015355239 0.027372383 0.70100003
0.016690478 0.027372383 0.70100003
0.018025715 0.027372383 0.70100003
0.019360954 0.027372383 0.70100003
0.020696191 0.027372383 0.70100003
0.02203143 0.027372383 0.70100003
0.023333335 0.027333336 0.70000005
0.024666669 0.027333336 0.70000005
0.026037145 0.027372383 0.70100003
-0.062620007 0.028953334 0.70700002
-0.061273336 0.028953334 0.70700002
-0.060011432 0.028994288 0.708
-0.058828574 0.029076193 0.71000004
-0.057476193 0.029076193 0.71000004
-0.055965718 0.028994288 0.708
-0.054617148 0.028994288 0.708
-0.053268574 0.028994288 0.708
-0.051920004 0.028994288 0.708
-0.05057143 0.028994288 0.708
-0.04922286 0.028994288 0.708
-0.04787429 0.028994288 0.708
-0.046525717 0.028994288 0.708
-0.045113336 0.028953334 0.70700002
-0.04376667 0.028953334 0.70700002
-0.042420004 0.028953334 0.70700002
-0.041073337 0.028953334 0.70700002
-0.03961429 0.02887143 0.70500004
-0.038271431 0.02887143 0.70500004
-0.036928575 0.02887143 0.70500004
-0.035585716 0.02887143 0.70500004
-0.034242861 0.02887143 0.70500004
-0.032900002 0.02887143 0.70500004
-0.031557146 0.02887143 0.70500004
-0.03017143 0.028830478 0.70400006
-0.028830478 0.028830478 0.70400006
-0.027450478 0.028789526 0.70300001
-0.02611143 0.028789526 0.70300001
-0.024701906 0.028707622 0.70100003
-0.023366667 0.028707622 0.70100003
-0.02203143 0.028707622 0.70100003
-0.020696191 0.028707622 0.70100003
-0.019360954 0.028707622 0.70100003
-0.018025715 0.028707622 0.70100003
-0.016690478 0.028707622 0.70100003
-0.015355239 0.028707622 0.70100003
-0.014000001 0.028666668 0.70000005
-0.012720954 0.028789526 0.70300001
-0.011381906 0.028789526 0.70300001
-0.010042857 0.028789526 0.70300001
-0.0086790482 0.028707622 0.70100003
-0.0073438101 0.028707622 0.70100003
-0.0060085719 0.028707622 0.70100003
-0.0046733338 0.028707622 0.70100003
-0.0033380955 0.028707622 0.70100003
-0.0020028572 0.028707622 0.70100003
-0.00066761911 0.028707622 0.70100003
0.00066761911 0.028707622 0.70100003
0.0020028572 0.028707622 0.70100003
0.0033380955 0.028707622 0.70100003
0.0046733338 0.028707622 0.70100003
0.0060085719 0.028707622 0.70100003
0.0073438101 0.028707622 0.70100003
0.0086666672 0.028666668 0.70000005
0.010000001 0.028666668 0.70000005
0.011349524 0.028707622 0.70100003
0.012684762 0.028707622 0.70100003
0.014020001 0.028707622 0.70100003
0.015355239 0.028707622 0.70100003
0.016690478 0.028707622 0.70100003
0.018025715 0.028707622 0.70100003
0.019360954 0.028707622 0.70100003
0.020696191 0.028707622 0.70100003
0.02203143 0.028707622 0.70100003
0.023333335 0.028666668 0.70000005
0.024666669 0.028666668 0.70000005
0.026000002 0.028666668 0.70000005
-0.066471435 0.030214287 0.70500004
-0.065128572 0.030214287 0.70500004
-0.063966669 0.030300003 0.70700002
-0.062620007 0.030300003 0.70700002
-0.061273336 0.030300003 0.70700002
-0.060011432 0.030342858 0.708
-0.058662862 0.030342858 0.708
-0.057314288 0.030342858 0.708
-0.055965718 0.030342858 0.708
-0.054617148 0.030342858 0.708
-0.053193338 0.030300003 0.70700002
-0.051846672 0.030300003 0.70700002
-0.050500002 0.030300003 0.70700002
-0.049153335 0.030300003 0.70700002
-0.047806669 0.030300003 0.70700002
-0.046460003 0.030300003 0.70700002
-0.045113336 0.030300003 0.70700002
-0.04376667 0.030300003 0.70700002
-0.042300005 0.030214287 0.70500004
-0.040957145 0.030214287 0.70500004
-0.039558098 0.03017143 0.70400006
-0.038217146 0.03017143 0.70400006
-0.036876194 0.03017143 0.70400006
-0.035535239 0.03017143 0.70400006
-0.034194287 0.03017143 0.70400006
-0.032853335 0.03017143 0.70400006
-0.031512383 0.03017143 0.70400006
-0.03017143 0.03017143 0.70400006
-0.028830478 0.03017143 0.70400006
-0.027450478 0.030128574 0.70300001
-0.026037145 0.030042859 0.70100003
-0.024701906 0.030042859 0.70100003
-0.023366667 0.030042859 0.70100003
-0.02203143 0.030042859 0.70100003
-0.020696191 0.030042859 0.70100003
-0.019360954 0.030042859 0.70100003
-0.018025715 0.030042859 0.70100003
-0.016690478 0.030042859 0.70100003
-0.015333334 0.030000001 0.70000005
-0.014000001 0.030000001 0.70000005
-0.012684762 0.030042859 0.70100003
-0.011349524 0.030042859 0.70100003
-0.010014286 0.030042859 0.70100003
-0.0086790482 0.030042859 0.70100003
-0.0073438101 0.030042859 0.70100003
-0.0060085719 0.030042859 0.70100003
-0.0046733338 0.030042859 0.70100003
-0.0033380955 0.030042859 0.70100003
-0.0020028572 0.030042859 0.70100003
-0.00066761911 0.030042859 0.70100003
0.00066761911 0.030042859 0.70100003
0.0020028572 0.030042859 0.70100003
0.0033380955 0.030042859 0.70100003
0.0046733338 0.030042859 0.70100003
0.0060000005 0.030000001 0.70000005
0.0073333336 0.030000001 0.70000005
0.0086666672 0.030000001 0.70000005
0.010000001 0.030000001 0.70000005
0.011333334 0.030000001 0.70000005
0.012666668 0.030000001 0.70000005
0.014020001 0.030042859 0.70100003
0.015355239 0.030042859 0.70100003
0.016666668 0.030000001 0.70000005
0.018025715 0.030042859 0.70100003
0.019360954 0.030042859 0.70100003
0.020696191 0.030042859 0.70100003
0.02203143 0.030042859 0.70100003
0.023333335 0.030000001 0.70000005
0.024596192 0.029914288 0.69800001
0.025925716 0.029914288 0.69800001
0.14294858 0.036342859 0.84800005
0.14456382 0.036342859 0.84800005
-0.069059052 0.031512383 0.70400006
-0.067718096 0.031512383 0.70400006
-0.066471435 0.031557146 0.70500004
-0.065128572 0.031557146 0.70500004
-0.063785717 0.031557146 0.70500004
-0.062442861 0.031557146 0.70500004
-0.061100002 0.031557146 0.70500004
-0.059757147 0.031557146 0.70500004
-0.058580004 0.031646669 0.70700002
-0.057233337 0.031646669 0.70700002
-0.055886671 0.031646669 0.70700002
-0.054540005 0.031646669 0.70700002
-0.053193338 0.031646669 0.70700002
-0.051846672 0.031646669 0.70700002
-0.050500002 0.031646669 0.70700002
-0.049014289 0.031557146 0.70500004
-0.047671434 0.031557146 0.70500004
-0.046328574 0.031557146 0.70500004
-0.044985719 0.031557146 0.70500004
-0.043580957 0.031512383 0.70400006
-0.042240001 0.031512383 0.70400006
-0.040840954 0.03146762 0.70300001
-0.039501909 0.03146762 0.70300001
-0.038162861 0.03146762 0.70300001
-0.036823813 0.03146762 0.70300001
-0.035484765 0.03146762 0.70300001
-0.034145717 0.03146762 0.70300001
-0.032806668 0.03146762 0.70300001
-0.03146762 0.03146762 0.70300001
-0.030128574 0.03146762 0.70300001
-0.028707622 0.031378098 0.70100003
-0.027372383 0.031378098 0.70100003
-0.026037145 0.031378098 0.70100003
-0.024701906 0.031378098 0.70100003
-0.023366667 0.031378098 0.70100003
-0.02203143 0.031378098 0.70100003
-0.020666668 0.031333335 0.70000005
-0.019333335 0.031333335 0.70000005
-0.018000001 0.031333335 0.70000005
-0.016666668 0.031333335 0.70000005
-0.015333334 0.031333335 0.70000005
-0.014000001 0.031333335 0.70000005
-0.012684762 0.031378098 0.70100003
-0.011349524 0.031378098 0.70100003
-0.010014286 0.031378098 0.70100003
-0.0086790482 0.031378098 0.70100003
-0.0073438101 0.031378098 0.70100003
-0.0060085719 0.031378098 0.70100003
-0.0046733338 0.031378098 0.70100003
-0.0033380955 0.031378098 0.70100003
-0.0020028572 0.031378098 0.70100003
-0.00066761911 0.031378098 0.70100003
0.00066761911 0.031378098 0.70100003
0.0020028572 0.031378098 0.70100003
0.0033380955 0.031378098 0.70100003
0.0046733338 0.031378098 0.70100003
0.0060085719 0.031378098 0.70100003
0.0073333336 0.031333335 0.70000005
0.0086666672 0.031333335 0.70000005
0.010000001 0.031333335 0.70000005
0.011333334 0.031333335 0.70000005
0.012666668 0.031333335 0.70000005
0.014000001 0.031333335 0.70000005
0.015333334 0.031333335 0.70000005
0.016666668 0.031333335 0.70000005
0.018000001 0.031333335 0.70000005
0.019360954 0.031378098 0.70100003
0.020696191 0.031378098 0.70100003
0.02203143 0.031378098 0.70100003
0.023333335 0.031333335 0.70000005
0.024560954 0.031199049 0.69700003
0.025888573 0.031199049 0.69700003
-0.07318572 0.032900002 0.70500004
-0.071842864 0.032900002 0.70500004
-0.070500001 0.032900002 0.70500004
-0.069059052 0.032853335 0.70400006
-0.067718096 0.032853335 0.70400006
-0.066377148 0.032853335 0.70400006
-0.065036193 0.032853335 0.70400006
-0.063695244 0.032853335 0.70400006
-0.062354289 0.032853335 0.70400006
-0.061013337 0.032853335 0.70400006
-0.059672385 0.032853335 0.70400006
-0.058414288 0.032900002 0.70500004
-0.057071432 0.032900002 0.70500004
-0.055728573 0.032900002 0.70500004
-0.054385718 0.032900002 0.70500004
-0.053042859 0.032900002 0.70500004
-0.051700003 0.032900002 0.70500004
-0.050357144 0.032900002 0.70500004
-0.049014289 0.032900002 0.70500004
-0.047603812 0.032853335 0.70400006
-0.04626286 0.032853335 0.70400006
-0.044921909 0.032853335 0.70400006
-0.04351905 0.032806668 0.70300001
-0.042180002 0.032806668 0.70300001
-0.040724766 0.032713335 0.70100003
-0.039389525 0.032713335 0.70100003
-0.038054287 0.032713335 0.70100003
-0.03671905 0.032713335 0.70100003
-0.035383813 0.032713335 0.70100003
-0.034048572 0.032713335 0.70100003
-0.032713335 0.032713335 0.70100003
-0.031378098 0.032713335 0.70100003
-0.030042859 0.032713335 0.70100003
-0.028707622 0.032713335 0.70100003
-0.027372383 0.032713335 0.70100003
-0.026037145 0.032713335 0.70100003
-0.024701906 0.032713335 0.70100003
-0.023366667 0.032713335 0.70100003
-0.02203143 0.032713335 0.70100003
-0.020666668 0.032666668 0.70000005
-0.019333335 0.032666668 0.70000005
-0.018000001 0.032666668 0.70000005
-0.016666668 0.032666668 0.70000005
-0.015333334 0.032666668 0.70000005
-0.013960001 0.032573335 0.69800001
-0.012684762 0.032713335 0.70100003
-0.011349524 0.032713335 0.70100003
-0.010014286 0.032713335 0.70100003
-0.0086666672 0.032666668 0.70000005
-0.0073333336 0.032666668 0.70000005
-0.0060000005 0.032666668 0.70000005
-0.004666667 0.032666668 0.70000005
-0.0033380955 0.032713335 0.70100003
-0.0020028572 0.032713335 0.70100003
-0.00066761911 0.032713335 0.70100003
0.00066761911 0.032713335 0.70100003
0.0020028572 0.032713335 0.70100003
0.0033380955 0.032713335 0.70100003
0.004666667 0.032666668 0.70000005
0.0060000005 0.032666668 0.70000005
0.0073333336 0.032666668 0.70000005
0.0086666672 0.032666668 0.70000005
0.010000001 0.032666668 0.70000005
0.011333334 0.032666668 0.70000005
0.012666668 0.032666668 0.70000005
0.014000001 0.032666668 0.70000005
0.015333334 0.032666668 0.70000005
0.016666668 0.032666668 0.70000005
0.018000001 0.032666668 0.70000005
0.019360954 0.032713335 0.70100003
0.020696191 0.032713335 0.70100003
0.02203143 0.032713335 0.70100003
0.023333335 0.032666668 0.70000005
0.024560954 0.032526668 0.69700003
0.025888573 0.032526668 0.69700003
0.14210573 0.039340004 0.84300005
0.14371143 0.039340004 0.84300005
0.14531715 0.039340004 0.84300005
0.14692287 0.039340004 0.84300005
0.14852858 0.039340004 0.84300005
-0.10580001 0.033514287 0.69000006
-0.10448572 0.033514287 0.69000006
-0.10302191 0.033465717 0.68900001
-0.10170953 0.033465717 0.68900001
-0.091463819 0.034048572 0.70100003
-0.090128578 0.034048572 0.70100003
-0.08866667 0.034000002 0.70000005
-0.087083817 0.033902861 0.69800001
-0.078334294 0.034145717 0.70300001
-0.076995246 0.034145717 0.70300001
-0.075656198 0.034145717 0.70300001
-0.07431715 0.034145717 0.70300001
-0.072978102 0.034145717 0.70300001
-0.071740955 0.034194287 0.70400006
-0.070300005 0.034145717 0.70300001
-0.068960957 0.034145717 0.70300001
-0.067621909 0.034145717 0.70300001
-0.066282861 0.034145717 0.70300001
-0.064943813 0.034145717 0.70300001
-0.063604765 0.034145717 0.70300001
-0.06226572 0.034145717 0.70300001
-0.060926672 0.034145717 0.70300001
-0.059587624 0.034145717 0.70300001
-0.058248576 0.034145717 0.70300001
-0.056909528 0.034145717 0.70300001
-0.055649526 0.034194287 0.70400006
-0.054308575 0.034194287 0.70400006
-0.052892383 0.034145717 0.70300001
-0.051553335 0.034145717 0.70300001
-0.050214291 0.034145717 0.70300001
-0.048875242 0.034145717 0.70300001
-0.047536194 0.034145717 0.70300001
-0.046065718 0.034048572 0.70100003
-0.044730481 0.034048572 0.70100003
-0.04339524 0.034048572 0.70100003
-0.042060003 0.034048572 0.70100003
-0.040724766 0.034048572 0.70100003
-0.039333336 0.034000002 0.70000005
-0.038000003 0.034000002 0.70000005
-0.036666669 0.034000002 0.70000005
-0.035333335 0.034000002 0.70000005
-0.034000002 0.034000002 0.70000005
-0.032666668 0.034000002 0.70000005
-0.031333335 0.034000002 0.70000005
-0.030000001 0.034000002 0.70000005
-0.028666668 0.034000002 0.70000005
-0.027333336 0.034000002 0.70000005
-0.026000002 0.034000002 0.70000005
-0.024666669 0.034000002 0.70000005
-0.023333335 0.034000002 0.70000005
-0.022000002 0.034000002 0.70000005
-0.020666668 0.034000002 0.70000005
-0.019333335 0.034000002 0.70000005
-0.018000001 0.034000002 0.70000005
-0.016666668 0.034000002 0.70000005
-0.015289525 0.033902861 0.69800001
-0.013940001 0.033854287 0.69700003
-0.012666668 0.034000002 0.70000005
-0.011333334 0.034000002 0.70000005
-0.010000001 0.034000002 0.70000005
-0.0086666672 0.034000002 0.70000005
-0.0073333336 0.034000002 0.70000005
-0.0060000005 0.034000002 0.70000005
-0.004666667 0.034000002 0.70000005
-0.0033333336 0.034000002 0.70000005
-0.0020000001 0.034000002 0.70000005
-0.00066666672 0.034000002 0.70000005
0.00066666672 0.034000002 0.70000005
0.0020000001 0.034000002 0.70000005
0.0033333336 0.034000002 0.70000005
0.004666667 0.034000002 0.70000005
0.0060000005 0.034000002 0.70000005
0.0073123816 0.033902861 0.69800001
0.0086419052 0.033902861 0.69800001
0.0099714296 0.033902861 0.69800001
0.011300953 0.033902861 0.69800001
0.012630477 0.033902861 0.69800001
0.014000001 0.034000002 0.70000005
0.015333334 0.034000002 0.70000005
0.016666668 0.034000002 0.70000005
0.018000001 0.034000002 0.70000005
0.019333335 0.034000002 0.70000005
0.020696191 0.034048572 0.70100003
0.02203143 0.034048572 0.70100003
0.023333335 0.034000002 0.70000005
0.024490478 0.033757146 0.69500005
0.025888573 0.033854287 0.69700003
-0.10448572 0.034828573 0.69000006
-0.10302191 0.034778096 0.68900001
-0.10097144 0.034525715 0.68400002
-0.094134293 0.035383813 0.70100003
-0.092799053 0.035383813 0.70100003
-0.091463819 0.035383813 0.70100003
-0.090000004 0.035333335 0.70000005
-0.08866667 0.035333335 0.70000005
-0.087083817 0.035232384 0.69800001
-0.08575429 0.035232384 0.69800001
-0.079446673 0.035383813 0.70100003
-0.078334294 0.035484765 0.70300001
-0.076995246 0.035484765 0.70300001
-0.075656198 0.035484765 0.70300001
-0.074105717 0.035383813 0.70100003
-0.072770484 0.035383813 0.70100003
-0.071639054 0.035484765 0.70300001
-0.070100002 0.035383813 0.70100003
-0.068764769 0.035383813 0.70100003
-0.067429528 0.035383813 0.70100003
-0.066094287 0.035383813 0.70100003
-0.064943813 0.035484765 0.70300001
-0.063604765 0.035484765 0.70300001
-0.06226572 0.035484765 0.70300001
-0.060926672 0.035484765 0.70300001
-0.059418101 0.035383813 0.70100003
-0.05808286 0.035383813 0.70100003
-0.056747623 0.035383813 0.70100003
-0.055412386 0.035383813 0.70100003
-0.054077145 0.035383813 0.70100003
-0.052741908 0.035383813 0.70100003
-0.05140667 0.035383813 0.70100003
-0.050071433 0.035383813 0.70100003
-0.048736192 0.035383813 0.70100003
-0.047400955 0.035383813 0.70100003
-0.046000004 0.035333335 0.70000005
-0.04466667 0.035333335 0.70000005
-0.043333337 0.035333335 0.70000005
-0.042000003 0.035333335 0.70000005
-0.04066667 0.035333335 0.70000005
-0.039333336 0.035333335 0.70000005
-0.038000003 0.035333335 0.70000005
-0.036666669 0.035333335 0.70000005
-0.035333335 0.035333335 0.70000005
-0.034000002 0.035333335 0.70000005
-0.032666668 0.035333335 0.70000005
-0.031333335 0.035333335 0.70000005
-0.030000001 0.035333335 0.70000005
-0.028666668 0.035333335 0.70000005
-0.027255239 0.035232384 0.69800001
-0.026000002 0.035333335 0.70000005
-0.024666669 0.035333335 0.70000005
-0.023333335 0.035333335 0.70000005
-0.022000002 0.035333335 0.70000005
-0.020666668 0.035333335 0.70000005
-0.019333335 0.035333335 0.70000005
-0.018000001 0.035333335 0.70000005
-0.016666668 0.035333335 0.70000005
-0.015289525 0.035232384 0.69800001
-0.013960001 0.035232384 0.69800001
-0.012666668 0.035333335 0.70000005
-0.011333334 0.035333335 0.70000005
-0.010000001 0.035333335 0.70000005
-0.0086666672 0.035333335 0.70000005
-0.0073333336 0.035333335 0.70000005
-0.0060000005 0.035333335 0.70000005
-0.004666667 0.035333335 0.70000005
-0.0033333336 0.035333335 0.70000005
-0.0020000001 0.035333335 0.70000005
-0.00066666672 0.035333335 0.70000005
0.00066666672 0.035333335 0.70000005
0.0020000001 0.035333335 0.70000005
0.0033333336 0.035333335 0.70000005
0.004666667 0.035333335 0.70000005
0.0060000005 0.035333335 0.70000005
0.0073123816 0.035232384 0.69800001
0.0086419052 0.035232384 0.69800001
0.0099714296 0.035232384 0.69800001
0.011300953 0.035232384 0.69800001
0.012630477 0.035232384 0.69800001
0.014000001 0.035333335 0.70000005
0.015333334 0.035333335 0.70000005
0.016666668 0.035333335 0.70000005
0.018000001 0.035333335 0.70000005
0.019333335 0.035333335 0.70000005
0.020666668 0.035333335 0.70000005
0.022000002 0.035333335 0.70000005
0.023333335 0.035333335 0.70000005
0.024490478 0.035080954 0.69500005
0.025888573 0.035181906 0.69700003
0.027216192 0.035181906 0.69700003
-0.10534 0.035985716 0.68700004
-0.10403144 0.035985716 0.68700004
-0.10257334 0.035933334 0.68600005
-0.10082382 0.035776194 0.68300003
-0.099522866 0.035776194 0.68300003
-0.096014291 0.036928575 0.70500004
-0.094134293 0.03671905 0.70100003
-0.092799053 0.03671905 0.70100003
-0.091333337 0.036666669 0.70000005
-0.090000004 0.036666669 0.70000005
-0.088413343 0.036561906 0.69800001
-0.086959057 0.036509525 0.69700003
-0.085631438 0.036509525 0.69700003
-0.084303819 0.036509525 0.69700003
-0.079333335 0.036666669 0.70000005
-0.078111432 0.03671905 0.70100003
-0.076776199 0.03671905 0.70100003
-0.075440958 0.03671905 0.70100003
-0.074105717 0.03671905 0.70100003
-0.072770484 0.03671905 0.70100003
-0.071435243 0.03671905 0.70100003
-0.070000008 0.036666669 0.70000005
-0.068666674 0.036666669 0.70000005
-0.067333341 0.036666669 0.70000005
-0.066000007 0.036666669 0.70000005
-0.064759053 0.03671905 0.70100003
-0.063423812 0.03671905 0.70100003
-0.062088575 0.03671905 0.70100003
-0.060753338 0.03671905 0.70100003
-0.059418101 0.03671905 0.70100003
-0.05808286 0.03671905 0.70100003
-0.056666672 0.036666669 0.70000005
-0.055333339 0.036666669 0.70000005
-0.054000005 0.036666669 0.70000005
-0.052666672 0.036666669 0.70000005
-0.051333338 0.036666669 0.70000005
-0.050000004 0.036666669 0.70000005
-0.048666671 0.036666669 0.70000005
-0.047333337 0.036666669 0.70000005
-0.046000004 0.036666669 0.70000005
-0.04466667 0.036666669 0.70000005
-0.043333337 0.036666669 0.70000005
-0.042000003 0.036666669 0.70000005
-0.04066667 0.036666669 0.70000005
-0.039333336 0.036666669 0.70000005
-0.038000003 0.036666669 0.70000005
-0.036666669 0.036666669 0.70000005
-0.035333335 0.036666669 0.70000005
-0.034000002 0.036666669 0.70000005
-0.032573335 0.036561906 0.69800001
-0.031243812 0.036561906 0.69800001
-0.029914288 0.036561906 0.69800001
-0.028584763 0.036561906 0.69800001
-0.027255239 0.036561906 0.69800001
-0.025925716 0.036561906 0.69800001
-0.024596192 0.036561906 0.69800001
-0.023333335 0.036666669 0.70000005
-0.022000002 0.036666669 0.70000005
-0.02060762 0.036561906 0.69800001
-0.019278096 0.036561906 0.69800001
-0.018000001 0.036666669 0.70000005
-0.016666668 0.036666669 0.70000005
-0.015289525 0.036561906 0.69800001
-0.013940001 0.036509525 0.69700003
-0.012666668 0.036666669 0.70000005
-0.011300953 0.036561906 0.69800001
-0.0099714296 0.036561906 0.69800001
-0.0086419052 0.036561906 0.69800001
-0.0073123816 0.036561906 0.69800001
-0.0059828577 0.036561906 0.69800001
-0.0046533337 0.036561906 0.69800001
-0.0033333336 0.036666669 0.70000005
-0.0020000001 0.036666669 0.70000005
-0.00066666672 0.036666669 0.70000005
0.00066666672 0.036666669 0.70000005
0.0020000001 0.036666669 0.70000005
0.0033333336 0.036666669 0.70000005
0.0046533337 0.036561906 0.69800001
0.0059828577 0.036561906 0.69800001
0.0073123816 0.036561906 0.69800001
0.0086419052 0.036561906 0.69800001
0.0099714296 0.036561906 0.69800001
0.011300953 0.036561906 0.69800001
0.012630477 0.036561906 0.69800001
0.014000001 0.036666669 0.70000005
0.015333334 0.036666669 0.70000005
0.016666668 0.036666669 0.70000005
0.018000001 0.036666669 0.70000005
0.019333335 0.036666669 0.70000005
0.020666668 0.036666669 0.70000005
0.022000002 0.036666669 0.70000005
0.023266668 0.036561906 0.69800001
0.024596192 0.036561906 0.69800001
0.025888573 0.036509525 0.69700003
0.027216192 0.036509525 0.69700003
-0.10534 0.037294287 0.68700004
-0.10357715 0.037131432 0.68400002
-0.10227429 0.037131432 0.68400002
-0.10082382 0.037077144 0.68300003
-0.099522866 0.037077144 0.68300003
-0.098078102 0.037022859 0.68200004
-0.096779056 0.037022859 0.68200004
-0.095060006 0.036860004 0.67900002
-0.093766674 0.036860004 0.67900002
-0.095469527 0.038054287 0.70100003
-0.094134293 0.038054287 0.70100003
-0.092666671 0.038000003 0.70000005
-0.091072388 0.037891433 0.69800001
-0.089742862 0.037891433 0.69800001
-0.088286676 0.037837144 0.69700003
-0.086709529 0.037728574 0.69500005
-0.085385717 0.037728574 0.69500005
-0.084303819 0.037837144 0.69700003
-0.082976192 0.037837144 0.69700003
-0.081765719 0.037891433 0.69800001
-0.080436192 0.037891433 0.69800001
-0.079333335 0.038000003 0.70000005
-0.078000002 0.038000003 0.70000005
-0.076666668 0.038000003 0.70000005
-0.075333342 0.038000003 0.70000005
-0.074000008 0.038000003 0.70000005
-0.072666675 0.038000003 0.70000005
-0.071333341 0.038000003 0.70000005
-0.069800004 0.037891433 0.69800001
-0.068470478 0.037891433 0.69800001
-0.067140959 0.037891433 0.69800001
-0.065811433 0.037891433 0.69800001
-0.064666674 0.038000003 0.70000005
-0.06333334 0.038000003 0.70000005
-0.062000003 0.038000003 0.70000005
-0.060666669 0.038000003 0.70000005
-0.059333336 0.038000003 0.70000005
-0.058000002 0.038000003 0.70000005
-0.056666672 0.038000003 0.70000005
-0.055175241 0.037891433 0.69800001
-0.053845719 0.037891433 0.69800001
-0.052516192 0.037891433 0.69800001
-0.05118667 0.037891433 0.69800001
-0.049857147 0.037891433 0.69800001
-0.048527621 0.037891433 0.69800001
-0.04713048 0.037837144 0.69700003
-0.045802861 0.037837144 0.69700003
-0.044539049 0.037891433 0.69800001
-0.043147624 0.037837144 0.69700003
-0.041880004 0.037891433 0.69800001
-0.040550478 0.037891433 0.69800001
-0.039220955 0.037891433 0.69800001
-0.037891433 0.037891433 0.69800001
-0.036561906 0.037891433 0.69800001
-0.035232384 0.037891433 0.69800001
-0.033902861 0.037891433 0.69800001
-0.032573335 0.037891433 0.69800001
-0.031243812 0.037891433 0.69800001
-0.02987143 0.037837144 0.69700003
-0.028584763 0.037891433 0.69800001
-0.027216192 0.037837144 0.69700003
-0.025888573 0.037837144 0.69700003
-0.024596192 0.037891433 0.69800001
-0.023266668 0.037891433 0.69800001
-0.021937145 0.037891433 0.69800001
-0.02060762 0.037891433 0.69800001
-0.019278096 0.037891433 0.69800001
-0.017948573 0.037891433 0.69800001
-0.016619049 0.037891433 0.69800001
-0.015289525 0.037891433 0.69800001
-0.013960001 0.037891433 0.69800001
-0.012630477 0.037891433 0.69800001
-0.011300953 0.037891433 0.69800001
-0.0099714296 0.037891433 0.69800001
-0.0086419052 0.037891433 0.69800001
-0.0073123816 0.037891433 0.69800001
-0.0059828577 0.037891433 0.69800001
-0.0046533337 0.037891433 0.69800001
-0.0033238097 0.037891433 0.69800001
-0.0020000001 0.038000003 0.70000005
-0.00066666672 0.038000003 0.70000005
0.00066666672 0.038000003 0.70000005
0.0019942857 0.037891433 0.69800001
0.0033333336 0.038000003 0.70000005
0.0046533337 0.037891433 0.69800001
0.0060000005 0.038000003 0.70000005
0.0073123816 0.037891433 0.69800001
0.0086419052 0.037891433 0.69800001
0.0099714296 0.037891433 0.69800001
0.011300953 0.037891433 0.69800001
0.012630477 0.037891433 0.69800001
0.014000001 0.038000003 0.70000005
0.015333334 0.038000003 0.70000005
0.016666668 0.038000003 0.70000005
0.018000001 0.038000003 0.70000005
0.019333335 0.038000003 0.70000005
0.020666668 0.038000003 0.70000005
0.022000002 0.038000003 0.70000005
0.023266668 0.037891433 0.69800001
0.024596192 0.037891433 0.69800001
0.025888573 0.037837144 0.69700003
0.027216192 0.037837144 0.69700003
-0.10488001 0.038434289 0.68400002
-0.10342572 0.038378097 0.68300003
-0.10212477 0.038378097 0.68300003
-0.10067619 0.038321909 0.68200004
-0.099377148 0.038321909 0.68200004
-0.09779048 0.038209528 0.68000001
-0.096353337 0.038153335 0.67900002
-0.095060006 0.038153335 0.67900002
-0.093766674 0.038153335 0.67900002
-0.095469527 0.039389525 0.70100003
-0.094134293 0.039389525 0.70100003
-0.092666671 0.039333336 0.70000005
-0.091072388 0.039220955 0.69800001
-0.089614294 0.039164763 0.69700003
-0.088033341 0.039052382 0.69500005
-0.086709529 0.039052382 0.69500005
-0.085385717 0.039052382 0.69500005
-0.084061913 0.039052382 0.69500005
-0.082976192 0.039164763 0.69700003
-0.081648573 0.039164763 0.69700003
-0.080320954 0.039164763 0.69700003
-0.079106674 0.039220955 0.69800001
-0.077777147 0.039220955 0.69800001
-0.076447621 0.039220955 0.69800001
-0.075333342 0.039333336 0.70000005
-0.073788576 0.039220955 0.69800001
-0.07245905 0.039220955 0.69800001
-0.071129531 0.039220955 0.69800001
-0.069700003 0.039164763 0.69700003
-0.068372384 0.039164763 0.69700003
-0.067044765 0.039164763 0.69700003
-0.065717146 0.039164763 0.69700003
-0.064389527 0.039164763 0.69700003
-0.063152388 0.039220955 0.69800001
-0.061822861 0.039220955 0.69800001
-0.060493339 0.039220955 0.69800001
-0.059163813 0.039220955 0.69800001
-0.05783429 0.039220955 0.69800001
-0.056504767 0.039220955 0.69800001
-0.055096194 0.039164763 0.69700003
-0.053845719 0.039220955 0.69800001
-0.052440956 0.039164763 0.69700003
-0.051113337 0.039164763 0.69700003
-0.049785718 0.039164763 0.69700003
-0.048458099 0.039164763 0.69700003
-0.04713048 0.039164763 0.69700003
-0.045802861 0.039164763 0.69700003
-0.044475242 0.039164763 0.69700003
-0.043147624 0.039164763 0.69700003
-0.041880004 0.039220955 0.69800001
-0.040550478 0.039220955 0.69800001
-0.039220955 0.039220955 0.69800001
-0.037891433 0.039220955 0.69800001
-0.036561906 0.039220955 0.69800001
-0.035232384 0.039220955 0.69800001
-0.033902861 0.039220955 0.69800001
-0.032573335 0.039220955 0.69800001
-0.031243812 0.039220955 0.69800001
-0.02987143 0.039164763 0.69700003
-0.028543811 0.039164763 0.69700003
-0.027216192 0.039164763 0.69700003
-0.025888573 0.039164763 0.69700003
-0.024560954 0.039164763 0.69700003
-0.023233335 0.039164763 0.69700003
-0.021905717 0.039164763 0.69700003
-0.020578096 0.039164763 0.69700003
-0.019250477 0.039164763 0.69700003
-0.017948573 0.039220955 0.69800001
-0.016619049 0.039220955 0.69800001
-0.01526762 0.039164763 0.69700003
-0.013940001 0.039164763 0.69700003
-0.012612382 0.039164763 0.69700003
-0.011300953 0.039220955 0.69800001
-0.0099714296 0.039220955 0.69800001
-0.0086419052 0.039220955 0.69800001
-0.0073123816 0.039220955 0.69800001
-0.0059828577 0.039220955 0.69800001
-0.0046533337 0.039220955 0.69800001
-0.0033238097 0.039220955 0.69800001
-0.0019942857 0.039220955 0.69800001
-0.00066666672 0.039333336 0.70000005
0.00066666672 0.039333336 0.70000005
0.0019942857 0.039220955 0.69800001
0.0033238097 0.039220955 0.69800001
0.0046533337 0.039220955 0.69800001
0.0059828577 0.039220955 0.69800001
0.0073123816 0.039220955 0.69800001
0.0086419052 0.039220955 0.69800001
0.0099714296 0.039220955 0.69800001
0.011300953 0.039220955 0.69800001
0.012630477 0.039220955 0.69800001
0.014000001 0.039333336 0.70000005
0.015333334 0.039333336 0.70000005
0.016666668 0.039333336 0.70000005
0.018000001 0.039333336 0.70000005
0.019333335 0.039333336 0.70000005
0.020666668 0.039333336 0.70000005
0.022000002 0.039333336 0.70000005
0.023266668 0.039220955 0.69800001
0.024596192 0.039220955 0.69800001
0.025925716 0.039220955 0.69800001
0.027255239 0.039220955 0.69800001
0.15395716 0.046581909 0.82900006
0.1555362 0.046581909 0.82900006
-0.10472667 0.03967905 0.68300003
-0.10327429 0.039620955 0.68200004
-0.10197525 0.039620955 0.68200004
-0.10067619 0.039620955 0.68200004
-0.099085718 0.039504763 0.68000001
-0.09779048 0.039504763 0.68000001
-0.096353337 0.039446671 0.67900002
-0.09520001 0.039504763 0.68000001
-0.093904771 0.039504763 0.68000001
-0.092609532 0.039504763 0.68000001
-0.094000004 0.04066667 0.70000005
-0.092401914 0.040550478 0.69800001
-0.090941913 0.040492382 0.69700003
-0.089357145 0.040376194 0.69500005
-0.087906674 0.040318098 0.69400001
-0.086709529 0.040376194 0.69500005
-0.085385717 0.040376194 0.69500005
-0.084061913 0.040376194 0.69500005
-0.082738101 0.040376194 0.69500005
-0.08141429 0.040376194 0.69500005
-0.080090478 0.040376194 0.69500005
-0.078993335 0.040492382 0.69700003
-0.077665716 0.040492382 0.69700003
-0.076338097 0.040492382 0.69700003
-0.075118102 0.040550478 0.69800001
-0.07368286 0.040492382 0.69700003
-0.072355241 0.040492382 0.69700003
-0.071027622 0.040492382 0.69700003
-0.069700003 0.040492382 0.69700003
-0.068176195 0.040376194 0.69500005
-0.066852383 0.040376194 0.69500005
-0.065528579 0.040376194 0.69500005
-0.064204767 0.040376194 0.69500005
-0.063061908 0.040492382 0.69700003
-0.061557148 0.040376194 0.69500005
-0.06040667 0.040492382 0.69700003
-0.059079051 0.040492382 0.69700003
-0.057751432 0.040492382 0.69700003
-0.056423813 0.040492382 0.69700003
-0.055096194 0.040492382 0.69700003
-0.053768575 0.040492382 0.69700003
-0.052290481 0.040376194 0.69500005
-0.050966669 0.040376194 0.69500005
-0.049642861 0.040376194 0.69500005
-0.048319049 0.040376194 0.69500005
-0.046995241 0.040376194 0.69500005
-0.045671433 0.040376194 0.69500005
-0.044347622 0.040376194 0.69500005
-0.043147624 0.040492382 0.69700003
-0.041820005 0.040492382 0.69700003
-0.040492382 0.040492382 0.69700003
-0.039164763 0.040492382 0.69700003
-0.037891433 0.040550478 0.69800001
-0.036509525 0.040492382 0.69700003
-0.035181906 0.040492382 0.69700003
-0.033902861 0.040550478 0.69800001
-0.032526668 0.040492382 0.69700003
-0.031199049 0.040492382 0.69700003
-0.02987143 0.040492382 0.69700003
-0.028543811 0.040492382 0.69700003
-0.027216192 0.040492382 0.69700003
-0.025888573 0.040492382 0.69700003
-0.024560954 0.040492382 0.69700003
-0.023233335 0.040492382 0.69700003
-0.021905717 0.040492382 0.69700003
-0.020578096 0.040492382 0.69700003
-0.019250477 0.040492382 0.69700003
-0.017922858 0.040492382 0.69700003
-0.016595239 0.040492382 0.69700003
-0.01526762 0.040492382 0.69700003
-0.013900001 0.040376194 0.69500005
-0.012612382 0.040492382 0.69700003
-0.011284763 0.040492382 0.69700003
-0.0099714296 0.040550478 0.69800001
-0.0086295241 0.040492382 0.69700003
-0.0073019052 0.040492382 0.69700003
-0.0059742862 0.040492382 0.69700003
-0.0046533337 0.040550478 0.69800001
-0.0033238097 0.040550478 0.69800001
-0.0019942857 0.040550478 0.69800001
-0.00066476193 0.040550478 0.69800001
0.00066476193 0.040550478 0.69800001
0.0019942857 0.040550478 0.69800001
0.0033238097 0.040550478 0.69800001
0.0046533337 0.040550478 0.69800001
0.0059828577 0.040550478 0.69800001
0.0073123816 0.040550478 0.69800001
0.0086295241 0.040492382 0.69700003
0.0099571431 0.040492382 0.69700003
0.011300953 0.040550478 0.69800001
0.012630477 0.040550478 0.69800001
0.013960001 0.040550478 0.69800001
0.015333334 0.04066667 0.70000005
0.016619049 0.040550478 0.69800001
0.018000001 0.04066667 0.70000005
0.019333335 0.04066667 0.70000005
0.020666668 0.04066667 0.70000005
