# .PCD v0.7 - Point Cloud Data file format
VERSION 0.7
FIELDS x y z
SIZE 4 4 4
TYPE F F F
COUNT 1 1 1
WIDTH 1335
HEIGHT 1
VIEWPOINT 0 0 0 1 0 0 0
POINTS 1335
DATA ascii
-0.037857145 0.070714287 0.75000006
-0.036428574 0.070714287 0.75000006
-0.03490667 0.070525721 0.74800003
-0.033481907 0.070525721 0.74800003
-0.032057144 0.070525721 0.74800003
-0.030632382 0.070525721 0.74800003
-0.029207621 0.070525721 0.74800003
-0.027745716 0.070431434 0.74700004
-0.026252383 0.070242859 0.74500006
-0.024766669 0.070054293 0.74300003
-0.023351431 0.070054293 0.74300003
-0.021847621 0.069771431 0.74000001
-0.020438097 0.069771431 0.74000001
-0.019002859 0.069677144 0.73900002
-0.017595239 0.069677144 0.73900002
-0.01614381 0.069488578 0.73700005
-0.014680001 0.069205716 0.73400003
-0.013245715 0.06901715 0.73200005
-0.011835239 0.068922862 0.73100001
-0.010414287 0.068734288 0.72900003
-0.0090133343 0.068640001 0.72800004
-0.0076057147 0.068451434 0.72600001
-0.0061971433 0.068168573 0.72300005
-0.0048133335 0.068074293 0.72200006
-0.0034238098 0.067791432 0.71900004
-0.0020485716 0.067602858 0.71700001
-0.00068190478 0.067508578 0.71600002
0.00067904766 0.067225717 0.71300006
0.0020228573 0.066754289 0.708
0.0033571431 0.066471435 0.70500004
0.0046866671 0.066282861 0.70300001
0.0060257148 0.066282861 0.70300001
0.0073438101 0.066094287 0.70100003
0.0086666672 0.066000007 0.70000005
0.0099714296 0.065811433 0.69800001
0.011300953 0.065811433 0.69800001
-0.073826671 0.065986671 0.68600005
-0.072308578 0.065794289 0.68400002
-0.071005717 0.065794289 0.68400002
-0.069600955 0.065698102 0.68300003
-0.068300001 0.065698102 0.68300003
-0.066606671 0.065313339 0.67900002
-0.065217145 0.065217145 0.67800003
-0.063642859 0.064928576 0.67500001
-0.062264767 0.064832382 0.67400002
-0.060980957 0.064832382 0.67400002
-0.062045719 0.070411436 0.73200005
-0.060982861 0.070796192 0.73600006
-0.05966191 0.070892386 0.73700005
-0.058258098 0.070892386 0.73700005
-0.057008576 0.071084768 0.73900002
-0.055826671 0.071373336 0.74200004
-0.05448667 0.07146953 0.74300003
-0.053214289 0.071661912 0.74500006
-0.05179524 0.071661912 0.74500006
-0.050376195 0.071661912 0.74500006
-0.049088575 0.071854293 0.74700004
-0.047665719 0.071854293 0.74700004
-0.046242859 0.071854293 0.74700004
-0.044880003 0.07195048 0.74800003
-0.043455239 0.07195048 0.74800003
-0.04203048 0.07195048 0.74800003
-0.040605716 0.07195048 0.74800003
-0.039180957 0.07195048 0.74800003
-0.037756193 0.07195048 0.74800003
-0.03628286 0.071854293 0.74700004
-0.034860004 0.071854293 0.74700004
-0.033437144 0.071854293 0.74700004
-0.032014288 0.071854293 0.74700004
-0.03059143 0.071854293 0.74700004
-0.029090479 0.071661912 0.74500006
-0.027597144 0.07146953 0.74300003
-0.026181906 0.07146953 0.74300003
-0.024733335 0.071373336 0.74200004
-0.023257144 0.071180955 0.74000001
-0.021818096 0.071084768 0.73900002
-0.020410478 0.071084768 0.73900002
-0.019002859 0.071084768 0.73900002
-0.01754762 0.070892386 0.73700005
-0.01614381 0.070892386 0.73700005
-0.014680001 0.070603818 0.73400003
-0.013245715 0.070411436 0.73200005
-0.011835239 0.070315242 0.73100001
-0.010414287 0.07012286 0.72900003
-0.0090133343 0.070026673 0.72800004
-0.0076057147 0.069834292 0.72600001
-0.0061885719 0.069449529 0.72200006
-0.0048133335 0.069449529 0.72200006
-0.0034238098 0.069160961 0.71900004
-0.0020485716 0.068968579 0.71700001
-0.00068190478 0.068872385 0.71600002
0.00068000006 0.068680003 0.71400005
0.0020371431 0.068583816 0.71300006
0.0033666668 0.068006672 0.70700002
0.0046933335 0.067718096 0.70400006
0.0060257148 0.067621909 0.70300001
0.0073438101 0.067429528 0.70100003
0.0086666672 0.067333341 0.70000005
0.0099714296 0.067140959 0.69800001
0.011300953 0.067140959 0.69800001
-0.073826671 0.067293338 0.68600005
-0.072308578 0.06709715 0.68400002
-0.071005717 0.06709715 0.68400002
-0.069600955 0.066999055 0.68300003
-0.068200007 0.066900954 0.68200004
-0.066606671 0.066606671 0.67900002
-0.065217145 0.066508576 0.67800003
-0.063642859 0.066214293 0.67500001
-0.062264767 0.066116191 0.67400002
-0.063180007 0.071511433 0.72900003
-0.061960958 0.071707621 0.73100001
-0.060651433 0.071805716 0.73200005
-0.059419051 0.072001912 0.73400003
-0.058179051 0.0721981 0.73600006
-0.057008576 0.072492383 0.73900002
-0.055676196 0.072590478 0.74000001
-0.054413337 0.072786674 0.74200004
-0.053071432 0.072884768 0.74300003
-0.05179524 0.073080957 0.74500006
-0.050376195 0.073080957 0.74500006
-0.048957147 0.073080957 0.74500006
-0.047538098 0.073080957 0.74500006
-0.046119049 0.073080957 0.74500006
-0.044820003 0.073277146 0.74700004
-0.043397147 0.073277146 0.74700004
-0.041974287 0.073277146 0.74700004
-0.040551431 0.073277146 0.74700004
-0.039128575 0.073277146 0.74700004
-0.037705716 0.073277146 0.74700004
-0.036185715 0.073080957 0.74500006
-0.03476667 0.073080957 0.74500006
-0.033347622 0.073080957 0.74500006
-0.031928573 0.073080957 0.74500006
-0.030509526 0.073080957 0.74500006
-0.029090479 0.073080957 0.74500006
-0.027597144 0.072884768 0.74300003
-0.026146669 0.072786674 0.74200004
-0.024666669 0.072590478 0.74000001
-0.023257144 0.072590478 0.74000001
-0.021818096 0.072492383 0.73900002
-0.020410478 0.072492383 0.73900002
-0.018951429 0.072296195 0.73700005
-0.01754762 0.072296195 0.73700005
-0.016078096 0.072001912 0.73400003
-0.014640001 0.071805716 0.73200005
-0.01322762 0.071707621 0.73100001
-0.011802858 0.071511433 0.72900003
-0.010400001 0.071413338 0.72800004
-0.0089885723 0.071217149 0.72600001
-0.0075952387 0.071119055 0.72500002
-0.0061885719 0.070824765 0.72200006
-0.0048133335 0.070824765 0.72200006
-0.0034285716 0.070628576 0.72000003
-0.002054286 0.070530482 0.71900004
-0.00068285718 0.070334293 0.71700001
0.00068000006 0.070040002 0.71400005
0.0020371431 0.069941908 0.71300006
0.0033666668 0.069353335 0.70700002
0.0046933335 0.069059052 0.70400006
0.0060257148 0.068960957 0.70300001
0.0073438101 0.068764769 0.70100003
0.0086666672 0.068666674 0.70000005
0.010000001 0.068666674 0.70000005
0.011300953 0.068470478 0.69800001
-0.073826671 0.068600006 0.68600005
-0.072520003 0.068600006 0.68600005
-0.071213335 0.068600006 0.68600005
-0.069702864 0.068400003 0.68400002
-0.068300001 0.068300001 0.68300003
-0.066606671 0.067900002 0.67900002
-0.065024763 0.067600004 0.67600006
-0.063642859 0.067500003 0.67500001
-0.062264767 0.067400001 0.67400002
-0.062833339 0.072500005 0.72500002
-0.061791431 0.072900005 0.72900003
-0.060568575 0.073100008 0.73100001
-0.059419051 0.073400006 0.73400003
-0.058020957 0.073400006 0.73400003
-0.056777146 0.073600002 0.73600006
-0.055600956 0.073900007 0.73900002
-0.054266669 0.074000008 0.74000001
-0.053000003 0.074200004 0.74200004
-0.051656194 0.074300006 0.74300003
-0.050240956 0.074300006 0.74300003
-0.048825718 0.074300006 0.74300003
-0.047538098 0.074500002 0.74500006
-0.046119049 0.074500002 0.74500006
-0.044700004 0.074500002 0.74500006
-0.043280955 0.074500002 0.74500006
-0.041861907 0.074500002 0.74500006
-0.040442862 0.074500002 0.74500006
-0.039023813 0.074500002 0.74500006
-0.037604764 0.074500002 0.74500006
-0.036185715 0.074500002 0.74500006
-0.03476667 0.074500002 0.74500006
-0.033347622 0.074500002 0.74500006
-0.031842858 0.074300006 0.74300003
-0.030427622 0.074300006 0.74300003
-0.029012382 0.074300006 0.74300003
-0.027560001 0.074200004 0.74200004
-0.026076192 0.074000008 0.74000001
-0.024666669 0.074000008 0.74000001
-0.023225715 0.073900007 0.73900002
-0.021818096 0.073900007 0.73900002
-0.020410478 0.073900007 0.73900002
-0.018951429 0.073700003 0.73700005
-0.01754762 0.073700003 0.73700005
-0.016078096 0.073400006 0.73400003
-0.014640001 0.073200002 0.73200005
-0.01322762 0.073100008 0.73100001
-0.011786668 0.072800003 0.72800004
-0.010371429 0.072600007 0.72600001
-0.0089885723 0.072600007 0.72600001
-0.0075952387 0.072500005 0.72500002
-0.0061885719 0.072200008 0.72200006
-0.0048000002 0.072000004 0.72000003
-0.0034238098 0.071900003 0.71900004
-0.0020485716 0.071700007 0.71700001
-0.00068190478 0.071600005 0.71600002
0.00068000006 0.071400002 0.71400005
0.0020314287 0.071100004 0.71100003
0.0033666668 0.070700005 0.70700002
0.0046933335 0.070400007 0.70400006
0.0060257148 0.070300005 0.70300001
0.0073438101 0.070100002 0.70100003
0.0086790482 0.070100002 0.70100003
0.010000001 0.070000008 0.70000005
0.011300953 0.069800004 0.69800001
-0.078313336 0.070416197 0.69100004
-0.076997146 0.070416197 0.69100004
-0.073934294 0.070008576 0.68700004
-0.072520003 0.069906674 0.68600005
-0.071213335 0.069906674 0.68600005
-0.069702864 0.069702864 0.68400002
-0.068300001 0.069600955 0.68300003
-0.066606671 0.069193341 0.67900002
-0.065024763 0.068887621 0.67600006
-0.063642859 0.06878572 0.67500001
-0.062357146 0.06878572 0.67500001
-0.062573336 0.073575243 0.72200006
-0.061537147 0.073982865 0.72600001
-0.060568575 0.074492387 0.73100001
-0.059257146 0.074594289 0.73200005
-0.057862859 0.074594289 0.73200005
-0.056622859 0.0747981 0.73400003
-0.05545048 0.075103812 0.73700005
-0.054193337 0.075307623 0.73900002
-0.052857146 0.075409532 0.74000001
-0.051586669 0.075613335 0.74200004
-0.050240956 0.075715244 0.74300003
-0.048825718 0.075715244 0.74300003
-0.047410481 0.075715244 0.74300003
-0.045995243 0.075715244 0.74300003
-0.044580001 0.075715244 0.74300003
-0.043164764 0.075715244 0.74300003
-0.041749526 0.075715244 0.74300003
-0.040334288 0.075715244 0.74300003
-0.03891905 0.075715244 0.74300003
-0.037503812 0.075715244 0.74300003
-0.036088575 0.075715244 0.74300003
-0.034673337 0.075715244 0.74300003
-0.033258099 0.075715244 0.74300003
-0.031842858 0.075715244 0.74300003
-0.03038667 0.075613335 0.74200004
-0.028973335 0.075613335 0.74200004
-0.027485715 0.075409532 0.74000001
-0.026040955 0.075307623 0.73900002
-0.024633335 0.075307623 0.73900002
-0.023162859 0.075103812 0.73700005
-0.02175905 0.075103812 0.73700005
-0.02035524 0.075103812 0.73700005
-0.018925715 0.07500191 0.73600006
-0.01752381 0.07500191 0.73600006
-0.016034286 0.074594289 0.73200005
-0.014640001 0.074594289 0.73200005
-0.01319143 0.074288577 0.72900003
-0.011786668 0.074186675 0.72800004
-0.010371429 0.073982865 0.72600001
-0.0089761913 0.073880956 0.72500002
-0.0075952387 0.073880956 0.72500002
-0.0061885719 0.073575243 0.72200006
-0.0048000002 0.073371433 0.72000003
-0.0034238098 0.073269531 0.71900004
-0.0020485716 0.07306572 0.71700001
-0.00068190478 0.072963811 0.71600002
0.00067904766 0.072658099 0.71300006
0.0020314287 0.072454289 0.71100003
0.0033571431 0.071842864 0.70500004
0.0046933335 0.071740955 0.70400006
0.0060257148 0.071639054 0.70300001
0.0073647625 0.071639054 0.70300001
0.0086790482 0.071435243 0.70100003
0.010000001 0.071333341 0.70000005
0.011333334 0.071333341 0.70000005
-0.080090478 0.072147623 0.69500005
-0.078313336 0.071732387 0.69100004
-0.076997146 0.071732387 0.69100004
-0.075680956 0.071732387 0.69100004
-0.074149527 0.071524769 0.68900001
-0.072625719 0.071317151 0.68700004
-0.071213335 0.071213335 0.68600005
-0.069702864 0.071005717 0.68400002
-0.068300001 0.070901908 0.68300003
-0.066508576 0.070382863 0.67800003
-0.065024763 0.070175245 0.67600006
-0.063737147 0.070175245 0.67600006
-0.062357146 0.070071436 0.67500001
-0.062660001 0.075054288 0.72300005
-0.061537147 0.075365722 0.72600001
-0.060402863 0.075677149 0.72900003
-0.059176195 0.075884767 0.73100001
-0.057783812 0.075884767 0.73100001
-0.056468576 0.075988576 0.73200005
-0.055224765 0.076196194 0.73400003
-0.054046672 0.076507621 0.73700005
-0.05264286 0.076507621 0.73700005
-0.051378097 0.076715246 0.73900002
-0.050173335 0.077026673 0.74200004
-0.048760004 0.077026673 0.74200004
-0.04734667 0.077026673 0.74200004
-0.045995243 0.077130482 0.74300003
-0.044580001 0.077130482 0.74300003
-0.043164764 0.077130482 0.74300003
-0.041693337 0.077026673 0.74200004
-0.040280003 0.077026673 0.74200004
-0.038866669 0.077026673 0.74200004
-0.037453335 0.077026673 0.74200004
-0.036040001 0.077026673 0.74200004
-0.03462667 0.077026673 0.74200004
-0.033213336 0.077026673 0.74200004
-0.031800002 0.077026673 0.74200004
-0.030304763 0.076819055 0.74000001
-0.02889524 0.076819055 0.74000001
-0.027448574 0.076715246 0.73900002
-0.026040955 0.076715246 0.73900002
-0.024566669 0.076507621 0.73700005
-0.023162859 0.076507621 0.73700005
-0.02175905 0.076507621 0.73700005
-0.02032762 0.076403812 0.73600006
-0.018925715 0.076403812 0.73600006
-0.017428573 0.075988576 0.73200005
-0.016034286 0.075988576 0.73200005
-0.01462 0.075884767 0.73100001
-0.01319143 0.075677149 0.72900003
-0.011786668 0.07557334 0.72800004
-0.010371429 0.075365722 0.72600001
-0.0089761913 0.075261913 0.72500002
-0.0075742863 0.075054288 0.72300005
-0.0061885719 0.074950479 0.72200006
-0.0048000002 0.074742861 0.72000003
-0.0034238098 0.074639052 0.71900004
-0.0020485716 0.074431434 0.71700001
-0.00068190478 0.074327625 0.71600002
0.00067904766 0.074016199 0.71300006
0.0020228573 0.073497146 0.708
0.0033571431 0.07318572 0.70500004
0.0046933335 0.073081911 0.70400006
0.0060257148 0.072978102 0.70300001
0.0073647625 0.072978102 0.70300001
0.0086790482 0.072770484 0.70100003
0.010000001 0.072666675 0.70000005
0.011333334 0.072666675 0.70000005
-0.081648573 0.07368286 0.69700003
-0.080090478 0.073471434 0.69500005
-0.078766674 0.073471434 0.69500005
-0.077220008 0.073260002 0.69300002
-0.075571433 0.07294286 0.69000006
-0.07425715 0.07294286 0.69000006
-0.072837144 0.072837144 0.68900001
-0.071524769 0.072837144 0.68900001
-0.069906674 0.072520003 0.68600005
-0.068600006 0.072520003 0.68600005
-0.066312388 0.071462862 0.67600006
-0.065024763 0.071462862 0.67600006
-0.063642859 0.071357146 0.67500001
-0.062357146 0.071357146 0.67500001
-0.062833339 0.076642863 0.72500002
-0.061537147 0.07674858 0.72600001
-0.060320005 0.076960005 0.72800004
-0.058933336 0.076960005 0.72800004
-0.057625718 0.077065721 0.72900003
-0.056391433 0.077277146 0.73100001
-0.055074289 0.077382863 0.73200005
-0.053973336 0.07780572 0.73600006
-0.052571431 0.07780572 0.73600006
-0.051239051 0.077911437 0.73700005
-0.049970478 0.078122862 0.73900002
-0.048628576 0.078228578 0.74000001
-0.047219049 0.078228578 0.74000001
-0.045809526 0.078228578 0.74000001
-0.044520002 0.078440003 0.74200004
-0.04299048 0.078228578 0.74000001
-0.041580956 0.078228578 0.74000001
-0.04017143 0.078228578 0.74000001
-0.038761906 0.078228578 0.74000001
-0.037352383 0.078228578 0.74000001
-0.03594286 0.078228578 0.74000001
-0.034533337 0.078228578 0.74000001
-0.03312381 0.078228578 0.74000001
-0.031714287 0.078228578 0.74000001
-0.030304763 0.078228578 0.74000001
-0.028856192 0.078122862 0.73900002
-0.027448574 0.078122862 0.73900002
-0.025970478 0.077911437 0.73700005
-0.024566669 0.077911437 0.73700005
-0.023162859 0.077911437 0.73700005
-0.021729525 0.07780572 0.73600006
-0.02032762 0.07780572 0.73600006
-0.018874288 0.077594288 0.73400003
-0.017428573 0.077382863 0.73200005
-0.016012382 0.077277146 0.73100001
-0.01462 0.077277146 0.73100001
-0.01319143 0.077065721 0.72900003
-0.011754286 0.07674858 0.72600001
-0.010357143 0.076642863 0.72500002
-0.0089761913 0.076642863 0.72500002
-0.0075742863 0.076431431 0.72300005
-0.0061714291 0.076114289 0.72000003
-0.0047933338 0.076008573 0.71900004
-0.0034142858 0.075797148 0.71700001
-0.0020485716 0.075797148 0.71700001
-0.00068000006 0.075480007 0.71400005
0.00067904766 0.07537429 0.71300006
0.0020314287 0.075162865 0.71100003
0.0033571431 0.074528575 0.70500004
0.0046933335 0.074422859 0.70400006
0.0060342862 0.074422859 0.70400006
0.0073647625 0.07431715 0.70300001
0.0086790482 0.074105717 0.70100003
0.010000001 0.074000008 0.70000005
-0.08141429 0.074795246 0.69500005
-0.079399049 0.074149527 0.68900001
-0.078086674 0.074149527 0.68900001
-0.076774292 0.074149527 0.68900001
-0.075461909 0.074149527 0.68900001
-0.074149527 0.074149527 0.68900001
-0.07294286 0.07425715 0.69000006
-0.071628578 0.07425715 0.69000006
-0.070212387 0.074149527 0.68900001
-0.068600006 0.073826671 0.68600005
-0.064928576 0.072642863 0.67500001
-0.063642859 0.072642863 0.67500001
-0.062357146 0.072642863 0.67500001
-0.061071433 0.072642863 0.67500001
-0.062660001 0.077808574 0.72300005
-0.061452385 0.078023814 0.72500002
-0.060071431 0.078023814 0.72500002
-0.058771431 0.078131437 0.72600001
-0.057546671 0.07834667 0.72800004
-0.056160003 0.07834667 0.72800004
-0.054848574 0.078454293 0.72900003
-0.05360667 0.078669526 0.73100001
-0.052285716 0.078777149 0.73200005
-0.050891433 0.078777149 0.73200005
-0.049632385 0.078992389 0.73400003
-0.048234288 0.078992389 0.73400003
-0.047027621 0.079315245 0.73700005
-0.045623813 0.079315245 0.73700005
-0.044340003 0.079530485 0.73900002
-0.042932384 0.079530485 0.73900002
-0.041412383 0.079315245 0.73700005
-0.040008575 0.079315245 0.73700005
-0.038604766 0.079315245 0.73700005
-0.037200954 0.079315245 0.73700005
-0.035797145 0.079315245 0.73700005
-0.034393337 0.079315245 0.73700005
-0.032989524 0.079315245 0.73700005
-0.031585716 0.079315245 0.73700005
-0.030181907 0.079315245 0.73700005
-0.028778097 0.079315245 0.73700005
-0.027337145 0.079207622 0.73600006
-0.02593524 0.079207622 0.73600006
-0.024533335 0.079207622 0.73600006
-0.023068573 0.078992389 0.73400003
-0.021670477 0.078992389 0.73400003
-0.020272382 0.078992389 0.73400003
-0.018822858 0.078777149 0.73200005
-0.017428573 0.078777149 0.73200005
-0.016012382 0.078669526 0.73100001
-0.014580001 0.078454293 0.72900003
-0.013137144 0.078131437 0.72600001
-0.011738096 0.078023814 0.72500002
-0.010314287 0.077700958 0.72200006
-0.0089390483 0.077700958 0.72200006
-0.0075428574 0.077485718 0.72000003
-0.0061628576 0.077378102 0.71900004
-0.0047933338 0.077378102 0.71900004
-0.0034142858 0.077162862 0.71700001
-0.0020457145 0.077055246 0.71600002
-0.00068000006 0.076840006 0.71400005
0.00067904766 0.07673239 0.71300006
0.0020228573 0.076194294 0.708
0.0033571431 0.07587143 0.70500004
0.0047000004 0.07587143 0.70500004
0.0060342862 0.075763814 0.70400006
0.0073647625 0.075656198 0.70300001
0.0086790482 0.075440958 0.70100003
0.010000001 0.075333342 0.70000005
-0.078086674 0.075461909 0.68900001
-0.076774292 0.075461909 0.68900001
-0.075461909 0.075461909 0.68900001
-0.07425715 0.075571433 0.69000006
-0.073048577 0.075680956 0.69100004
-0.071732387 0.075680956 0.69100004
-0.070416197 0.075680956 0.69100004
-0.069100007 0.075680956 0.69100004
-0.068006672 0.07743334 0.70700002
-0.066754289 0.077542864 0.708
-0.065590478 0.077761911 0.71000004
-0.064238101 0.077761911 0.71000004
-0.063505717 0.078528576 0.71700001
-0.062573336 0.079076193 0.72200006
-0.061282862 0.079185717 0.72300005
-0.060071431 0.079404764 0.72500002
-0.058690481 0.079404764 0.72500002
-0.057388574 0.079514287 0.72600001
-0.056160003 0.079733342 0.72800004
-0.054773338 0.079733342 0.72800004
-0.053460002 0.079842865 0.72900003
-0.052214291 0.080061913 0.73100001
-0.050891433 0.080171436 0.73200005
-0.049497146 0.080171436 0.73200005
-0.048102859 0.080171436 0.73200005
-0.046836194 0.080390483 0.73400003
-0.045561906 0.08060953 0.73600006
-0.044220004 0.080719054 0.73700005
-0.042816192 0.080719054 0.73700005
-0.041412383 0.080719054 0.73700005
-0.040008575 0.080719054 0.73700005
-0.038552385 0.08060953 0.73600006
-0.03715048 0.08060953 0.73600006
-0.035748575 0.08060953 0.73600006
-0.03434667 0.08060953 0.73600006
-0.032944765 0.08060953 0.73600006
-0.03154286 0.08060953 0.73600006
-0.030140955 0.08060953 0.73600006
-0.02873905 0.08060953 0.73600006
-0.027262859 0.080390483 0.73400003
-0.025864763 0.080390483 0.73400003
-0.024466669 0.080390483 0.73400003
-0.023005717 0.080171436 0.73200005
-0.02161143 0.080171436 0.73200005
-0.020217145 0.080171436 0.73200005
-0.018822858 0.080171436 0.73200005
-0.017404763 0.080061913 0.73100001
-0.015968572 0.079842865 0.72900003
-0.014560001 0.079733342 0.72800004
-0.013137144 0.079514287 0.72600001
-0.011705715 0.079185717 0.72300005
-0.010314287 0.079076193 0.72200006
-0.0089142863 0.078857146 0.72000003
-0.0075323815 0.078747623 0.71900004
-0.0061628576 0.078747623 0.71900004
-0.0047800005 0.078528576 0.71700001
-0.0034142858 0.078528576 0.71700001
-0.0020457145 0.078419052 0.71600002
-0.00068000006 0.078200005 0.71400005
0.00067904766 0.078090481 0.71300006
0.0020228573 0.077542864 0.708
0.0033571431 0.077214293 0.70500004
0.0047000004 0.077214293 0.70500004
0.0060428577 0.077214293 0.70500004
0.0073857149 0.077214293 0.70500004
0.0087285722 0.077214293 0.70500004
-0.077746674 0.076440006 0.68600005
-0.076774292 0.076774292 0.68900001
-0.075133339 0.076440006 0.68600005
-0.074364766 0.076997146 0.69100004
-0.073048577 0.076997146 0.69100004
-0.071732387 0.076997146 0.69100004
-0.070416197 0.076997146 0.69100004
-0.069100007 0.076997146 0.69100004
-0.068006672 0.078780003 0.70700002
-0.066754289 0.078891434 0.708
-0.065405719 0.078891434 0.708
-0.064238101 0.079114288 0.71000004
-0.063240007 0.079560004 0.71400005
-0.062313337 0.080117151 0.71900004
-0.0611981 0.080451436 0.72200006
-0.059905719 0.08056286 0.72300005
-0.058690481 0.080785722 0.72500002
-0.057388574 0.080897145 0.72600001
-0.056005716 0.080897145 0.72600001
-0.054773338 0.081120007 0.72800004
-0.053460002 0.081231438 0.72900003
-0.052071434 0.081231438 0.72900003
-0.050821908 0.081454292 0.73100001
-0.049429528 0.081454292 0.73100001
-0.048037145 0.081454292 0.73100001
-0.046708573 0.081565723 0.73200005
-0.04531429 0.081565723 0.73200005
-0.044160005 0.082011431 0.73600006
-0.042641908 0.081788577 0.73400003
-0.041356195 0.082011431 0.73600006
-0.03995429 0.082011431 0.73600006
-0.038552385 0.082011431 0.73600006
-0.037049524 0.081788577 0.73400003
-0.03565143 0.081788577 0.73400003
-0.034253336 0.081788577 0.73400003
-0.032855239 0.081788577 0.73400003
-0.031457145 0.081788577 0.73400003
-0.030059049 0.081788577 0.73400003
-0.028660955 0.081788577 0.73400003
-0.027262859 0.081788577 0.73400003
-0.025794288 0.081565723 0.73200005
-0.024400001 0.081565723 0.73200005
-0.023005717 0.081565723 0.73200005
-0.02161143 0.081565723 0.73200005
-0.020217145 0.081565723 0.73200005
-0.018822858 0.081565723 0.73200005
-0.017404763 0.081454292 0.73100001
-0.015968572 0.081231438 0.72900003
-0.014520001 0.080897145 0.72600001
-0.013082858 0.08056286 0.72300005
-0.011689524 0.080451436 0.72200006
-0.010285715 0.080228575 0.72000003
-0.0089142863 0.080228575 0.72000003
-0.0075323815 0.080117151 0.71900004
-0.0061457148 0.079894289 0.71700001
-0.0047800005 0.079894289 0.71700001
-0.003409524 0.079782866 0.71600002
-0.0020400002 0.079560004 0.71400005
-0.00067904766 0.079448573 0.71300006
0.00067714287 0.079225719 0.71100003
0.0020228573 0.078891434 0.708
0.0033571431 0.078557149 0.70500004
0.0047000004 0.078557149 0.70500004
0.0060428577 0.078557149 0.70500004
0.0073857149 0.078557149 0.70500004
-0.077746674 0.077746674 0.68600005
-0.076440006 0.077746674 0.68600005
-0.075133339 0.077746674 0.68600005
-0.07425715 0.078200005 0.69000006
-0.073048577 0.078313336 0.69100004
-0.071732387 0.078313336 0.69100004
-0.070620008 0.078540005 0.69300002
-0.069100007 0.078313336 0.69100004
-0.068372384 0.078993335 0.69700003
-0.067044765 0.078993335 0.69700003
-0.066660002 0.080126673 0.70700002
-0.065405719 0.080240004 0.708
-0.064057149 0.080240004 0.708
-0.062885717 0.080466673 0.71000004
-0.061880004 0.080920003 0.71400005
-0.061028574 0.081600003 0.72000003
-0.059905719 0.081940003 0.72300005
-0.058528576 0.081940003 0.72300005
-0.057309527 0.082166672 0.72500002
-0.056005716 0.082280003 0.72600001
-0.054773338 0.082506672 0.72800004
-0.05338667 0.082506672 0.72800004
-0.052000005 0.082506672 0.72800004
-0.050682861 0.082620002 0.72900003
-0.049294289 0.082620002 0.72900003
-0.048037145 0.082846671 0.73100001
-0.046644766 0.082846671 0.73100001
-0.045252383 0.082846671 0.73100001
-0.044040002 0.083186671 0.73400003
-0.042525716 0.082960002 0.73200005
-0.041131433 0.082960002 0.73200005
-0.039737146 0.082960002 0.73200005
-0.03834286 0.082960002 0.73200005
-0.036948573 0.082960002 0.73200005
-0.03555429 0.082960002 0.73200005
-0.034160003 0.082960002 0.73200005
-0.032765716 0.082960002 0.73200005
-0.03137143 0.082960002 0.73200005
-0.029977145 0.082960002 0.73200005
-0.02858286 0.082960002 0.73200005
-0.027188573 0.082960002 0.73200005
-0.025794288 0.082960002 0.73200005
-0.024400001 0.082960002 0.73200005
-0.022974288 0.082846671 0.73100001
-0.021581907 0.082846671 0.73100001
-0.020189526 0.082846671 0.73100001
-0.018797144 0.082846671 0.73100001
-0.017357145 0.082620002 0.72900003
-0.015946668 0.082506672 0.72800004
-0.014520001 0.082280003 0.72600001
-0.013082858 0.081940003 0.72300005
-0.011689524 0.081826672 0.72200006
-0.010285715 0.081600003 0.72000003
-0.0089142863 0.081600003 0.72000003
-0.0075323815 0.081486672 0.71900004
-0.0061457148 0.081260003 0.71700001
-0.0047733337 0.081146672 0.71600002
-0.0034000003 0.080920003 0.71400005
-0.0020400002 0.080920003 0.71400005
-0.00067904766 0.080806673 0.71300006
0.00067714287 0.080580004 0.71100003
0.0020228573 0.080240004 0.708
0.0033571431 0.079900004 0.70500004
0.0047000004 0.079900004 0.70500004
0.0060428577 0.079900004 0.70500004
0.0073857149 0.079900004 0.70500004
-0.073048577 0.079629526 0.69100004
-0.071732387 0.079629526 0.69100004
-0.070620008 0.079860002 0.69300002
-0.069300003 0.079860002 0.69300002
-0.068078101 0.07997524 0.69400001
-0.066852383 0.080090478 0.69500005
-0.066471435 0.081242859 0.70500004
-0.065313339 0.081473336 0.70700002
-0.064057149 0.081588574 0.708
-0.062885717 0.08181905 0.71000004
-0.061620004 0.081934288 0.71100003
-0.060689528 0.082510479 0.71600002
-0.059657145 0.082971431 0.72000003
-0.058447622 0.083201908 0.72200006
-0.057151433 0.083317146 0.72300005
-0.055928577 0.083547622 0.72500002
-0.054622862 0.08366286 0.72600001
-0.053240005 0.08366286 0.72600001
-0.051857147 0.08366286 0.72600001
-0.050613336 0.083893336 0.72800004
-0.049226671 0.083893336 0.72800004
-0.047905717 0.084008574 0.72900003
-0.046517145 0.084008574 0.72900003
-0.045128573 0.084008574 0.72900003
-0.043740004 0.084008574 0.72900003
-0.04246762 0.084239051 0.73100001
-0.041075241 0.084239051 0.73100001
-0.039682861 0.084239051 0.73100001
-0.038290478 0.084239051 0.73100001
-0.036898099 0.084239051 0.73100001
-0.035505716 0.084239051 0.73100001
-0.034113336 0.084239051 0.73100001
-0.032720953 0.084239051 0.73100001
-0.03137143 0.084354289 0.73200005
-0.029936193 0.084239051 0.73100001
-0.028543811 0.084239051 0.73100001
-0.02715143 0.084239051 0.73100001
-0.025759049 0.084239051 0.73100001
-0.024366667 0.084239051 0.73100001
-0.022974288 0.084239051 0.73100001
-0.021581907 0.084239051 0.73100001
-0.020134287 0.084008574 0.72900003
-0.018720001 0.083893336 0.72800004
-0.017333334 0.083893336 0.72800004
-0.015880954 0.083547622 0.72500002
-0.014460001 0.083317146 0.72300005
-0.013064763 0.083201908 0.72200006
-0.011657144 0.082971431 0.72000003
-0.010271429 0.082856193 0.71900004
-0.0089019053 0.082856193 0.71900004
-0.007511429 0.082625717 0.71700001
-0.0061371434 0.082510479 0.71600002
-0.0047600004 0.082280003 0.71400005
-0.0034000003 0.082280003 0.71400005
-0.0020371431 0.082164764 0.71300006
-0.00067714287 0.081934288 0.71100003
0.00067619054 0.08181905 0.71000004
0.0020228573 0.081588574 0.708
0.0033571431 0.081242859 0.70500004
0.0047000004 0.081242859 0.70500004
0.0060428577 0.081242859 0.70500004
0.0073857149 0.081242859 0.70500004
-0.074364766 0.080945723 0.69100004
-0.073048577 0.080945723 0.69100004
-0.071940005 0.081180006 0.69300002
-0.070620008 0.081180006 0.69300002
-0.069300003 0.081180006 0.69300002
-0.068078101 0.081297152 0.69400001
-0.066852383 0.08141429 0.69500005
-0.065717146 0.081648573 0.69700003
-0.065036193 0.082468577 0.70400006
-0.063966669 0.082820006 0.70700002
-0.062708579 0.082937151 0.708
-0.061533336 0.083171435 0.71000004
-0.06026572 0.08328858 0.71100003
-0.059325717 0.083874293 0.71600002
-0.058204766 0.084225722 0.71900004
-0.056914289 0.08434286 0.72000003
-0.05577429 0.084694289 0.72300005
-0.054547623 0.08492858 0.72500002
-0.053240005 0.085045718 0.72600001
-0.051857147 0.085045718 0.72600001
-0.05047429 0.085045718 0.72600001
-0.049226671 0.085280009 0.72800004
-0.047840003 0.085280009 0.72800004
-0.046453338 0.085280009 0.72800004
-0.04506667 0.085280009 0.72800004
-0.043680001 0.085280009 0.72800004
-0.042351432 0.085397147 0.72900003
-0.04096286 0.085397147 0.72900003
-0.039574288 0.085397147 0.72900003
-0.038185716 0.085397147 0.72900003
-0.036797144 0.085397147 0.72900003
-0.035408575 0.085397147 0.72900003
-0.034020003 0.085397147 0.72900003
-0.032631431 0.085397147 0.72900003
-0.031328574 0.085631438 0.73100001
-0.029854288 0.085397147 0.72900003
-0.028543811 0.085631438 0.73100001
-0.02715143 0.085631438 0.73100001
-0.025688574 0.085397147 0.72900003
-0.024300002 0.085397147 0.72900003
-0.022911429 0.085397147 0.72900003
-0.021522859 0.085397147 0.72900003
-0.020134287 0.085397147 0.72900003
-0.018668573 0.085045718 0.72600001
-0.017285716 0.085045718 0.72600001
-0.015837144 0.084694289 0.72300005
-0.014440001 0.084577151 0.72200006
-0.013028572 0.08434286 0.72000003
-0.011640953 0.084225722 0.71900004
-0.010271429 0.084225722 0.71900004
-0.0088771433 0.083991431 0.71700001
-0.007500953 0.083874293 0.71600002
-0.0061371434 0.083874293 0.71600002
-0.0047600004 0.083640009 0.71400005
-0.0034000003 0.083640009 0.71400005
-0.0020371431 0.083522864 0.71300006
-0.00067714287 0.08328858 0.71100003
0.00067619054 0.083171435 0.71000004
0.0020228573 0.082937151 0.708
0.0033571431 0.082585722 0.70500004
0.0047000004 0.082585722 0.70500004
0.0060428577 0.082585722 0.70500004
0.0073857149 0.082585722 0.70500004
-0.074364766 0.082261913 0.69100004
-0.073048577 0.082261913 0.69100004
-0.071940005 0.082500003 0.69300002
-0.070620008 0.082500003 0.69300002
-0.069300003 0.082500003 0.69300002
-0.068078101 0.082619056 0.69400001
-0.066852383 0.082738101 0.69500005
-0.065717146 0.082976192 0.69700003
-0.064759053 0.083452389 0.70100003
-0.063966669 0.084166676 0.70700002
-0.062708579 0.084285721 0.708
-0.061533336 0.084523812 0.71000004
-0.06026572 0.084642865 0.71100003
-0.059077147 0.084880956 0.71300006
-0.057961907 0.085238099 0.71600002
-0.056677148 0.085357152 0.71700001
-0.05554286 0.085714288 0.72000003
-0.054321907 0.085952386 0.72200006
-0.053166669 0.08630953 0.72500002
-0.051785719 0.08630953 0.72500002
-0.050404765 0.08630953 0.72500002
-0.049091432 0.086428575 0.72600001
-0.047708575 0.086428575 0.72600001
-0.046325717 0.086428575 0.72600001
-0.04494286 0.086428575 0.72600001
-0.043560002 0.086428575 0.72600001
-0.042293336 0.086666673 0.72800004
-0.040906668 0.086666673 0.72800004
-0.039520003 0.086666673 0.72800004
-0.038133334 0.086666673 0.72800004
-0.03674667 0.086666673 0.72800004
-0.035360001 0.086666673 0.72800004
-0.033973336 0.086666673 0.72800004
-0.032586668 0.086666673 0.72800004
-0.031200003 0.086666673 0.72800004
-0.029813336 0.086666673 0.72800004
-0.028465716 0.086785719 0.72900003
-0.027077144 0.086785719 0.72900003
-0.025653334 0.086666673 0.72800004
-0.024266668 0.086666673 0.72800004
-0.022880001 0.086666673 0.72800004
-0.021493334 0.086666673 0.72800004
-0.020106668 0.086666673 0.72800004
-0.018642858 0.08630953 0.72500002
-0.017261906 0.08630953 0.72500002
-0.015815239 0.085952386 0.72200006
-0.014400001 0.085714288 0.72000003
-0.013028572 0.085714288 0.72000003
-0.011640953 0.085595243 0.71900004
-0.010271429 0.085595243 0.71900004
-0.0088647623 0.085238099 0.71600002
-0.007500953 0.085238099 0.71600002
-0.0061200005 0.085000008 0.71400005
-0.0047600004 0.085000008 0.71400005
-0.0033952384 0.084880956 0.71300006
-0.0020314287 0.084642865 0.71100003
-0.00067619054 0.084523812 0.71000004
0.00067428575 0.084285721 0.708
0.0020200002 0.084166676 0.70700002
0.0033571431 0.083928578 0.70500004
0.0047000004 0.083928578 0.70500004
0.0060428577 0.083928578 0.70500004
0.0073857149 0.083928578 0.70500004
0.0087285722 0.083928578 0.70500004
-0.073260002 0.083820008 0.69300002
-0.071940005 0.083820008 0.69300002
-0.070620008 0.083820008 0.69300002
-0.069300003 0.083820008 0.69300002
-0.068078101 0.08394096 0.69400001
-0.066852383 0.084061913 0.69500005
-0.065717146 0.084303819 0.69700003
-0.064389527 0.084303819 0.69700003
-0.063785717 0.085271433 0.70500004
-0.062708579 0.085634291 0.708
-0.061533336 0.085876197 0.71000004
-0.06026572 0.085997149 0.71100003
-0.059077147 0.086239055 0.71300006
-0.057800002 0.086360008 0.71400005
-0.056598101 0.086601913 0.71600002
-0.055311434 0.086722866 0.71700001
-0.054096196 0.086964771 0.71900004
-0.052800003 0.087085716 0.72000003
-0.051571433 0.087327622 0.72200006
-0.050265718 0.087448575 0.72300005
-0.049023814 0.08769048 0.72500002
-0.047642861 0.08769048 0.72500002
-0.046325717 0.087811433 0.72600001
-0.04494286 0.087811433 0.72600001
-0.043560002 0.087811433 0.72600001
-0.042177144 0.087811433 0.72600001
-0.040794287 0.087811433 0.72600001
-0.039411429 0.087811433 0.72600001
-0.038028575 0.087811433 0.72600001
-0.036645718 0.087811433 0.72600001
-0.03526286 0.087811433 0.72600001
-0.033880003 0.087811433 0.72600001
-0.032497145 0.087811433 0.72600001
-0.031114288 0.087811433 0.72600001
-0.02973143 0.087811433 0.72600001
-0.028348573 0.087811433 0.72600001
-0.027040001 0.088053338 0.72800004
-0.025582859 0.087811433 0.72600001
-0.024200002 0.087811433 0.72600001
-0.022817144 0.087811433 0.72600001
-0.021434287 0.087811433 0.72600001
-0.020023812 0.08769048 0.72500002
-0.018642858 0.08769048 0.72500002
-0.017214287 0.087448575 0.72300005
-0.015815239 0.087327622 0.72200006
-0.014400001 0.087085716 0.72000003
-0.013010477 0.086964771 0.71900004
-0.011640953 0.086964771 0.71900004
-0.010242858 0.086722866 0.71700001
-0.0088647623 0.086601913 0.71600002
-0.0074800006 0.086360008 0.71400005
-0.0061200005 0.086360008 0.71400005
-0.0047533335 0.086239055 0.71300006
-0.0033857145 0.085997149 0.71100003
-0.0020285717 0.085876197 0.71000004
-0.00067619054 0.085876197 0.71000004
0.00067428575 0.085634291 0.708
0.0020200002 0.085513338 0.70700002
0.0033571431 0.085271433 0.70500004
0.0047000004 0.085271433 0.70500004
0.0060428577 0.085271433 0.70500004
0.0073857149 0.085271433 0.70500004
-0.073365718 0.085262865 0.69400001
-0.071940005 0.085140005 0.69300002
-0.070721909 0.085262865 0.69400001
-0.069400005 0.085262865 0.69400001
-0.068176195 0.085385717 0.69500005
-0.066852383 0.085385717 0.69500005
-0.065717146 0.085631438 0.69700003
-0.064481907 0.08575429 0.69800001
-0.063604765 0.086368576 0.70300001
-0.062620007 0.086860009 0.70700002
-0.061360005 0.086982861 0.708
-0.060180955 0.087228574 0.71000004
-0.058911432 0.087351434 0.71100003
-0.057719052 0.087597147 0.71300006
-0.056440003 0.087720007 0.71400005
-0.055234291 0.087965719 0.71600002
-0.053945716 0.088088579 0.71700001
-0.052726671 0.088334292 0.71900004
-0.051428575 0.088457152 0.72000003
-0.050196193 0.088702865 0.72200006
-0.048820954 0.088702865 0.72200006
-0.047642861 0.089071438 0.72500002
-0.046261907 0.089071438 0.72500002
-0.044880956 0.089071438 0.72500002
-0.043500002 0.089071438 0.72500002
-0.042177144 0.08919429 0.72600001
-0.040738098 0.089071438 0.72500002
-0.039411429 0.08919429 0.72600001
-0.038028575 0.08919429 0.72600001
-0.036645718 0.08919429 0.72600001
-0.03526286 0.08919429 0.72600001
-0.033833336 0.089071438 0.72500002
-0.032452382 0.089071438 0.72500002
-0.031114288 0.08919429 0.72600001
-0.029690478 0.089071438 0.72500002
-0.028309526 0.089071438 0.72500002
-0.026965717 0.08919429 0.72600001
-0.025582859 0.08919429 0.72600001
-0.024200002 0.08919429 0.72600001
-0.022817144 0.08919429 0.72600001
-0.021404764 0.089071438 0.72500002
-0.020023812 0.089071438 0.72500002
-0.01859143 0.088825718 0.72300005
-0.017214287 0.088825718 0.72300005
-0.01577143 0.088457152 0.72000003
-0.014400001 0.088457152 0.72000003
-0.013010477 0.088334292 0.71900004
-0.011608572 0.088088579 0.71700001
-0.010228572 0.087965719 0.71600002
-0.0088400003 0.087720007 0.71400005
-0.0074800006 0.087720007 0.71400005
-0.0061114291 0.087597147 0.71300006
-0.0047533335 0.087597147 0.71300006
-0.0033857145 0.087351434 0.71100003
-0.0020285717 0.087228574 0.71000004
-0.00067619054 0.087228574 0.71000004
0.00067428575 0.086982861 0.708
0.0020200002 0.086860009 0.70700002
0.0033571431 0.086614288 0.70500004
0.0047000004 0.086614288 0.70500004
-0.072043814 0.086584769 0.69400001
-0.070823811 0.086709529 0.69500005
-0.069500007 0.086709529 0.69500005
-0.068176195 0.086709529 0.69500005
-0.066852383 0.086709529 0.69500005
-0.065717146 0.086959057 0.69700003
-0.064481907 0.087083817 0.69800001
-0.06333334 0.087333336 0.70000005
-0.062442861 0.087957151 0.70500004
-0.061360005 0.088331431 0.708
-0.060011432 0.088331431 0.708
-0.058828574 0.088580959 0.71000004
-0.057557147 0.088705719 0.71100003
-0.056440003 0.089080006 0.71400005
-0.055234291 0.089329533 0.71600002
-0.053870481 0.089329533 0.71600002
-0.052580003 0.089454293 0.71700001
-0.051357146 0.089703813 0.71900004
-0.049987622 0.089703813 0.71900004
-0.048820954 0.090078101 0.72200006
-0.047445718 0.090078101 0.72200006
-0.046134289 0.090202861 0.72300005
-0.044757146 0.090202861 0.72300005
-0.043500002 0.090452388 0.72500002
-0.042119049 0.090452388 0.72500002
-0.040738098 0.090452388 0.72500002
-0.039357144 0.090452388 0.72500002
-0.037976194 0.090452388 0.72500002
-0.03659524 0.090452388 0.72500002
-0.035214286 0.090452388 0.72500002
-0.033833336 0.090452388 0.72500002
-0.032452382 0.090452388 0.72500002
-0.03107143 0.090452388 0.72500002
-0.029690478 0.090452388 0.72500002
-0.028309526 0.090452388 0.72500002
-0.026928574 0.090452388 0.72500002
-0.02554762 0.090452388 0.72500002
-0.024166668 0.090452388 0.72500002
-0.022785716 0.090452388 0.72500002
-0.021345716 0.090202861 0.72300005
-0.019968573 0.090202861 0.72300005
-0.018565716 0.090078101 0.72200006
-0.017190477 0.090078101 0.72200006
-0.01577143 0.089828581 0.72000003
-0.014400001 0.089828581 0.72000003
-0.013010477 0.089703813 0.71900004
-0.011608572 0.089454293 0.71700001
-0.010228572 0.089329533 0.71600002
-0.0088400003 0.089080006 0.71400005
-0.0074695242 0.088955246 0.71300006
-0.0061114291 0.088955246 0.71300006
-0.0047400002 0.088705719 0.71100003
-0.0033809526 0.088580959 0.71000004
-0.0020285717 0.088580959 0.71000004
-0.00067428575 0.088331431 0.708
0.00067428575 0.088331431 0.708
0.0020200002 0.088206671 0.70700002
0.0033571431 0.087957151 0.70500004
0.0047000004 0.087957151 0.70500004
-0.072043814 0.087906674 0.69400001
-0.070823811 0.088033341 0.69500005
-0.069500007 0.088033341 0.69500005
-0.068176195 0.088033341 0.69500005
-0.067044765 0.088286676 0.69700003
-0.065717146 0.088286676 0.69700003
-0.064389527 0.088286676 0.69700003
-0.063152388 0.088413343 0.69800001
-0.062088575 0.088793337 0.70100003
-0.061100002 0.089300007 0.70500004
-0.060011432 0.089680009 0.708
-0.058828574 0.089933336 0.71000004
-0.057719052 0.090313338 0.71300006
-0.056440003 0.090440005 0.71400005
-0.055080004 0.090440005 0.71400005
-0.053870481 0.09069334 0.71600002
-0.05250667 0.09069334 0.71600002
-0.051214289 0.090820007 0.71700001
-0.049987622 0.091073342 0.71900004
-0.048618097 0.091073342 0.71900004
-0.04731429 0.091200009 0.72000003
-0.045942862 0.091200009 0.72000003
-0.04469524 0.091453336 0.72200006
-0.043320004 0.091453336 0.72200006
-0.04200286 0.091580003 0.72300005
-0.040625717 0.091580003 0.72300005
-0.039248575 0.091580003 0.72300005
-0.037871432 0.091580003 0.72300005
-0.036494289 0.091580003 0.72300005
-0.035214286 0.091833338 0.72500002
-0.033740003 0.091580003 0.72300005
-0.032452382 0.091833338 0.72500002
-0.03107143 0.091833338 0.72500002
-0.029608574 0.091580003 0.72300005
-0.028231431 0.091580003 0.72300005
-0.026928574 0.091833338 0.72500002
-0.02554762 0.091833338 0.72500002
-0.024166668 0.091833338 0.72500002
-0.022722859 0.091580003 0.72300005
-0.021316191 0.091453336 0.72200006
-0.019940954 0.091453336 0.72200006
-0.018565716 0.091453336 0.72200006
-0.017190477 0.091453336 0.72200006
-0.01577143 0.091200009 0.72000003
-0.014380001 0.091073342 0.71900004
-0.013010477 0.091073342 0.71900004
-0.011592382 0.09069334 0.71600002
-0.0102 0.090440005 0.71400005
-0.0088276193 0.090313338 0.71300006
-0.0074695242 0.090313338 0.71300006
-0.0060942862 0.090060003 0.71100003
-0.0047333338 0.089933336 0.71000004
-0.0033714287 0.089680009 0.708
-0.0020228573 0.089680009 0.708
-0.00067428575 0.089680009 0.708
0.00067428575 0.089680009 0.708
0.0020200002 0.089553341 0.70700002
0.0033666668 0.089553341 0.70700002
-0.070823811 0.089357145 0.69500005
-0.069500007 0.089357145 0.69500005
-0.068176195 0.089357145 0.69500005
-0.067044765 0.089614294 0.69700003
-0.065717146 0.089614294 0.69700003
-0.064481907 0.089742862 0.69800001
-0.063152388 0.089742862 0.69800001
-0.062000003 0.090000004 0.70000005
-0.060926672 0.09038572 0.70300001
-0.05992667 0.090900004 0.70700002
-0.058662862 0.091028579 0.708
-0.057476193 0.09128572 0.71000004
-0.056360956 0.091671437 0.71300006
-0.055080004 0.091800004 0.71400005
-0.053720005 0.091800004 0.71400005
-0.052360002 0.091800004 0.71400005
-0.051000003 0.091800004 0.71400005
-0.04977905 0.092057146 0.71600002
-0.04841524 0.092057146 0.71600002
-0.047051433 0.092057146 0.71600002
-0.04575143 0.092185721 0.71700001
-0.044509526 0.092442863 0.71900004
-0.043140002 0.092442863 0.71900004
-0.041828573 0.092571437 0.72000003
-0.040457144 0.092571437 0.72000003
-0.03919429 0.092828579 0.72200006
-0.037714288 0.092571437 0.72000003
-0.036443811 0.092828579 0.72200006
-0.034971431 0.092571437 0.72000003
-0.033693336 0.092828579 0.72200006
-0.032318097 0.092828579 0.72200006
-0.030942859 0.092828579 0.72200006
-0.029567622 0.092828579 0.72200006
-0.028192382 0.092828579 0.72200006
-0.026817145 0.092828579 0.72200006
-0.025441907 0.092828579 0.72200006
-0.024066668 0.092828579 0.72200006
-0.022691431 0.092828579 0.72200006
-0.021257143 0.092571437 0.72000003
-0.019885715 0.092571437 0.72000003
-0.018514287 0.092571437 0.72000003
-0.017119048 0.092442863 0.71900004
-0.015749525 0.092442863 0.71900004
-0.014340001 0.092185721 0.71700001
-0.012974286 0.092185721 0.71700001
-0.011592382 0.092057146 0.71600002
-0.010185715 0.091671437 0.71300006
-0.0088276193 0.091671437 0.71300006
-0.0074485717 0.091414295 0.71100003
-0.0060942862 0.091414295 0.71100003
-0.0047333338 0.09128572 0.71000004
-0.0033714287 0.091028579 0.708
-0.0020228573 0.091028579 0.708
-0.00067428575 0.091028579 0.708
0.00067333336 0.090900004 0.70700002
0.0020200002 0.090900004 0.70700002
-0.071027622 0.090941913 0.69700003
-0.069700003 0.090941913 0.69700003
-0.068372384 0.090941913 0.69700003
-0.067140959 0.091072388 0.69800001
-0.065811433 0.091072388 0.69800001
-0.064481907 0.091072388 0.69800001
-0.063152388 0.091072388 0.69800001
-0.062000003 0.091333337 0.70000005
-0.060926672 0.091724768 0.70300001
-0.059757147 0.091985717 0.70500004
-0.058580004 0.092246674 0.70700002
-0.057314288 0.092377149 0.708
-0.056202862 0.09276858 0.71100003
-0.055002861 0.093029529 0.71300006
-0.053644765 0.093029529 0.71300006
-0.05228667 0.093029529 0.71300006
-0.051000003 0.093160003 0.71400005
-0.049640004 0.093160003 0.71400005
-0.048280004 0.093160003 0.71400005
-0.047051433 0.09342096 0.71600002
-0.045687623 0.09342096 0.71600002
-0.044323813 0.09342096 0.71600002
-0.043020003 0.093551435 0.71700001
-0.041770481 0.093812384 0.71900004
-0.040400956 0.093812384 0.71900004
-0.039085716 0.093942866 0.72000003
-0.037714288 0.093942866 0.72000003
-0.036342859 0.093942866 0.72000003
-0.034971431 0.093942866 0.72000003
-0.033600003 0.093942866 0.72000003
-0.032228574 0.093942866 0.72000003
-0.030857146 0.093942866 0.72000003
-0.029485716 0.093942866 0.72000003
-0.028114287 0.093942866 0.72000003
-0.026742859 0.093942866 0.72000003
-0.02537143 0.093942866 0.72000003
-0.024000002 0.093942866 0.72000003
-0.022628574 0.093942866 0.72000003
-0.021257143 0.093942866 0.72000003
-0.019858096 0.093812384 0.71900004
-0.018488573 0.093812384 0.71900004
-0.017119048 0.093812384 0.71900004
-0.015749525 0.093812384 0.71900004
-0.014340001 0.093551435 0.71700001
-0.012956192 0.09342096 0.71600002
-0.01156 0.093160003 0.71400005
-0.010185715 0.093029529 0.71300006
-0.0088028582 0.09276858 0.71100003
-0.0074485717 0.09276858 0.71100003
-0.0060942862 0.09276858 0.71100003
-0.0047333338 0.092638098 0.71000004
-0.0033714287 0.092377149 0.708
-0.0020285717 0.092638098 0.71000004
-0.00067619054 0.092638098 0.71000004
-0.071027622 0.092269532 0.69700003
-0.069700003 0.092269532 0.69700003
-0.068372384 0.092269532 0.69700003
-0.067140959 0.092401914 0.69800001
-0.065811433 0.092401914 0.69800001
-0.064481907 0.092401914 0.69800001
-0.063152388 0.092401914 0.69800001
-0.062000003 0.092666671 0.70000005
-0.060753338 0.092799053 0.70100003
-0.059587624 0.093063816 0.70300001
-0.058414288 0.09332858 0.70500004
-0.057233337 0.093593337 0.70700002
-0.056123812 0.093990482 0.71000004
-0.054848574 0.094122864 0.71100003
-0.05349429 0.094122864 0.71100003
-0.052140005 0.094122864 0.71100003
-0.050928574 0.094387628 0.71300006
-0.049640004 0.094520003 0.71400005
-0.048280004 0.094520003 0.71400005
-0.046920002 0.094520003 0.71400005
-0.045560002 0.094520003 0.71400005
-0.044323813 0.094784766 0.71600002
-0.042960003 0.094784766 0.71600002
-0.041654289 0.094917148 0.71700001
-0.040288575 0.094917148 0.71700001
-0.039031431 0.095181912 0.71900004
-0.037661906 0.095181912 0.71900004
-0.036292382 0.095181912 0.71900004
-0.034922861 0.095181912 0.71900004
-0.033600003 0.095314294 0.72000003
-0.032228574 0.095314294 0.72000003
-0.030857146 0.095314294 0.72000003
-0.029485716 0.095314294 0.72000003
-0.028114287 0.095314294 0.72000003
-0.026705716 0.095181912 0.71900004
-0.025336193 0.095181912 0.71900004
-0.024000002 0.095314294 0.72000003
-0.022597143 0.095181912 0.71900004
-0.021227621 0.095181912 0.71900004
-0.019858096 0.095181912 0.71900004
-0.018437143 0.094917148 0.71700001
-0.01707143 0.094917148 0.71700001
-0.015683811 0.094784766 0.71600002
-0.014320001 0.094784766 0.71600002
-0.012920001 0.094520003 0.71400005
-0.01156 0.094520003 0.71400005
-0.010185715 0.094387628 0.71300006
-0.0088276193 0.094387628 0.71300006
-0.0074695242 0.094387628 0.71300006
-0.0060942862 0.094122864 0.71100003
-0.0047333338 0.093990482 0.71000004
-0.0033809526 0.093990482 0.71000004
-0.0020400002 0.094520003 0.71400005
-0.069700003 0.093597151 0.69700003
-0.068470478 0.093731433 0.69800001
-0.067140959 0.093731433 0.69800001
-0.065811433 0.093731433 0.69800001
-0.064481907 0.093731433 0.69800001
-0.063152388 0.093731433 0.69800001
-0.062000003 0.094000004 0.70000005
-0.060753338 0.094134293 0.70100003
-0.059587624 0.094402865 0.70300001
-0.058414288 0.094671436 0.70500004
-0.057233337 0.094940007 0.70700002
-0.055965718 0.095074289 0.708
-0.054617148 0.095074289 0.708
-0.05341905 0.095342867 0.71000004
-0.052140005 0.095477149 0.71100003
-0.050928574 0.09574572 0.71300006
-0.049570478 0.09574572 0.71300006
-0.048212383 0.09574572 0.71300006
-0.046854287 0.09574572 0.71300006
-0.045560002 0.095880009 0.71400005
-0.044200003 0.095880009 0.71400005
-0.042840004 0.095880009 0.71400005
-0.041596193 0.09614858 0.71600002
-0.040232383 0.09614858 0.71600002
-0.038922861 0.096282862 0.71700001
-0.037661906 0.096551433 0.71900004
-0.036292382 0.096551433 0.71900004
-0.034922861 0.096551433 0.71900004
-0.033553336 0.096551433 0.71900004
-0.032183811 0.096551433 0.71900004
-0.030857146 0.096685722 0.72000003
-0.029444763 0.096551433 0.71900004
-0.028075241 0.096551433 0.71900004
-0.026705716 0.096551433 0.71900004
-0.025336193 0.096551433 0.71900004
-0.023966668 0.096551433 0.71900004
-0.022597143 0.096551433 0.71900004
-0.021168573 0.096282862 0.71700001
-0.019802859 0.096282862 0.71700001
-0.01841143 0.09614858 0.71600002
-0.017047619 0.09614858 0.71600002
-0.015640002 0.095880009 0.71400005
-0.014280001 0.095880009 0.71400005
-0.012920001 0.095880009 0.71400005
-0.01154381 0.09574572 0.71300006
-0.010157144 0.095477149 0.71100003
-0.0088028582 0.095477149 0.71100003
-0.0074485717 0.095477149 0.71100003
-0.0060942862 0.095477149 0.71100003
