# .PCD v0.7 - Point Cloud Data file format
VERSION 0.7
FIELDS x y z
SIZE 4 4 4
TYPE F F F
COUNT 1 1 1
WIDTH 1322
HEIGHT 1
VIEWPOINT 0 0 0 1 0 0 0
POINTS 1322
DATA ascii
-0.0092485724 -0.0021342859 0.74700004
-0.0078257145 -0.0021342859 0.74700004
-0.0064028576 -0.0021342859 0.74700004
-0.0049800002 -0.0021342859 0.74700004
-0.0035619049 -0.0021371429 0.74800003
-0.0021371429 -0.0021371429 0.74800003
-0.00071238098 -0.0021371429 0.74800003
0.00071238098 -0.0021371429 0.74800003
0.0021371429 -0.0021371429 0.74800003
0.0035619049 -0.0021371429 0.74800003
0.0049866671 -0.0021371429 0.74800003
0.006411429 -0.0021371429 0.74800003
0.0078571429 -0.0021428573 0.75000006
0.0092857145 -0.0021428573 0.75000006
0.010742858 -0.0021485717 0.75200003
0.01219143 -0.0021514287 0.75300002
0.013625715 -0.0021514287 0.75300002
0.015060001 -0.0021514287 0.75300002
0.016538097 -0.0021571431 0.75500005
0.017976191 -0.0021571431 0.75500005
0.019414287 -0.0021571431 0.75500005
0.020880001 -0.0021600001 0.75600004
0.022379048 -0.0021657145 0.75800002
0.023980001 -0.0021800001 0.76300001
0.025500001 -0.0021857144 0.76500005
0.02702762 -0.0021914288 0.76700002
0.028525716 -0.0021942859 0.76800001
0.029988574 -0.0021942859 0.76800001
0.03145143 -0.0021942859 0.76800001
-0.047852386 -0.00073619053 0.77300006
-0.046380002 -0.00073619053 0.77300006
-0.044849526 -0.00073523814 0.77200001
-0.043266669 -0.00073333341 0.77000004
-0.04169143 -0.00073142862 0.76800001
-0.040176194 -0.00073047623 0.76700002
-0.038614288 -0.0007285715 0.76500005
-0.037060004 -0.00072666671 0.76300001
-0.035466667 -0.00072380959 0.76000005
-0.033929527 -0.0007219048 0.75800002
-0.032485716 -0.0007219048 0.75800002
-0.030960003 -0.00072000007 0.75600004
-0.029480955 -0.00071904768 0.75500005
-0.028042858 -0.00071904768 0.75500005
-0.026534287 -0.00071714289 0.75300002
-0.025066668 -0.00071619055 0.75200003
-0.023634287 -0.00071619055 0.75200003
-0.022142859 -0.00071428576 0.75000006
-0.020714287 -0.00071428576 0.75000006
-0.019285716 -0.00071428576 0.75000006
-0.017857144 -0.00071428576 0.75000006
-0.016428573 -0.00071428576 0.75000006
-0.014960001 -0.00071238098 0.74800003
-0.013535239 -0.00071238098 0.74800003
-0.012094286 -0.00071142864 0.74700004
-0.010671429 -0.00071142864 0.74700004
-0.0092485724 -0.00071142864 0.74700004
-0.0078047626 -0.00070952385 0.74500006
-0.0063857147 -0.00070952385 0.74500006
-0.0049666669 -0.00070952385 0.74500006
-0.0035476193 -0.00070952385 0.74500006
-0.0021342859 -0.00071142864 0.74700004
-0.00071142864 -0.00071142864 0.74700004
0.00071142864 -0.00071142864 0.74700004
0.0021342859 -0.00071142864 0.74700004
0.003557143 -0.00071142864 0.74700004
0.0049800002 -0.00071142864 0.74700004
0.0064028576 -0.00071142864 0.74700004
0.007836191 -0.00071238098 0.74800003
0.0092609534 -0.00071238098 0.74800003
0.010714286 -0.00071428576 0.75000006
0.012175239 -0.00071619055 0.75200003
0.01360762 -0.00071619055 0.75200003
0.015040001 -0.00071619055 0.75200003
0.016494287 -0.00071714289 0.75300002
0.017976191 -0.00071904768 0.75500005
0.019414287 -0.00071904768 0.75500005
0.020852383 -0.00071904768 0.75500005
0.022320002 -0.00072000007 0.75600004
0.023917144 -0.00072476198 0.76100004
0.025500001 -0.0007285715 0.76500005
0.02702762 -0.00073047623 0.76700002
0.028525716 -0.00073142862 0.76800001
0.029988574 -0.00073142862 0.76800001
0.03145143 -0.00073142862 0.76800001
0.033000004 -0.00073333341 0.77000004
-0.047852386 0.00073619053 0.77300006
-0.046320003 0.00073523814 0.77200001
-0.044849526 0.00073523814 0.77200001
-0.043266669 0.00073333341 0.77000004
-0.04169143 0.00073142862 0.76800001
-0.040176194 0.00073047623 0.76700002
-0.038513336 0.00072666671 0.76300001
-0.036914289 0.00072380959 0.76000005
-0.035373334 0.0007219048 0.75800002
-0.033929527 0.0007219048 0.75800002
-0.032400001 0.00072000007 0.75600004
-0.030919049 0.00071904768 0.75500005
-0.02940286 0.00071714289 0.75300002
-0.027968572 0.00071714289 0.75300002
-0.02649905 0.00071619055 0.75200003
-0.025000002 0.00071428576 0.75000006
-0.02357143 0.00071428576 0.75000006
-0.022142859 0.00071428576 0.75000006
-0.020659048 0.00071238098 0.74800003
-0.019234287 0.00071238098 0.74800003
-0.017809525 0.00071238098 0.74800003
-0.016384764 0.00071238098 0.74800003
-0.014940001 0.00071142864 0.74700004
-0.013517144 0.00071142864 0.74700004
-0.012061905 0.00070952385 0.74500006
-0.010642858 0.00070952385 0.74500006
-0.0092238104 0.00070952385 0.74500006
-0.0077838101 0.00070761907 0.74300003
-0.0063685719 0.00070761907 0.74300003
-0.0049533336 0.00070761907 0.74300003
-0.0035476193 0.00070952385 0.74500006
-0.0021285715 0.00070952385 0.74500006
-0.00070952385 0.00070952385 0.74500006
0.00070952385 0.00070952385 0.74500006
0.0021285715 0.00070952385 0.74500006
0.003557143 0.00071142864 0.74700004
0.0049666669 0.00070952385 0.74500006
0.0063857147 0.00070952385 0.74500006
0.0078257145 0.00071142864 0.74700004
0.0092609534 0.00071238098 0.74800003
0.010685715 0.00071238098 0.74800003
0.012142858 0.00071428576 0.75000006
0.013571429 0.00071428576 0.75000006
0.015040001 0.00071619055 0.75200003
0.016472382 0.00071619055 0.75200003
0.017928572 0.00071714289 0.75300002
0.019414287 0.00071904768 0.75500005
0.020852383 0.00071904768 0.75500005
0.022320002 0.00072000007 0.75600004
0.023917144 0.00072476198 0.76100004
0.025500001 0.0007285715 0.76500005
0.02702762 0.00073047623 0.76700002
0.028525716 0.00073142862 0.76800001
0.029988574 0.00073142862 0.76800001
0.03145143 0.00073142862 0.76800001
0.033000004 0.00073333341 0.77000004
-0.047852386 0.0022085716 0.77300006
-0.046320003 0.0022057144 0.77200001
-0.044849526 0.0022057144 0.77200001
-0.043266669 0.0022000002 0.77000004
-0.041637145 0.0021914288 0.76700002
-0.040071432 0.0021857144 0.76500005
-0.038513336 0.0021800001 0.76300001
-0.036914289 0.0021714286 0.76000005
-0.035373334 0.0021657145 0.75800002
-0.033840001 0.0021600001 0.75600004
-0.032357145 0.0021571431 0.75500005
-0.030837145 0.0021514287 0.75300002
-0.02940286 0.0021514287 0.75300002
-0.027931431 0.0021485717 0.75200003
-0.026428573 0.0021428573 0.75000006
-0.025000002 0.0021428573 0.75000006
-0.02357143 0.0021428573 0.75000006
-0.022083811 0.0021371429 0.74800003
-0.020659048 0.0021371429 0.74800003
-0.019208573 0.0021342859 0.74700004
-0.017785715 0.0021342859 0.74700004
-0.01631905 0.0021285715 0.74500006
-0.014900001 0.0021285715 0.74500006
-0.013444763 0.0021228574 0.74300003
-0.012029525 0.0021228574 0.74300003
-0.010614286 0.0021228574 0.74300003
-0.0091990484 0.0021228574 0.74300003
-0.0077838101 0.0021228574 0.74300003
-0.0063685719 0.0021228574 0.74300003
-0.0049533336 0.0021228574 0.74300003
-0.0035380954 0.0021228574 0.74300003
-0.0021228574 0.0021228574 0.74300003
-0.00070761907 0.0021228574 0.74300003
0.00070952385 0.0021285715 0.74500006
0.0021285715 0.0021285715 0.74500006
0.0035476193 0.0021285715 0.74500006
0.0049533336 0.0021228574 0.74300003
0.0063857147 0.0021285715 0.74500006
0.0078047626 0.0021285715 0.74500006
0.0092485724 0.0021342859 0.74700004
0.010671429 0.0021342859 0.74700004
0.012110477 0.0021371429 0.74800003
0.013535239 0.0021371429 0.74800003
0.015000001 0.0021428573 0.75000006
0.016472382 0.0021485717 0.75200003
0.017904762 0.0021485717 0.75200003
0.019362858 0.0021514287 0.75300002
0.020797145 0.0021514287 0.75300002
0.022320002 0.0021600001 0.75600004
0.023917144 0.0021742859 0.76100004
0.025433335 0.0021800001 0.76300001
0.02702762 0.0021914288 0.76700002
0.028525716 0.0021942859 0.76800001
0.029988574 0.0021942859 0.76800001
0.031533334 0.0022000002 0.77000004
0.033000004 0.0022000002 0.77000004
-0.048100002 0.0037000002 0.77700001
-0.046320003 0.0036761907 0.77200001
-0.044849526 0.0036761907 0.77200001
-0.043266669 0.0036666668 0.77000004
-0.041637145 0.0036523812 0.76700002
-0.040071432 0.0036428573 0.76500005
-0.038412385 0.0036238097 0.76100004
-0.036817145 0.0036095241 0.75800002
-0.035280004 0.0036000002 0.75600004
-0.033795241 0.0035952383 0.75500005
-0.03227143 0.0035857146 0.75300002
-0.030796193 0.0035809525 0.75200003
-0.029363811 0.0035809525 0.75200003
-0.027857145 0.0035714288 0.75000006
-0.026358098 0.0035619049 0.74800003
-0.024933334 0.0035619049 0.74800003
-0.023508573 0.0035619049 0.74800003
-0.022054287 0.003557143 0.74700004
-0.020576192 0.0035476193 0.74500006
-0.019157143 0.0035476193 0.74500006
-0.017738096 0.0035476193 0.74500006
-0.016275238 0.0035380954 0.74300003
-0.014860001 0.0035380954 0.74300003
-0.013426668 0.0035333335 0.74200004
-0.012013334 0.0035333335 0.74200004
-0.01057143 0.0035238098 0.74000001
-0.0091866674 0.0035333335 0.74200004
-0.0077733337 0.0035333335 0.74200004
-0.0063600005 0.0035333335 0.74200004
-0.0049466668 0.0035333335 0.74200004
-0.0035333335 0.0035333335 0.74200004
-0.0021228574 0.0035380954 0.74300003
-0.00070761907 0.0035380954 0.74300003
0.00070761907 0.0035380954 0.74300003
0.0021228574 0.0035380954 0.74300003
0.0035380954 0.0035380954 0.74300003
0.0049533336 0.0035380954 0.74300003
0.0063685719 0.0035380954 0.74300003
0.0077838101 0.0035380954 0.74300003
0.0092238104 0.0035476193 0.74500006
0.010642858 0.0035476193 0.74500006
0.012094286 0.003557143 0.74700004
0.013535239 0.0035619049 0.74800003
0.014960001 0.0035619049 0.74800003
0.016428573 0.0035714288 0.75000006
0.017904762 0.0035809525 0.75200003
0.019362858 0.0035857146 0.75300002
0.020797145 0.0035857146 0.75300002
0.022379048 0.0036095241 0.75800002
0.023885716 0.0036190478 0.76000005
0.025433335 0.0036333336 0.76300001
0.02702762 0.0036523812 0.76700002
0.028600002 0.0036666668 0.77000004
0.030066669 0.0036666668 0.77000004
0.031533334 0.0036666668 0.77000004
0.033085715 0.0036761907 0.77200001
0.043180004 0.0042333337 0.88900006
-0.047852386 0.0051533338 0.77300006
-0.046320003 0.0051466669 0.77200001
-0.044849526 0.0051466669 0.77200001
-0.043154288 0.0051200003 0.76800001
-0.041637145 0.0051133335 0.76700002
-0.040071432 0.0051000002 0.76500005
-0.038412385 0.0050733336 0.76100004
-0.036817145 0.0050533335 0.75800002
-0.035233337 0.0050333338 0.75500005
-0.033705715 0.0050200005 0.75300002
-0.032228574 0.0050133336 0.75200003
-0.030714288 0.0050000004 0.75000006
-0.029285716 0.0050000004 0.75000006
-0.027782859 0.0049866671 0.74800003
-0.026322858 0.0049800002 0.74700004
-0.024900002 0.0049800002 0.74700004
-0.023414288 0.0049666669 0.74500006
-0.021995239 0.0049666669 0.74500006
-0.020520953 0.0049533336 0.74300003
-0.019105716 0.0049533336 0.74300003
-0.017690478 0.0049533336 0.74300003
-0.016253334 0.0049466668 0.74200004
-0.014840001 0.0049466668 0.74200004
-0.013390477 0.0049333335 0.74000001
-0.011980954 0.0049333335 0.74000001
-0.010557144 0.0049266671 0.73900002
-0.0091619054 0.0049333335 0.74000001
-0.0077523813 0.0049333335 0.74000001
-0.0063428576 0.0049333335 0.74000001
-0.0049333335 0.0049333335 0.74000001
-0.0035238098 0.0049333335 0.74000001
-0.0021200001 0.0049466668 0.74200004
-0.00070666673 0.0049466668 0.74200004
0.00070666673 0.0049466668 0.74200004
0.0021200001 0.0049466668 0.74200004
0.0035380954 0.0049533336 0.74300003
0.0049466668 0.0049466668 0.74200004
0.0063600005 0.0049466668 0.74200004
0.0077838101 0.0049533336 0.74300003
0.0091990484 0.0049533336 0.74300003
0.010642858 0.0049666669 0.74500006
0.012094286 0.0049800002 0.74700004
0.013517144 0.0049800002 0.74700004
0.014960001 0.0049866671 0.74800003
0.016384764 0.0049866671 0.74800003
0.017857144 0.0050000004 0.75000006
0.019337144 0.0050133336 0.75200003
0.020769525 0.0050133336 0.75200003
0.022320002 0.0050400002 0.75600004
0.023822859 0.0050533335 0.75800002
0.025366668 0.0050733336 0.76100004
0.02702762 0.0051133335 0.76700002
0.028525716 0.0051200003 0.76800001
0.030066669 0.0051333336 0.77000004
0.031533334 0.0051333336 0.77000004
-0.049580004 0.0066600004 0.77700001
-0.047852386 0.0066257147 0.77300006
-0.046320003 0.0066171433 0.77200001
-0.044733338 0.0066000004 0.77000004
-0.043154288 0.0065828576 0.76800001
-0.041528575 0.0065571433 0.76500005
-0.039966669 0.0065400004 0.76300001
-0.038412385 0.0065228576 0.76100004
-0.036720004 0.0064800004 0.75600004
-0.035140004 0.0064542862 0.75300002
-0.033660956 0.0064457147 0.75200003
-0.032142859 0.0064285719 0.75000006
-0.030714288 0.0064285719 0.75000006
-0.029207621 0.006411429 0.74800003
-0.027745716 0.0064028576 0.74700004
-0.026252383 0.0063857147 0.74500006
-0.024833335 0.0063857147 0.74500006
-0.023414288 0.0063857147 0.74500006
-0.021995239 0.0063857147 0.74500006
-0.020520953 0.0063685719 0.74300003
-0.019105716 0.0063685719 0.74300003
-0.017690478 0.0063685719 0.74300003
-0.016253334 0.0063600005 0.74200004
-0.014800001 0.0063428576 0.74000001
-0.013372382 0.0063342862 0.73900002
-0.011964763 0.0063342862 0.73900002
-0.010557144 0.0063342862 0.73900002
-0.0091495244 0.0063342862 0.73900002
-0.0077419053 0.0063342862 0.73900002
-0.0063342862 0.0063342862 0.73900002
-0.0049266671 0.0063342862 0.73900002
-0.0035190478 0.0063342862 0.73900002
-0.0021114287 0.0063342862 0.73900002
-0.00070476194 0.0063428576 0.74000001
0.00070476194 0.0063428576 0.74000001
0.0021142859 0.0063428576 0.74000001
0.0035333335 0.0063600005 0.74200004
0.0049466668 0.0063600005 0.74200004
0.0063600005 0.0063600005 0.74200004
0.0077733337 0.0063600005 0.74200004
0.0091990484 0.0063685719 0.74300003
0.010614286 0.0063685719 0.74300003
0.012061905 0.0063857147 0.74500006
0.013480953 0.0063857147 0.74500006
0.014940001 0.0064028576 0.74700004
0.016384764 0.006411429 0.74800003
0.017857144 0.0064285719 0.75000006
0.019285716 0.0064285719 0.75000006
0.020769525 0.0064457147 0.75200003
0.022320002 0.0064800004 0.75600004
0.023822859 0.0064971433 0.75800002
0.025333336 0.0065142862 0.76000005
0.026957145 0.0065571433 0.76500005
0.028525716 0.0065828576 0.76800001
0.029988574 0.0065828576 0.76800001
0.031533334 0.0066000004 0.77000004
0.033085715 0.0066171433 0.77200001
-0.049580004 0.0081400005 0.77700001
-0.047790479 0.0080876192 0.77200001
-0.046200003 0.0080666672 0.77000004
-0.044617146 0.0080457143 0.76800001
-0.0430981 0.0080352388 0.76700002
-0.041528575 0.0080142859 0.76500005
-0.039861906 0.0079723811 0.76100004
-0.038160004 0.0079200007 0.75600004
-0.03667143 0.0079095243 0.75500005
-0.035093337 0.0078780958 0.75200003
-0.03357143 0.0078571429 0.75000006
-0.032057144 0.007836191 0.74800003
-0.03059143 0.0078257145 0.74700004
-0.029168574 0.0078257145 0.74700004
-0.027597144 0.0077838101 0.74300003
-0.026181906 0.0077838101 0.74300003
-0.024766669 0.0077838101 0.74300003
-0.023320001 0.0077733337 0.74200004
-0.021847621 0.0077523813 0.74000001
-0.020438097 0.0077523813 0.74000001
-0.019028572 0.0077523813 0.74000001
-0.017619049 0.0077523813 0.74000001
-0.016187619 0.0077419053 0.73900002
-0.014740001 0.0077209529 0.73700005
-0.013336191 0.0077209529 0.73700005
-0.011932381 0.0077209529 0.73700005
-0.010528572 0.0077209529 0.73700005
-0.0091247624 0.0077209529 0.73700005
-0.0077104769 0.0077104769 0.73600006
-0.0063171433 0.0077209529 0.73700005
-0.0049133338 0.0077209529 0.73700005
-0.003509524 0.0077209529 0.73700005
-0.0021057145 0.0077209529 0.73700005
-0.00070190482 0.0077209529 0.73700005
0.00070380955 0.0077419053 0.73900002
0.0021114287 0.0077419053 0.73900002
0.0035190478 0.0077419053 0.73900002
0.0049266671 0.0077419053 0.73900002
0.0063428576 0.0077523813 0.74000001
0.0077523813 0.0077523813 0.74000001
0.0091866674 0.0077733337 0.74200004
0.010600001 0.0077733337 0.74200004
0.012029525 0.0077838101 0.74300003
0.013444763 0.0077838101 0.74300003
0.014860001 0.0077838101 0.74300003
0.016362859 0.0078257145 0.74700004
0.017809525 0.007836191 0.74800003
0.019285716 0.0078571429 0.75000006
0.020769525 0.0078780958 0.75200003
0.02223143 0.0078885723 0.75300002
0.023760002 0.0079200007 0.75600004
0.025266668 0.0079409527 0.75800002
0.026886668 0.007993334 0.76300001
0.028488573 0.0080352388 0.76700002
0.029988574 0.0080457143 0.76800001
0.031533334 0.0080666672 0.77000004
0.033085715 0.0080876192 0.77200001
-0.049580004 0.0096200006 0.77700001
-0.047790479 0.0095580956 0.77200001
-0.046200003 0.0095333336 0.77000004
-0.044733338 0.0095333336 0.77000004
-0.0430981 0.0094961915 0.76700002
-0.041420002 0.0094466675 0.76300001
-0.039809525 0.0094095245 0.76000005
-0.038160004 0.0093600005 0.75600004
-0.036574289 0.0093228575 0.75300002
-0.035093337 0.0093104765 0.75200003
-0.033481907 0.0092609534 0.74800003
-0.032014288 0.0092485724 0.74700004
-0.030509526 0.0092238104 0.74500006
-0.029090479 0.0092238104 0.74500006
-0.027597144 0.0091990484 0.74300003
-0.026181906 0.0091990484 0.74300003
-0.024733335 0.0091866674 0.74200004
-0.023257144 0.0091619054 0.74000001
-0.021847621 0.0091619054 0.74000001
-0.020410478 0.0091495244 0.73900002
-0.019002859 0.0091495244 0.73900002
-0.017595239 0.0091495244 0.73900002
-0.01614381 0.0091247624 0.73700005
-0.014720001 0.0091123814 0.73600006
-0.013318096 0.0091123814 0.73600006
-0.011916191 0.0091123814 0.73600006
-0.010514286 0.0091123814 0.73600006
-0.0091123814 0.0091123814 0.73600006
-0.0077104769 0.0091123814 0.73600006
-0.0063085719 0.0091123814 0.73600006
-0.0049066669 0.0091123814 0.73600006
-0.0035047622 0.0091123814 0.73600006
-0.0021028572 0.0091123814 0.73600006
-0.00070095243 0.0091123814 0.73600006
0.00070190482 0.0091247624 0.73700005
0.0021057145 0.0091247624 0.73700005
0.003509524 0.0091247624 0.73700005
0.0049133338 0.0091247624 0.73700005
0.0063342862 0.0091495244 0.73900002
0.0077523813 0.0091619054 0.74000001
0.0091619054 0.0091619054 0.74000001
0.010600001 0.0091866674 0.74200004
0.012013334 0.0091866674 0.74200004
0.013426668 0.0091866674 0.74200004
0.014860001 0.0091990484 0.74300003
0.01631905 0.0092238104 0.74500006
0.017785715 0.0092485724 0.74700004
0.019234287 0.0092609534 0.74800003
0.020769525 0.0093104765 0.75200003
0.02223143 0.0093228575 0.75300002
0.023728574 0.0093476195 0.75500005
0.025200002 0.0093600005 0.75600004
0.026816193 0.0094219055 0.76100004
0.028488573 0.0094961915 0.76700002
0.030066669 0.0095333336 0.77000004
0.031615239 0.0095580956 0.77200001
0.033128574 0.0095704766 0.77300006
-0.05664286 0.011328572 0.79300004
-0.053013336 0.011200001 0.78400004
-0.051520005 0.011200001 0.78400004
-0.049580004 0.011100001 0.77700001
-0.047790479 0.011028572 0.77200001
-0.046080004 0.010971429 0.76800001
-0.044617146 0.010971429 0.76800001
-0.0430981 0.010957143 0.76700002
-0.041420002 0.010900001 0.76300001
-0.039809525 0.010857143 0.76000005
-0.038109526 0.010785715 0.75500005
-0.036525715 0.010742858 0.75200003
-0.035000004 0.010714286 0.75000006
-0.033437144 0.010671429 0.74700004
-0.032014288 0.010671429 0.74700004
-0.030509526 0.010642858 0.74500006
-0.029090479 0.010642858 0.74500006
-0.027597144 0.010614286 0.74300003
-0.026146669 0.010600001 0.74200004
-0.024666669 0.01057143 0.74000001
-0.023257144 0.01057143 0.74000001
-0.021818096 0.010557144 0.73900002
-0.02035524 0.010528572 0.73700005
-0.018951429 0.010528572 0.73700005
-0.01754762 0.010528572 0.73700005
-0.016121905 0.010514286 0.73600006
-0.014680001 0.010485715 0.73400003
-0.013281906 0.010485715 0.73400003
-0.01188381 0.010485715 0.73400003
-0.010485715 0.010485715 0.73400003
-0.0090876194 0.010485715 0.73400003
-0.0076895244 0.010485715 0.73400003
-0.006291429 0.010485715 0.73400003
-0.0048933337 0.010485715 0.73400003
-0.0034952383 0.010485715 0.73400003
-0.0020971431 0.010485715 0.73400003
-0.00069904764 0.010485715 0.73400003
0.00070095243 0.010514286 0.73600006
0.0021028572 0.010514286 0.73600006
0.003509524 0.010528572 0.73700005
0.0049066669 0.010514286 0.73600006
0.0063171433 0.010528572 0.73700005
0.0077419053 0.010557144 0.73900002
0.0091495244 0.010557144 0.73900002
0.01057143 0.01057143 0.74000001
0.011980954 0.01057143 0.74000001
0.013390477 0.01057143 0.74000001
0.014840001 0.010600001 0.74200004
0.016275238 0.010614286 0.74300003
0.017738096 0.010642858 0.74500006
0.019234287 0.010685715 0.74800003
0.020769525 0.010742858 0.75200003
0.02223143 0.010757144 0.75300002
0.023728574 0.010785715 0.75500005
0.025200002 0.0108 0.75600004
0.026780954 0.010857143 0.76000005
0.028414287 0.010928572 0.76500005
0.029988574 0.010971429 0.76800001
0.031615239 0.011028572 0.77200001
0.033128574 0.011042858 0.77300006
0.034690477 0.01107143 0.77500004
-0.05664286 0.012839048 0.79300004
-0.055132385 0.012839048 0.79300004
-0.053013336 0.012693334 0.78400004
-0.051191431 0.012612382 0.77900004
-0.049452383 0.01254762 0.77500004
-0.047790479 0.012499048 0.77200001
-0.046080004 0.012434287 0.76800001
-0.044617146 0.012434287 0.76800001
-0.0430981 0.012418096 0.76700002
-0.041420002 0.012353335 0.76300001
-0.039809525 0.012304762 0.76000005
-0.038008574 0.01219143 0.75300002
-0.036428574 0.012142858 0.75000006
-0.03490667 0.012110477 0.74800003
-0.033347622 0.012061905 0.74500006
-0.031928573 0.012061905 0.74500006
-0.030509526 0.012061905 0.74500006
-0.029012382 0.012029525 0.74300003
-0.027560001 0.012013334 0.74200004
-0.026146669 0.012013334 0.74200004
-0.024666669 0.011980954 0.74000001
-0.023225715 0.011964763 0.73900002
-0.02175905 0.011932381 0.73700005
-0.02035524 0.011932381 0.73700005
-0.018925715 0.011916191 0.73600006
-0.01752381 0.011916191 0.73600006
-0.016078096 0.01188381 0.73400003
-0.014640001 0.011851429 0.73200005
-0.013245715 0.011851429 0.73200005
-0.011851429 0.011851429 0.73200005
-0.010457143 0.011851429 0.73200005
-0.0090628574 0.011851429 0.73200005
-0.007668572 0.011851429 0.73200005
-0.0062742862 0.011851429 0.73200005
-0.0048800004 0.011851429 0.73200005
-0.0034857146 0.011851429 0.73200005
-0.0020914287 0.011851429 0.73200005
-0.00069904764 0.01188381 0.73400003
0.00069904764 0.01188381 0.73400003
0.0020971431 0.01188381 0.73400003
0.0035047622 0.011916191 0.73600006
0.0049066669 0.011916191 0.73600006
0.0063085719 0.011916191 0.73600006
0.0077209529 0.011932381 0.73700005
0.0091495244 0.011964763 0.73900002
0.010557144 0.011964763 0.73900002
0.011964763 0.011964763 0.73900002
0.013372382 0.011964763 0.73900002
0.014800001 0.011980954 0.74000001
0.016253334 0.012013334 0.74200004
0.017785715 0.012094286 0.74700004
0.019234287 0.012110477 0.74800003
0.020769525 0.012175239 0.75200003
0.02223143 0.01219143 0.75300002
0.023728574 0.01222381 0.75500005
0.025200002 0.012240001 0.75600004
0.026780954 0.012304762 0.76000005
0.028340003 0.012353335 0.76300001
0.029988574 0.012434287 0.76800001
0.031533334 0.012466667 0.77000004
0.033085715 0.012499048 0.77200001
0.034690477 0.01254762 0.77500004
-0.05664286 0.014349525 0.79300004
-0.054993335 0.014313335 0.79100001
-0.053486671 0.014313335 0.79100001
-0.050731432 0.013969525 0.77200001
-0.049324766 0.01398762 0.77300006
-0.047666669 0.013933334 0.77000004
-0.046080004 0.013897143 0.76800001
-0.04455905 0.013879049 0.76700002
-0.042985719 0.013842858 0.76500005
-0.041420002 0.013806667 0.76300001
-0.039809525 0.013752382 0.76000005
-0.038109526 0.013661906 0.75500005
-0.036428574 0.013571429 0.75000006
-0.034860004 0.013517144 0.74700004
-0.033347622 0.013480953 0.74500006
-0.031928573 0.013480953 0.74500006
-0.030427622 0.013444763 0.74300003
-0.029012382 0.013444763 0.74300003
-0.027560001 0.013426668 0.74200004
-0.026076192 0.013390477 0.74000001
-0.024633335 0.013372382 0.73900002
-0.023162859 0.013336191 0.73700005
-0.021729525 0.013318096 0.73600006
-0.02032762 0.013318096 0.73600006
-0.018874288 0.013281906 0.73400003
-0.017428573 0.013245715 0.73200005
-0.016034286 0.013245715 0.73200005
-0.014640001 0.013245715 0.73200005
-0.01322762 0.01322762 0.73100001
-0.011835239 0.01322762 0.73100001
-0.010442858 0.01322762 0.73100001
-0.0090504764 0.01322762 0.73100001
-0.0076580956 0.01322762 0.73100001
-0.0062657148 0.01322762 0.73100001
-0.0048733335 0.01322762 0.73100001
-0.0034809527 0.01322762 0.73100001
-0.0020914287 0.013245715 0.73200005
-0.00069714291 0.013245715 0.73200005
0.00069904764 0.013281906 0.73400003
0.0020971431 0.013281906 0.73400003
0.0035047622 0.013318096 0.73600006
0.0048933337 0.013281906 0.73400003
0.0063085719 0.013318096 0.73600006
0.0077209529 0.013336191 0.73700005
0.0091247624 0.013336191 0.73700005
0.010528572 0.013336191 0.73700005
0.011932381 0.013336191 0.73700005
0.013372382 0.013372382 0.73900002
0.014780001 0.013372382 0.73900002
0.016253334 0.013426668 0.74200004
0.017690478 0.013444763 0.74300003
0.019234287 0.013535239 0.74800003
0.020714287 0.013571429 0.75000006
0.02223143 0.013625715 0.75300002
0.023728574 0.013661906 0.75500005
0.025200002 0.013680001 0.75600004
0.026780954 0.013752382 0.76000005
0.028340003 0.013806667 0.76300001
0.029949525 0.013879049 0.76700002
0.03145143 0.013897143 0.76800001
0.033000004 0.013933334 0.77000004
-0.05664286 0.015860001 0.79300004
-0.055132385 0.015860001 0.79300004
-0.052066669 0.015400001 0.77000004
-0.050600003 0.015400001 0.77000004
-0.049133338 0.015400001 0.77000004
-0.047666669 0.015400001 0.77000004
-0.046020001 0.015340001 0.76700002
-0.044442859 0.015300001 0.76500005
-0.042873338 0.015260001 0.76300001
-0.041311432 0.015220001 0.76100004
-0.039809525 0.015200001 0.76000005
-0.038008574 0.015060001 0.75300002
-0.036428574 0.015000001 0.75000006
-0.03476667 0.014900001 0.74500006
-0.033258099 0.014860001 0.74300003
-0.031842858 0.014860001 0.74300003
-0.030427622 0.014860001 0.74300003
-0.02889524 0.014800001 0.74000001
-0.027485715 0.014800001 0.74000001
-0.026040955 0.014780001 0.73900002
-0.024566669 0.014740001 0.73700005
-0.02313143 0.014720001 0.73600006
-0.021670477 0.014680001 0.73400003
-0.020272382 0.014680001 0.73400003
-0.018822858 0.014640001 0.73200005
-0.017404763 0.01462 0.73100001
-0.016012382 0.01462 0.73100001
-0.01462 0.01462 0.73100001
-0.01322762 0.01462 0.73100001
-0.011802858 0.014580001 0.72900003
-0.010414287 0.014580001 0.72900003
-0.0090257153 0.014580001 0.72900003
-0.0076371431 0.014580001 0.72900003
-0.0062485719 0.014580001 0.72900003
-0.0048600002 0.014580001 0.72900003
-0.0034714288 0.014580001 0.72900003
-0.0020885717 0.01462 0.73100001
-0.00069619052 0.01462 0.73100001
0.00069619052 0.01462 0.73100001
0.0020914287 0.014640001 0.73200005
0.0034952383 0.014680001 0.73400003
0.0048800004 0.014640001 0.73200005
0.006291429 0.014680001 0.73400003
0.0077104769 0.014720001 0.73600006
0.0091123814 0.014720001 0.73600006
0.010514286 0.014720001 0.73600006
0.011932381 0.014740001 0.73700005
0.013336191 0.014740001 0.73700005
0.014780001 0.014780001 0.73900002
0.016209524 0.014800001 0.74000001
0.017666668 0.014840001 0.74200004
0.019208573 0.014940001 0.74700004
0.020659048 0.014960001 0.74800003
0.022201907 0.015040001 0.75200003
0.023728574 0.015100001 0.75500005
0.025166668 0.015100001 0.75500005
0.026710479 0.015160001 0.75800002
0.028265717 0.015220001 0.76100004
0.029988574 0.015360001 0.76800001
0.031533334 0.015400001 0.77000004
0.033000004 0.015400001 0.77000004
-0.050600003 0.016866667 0.77000004
-0.049133338 0.016866667 0.77000004
-0.047542859 0.016822858 0.76800001
-0.046020001 0.016800953 0.76700002
-0.044442859 0.016757144 0.76500005
-0.042873338 0.016713334 0.76300001
-0.041257147 0.01664762 0.76000005
-0.039809525 0.01664762 0.76000005
-0.038008574 0.016494287 0.75300002
-0.03633143 0.016384764 0.74800003
-0.03476667 0.01631905 0.74500006
-0.033258099 0.016275238 0.74300003
-0.031842858 0.016275238 0.74300003
-0.03038667 0.016253334 0.74200004
-0.028856192 0.016187619 0.73900002
-0.027374288 0.01614381 0.73700005
-0.025970478 0.01614381 0.73700005
-0.024533335 0.016121905 0.73600006
-0.023068573 0.016078096 0.73400003
-0.02161143 0.016034286 0.73200005
-0.020217145 0.016034286 0.73200005
-0.018797144 0.016012382 0.73100001
-0.017404763 0.016012382 0.73100001
-0.015968572 0.015968572 0.72900003
-0.014580001 0.015968572 0.72900003
-0.013173334 0.015946668 0.72800004
-0.011786668 0.015946668 0.72800004
-0.010400001 0.015946668 0.72800004
-0.0090133343 0.015946668 0.72800004
-0.0076266672 0.015946668 0.72800004
-0.0062400005 0.015946668 0.72800004
-0.0048533338 0.015946668 0.72800004
-0.0034666669 0.015946668 0.72800004
-0.0020828573 0.015968572 0.72900003
-0.00069619052 0.016012382 0.73100001
0.00069619052 0.016012382 0.73100001
0.0020885717 0.016012382 0.73100001
0.0034857146 0.016034286 0.73200005
0.0048733335 0.016012382 0.73100001
0.0062742862 0.016034286 0.73200005
0.0076895244 0.016078096 0.73400003
0.0090876194 0.016078096 0.73400003
0.010514286 0.016121905 0.73600006
0.011916191 0.016121905 0.73600006
0.013336191 0.01614381 0.73700005
0.014780001 0.016187619 0.73900002
0.016209524 0.016209524 0.74000001
0.017619049 0.016209524 0.74000001
0.019105716 0.016275238 0.74300003
0.020631431 0.016362859 0.74700004
0.022142859 0.016428573 0.75000006
0.023665715 0.016494287 0.75300002
0.025100002 0.016494287 0.75300002
0.026640002 0.016560001 0.75600004
0.028228574 0.01664762 0.76000005
0.029949525 0.016800953 0.76700002
0.03145143 0.016822858 0.76800001
0.033000004 0.016866667 0.77000004
0.034600955 0.016932381 0.77300006
-0.049005717 0.018285716 0.76800001
-0.047542859 0.018285716 0.76800001
-0.046020001 0.018261906 0.76700002
-0.04432667 0.018166669 0.76300001
-0.042760957 0.018119048 0.76100004
-0.041257147 0.01809524 0.76000005
-0.039704766 0.01804762 0.75800002
-0.037857145 0.017857144 0.75000006
-0.03628286 0.017785715 0.74700004
-0.034673337 0.017690478 0.74300003
-0.033213336 0.017666668 0.74200004
-0.031800002 0.017666668 0.74200004
-0.030304763 0.017619049 0.74000001
-0.028778097 0.01754762 0.73700005
-0.027337145 0.01752381 0.73600006
-0.025864763 0.017476192 0.73400003
-0.024400001 0.017428573 0.73200005
-0.023005717 0.017428573 0.73200005
-0.021581907 0.017404763 0.73100001
-0.020189526 0.017404763 0.73100001
-0.018797144 0.017404763 0.73100001
-0.017357145 0.017357145 0.72900003
-0.015946668 0.017333334 0.72800004
-0.014560001 0.017333334 0.72800004
-0.013137144 0.017285716 0.72600001
-0.011754286 0.017285716 0.72600001
-0.010371429 0.017285716 0.72600001
-0.0089885723 0.017285716 0.72600001
-0.0076057147 0.017285716 0.72600001
-0.0062228576 0.017285716 0.72600001
-0.0048533338 0.017333334 0.72800004
-0.0034666669 0.017333334 0.72800004
-0.0020828573 0.017357145 0.72900003
-0.00069428579 0.017357145 0.72900003
0.00069428579 0.017357145 0.72900003
0.0020885717 0.017404763 0.73100001
0.0034809527 0.017404763 0.73100001
0.0048733335 0.017404763 0.73100001
0.0062657148 0.017404763 0.73100001
0.007668572 0.017428573 0.73200005
0.0090876194 0.017476192 0.73400003
0.010485715 0.017476192 0.73400003
0.011916191 0.01752381 0.73600006
0.013318096 0.01752381 0.73600006
0.014740001 0.01754762 0.73700005
0.016187619 0.017595239 0.73900002
0.017595239 0.017595239 0.73900002
0.019080002 0.017666668 0.74200004
0.020631431 0.017785715 0.74700004
0.022142859 0.017857144 0.75000006
0.023634287 0.017904762 0.75200003
0.025100002 0.017928572 0.75300002
0.026640002 0.018000001 0.75600004
0.028080001 0.018000001 0.75600004
0.02987143 0.018214287 0.76500005
0.03145143 0.018285716 0.76800001
0.033000004 0.018333334 0.77000004
0.034556191 0.018380953 0.77200001
-0.04432667 0.019620001 0.76300001
-0.042704765 0.019542858 0.76000005
-0.041148573 0.01949143 0.75800002
-0.039390478 0.019337144 0.75200003
-0.037705716 0.019208573 0.74700004
-0.036185715 0.019157143 0.74500006
-0.034673337 0.019105716 0.74300003
-0.033213336 0.019080002 0.74200004
-0.031714287 0.019028572 0.74000001
-0.030263811 0.019002859 0.73900002
-0.02873905 0.018925715 0.73600006
-0.027262859 0.018874288 0.73400003
-0.025794288 0.018822858 0.73200005
-0.024400001 0.018822858 0.73200005
-0.022974288 0.018797144 0.73100001
-0.021522859 0.018745715 0.72900003
-0.020134287 0.018745715 0.72900003
-0.018720001 0.018720001 0.72800004
-0.017333334 0.018720001 0.72800004
-0.015902858 0.018668573 0.72600001
-0.014520001 0.018668573 0.72600001
-0.013137144 0.018668573 0.72600001
-0.011754286 0.018668573 0.72600001
-0.010357143 0.018642858 0.72500002
-0.0089761913 0.018642858 0.72500002
-0.0075952387 0.018642858 0.72500002
-0.0062228576 0.018668573 0.72600001
-0.0048400005 0.018668573 0.72600001
-0.003457143 0.018668573 0.72600001
-0.0020800002 0.018720001 0.72800004
-0.00069333339 0.018720001 0.72800004
0.00069333339 0.018720001 0.72800004
0.0020828573 0.018745715 0.72900003
0.0034809527 0.018797144 0.73100001
0.0048600002 0.018745715 0.72900003
0.0062485719 0.018745715 0.72900003
0.0076580956 0.018797144 0.73100001
0.0090628574 0.018822858 0.73200005
0.010457143 0.018822858 0.73200005
0.01188381 0.018874288 0.73400003
0.013281906 0.018874288 0.73400003
0.014720001 0.018925715 0.73600006
0.01614381 0.018951429 0.73700005
0.01754762 0.018951429 0.73700005
0.019002859 0.019002859 0.73900002
0.020576192 0.019157143 0.74500006
0.022083811 0.019234287 0.74800003
0.023634287 0.019337144 0.75200003
0.025100002 0.019362858 0.75300002
0.026640002 0.019440001 0.75600004
0.028154287 0.01949143 0.75800002
0.02971524 0.019568572 0.76100004
0.031328574 0.019671429 0.76500005
0.032871429 0.019722858 0.76700002
-0.044210479 0.021018097 0.76100004
-0.042704765 0.020990478 0.76000005
-0.041148573 0.020935239 0.75800002
-0.039390478 0.020769525 0.75200003
-0.037705716 0.020631431 0.74700004
-0.036088575 0.020520953 0.74300003
-0.03462667 0.020493334 0.74200004
-0.03312381 0.020438097 0.74000001
-0.031671431 0.020410478 0.73900002
-0.030140955 0.02032762 0.73600006
-0.028660955 0.020272382 0.73400003
-0.027188573 0.020217145 0.73200005
-0.025794288 0.020217145 0.73200005
-0.024366667 0.020189526 0.73100001
-0.022911429 0.020134287 0.72900003
-0.021493334 0.020106668 0.72800004
-0.020106668 0.020106668 0.72800004
-0.018668573 0.020051429 0.72600001
-0.017285716 0.020051429 0.72600001
-0.015880954 0.020023812 0.72500002
-0.014500001 0.020023812 0.72500002
-0.013119048 0.020023812 0.72500002
-0.011738096 0.020023812 0.72500002
-0.010328572 0.019968573 0.72300005
-0.0089514293 0.019968573 0.72300005
-0.0075742863 0.019968573 0.72300005
-0.0062142862 0.020023812 0.72500002
-0.0048333337 0.020023812 0.72500002
-0.003457143 0.020051429 0.72600001
-0.0020742859 0.020051429 0.72600001
-0.00069142861 0.020051429 0.72600001
0.00069142861 0.020051429 0.72600001
0.0020800002 0.020106668 0.72800004
0.0034666669 0.020106668 0.72800004
0.0048533338 0.020106668 0.72800004
0.0062400005 0.020106668 0.72800004
0.0076371431 0.020134287 0.72900003
0.0090504764 0.020189526 0.73100001
0.010442858 0.020189526 0.73100001
0.011851429 0.020217145 0.73200005
0.013281906 0.020272382 0.73400003
0.014720001 0.02032762 0.73600006
0.01614381 0.02035524 0.73700005
0.01754762 0.02035524 0.73700005
0.019002859 0.020410478 0.73900002
0.020520953 0.020520953 0.74300003
0.022083811 0.020659048 0.74800003
0.02357143 0.020714287 0.75000006
0.025066668 0.020769525 0.75200003
0.026604764 0.020852383 0.75500005
0.028080001 0.020880001 0.75600004
0.029676192 0.020990478 0.76000005
0.03124667 0.021073334 0.76300001
0.032700002 0.021073334 0.76300001
-0.044036195 0.022379048 0.75800002
-0.042592384 0.022379048 0.75800002
-0.041040003 0.022320002 0.75600004
-0.039023813 0.021995239 0.74500006
-0.037503812 0.021936191 0.74300003
-0.036040001 0.021906668 0.74200004
-0.034533337 0.021847621 0.74000001
-0.03307905 0.021818096 0.73900002
-0.031585716 0.02175905 0.73700005
-0.029977145 0.02161143 0.73200005
-0.02858286 0.02161143 0.73200005
-0.02715143 0.021581907 0.73100001
-0.025688574 0.021522859 0.72900003
-0.024266668 0.021493334 0.72800004
-0.022817144 0.021434287 0.72600001
-0.021404764 0.021404764 0.72500002
-0.020023812 0.021404764 0.72500002
-0.01859143 0.021345716 0.72300005
-0.017214287 0.021345716 0.72300005
-0.015815239 0.021316191 0.72200006
-0.014440001 0.021316191 0.72200006
-0.013064763 0.021316191 0.72200006
-0.011689524 0.021316191 0.72200006
-0.010314287 0.021316191 0.72200006
-0.0089390483 0.021316191 0.72200006
-0.0075638099 0.021316191 0.72200006
-0.0061885719 0.021316191 0.72200006
-0.0048200004 0.021345716 0.72300005
-0.0034428574 0.021345716 0.72300005
-0.0020714288 0.021404764 0.72500002
-0.00069047621 0.021404764 0.72500002
0.00069047621 0.021404764 0.72500002
0.0020714288 0.021404764 0.72500002
0.003457143 0.021434287 0.72600001
0.0048333337 0.021404764 0.72500002
0.0062228576 0.021434287 0.72600001
0.0076266672 0.021493334 0.72800004
0.0090133343 0.021493334 0.72800004
0.010414287 0.021522859 0.72900003
0.011835239 0.021581907 0.73100001
0.013245715 0.02161143 0.73200005
0.014680001 0.021670477 0.73400003
0.016121905 0.021729525 0.73600006
0.01754762 0.02175905 0.73700005
0.019002859 0.021818096 0.73900002
0.020493334 0.021906668 0.74200004
0.021936191 0.021936191 0.74300003
0.023477145 0.022054287 0.74700004
0.024933334 0.022083811 0.74800003
0.026428573 0.022142859 0.75000006
0.027931431 0.022201907 0.75200003
0.029363811 0.022201907 0.75200003
0.030796193 0.022201907 0.75200003
-0.045360003 0.023760002 0.75600004
-0.043920003 0.023760002 0.75600004
-0.042423811 0.023728574 0.75500005
-0.040442862 0.023414288 0.74500006
-0.039023813 0.023414288 0.74500006
-0.037503812 0.023351431 0.74300003
-0.036040001 0.023320001 0.74200004
-0.034533337 0.023257144 0.74000001
-0.032989524 0.023162859 0.73700005
-0.03154286 0.02313143 0.73600006
-0.029977145 0.023005717 0.73200005
-0.028543811 0.022974288 0.73100001
-0.027077144 0.022911429 0.72900003
-0.025653334 0.022880001 0.72800004
-0.024200002 0.022817144 0.72600001
-0.022817144 0.022817144 0.72600001
-0.021404764 0.022785716 0.72500002
-0.019968573 0.022722859 0.72300005
-0.018565716 0.022691431 0.72200006
-0.017190477 0.022691431 0.72200006
-0.015815239 0.022691431 0.72200006
-0.014400001 0.022628574 0.72000003
-0.013028572 0.022628574 0.72000003
-0.011657144 0.022628574 0.72000003
-0.010285715 0.022628574 0.72000003
-0.0089142863 0.022628574 0.72000003
-0.0075428574 0.022628574 0.72000003
-0.0061714291 0.022628574 0.72000003
-0.0048133335 0.022691431 0.72200006
-0.0034380956 0.022691431 0.72200006
-0.0020657144 0.022722859 0.72300005
-0.00068857148 0.022722859 0.72300005
0.00068857148 0.022722859 0.72300005
0.0020714288 0.022785716 0.72500002
0.0034523811 0.022785716 0.72500002
0.0048333337 0.022785716 0.72500002
0.0062142862 0.022785716 0.72500002
0.0076057147 0.022817144 0.72600001
0.0090133343 0.022880001 0.72800004
0.010414287 0.022911429 0.72900003
0.011835239 0.022974288 0.73100001
0.01322762 0.022974288 0.73100001
0.014680001 0.023068573 0.73400003
0.016121905 0.02313143 0.73600006
0.01754762 0.023162859 0.73700005
0.019002859 0.023225715 0.73900002
0.020493334 0.023320001 0.74200004
0.021936191 0.023351431 0.74300003
0.023477145 0.023477145 0.74700004
0.024933334 0.023508573 0.74800003
0.026428573 0.02357143 0.75000006
0.027857145 0.02357143 0.75000006
0.029285716 0.02357143 0.75000006
0.030714288 0.02357143 0.75000006
-0.042255241 0.025066668 0.75200003
-0.040442862 0.024833335 0.74500006
-0.03891905 0.024766669 0.74300003
-0.037453335 0.024733335 0.74200004
-0.03594286 0.024666669 0.74000001
-0.03448667 0.024633335 0.73900002
-0.032944765 0.024533335 0.73600006
-0.03137143 0.024400001 0.73200005
-0.029936193 0.024366667 0.73100001
-0.028465716 0.024300002 0.72900003
-0.027040001 0.024266668 0.72800004
-0.025582859 0.024200002 0.72600001
-0.024166668 0.024166668 0.72500002
-0.022785716 0.024166668 0.72500002
-0.021345716 0.024100002 0.72300005
-0.019940954 0.024066668 0.72200006
-0.018514287 0.024000002 0.72000003
-0.017142858 0.024000002 0.72000003
-0.01577143 0.024000002 0.72000003
-0.014400001 0.024000002 0.72000003
-0.013010477 0.023966668 0.71900004
-0.011640953 0.023966668 0.71900004
-0.010271429 0.023966668 0.71900004
-0.0089019053 0.023966668 0.71900004
-0.0075323815 0.023966668 0.71900004
-0.0061628576 0.023966668 0.71900004
-0.0047933338 0.023966668 0.71900004
-0.0034238098 0.023966668 0.71900004
-0.002057143 0.024000002 0.72000003
-0.0006857143 0.024000002 0.72000003
0.00068761909 0.024066668 0.72200006
0.0020657144 0.024100002 0.72300005
0.0034428574 0.024100002 0.72300005
0.0048200004 0.024100002 0.72300005
0.0062142862 0.024166668 0.72500002
0.0075952387 0.024166668 0.72500002
0.0089885723 0.024200002 0.72600001
0.010400001 0.024266668 0.72800004
0.011802858 0.024300002 0.72900003
0.01322762 0.024366667 0.73100001
0.014640001 0.024400001 0.73200005
0.016078096 0.024466669 0.73400003
0.01752381 0.024533335 0.73600006
0.018951429 0.024566669 0.73700005
0.020438097 0.024666669 0.74000001
0.021936191 0.024766669 0.74300003
0.023508573 0.024933334 0.74800003
0.024933334 0.024933334 0.74800003
0.026428573 0.025000002 0.75000006
0.027857145 0.025000002 0.75000006
0.029285716 0.025000002 0.75000006
0.030714288 0.025000002 0.75000006
-0.042142861 0.026428573 0.75000006
-0.040442862 0.026252383 0.74500006
-0.03891905 0.026181906 0.74300003
-0.037453335 0.026146669 0.74200004
-0.03594286 0.026076192 0.74000001
-0.03448667 0.026040955 0.73900002
-0.032944765 0.02593524 0.73600006
-0.03137143 0.025794288 0.73200005
-0.029936193 0.025759049 0.73100001
-0.028426668 0.025653334 0.72800004
-0.026965717 0.025582859 0.72600001
-0.02554762 0.02554762 0.72500002
-0.024100002 0.025477145 0.72300005
-0.022691431 0.025441907 0.72200006
-0.021257143 0.02537143 0.72000003
-0.019885715 0.02537143 0.72000003
-0.018514287 0.02537143 0.72000003
-0.017119048 0.025336193 0.71900004
-0.015749525 0.025336193 0.71900004
-0.014380001 0.025336193 0.71900004
-0.012974286 0.025265716 0.71700001
-0.011608572 0.025265716 0.71700001
-0.010228572 0.025230478 0.71600002
-0.0088647623 0.025230478 0.71600002
-0.007511429 0.025265716 0.71700001
-0.0061371434 0.025230478 0.71600002
-0.0047800005 0.025265716 0.71700001
-0.0034142858 0.025265716 0.71700001
-0.002054286 0.025336193 0.71900004
-0.00068476197 0.025336193 0.71900004
0.00068476197 0.025336193 0.71900004
0.002057143 0.02537143 0.72000003
0.0034285716 0.02537143 0.72000003
0.0048133335 0.025441907 0.72200006
0.0061971433 0.025477145 0.72300005
0.0075638099 0.025441907 0.72200006
0.0089761913 0.02554762 0.72500002
0.010371429 0.025582859 0.72600001
0.011786668 0.025653334 0.72800004
0.01319143 0.025688574 0.72900003
0.01462 0.025759049 0.73100001
0.016078096 0.025864763 0.73400003
0.017476192 0.025864763 0.73400003
0.018951429 0.025970478 0.73700005
0.020410478 0.026040955 0.73900002
0.021847621 0.026076192 0.74000001
0.023477145 0.026322858 0.74700004
0.024900002 0.026322858 0.74700004
0.026358098 0.026358098 0.74800003
0.027857145 0.026428573 0.75000006
0.029285716 0.026428573 0.75000006
0.030632382 0.026358098 0.74800003
-0.043571431 0.027857145 0.75000006
-0.04203048 0.027782859 0.74800003
-0.040442862 0.02767143 0.74500006
-0.03891905 0.027597144 0.74300003
-0.037453335 0.027560001 0.74200004
-0.03594286 0.027485715 0.74000001
-0.034393337 0.027374288 0.73700005
-0.032855239 0.027262859 0.73400003
-0.031328574 0.02715143 0.73100001
-0.029854288 0.027077144 0.72900003
-0.028348573 0.026965717 0.72600001
-0.026928574 0.026928574 0.72500002
-0.025477145 0.026854288 0.72300005
-0.024066668 0.026817145 0.72200006
-0.022691431 0.026817145 0.72200006
-0.021227621 0.026705716 0.71900004
-0.019858096 0.026705716 0.71900004
-0.018437143 0.02663143 0.71700001
-0.01707143 0.02663143 0.71700001
-0.015705716 0.02663143 0.71700001
-0.014340001 0.02663143 0.71700001
-0.012956192 0.026594287 0.71600002
-0.011592382 0.026594287 0.71600002
-0.0102 0.026520003 0.71400005
-0.0088400003 0.026520003 0.71400005
-0.007500953 0.026594287 0.71600002
-0.0061200005 0.026520003 0.71400005
-0.0047600004 0.026520003 0.71400005
-0.003409524 0.026594287 0.71600002
-0.0020485716 0.02663143 0.71700001
-0.00068285718 0.02663143 0.71700001
0.00068285718 0.02663143 0.71700001
0.0020485716 0.02663143 0.71700001
0.0034238098 0.026705716 0.71900004
0.0047800005 0.02663143 0.71700001
0.0061885719 0.026817145 0.72200006
0.0075428574 0.026742859 0.72000003
0.0089514293 0.026854288 0.72300005
0.010357143 0.026928574 0.72500002
0.011786668 0.027040001 0.72800004
0.01319143 0.027077144 0.72900003
0.014580001 0.027077144 0.72900003
0.016034286 0.027188573 0.73200005
0.017476192 0.027262859 0.73400003
0.018951429 0.027374288 0.73700005
0.020410478 0.027448574 0.73900002
0.021818096 0.027448574 0.73900002
0.023414288 0.02767143 0.74500006
0.024900002 0.027745716 0.74700004
0.026358098 0.027782859 0.74800003
0.027782859 0.027782859 0.74800003
0.029285716 0.027857145 0.75000006
0.030632382 0.027782859 0.74800003
-0.041861907 0.029090479 0.74500006
-0.040442862 0.029090479 0.74500006
-0.038866669 0.028973335 0.74200004
-0.037352383 0.02889524 0.74000001
-0.03589429 0.028856192 0.73900002
-0.034393337 0.028778097 0.73700005
-0.032765716 0.02858286 0.73200005
-0.031242859 0.028465716 0.72900003
-0.02973143 0.028348573 0.72600001
-0.028309526 0.028309526 0.72500002
-0.026854288 0.028231431 0.72300005
-0.025441907 0.028192382 0.72200006
-0.024000002 0.028114287 0.72000003
-0.022628574 0.028114287 0.72000003
-0.021168573 0.027997145 0.71700001
-0.01977524 0.027958097 0.71600002
-0.018360002 0.027880002 0.71400005
-0.017000001 0.027880002 0.71400005
-0.015640002 0.027880002 0.71400005
-0.014280001 0.027880002 0.71400005
-0.012901906 0.027840953 0.71300006
-0.01154381 0.027840953 0.71300006
-0.010185715 0.027840953 0.71300006
-0.0088028582 0.027762858 0.71100003
-0.0074695242 0.027840953 0.71300006
-0.0061114291 0.027840953 0.71300006
-0.0047533335 0.027840953 0.71300006
-0.0033952384 0.027840953 0.71300006
-0.0020400002 0.027880002 0.71400005
-0.00068190478 0.027958097 0.71600002
0.00068000006 0.027880002 0.71400005
0.0020400002 0.027880002 0.71400005
0.003409524 0.027958097 0.71600002
0.0047600004 0.027880002 0.71400005
0.0061371434 0.027958097 0.71600002
0.0075323815 0.028075241 0.71900004
0.0089514293 0.028231431 0.72300005
0.010314287 0.028192382 0.72200006
0.011705715 0.028231431 0.72300005
0.013173334 0.028426668 0.72800004
0.014580001 0.028465716 0.72900003
0.016012382 0.028543811 0.73100001
0.017428573 0.02858286 0.73200005
0.018925715 0.02873905 0.73600006
0.020410478 0.028856192 0.73900002
0.021818096 0.028856192 0.73900002
0.023320001 0.028973335 0.74200004
0.024833335 0.029090479 0.74500006
0.026358098 0.029207621 0.74800003
0.027745716 0.029168574 0.74700004
0.029207621 0.029207621 0.74800003
-0.043455239 0.030632382 0.74800003
-0.041861907 0.030509526 0.74500006
-0.040334288 0.030427622 0.74300003
-0.038866669 0.03038667 0.74200004
-0.037301905 0.030263811 0.73900002
-0.035797145 0.030181907 0.73700005
-0.03434667 0.030140955 0.73600006
-0.032631431 0.029854288 0.72900003
-0.031200003 0.029813336 0.72800004
-0.02973143 0.02973143 0.72600001
-0.028231431 0.029608574 0.72300005
-0.026817145 0.029567622 0.72200006
-0.02537143 0.029485716 0.72000003
-0.023900002 0.029362859 0.71700001
-0.022534287 0.029362859 0.71700001
-0.021080002 0.029240001 0.71400005
-0.019720001 0.029240001 0.71400005
-0.018334286 0.029199049 0.71300006
-0.016976191 0.029199049 0.71300006
-0.015574287 0.029117145 0.71100003
-0.014220001 0.029117145 0.71100003
-0.012865715 0.029117145 0.71100003
-0.011511429 0.029117145 0.71100003
-0.010142858 0.029076193 0.71000004
-0.0087904772 0.029076193 0.71000004
-0.0074380958 0.029076193 0.71000004
-0.0060857148 0.029076193 0.71000004
-0.0047400002 0.029117145 0.71100003
-0.0033857145 0.029117145 0.71100003
-0.0020371431 0.029199049 0.71300006
-0.00067904766 0.029199049 0.71300006
0.00067904766 0.029199049 0.71300006
0.0020400002 0.029240001 0.71400005
0.0034000003 0.029240001 0.71400005
0.0047533335 0.029199049 0.71300006
0.0061200005 0.029240001 0.71400005
0.0074800006 0.029240001 0.71400005
0.0089019053 0.029444763 0.71900004
0.010285715 0.029485716 0.72000003
0.011689524 0.029567622 0.72200006
0.013119048 0.029690478 0.72500002
0.014520001 0.02973143 0.72600001
0.015968572 0.029854288 0.72900003
0.017404763 0.029936193 0.73100001
0.018925715 0.030140955 0.73600006
0.02035524 0.030181907 0.73700005
0.02175905 0.030181907 0.73700005
0.023257144 0.030304763 0.74000001
0.024833335 0.030509526 0.74500006
0.026322858 0.03059143 0.74700004
0.027782859 0.030632382 0.74800003
0.029207621 0.030632382 0.74800003
-0.043397147 0.032014288 0.74700004
-0.041861907 0.031928573 0.74500006
-0.040334288 0.031842858 0.74300003
-0.038866669 0.031800002 0.74200004
-0.037301905 0.031671431 0.73900002
