# .PCD v0.7 - Point Cloud Data file format
VERSION 0.7
FIELDS x y z
SIZE 4 4 4
TYPE F F F
COUNT 1 1 1
WIDTH 1350
HEIGHT 1
VIEWPOINT 0 0 0 1 0 0 0
POINTS 1350
DATA ascii
0.062428575 0.062428575 0.69000006
0.063742861 0.062428575 0.69000006
0.064962864 0.062338099 0.68900001
-0.063188575 0.063188575 0.68400002
-0.061885718 0.063188575 0.68400002
-0.060582861 0.063188575 0.68400002
-0.059280004 0.063188575 0.68400002
-0.057977147 0.063188575 0.68400002
-0.05667429 0.063188575 0.68400002
-0.055371433 0.063188575 0.68400002
-0.054068577 0.063188575 0.68400002
-0.05276572 0.063188575 0.68400002
-0.051462859 0.063188575 0.68400002
-0.050160002 0.063188575 0.68400002
-0.048857145 0.063188575 0.68400002
-0.047693338 0.063373335 0.68600005
-0.046454288 0.063465722 0.68700004
-0.045145717 0.063465722 0.68700004
-0.043964766 0.063650481 0.68900001
-0.042652383 0.063650481 0.68900001
-0.041340001 0.063650481 0.68900001
-0.040085718 0.063742861 0.69000006
-0.03871524 0.063650481 0.68900001
-0.037457146 0.063742861 0.69000006
-0.03614286 0.063742861 0.69000006
-0.034828573 0.063742861 0.69000006
-0.033514287 0.063742861 0.69000006
-0.032200001 0.063742861 0.69000006
-0.030885717 0.063742861 0.69000006
-0.029571431 0.063742861 0.69000006
-0.028298097 0.063835241 0.69100004
-0.026942858 0.063742861 0.69000006
-0.025665715 0.063835241 0.69100004
-0.024349526 0.063835241 0.69100004
-0.023100002 0.064020008 0.69300002
-0.021780001 0.064020008 0.69300002
-0.020460002 0.064020008 0.69300002
-0.019140001 0.064020008 0.69300002
-0.017845716 0.064112388 0.69400001
-0.01652381 0.064112388 0.69400001
-0.015201906 0.064112388 0.69400001
-0.013900001 0.064204767 0.69500005
-0.012576192 0.064204767 0.69500005
-0.011252382 0.064204767 0.69500005
-0.009928572 0.064204767 0.69500005
-0.0086047621 0.064204767 0.69500005
-0.0072809528 0.064204767 0.69500005
-0.0059571434 0.064204767 0.69500005
-0.0046333335 0.064204767 0.69500005
-0.0033095239 0.064204767 0.69500005
-0.0019857143 0.064204767 0.69500005
-0.00066380959 0.064389527 0.69700003
0.00066380959 0.064389527 0.69700003
0.0019914287 0.064389527 0.69700003
0.0033190479 0.064389527 0.69700003
0.0046533337 0.064481907 0.69800001
0.0059828577 0.064481907 0.69800001
0.0073123816 0.064481907 0.69800001
0.0086666672 0.064666674 0.70000005
0.010000001 0.064666674 0.70000005
0.011333334 0.064666674 0.70000005
0.012666668 0.064666674 0.70000005
0.014000001 0.064666674 0.70000005
0.015333334 0.064666674 0.70000005
0.016666668 0.064666674 0.70000005
0.018000001 0.064666674 0.70000005
0.019333335 0.064666674 0.70000005
0.020666668 0.064666674 0.70000005
0.022000002 0.064666674 0.70000005
0.023333335 0.064666674 0.70000005
0.024666669 0.064666674 0.70000005
0.026000002 0.064666674 0.70000005
0.027333336 0.064666674 0.70000005
0.028666668 0.064666674 0.70000005
0.030000001 0.064666674 0.70000005
0.031333335 0.064666674 0.70000005
0.032666668 0.064666674 0.70000005
0.034000002 0.064666674 0.70000005
0.035333335 0.064666674 0.70000005
0.036666669 0.064666674 0.70000005
0.038000003 0.064666674 0.70000005
0.039333336 0.064666674 0.70000005
0.04066667 0.064666674 0.70000005
0.042060003 0.064759053 0.70100003
0.04339524 0.064759053 0.70100003
0.044730481 0.064759053 0.70100003
0.046065718 0.064759053 0.70100003
0.047400955 0.064759053 0.70100003
0.048736192 0.064759053 0.70100003
0.050071433 0.064759053 0.70100003
0.05140667 0.064759053 0.70100003
0.052666672 0.064666674 0.70000005
0.053845719 0.064481907 0.69800001
0.055096194 0.064389527 0.69700003
0.056261908 0.064204767 0.69500005
0.057502862 0.064112388 0.69400001
0.058824766 0.064112388 0.69400001
0.059886672 0.063835241 0.69100004
0.061202861 0.063835241 0.69100004
0.062428575 0.063742861 0.69000006
-0.065986671 0.064680003 0.68600005
-0.063188575 0.064491436 0.68400002
-0.061885718 0.064491436 0.68400002
-0.060582861 0.064491436 0.68400002
-0.059280004 0.064491436 0.68400002
-0.057977147 0.064491436 0.68400002
-0.05667429 0.064491436 0.68400002
-0.055371433 0.064491436 0.68400002
-0.054068577 0.064491436 0.68400002
-0.05276572 0.064491436 0.68400002
-0.051462859 0.064491436 0.68400002
-0.050160002 0.064491436 0.68400002
-0.048857145 0.064491436 0.68400002
-0.047693338 0.064680003 0.68600005
-0.046454288 0.06477429 0.68700004
-0.045145717 0.06477429 0.68700004
-0.043964766 0.064962864 0.68900001
-0.042652383 0.064962864 0.68900001
-0.041400004 0.065057144 0.69000006
-0.040085718 0.065057144 0.69000006
-0.038771432 0.065057144 0.69000006
-0.037457146 0.065057144 0.69000006
-0.03614286 0.065057144 0.69000006
-0.034828573 0.065057144 0.69000006
-0.033514287 0.065057144 0.69000006
-0.032200001 0.065057144 0.69000006
-0.030885717 0.065057144 0.69000006
-0.029614288 0.065151431 0.69100004
-0.028298097 0.065151431 0.69100004
-0.026981907 0.065151431 0.69100004
-0.025665715 0.065151431 0.69100004
-0.024420002 0.065340005 0.69300002
-0.023100002 0.065340005 0.69300002
-0.021811429 0.065434292 0.69400001
-0.020489525 0.065434292 0.69400001
-0.019167621 0.065434292 0.69400001
-0.017845716 0.065434292 0.69400001
-0.01652381 0.065434292 0.69400001
-0.01522381 0.065528579 0.69500005
-0.013900001 0.065528579 0.69500005
-0.012576192 0.065528579 0.69500005
-0.011252382 0.065528579 0.69500005
-0.009928572 0.065528579 0.69500005
-0.0086047621 0.065528579 0.69500005
-0.0072809528 0.065528579 0.69500005
-0.0059742862 0.065717146 0.69700003
-0.0046333335 0.065528579 0.69500005
-0.0033190479 0.065717146 0.69700003
-0.0019914287 0.065717146 0.69700003
-0.00066380959 0.065717146 0.69700003
0.00066380959 0.065717146 0.69700003
0.0019942857 0.065811433 0.69800001
0.0033238097 0.065811433 0.69800001
0.0046533337 0.065811433 0.69800001
0.0060000005 0.066000007 0.70000005
0.0073333336 0.066000007 0.70000005
0.0086666672 0.066000007 0.70000005
0.010014286 0.066094287 0.70100003
0.011349524 0.066094287 0.70100003
0.012684762 0.066094287 0.70100003
0.014020001 0.066094287 0.70100003
0.015333334 0.066000007 0.70000005
0.016666668 0.066000007 0.70000005
0.018000001 0.066000007 0.70000005
0.019333335 0.066000007 0.70000005
0.020666668 0.066000007 0.70000005
0.022000002 0.066000007 0.70000005
0.023333335 0.066000007 0.70000005
0.024666669 0.066000007 0.70000005
0.026000002 0.066000007 0.70000005
0.027372383 0.066094287 0.70100003
0.028707622 0.066094287 0.70100003
0.030000001 0.066000007 0.70000005
0.031333335 0.066000007 0.70000005
0.032666668 0.066000007 0.70000005
0.034000002 0.066000007 0.70000005
0.035333335 0.066000007 0.70000005
0.03671905 0.066094287 0.70100003
0.038054287 0.066094287 0.70100003
0.039389525 0.066094287 0.70100003
0.040724766 0.066094287 0.70100003
0.042180002 0.066282861 0.70300001
0.04351905 0.066282861 0.70300001
0.044858098 0.066282861 0.70300001
0.046197146 0.066282861 0.70300001
0.047400955 0.066094287 0.70100003
0.048875242 0.066282861 0.70300001
0.050071433 0.066094287 0.70100003
0.05140667 0.066094287 0.70100003
0.052666672 0.066000007 0.70000005
0.053845719 0.065811433 0.69800001
0.055175241 0.065811433 0.69800001
0.056423813 0.065717146 0.69700003
0.057585716 0.065528579 0.69500005
0.058824766 0.065434292 0.69400001
0.060060006 0.065340005 0.69300002
0.061202861 0.065151431 0.69100004
0.062428575 0.065057144 0.69000006
0.063742861 0.065057144 0.69000006
-0.065986671 0.065986671 0.68600005
-0.064680003 0.065986671 0.68600005
-0.063188575 0.065794289 0.68400002
-0.061885718 0.065794289 0.68400002
-0.060582861 0.065794289 0.68400002
-0.059280004 0.065794289 0.68400002
-0.057977147 0.065794289 0.68400002
-0.05667429 0.065794289 0.68400002
-0.055371433 0.065794289 0.68400002
-0.05422667 0.065986671 0.68600005
-0.05276572 0.065794289 0.68400002
-0.051462859 0.065794289 0.68400002
-0.050160002 0.065794289 0.68400002
-0.049000002 0.065986671 0.68600005
-0.04776286 0.066082865 0.68700004
-0.046454288 0.066082865 0.68700004
-0.045277145 0.066275239 0.68900001
-0.043964766 0.066275239 0.68900001
-0.04271429 0.066371433 0.69000006
-0.041400004 0.066371433 0.69000006
-0.040085718 0.066371433 0.69000006
-0.038771432 0.066371433 0.69000006
-0.037457146 0.066371433 0.69000006
-0.03614286 0.066371433 0.69000006
-0.034828573 0.066371433 0.69000006
-0.033514287 0.066371433 0.69000006
-0.032200001 0.066371433 0.69000006
-0.030930478 0.06646762 0.69100004
-0.029614288 0.06646762 0.69100004
-0.028380001 0.066660002 0.69300002
-0.027060002 0.066660002 0.69300002
-0.025777144 0.066756196 0.69400001
-0.02445524 0.066756196 0.69400001
-0.023133336 0.066756196 0.69400001
-0.021842858 0.066852383 0.69500005
-0.02051905 0.066852383 0.69500005
-0.01919524 0.066852383 0.69500005
-0.01787143 0.066852383 0.69500005
-0.01654762 0.066852383 0.69500005
-0.01522381 0.066852383 0.69500005
-0.013900001 0.066852383 0.69500005
-0.012576192 0.066852383 0.69500005
-0.011252382 0.066852383 0.69500005
-0.009928572 0.066852383 0.69500005
-0.0086047621 0.066852383 0.69500005
-0.0073019052 0.067044765 0.69700003
-0.0059742862 0.067044765 0.69700003
-0.0046466668 0.067044765 0.69700003
-0.0033190479 0.067044765 0.69700003
-0.0019914287 0.067044765 0.69700003
-0.00066476193 0.067140959 0.69800001
0.00066476193 0.067140959 0.69800001
0.0019942857 0.067140959 0.69800001
0.0033238097 0.067140959 0.69800001
0.004666667 0.067333341 0.70000005
0.0060000005 0.067333341 0.70000005
0.0073333336 0.067333341 0.70000005
0.0086666672 0.067333341 0.70000005
0.010014286 0.067429528 0.70100003
0.011349524 0.067429528 0.70100003
0.012684762 0.067429528 0.70100003
0.014020001 0.067429528 0.70100003
0.015355239 0.067429528 0.70100003
0.016690478 0.067429528 0.70100003
0.018025715 0.067429528 0.70100003
0.019360954 0.067429528 0.70100003
0.020696191 0.067429528 0.70100003
0.02203143 0.067429528 0.70100003
0.023366667 0.067429528 0.70100003
0.024701906 0.067429528 0.70100003
0.026037145 0.067429528 0.70100003
0.027372383 0.067429528 0.70100003
0.028707622 0.067429528 0.70100003
0.030042859 0.067429528 0.70100003
0.031378098 0.067429528 0.70100003
0.032713335 0.067429528 0.70100003
0.034048572 0.067429528 0.70100003
0.035383813 0.067429528 0.70100003
0.03671905 0.067429528 0.70100003
0.038054287 0.067429528 0.70100003
0.039389525 0.067429528 0.70100003
0.040840954 0.067621909 0.70300001
0.042180002 0.067621909 0.70300001
0.043580957 0.067718096 0.70400006
0.044858098 0.067621909 0.70300001
0.046197146 0.067621909 0.70300001
0.047536194 0.067621909 0.70300001
0.048875242 0.067621909 0.70300001
0.050214291 0.067621909 0.70300001
0.05140667 0.067429528 0.70100003
0.052741908 0.067429528 0.70100003
0.054000005 0.067333341 0.70000005
0.055175241 0.067140959 0.69800001
0.056423813 0.067044765 0.69700003
0.057585716 0.066852383 0.69500005
0.058909528 0.066852383 0.69500005
0.060146671 0.066756196 0.69400001
0.061380003 0.066660002 0.69300002
0.062428575 0.066371433 0.69000006
0.063742861 0.066371433 0.69000006
-0.065986671 0.067293338 0.68600005
-0.064680003 0.067293338 0.68600005
-0.063373335 0.067293338 0.68600005
-0.061885718 0.06709715 0.68400002
-0.060582861 0.06709715 0.68400002
-0.059280004 0.06709715 0.68400002
-0.057977147 0.06709715 0.68400002
-0.05667429 0.06709715 0.68400002
-0.055533338 0.067293338 0.68600005
-0.05422667 0.067293338 0.68600005
-0.05276572 0.06709715 0.68400002
-0.051613338 0.067293338 0.68600005
-0.050160002 0.06709715 0.68400002
-0.049000002 0.067293338 0.68600005
-0.04776286 0.067391433 0.68700004
-0.046454288 0.067391433 0.68700004
-0.045277145 0.067587622 0.68900001
-0.044028573 0.067685716 0.69000006
-0.04271429 0.067685716 0.69000006
-0.041400004 0.067685716 0.69000006
-0.040085718 0.067685716 0.69000006
-0.038771432 0.067685716 0.69000006
-0.037457146 0.067685716 0.69000006
-0.03614286 0.067685716 0.69000006
-0.034828573 0.067685716 0.69000006
-0.033514287 0.067685716 0.69000006
-0.032246668 0.067783818 0.69100004
-0.030930478 0.067783818 0.69100004
-0.029700002 0.067980006 0.69300002
-0.028420955 0.068078101 0.69400001
-0.027099049 0.068078101 0.69400001
-0.025777144 0.068078101 0.69400001
-0.02445524 0.068078101 0.69400001
-0.023133336 0.068078101 0.69400001
-0.021842858 0.068176195 0.69500005
-0.02051905 0.068176195 0.69500005
-0.01919524 0.068176195 0.69500005
-0.017922858 0.068372384 0.69700003
-0.01654762 0.068176195 0.69500005
-0.01526762 0.068372384 0.69700003
-0.013940001 0.068372384 0.69700003
-0.012612382 0.068372384 0.69700003
-0.011284763 0.068372384 0.69700003
-0.0099571431 0.068372384 0.69700003
-0.0086295241 0.068372384 0.69700003
-0.0073019052 0.068372384 0.69700003
-0.0059742862 0.068372384 0.69700003
-0.0046466668 0.068372384 0.69700003
-0.0033238097 0.068470478 0.69800001
-0.0019942857 0.068470478 0.69800001
-0.00066666672 0.068666674 0.70000005
0.00066666672 0.068666674 0.70000005
0.0020000001 0.068666674 0.70000005
0.0033333336 0.068666674 0.70000005
0.0046733338 0.068764769 0.70100003
0.0060085719 0.068764769 0.70100003
0.0073438101 0.068764769 0.70100003
0.0086790482 0.068764769 0.70100003
0.010014286 0.068764769 0.70100003
0.011349524 0.068764769 0.70100003
0.012684762 0.068764769 0.70100003
0.014020001 0.068764769 0.70100003
0.015355239 0.068764769 0.70100003
0.016690478 0.068764769 0.70100003
0.018025715 0.068764769 0.70100003
0.019360954 0.068764769 0.70100003
0.020696191 0.068764769 0.70100003
0.02203143 0.068764769 0.70100003
0.023366667 0.068764769 0.70100003
0.024701906 0.068764769 0.70100003
0.02611143 0.068960957 0.70300001
0.027450478 0.068960957 0.70300001
0.028830478 0.069059052 0.70400006
0.030128574 0.068960957 0.70300001
0.03146762 0.068960957 0.70300001
0.032806668 0.068960957 0.70300001
0.034145717 0.068960957 0.70300001
0.035484765 0.068960957 0.70300001
0.036823813 0.068960957 0.70300001
0.038162861 0.068960957 0.70300001
0.039501909 0.068960957 0.70300001
0.040899049 0.069059052 0.70400006
0.042240001 0.069059052 0.70400006
0.043580957 0.069059052 0.70400006
0.044921909 0.069059052 0.70400006
0.04626286 0.069059052 0.70400006
0.047603812 0.069059052 0.70400006
0.048944764 0.069059052 0.70400006
0.050285719 0.069059052 0.70400006
0.051553335 0.068960957 0.70300001
0.052892383 0.068960957 0.70300001
0.054077145 0.068764769 0.70100003
0.055175241 0.068470478 0.69800001
0.056423813 0.068372384 0.69700003
0.057585716 0.068176195 0.69500005
0.058909528 0.068176195 0.69500005
0.060146671 0.068078101 0.69400001
0.061380003 0.067980006 0.69300002
0.062519051 0.067783818 0.69100004
0.063742861 0.067685716 0.69000006
-0.065986671 0.068600006 0.68600005
-0.064680003 0.068600006 0.68600005
-0.063373335 0.068600006 0.68600005
-0.062066671 0.068600006 0.68600005
-0.060760003 0.068600006 0.68600005
-0.059453338 0.068600006 0.68600005
-0.05814667 0.068600006 0.68600005
-0.056840003 0.068600006 0.68600005
-0.055533338 0.068600006 0.68600005
-0.05422667 0.068600006 0.68600005
-0.052920002 0.068600006 0.68600005
-0.051613338 0.068600006 0.68600005
-0.05030667 0.068600006 0.68600005
-0.049000002 0.068600006 0.68600005
-0.04776286 0.068700008 0.68700004
-0.046589527 0.068900004 0.68900001
-0.045277145 0.068900004 0.68900001
-0.044028573 0.069000006 0.69000006
-0.04271429 0.069000006 0.69000006
-0.041400004 0.069000006 0.69000006
-0.040085718 0.069000006 0.69000006
-0.038771432 0.069000006 0.69000006
-0.037511431 0.069100007 0.69100004
-0.036195241 0.069100007 0.69100004
-0.034879051 0.069100007 0.69100004
-0.033562858 0.069100007 0.69100004
-0.032246668 0.069100007 0.69100004
-0.030930478 0.069100007 0.69100004
-0.029700002 0.069300003 0.69300002
-0.028420955 0.069400005 0.69400001
-0.027099049 0.069400005 0.69400001
-0.025777144 0.069400005 0.69400001
-0.024490478 0.069500007 0.69500005
-0.023166668 0.069500007 0.69500005
-0.021842858 0.069500007 0.69500005
-0.020578096 0.069700003 0.69700003
-0.019250477 0.069700003 0.69700003
-0.017922858 0.069700003 0.69700003
-0.016595239 0.069700003 0.69700003
-0.01526762 0.069700003 0.69700003
-0.013940001 0.069700003 0.69700003
-0.012612382 0.069700003 0.69700003
-0.011284763 0.069700003 0.69700003
-0.0099571431 0.069700003 0.69700003
-0.0086295241 0.069700003 0.69700003
-0.0073123816 0.069800004 0.69800001
-0.0060000005 0.070000008 0.70000005
-0.004666667 0.070000008 0.70000005
-0.0033333336 0.070000008 0.70000005
-0.0020000001 0.070000008 0.70000005
-0.00066666672 0.070000008 0.70000005
0.00066761911 0.070100002 0.70100003
0.0020028572 0.070100002 0.70100003
0.0033380955 0.070100002 0.70100003
0.0046733338 0.070100002 0.70100003
0.0060085719 0.070100002 0.70100003
0.0073647625 0.070300005 0.70300001
0.0087038102 0.070300005 0.70300001
0.010042857 0.070300005 0.70300001
0.011381906 0.070300005 0.70300001
0.012720954 0.070300005 0.70300001
0.014060001 0.070300005 0.70300001
0.015355239 0.070100002 0.70100003
0.016738096 0.070300005 0.70300001
0.018077144 0.070300005 0.70300001
0.019360954 0.070100002 0.70100003
0.020696191 0.070100002 0.70100003
0.022094287 0.070300005 0.70300001
0.023433335 0.070300005 0.70300001
0.024772383 0.070300005 0.70300001
0.02611143 0.070300005 0.70300001
0.027489526 0.070400007 0.70400006
0.028830478 0.070400007 0.70400006
0.03017143 0.070400007 0.70400006
0.031512383 0.070400007 0.70400006
0.032853335 0.070400007 0.70400006
0.034194287 0.070400007 0.70400006
0.035535239 0.070400007 0.70400006
0.036876194 0.070400007 0.70400006
0.038162861 0.070300005 0.70300001
0.039501909 0.070300005 0.70300001
0.040899049 0.070400007 0.70400006
0.042240001 0.070400007 0.70400006
0.04364286 0.070500001 0.70500004
0.044921909 0.070400007 0.70400006
0.046328574 0.070500001 0.70500004
0.047671434 0.070500001 0.70500004
0.049014289 0.070500001 0.70500004
0.050357144 0.070500001 0.70500004
0.051626671 0.070400007 0.70400006
0.052967623 0.070400007 0.70400006
0.054077145 0.070100002 0.70100003
0.055333339 0.070000008 0.70000005
0.056504767 0.069800004 0.69800001
0.057751432 0.069700003 0.69700003
0.058909528 0.069500007 0.69500005
0.060233336 0.069500007 0.69500005
0.061468575 0.069400005 0.69400001
0.062790483 0.069400005 0.69400001
0.064020008 0.069300003 0.69300002
-0.064680003 0.069906674 0.68600005
-0.063373335 0.069906674 0.68600005
-0.062066671 0.069906674 0.68600005
-0.060760003 0.069906674 0.68600005
-0.059453338 0.069906674 0.68600005
-0.05814667 0.069906674 0.68600005
-0.056840003 0.069906674 0.68600005
-0.055533338 0.069906674 0.68600005
-0.054305717 0.070008576 0.68700004
-0.052920002 0.069906674 0.68600005
-0.051688574 0.070008576 0.68700004
-0.050380003 0.070008576 0.68700004
-0.049071431 0.070008576 0.68700004
-0.047901906 0.070212387 0.68900001
-0.046589527 0.070212387 0.68900001
-0.045342859 0.070314288 0.69000006
-0.044028573 0.070314288 0.69000006
-0.04271429 0.070314288 0.69000006
-0.041460004 0.070416197 0.69100004
-0.040143814 0.070416197 0.69100004
-0.03882762 0.070416197 0.69100004
-0.037511431 0.070416197 0.69100004
-0.036195241 0.070416197 0.69100004
-0.034879051 0.070416197 0.69100004
-0.033562858 0.070416197 0.69100004
-0.032340001 0.070620008 0.69300002
-0.031020002 0.070620008 0.69300002
-0.029742859 0.070721909 0.69400001
-0.028420955 0.070721909 0.69400001
-0.027138097 0.070823811 0.69500005
-0.025814287 0.070823811 0.69500005
-0.024560954 0.071027622 0.69700003
-0.023233335 0.071027622 0.69700003
-0.021905717 0.071027622 0.69700003
-0.02060762 0.071129531 0.69800001
-0.019278096 0.071129531 0.69800001
-0.017948573 0.071129531 0.69800001
-0.016619049 0.071129531 0.69800001
-0.015289525 0.071129531 0.69800001
-0.013960001 0.071129531 0.69800001
-0.012630477 0.071129531 0.69800001
-0.011300953 0.071129531 0.69800001
-0.0099714296 0.071129531 0.69800001
-0.0086666672 0.071333341 0.70000005
-0.0073333336 0.071333341 0.70000005
-0.0060085719 0.071435243 0.70100003
-0.0046733338 0.071435243 0.70100003
-0.0033476192 0.071639054 0.70300001
-0.0020028572 0.071435243 0.70100003
-0.00066952384 0.071639054 0.70300001
0.00066952384 0.071639054 0.70300001
0.0020085715 0.071639054 0.70300001
0.0033476192 0.071639054 0.70300001
0.0046866671 0.071639054 0.70300001
0.0060257148 0.071639054 0.70300001
0.0073647625 0.071639054 0.70300001
0.0087038102 0.071639054 0.70300001
0.010057144 0.071740955 0.70400006
0.011398096 0.071740955 0.70400006
0.012739048 0.071740955 0.70400006
0.014060001 0.071639054 0.70300001
0.015399049 0.071639054 0.70300001
0.016738096 0.071639054 0.70300001
0.018077144 0.071639054 0.70300001
0.019416193 0.071639054 0.70300001
0.020755239 0.071639054 0.70300001
0.022125715 0.071740955 0.70400006
0.023466669 0.071740955 0.70400006
0.024807621 0.071740955 0.70400006
0.026148573 0.071740955 0.70400006
0.027489526 0.071740955 0.70400006
0.02887143 0.071842864 0.70500004
0.030214287 0.071842864 0.70500004
0.031557146 0.071842864 0.70500004
0.032900002 0.071842864 0.70500004
0.034242861 0.071842864 0.70500004
0.035585716 0.071842864 0.70500004
0.036928575 0.071842864 0.70500004
0.038217146 0.071740955 0.70400006
0.039558098 0.071740955 0.70400006
0.040957145 0.071842864 0.70500004
0.042300005 0.071842864 0.70500004
0.04364286 0.071842864 0.70500004
0.044985719 0.071842864 0.70500004
0.046328574 0.071842864 0.70500004
0.047671434 0.071842864 0.70500004
0.049014289 0.071842864 0.70500004
0.050357144 0.071842864 0.70500004
0.051700003 0.071842864 0.70500004
0.052967623 0.071740955 0.70400006
0.054308575 0.071740955 0.70400006
0.055412386 0.071435243 0.70100003
0.056666672 0.071333341 0.70000005
0.05783429 0.071129531 0.69800001
0.059079051 0.071027622 0.69700003
0.060233336 0.070823811 0.69500005
0.061557148 0.070823811 0.69500005
0.062790483 0.070721909 0.69400001
0.064112388 0.070721909 0.69400001
0.065434292 0.070721909 0.69400001
-0.066082865 0.071317151 0.68700004
-0.06477429 0.071317151 0.68700004
-0.063373335 0.071213335 0.68600005
-0.062066671 0.071213335 0.68600005
-0.060760003 0.071213335 0.68600005
-0.059540004 0.071317151 0.68700004
-0.05814667 0.071213335 0.68600005
-0.05692286 0.071317151 0.68700004
-0.055614289 0.071317151 0.68700004
-0.054305717 0.071317151 0.68700004
-0.052997146 0.071317151 0.68700004
-0.051688574 0.071317151 0.68700004
-0.050380003 0.071317151 0.68700004
-0.049214289 0.071524769 0.68900001
-0.047901906 0.071524769 0.68900001
-0.046589527 0.071524769 0.68900001
-0.045342859 0.071628578 0.69000006
-0.044092383 0.071732387 0.69100004
-0.042776193 0.071732387 0.69100004
-0.041460004 0.071732387 0.69100004
-0.040260002 0.071940005 0.69300002
-0.038940001 0.071940005 0.69300002
-0.037620004 0.071940005 0.69300002
-0.036195241 0.071732387 0.69100004
-0.034980003 0.071940005 0.69300002
-0.033660002 0.071940005 0.69300002
-0.032340001 0.071940005 0.69300002
-0.031020002 0.071940005 0.69300002
-0.029742859 0.072043814 0.69400001
-0.028461907 0.072147623 0.69500005
-0.027138097 0.072147623 0.69500005
-0.025888573 0.072355241 0.69700003
-0.024560954 0.072355241 0.69700003
-0.023233335 0.072355241 0.69700003
-0.021937145 0.07245905 0.69800001
-0.020666668 0.072666675 0.70000005
-0.019278096 0.07245905 0.69800001
-0.018000001 0.072666675 0.70000005
-0.016666668 0.072666675 0.70000005
-0.015333334 0.072666675 0.70000005
-0.014000001 0.072666675 0.70000005
-0.012666668 0.072666675 0.70000005
-0.011333334 0.072666675 0.70000005
-0.010000001 0.072666675 0.70000005
-0.0086790482 0.072770484 0.70100003
-0.0073438101 0.072770484 0.70100003
-0.0060085719 0.072770484 0.70100003
-0.0046733338 0.072770484 0.70100003
-0.0033476192 0.072978102 0.70300001
-0.0020085715 0.072978102 0.70300001
-0.00066952384 0.072978102 0.70300001
0.00066952384 0.072978102 0.70300001
0.0020114286 0.073081911 0.70400006
0.0033476192 0.072978102 0.70300001
0.0046866671 0.072978102 0.70300001
0.0060342862 0.073081911 0.70400006
0.0073752385 0.073081911 0.70400006
0.0087161912 0.073081911 0.70400006
0.010071429 0.07318572 0.70500004
0.011414287 0.07318572 0.70500004
0.012757144 0.07318572 0.70500004
0.014100001 0.07318572 0.70500004
0.015442858 0.07318572 0.70500004
0.016785715 0.07318572 0.70500004
0.018128572 0.07318572 0.70500004
0.01944381 0.073081911 0.70400006
0.020784764 0.073081911 0.70400006
0.022157144 0.07318572 0.70500004
0.023500001 0.07318572 0.70500004
0.024842858 0.07318572 0.70500004
0.026185716 0.07318572 0.70500004
0.027528573 0.07318572 0.70500004
0.02887143 0.07318572 0.70500004
0.030300003 0.073393337 0.70700002
0.031646669 0.073393337 0.70700002
0.032993335 0.073393337 0.70700002
0.034242861 0.07318572 0.70500004
0.035686668 0.073393337 0.70700002
0.036928575 0.07318572 0.70500004
0.038271431 0.07318572 0.70500004
0.03961429 0.07318572 0.70500004
0.040957145 0.07318572 0.70500004
0.042300005 0.07318572 0.70500004
0.04364286 0.07318572 0.70500004
0.044985719 0.07318572 0.70500004
0.046460003 0.073393337 0.70700002
0.047806669 0.073393337 0.70700002
0.049153335 0.073393337 0.70700002
0.050500002 0.073393337 0.70700002
0.051846672 0.073393337 0.70700002
0.053042859 0.07318572 0.70500004
0.054385718 0.07318572 0.70500004
0.055412386 0.072770484 0.70100003
0.056666672 0.072666675 0.70000005
0.05783429 0.07245905 0.69800001
0.059163813 0.07245905 0.69800001
0.06040667 0.072355241 0.69700003
0.061557148 0.072147623 0.69500005
0.062880956 0.072147623 0.69500005
0.064204767 0.072147623 0.69500005
-0.064680003 0.072520003 0.68600005
-0.063373335 0.072520003 0.68600005
-0.062066671 0.072520003 0.68600005
-0.060848575 0.072625719 0.68700004
-0.059540004 0.072625719 0.68700004
-0.058231432 0.072625719 0.68700004
-0.05692286 0.072625719 0.68700004
-0.055614289 0.072625719 0.68700004
-0.054463815 0.072837144 0.68900001
-0.052997146 0.072625719 0.68700004
-0.051688574 0.072625719 0.68700004
-0.050526671 0.072837144 0.68900001
-0.049214289 0.072837144 0.68900001
-0.047901906 0.072837144 0.68900001
-0.046657145 0.07294286 0.69000006
-0.045342859 0.07294286 0.69000006
-0.044092383 0.073048577 0.69100004
-0.042900003 0.073260002 0.69300002
-0.041580003 0.073260002 0.69300002
-0.040260002 0.073260002 0.69300002
-0.038996194 0.073365718 0.69400001
-0.037674289 0.073365718 0.69400001
-0.036300004 0.073260002 0.69300002
-0.035030477 0.073365718 0.69400001
-0.033708572 0.073365718 0.69400001
-0.032386668 0.073365718 0.69400001
-0.031064764 0.073365718 0.69400001
-0.029785717 0.073471434 0.69500005
-0.028461907 0.073471434 0.69500005
-0.027216192 0.07368286 0.69700003
-0.025925716 0.073788576 0.69800001
-0.024596192 0.073788576 0.69800001
-0.023266668 0.073788576 0.69800001
-0.021937145 0.073788576 0.69800001
-0.020666668 0.074000008 0.70000005
-0.019333335 0.074000008 0.70000005
-0.018000001 0.074000008 0.70000005
-0.016666668 0.074000008 0.70000005
-0.015355239 0.074105717 0.70100003
-0.014020001 0.074105717 0.70100003
-0.012684762 0.074105717 0.70100003
-0.011349524 0.074105717 0.70100003
-0.010014286 0.074105717 0.70100003
-0.0086790482 0.074105717 0.70100003
-0.0073438101 0.074105717 0.70100003
-0.0060257148 0.07431715 0.70300001
-0.0046866671 0.07431715 0.70300001
-0.0033523813 0.074422859 0.70400006
-0.0020114286 0.074422859 0.70400006
-0.00067142863 0.074528575 0.70500004
0.00067047623 0.074422859 0.70400006
0.0020142859 0.074528575 0.70500004
0.0033571431 0.074528575 0.70500004
0.0047000004 0.074528575 0.70500004
0.0060428577 0.074528575 0.70500004
0.0073857149 0.074528575 0.70500004
0.0087285722 0.074528575 0.70500004
0.010071429 0.074528575 0.70500004
0.011446668 0.074740008 0.70700002
0.012757144 0.074528575 0.70500004
0.014100001 0.074528575 0.70500004
0.015442858 0.074528575 0.70500004
0.016785715 0.074528575 0.70500004
0.018128572 0.074528575 0.70500004
0.019471429 0.074528575 0.70500004
0.020814287 0.074528575 0.70500004
0.022157144 0.074528575 0.70500004
0.023500001 0.074528575 0.70500004
0.024913335 0.074740008 0.70700002
0.026260002 0.074740008 0.70700002
0.027606668 0.074740008 0.70700002
0.028953334 0.074740008 0.70700002
0.030300003 0.074740008 0.70700002
0.031646669 0.074740008 0.70700002
0.032993335 0.074740008 0.70700002
0.034340002 0.074740008 0.70700002
0.035686668 0.074740008 0.70700002
0.037033334 0.074740008 0.70700002
0.038380001 0.074740008 0.70700002
0.03961429 0.074528575 0.70500004
0.041073337 0.074740008 0.70700002
0.042420004 0.074740008 0.70700002
0.04376667 0.074740008 0.70700002
0.045113336 0.074740008 0.70700002
0.046460003 0.074740008 0.70700002
0.047806669 0.074740008 0.70700002
0.04922286 0.074845716 0.708
0.050500002 0.074740008 0.70700002
0.051846672 0.074740008 0.70700002
0.053193338 0.074740008 0.70700002
0.054540005 0.074740008 0.70700002
0.055570479 0.07431715 0.70300001
0.056747623 0.074105717 0.70100003
0.058000002 0.074000008 0.70000005
0.059163813 0.073788576 0.69800001
0.060493339 0.073788576 0.69800001
0.061734289 0.07368286 0.69700003
0.062880956 0.073471434 0.69500005
0.064204767 0.073471434 0.69500005
-0.06477429 0.073934294 0.68700004
-0.063465722 0.073934294 0.68700004
-0.062157147 0.073934294 0.68700004
-0.060848575 0.073934294 0.68700004
-0.059713338 0.074149527 0.68900001
-0.058231432 0.073934294 0.68700004
-0.057088576 0.074149527 0.68900001
-0.055776194 0.074149527 0.68900001
-0.054542862 0.07425715 0.69000006
-0.053151432 0.074149527 0.68900001
-0.05183905 0.074149527 0.68900001
-0.050526671 0.074149527 0.68900001
-0.049214289 0.074149527 0.68900001
-0.047971431 0.07425715 0.69000006
-0.046657145 0.07425715 0.69000006
-0.045408573 0.074364766 0.69100004
-0.044092383 0.074364766 0.69100004
-0.042900003 0.074580006 0.69300002
-0.041580003 0.074580006 0.69300002
-0.040318098 0.074687622 0.69400001
-0.038996194 0.074687622 0.69400001
-0.037674289 0.074687622 0.69400001
-0.036352385 0.074687622 0.69400001
-0.035030477 0.074687622 0.69400001
-0.033708572 0.074687622 0.69400001
-0.032433335 0.074795246 0.69500005
-0.031109527 0.074795246 0.69500005
-0.029785717 0.074795246 0.69500005
-0.028543811 0.075010478 0.69700003
-0.027216192 0.075010478 0.69700003
-0.025925716 0.075118102 0.69800001
-0.024596192 0.075118102 0.69800001
-0.023266668 0.075118102 0.69800001
-0.022000002 0.075333342 0.70000005
-0.020666668 0.075333342 0.70000005
-0.019333335 0.075333342 0.70000005
-0.018025715 0.075440958 0.70100003
-0.016690478 0.075440958 0.70100003
-0.015355239 0.075440958 0.70100003
-0.014020001 0.075440958 0.70100003
-0.012684762 0.075440958 0.70100003
-0.011381906 0.075656198 0.70300001
-0.010042857 0.075656198 0.70300001
-0.0087161912 0.075763814 0.70400006
-0.0073752385 0.075763814 0.70400006
-0.0060342862 0.075763814 0.70400006
-0.0046933335 0.075763814 0.70400006
-0.0033571431 0.07587143 0.70500004
-0.0020142859 0.07587143 0.70500004
-0.00067142863 0.07587143 0.70500004
0.00067142863 0.07587143 0.70500004
0.0020142859 0.07587143 0.70500004
0.0033571431 0.07587143 0.70500004
0.0047000004 0.07587143 0.70500004
0.0060600005 0.07608667 0.70700002
0.0074066673 0.07608667 0.70700002
0.0087533342 0.07608667 0.70700002
0.010100001 0.07608667 0.70700002
0.011446668 0.07608667 0.70700002
0.012793334 0.07608667 0.70700002
0.014140001 0.07608667 0.70700002
0.015486668 0.07608667 0.70700002
0.016833335 0.07608667 0.70700002
0.018180002 0.07608667 0.70700002
0.019526668 0.07608667 0.70700002
0.020873334 0.07608667 0.70700002
0.022220001 0.07608667 0.70700002
0.023566669 0.07608667 0.70700002
0.024913335 0.07608667 0.70700002
0.026260002 0.07608667 0.70700002
0.027606668 0.07608667 0.70700002
0.028953334 0.07608667 0.70700002
0.030300003 0.07608667 0.70700002
0.031646669 0.07608667 0.70700002
0.032993335 0.07608667 0.70700002
0.034340002 0.07608667 0.70700002
0.035686668 0.07608667 0.70700002
0.037033334 0.07608667 0.70700002
0.038380001 0.07608667 0.70700002
0.039726671 0.07608667 0.70700002
0.041073337 0.07608667 0.70700002
0.042420004 0.07608667 0.70700002
0.04376667 0.07608667 0.70700002
0.045113336 0.07608667 0.70700002
0.046525717 0.076194294 0.708
0.04787429 0.076194294 0.708
0.04922286 0.076194294 0.708
0.05057143 0.076194294 0.708
0.051920004 0.076194294 0.708
0.053193338 0.07608667 0.70700002
0.054540005 0.07608667 0.70700002
0.055886671 0.07608667 0.70700002
0.056747623 0.075440958 0.70100003
0.058000002 0.075333342 0.70000005
0.059333336 0.075333342 0.70000005
0.060493339 0.075118102 0.69800001
0.061822861 0.075118102 0.69800001
0.062880956 0.074795246 0.69500005
-0.065151431 0.075680956 0.69100004
-0.063835241 0.075680956 0.69100004
-0.062428575 0.075571433 0.69000006
-0.061114289 0.075571433 0.69000006
-0.059800003 0.075571433 0.69000006
-0.058570482 0.075680956 0.69100004
-0.057254288 0.075680956 0.69100004
-0.055938099 0.075680956 0.69100004
-0.054621909 0.075680956 0.69100004
-0.053228576 0.075571433 0.69000006
-0.05191429 0.075571433 0.69000006
-0.050673336 0.075680956 0.69100004
-0.049357146 0.075680956 0.69100004
-0.048180003 0.075900003 0.69300002
-0.046927623 0.076009527 0.69400001
-0.045605719 0.076009527 0.69400001
-0.044283811 0.076009527 0.69400001
-0.043023814 0.07611905 0.69500005
-0.041700002 0.07611905 0.69500005
-0.040376194 0.07611905 0.69500005
-0.039164763 0.076338097 0.69700003
-0.037728574 0.07611905 0.69500005
-0.036404766 0.07611905 0.69500005
-0.035181906 0.076338097 0.69700003
-0.033854287 0.076338097 0.69700003
-0.032526668 0.076338097 0.69700003
-0.031243812 0.076447621 0.69800001
-0.029914288 0.076447621 0.69800001
-0.028666668 0.076666668 0.70000005
-0.027333336 0.076666668 0.70000005
-0.026000002 0.076666668 0.70000005
-0.024701906 0.076776199 0.70100003
-0.023366667 0.076776199 0.70100003
-0.02203143 0.076776199 0.70100003
-0.020696191 0.076776199 0.70100003
-0.019416193 0.076995246 0.70300001
-0.018077144 0.076995246 0.70300001
-0.016761906 0.07710477 0.70400006
-0.015420954 0.07710477 0.70400006
-0.014080001 0.07710477 0.70400006
-0.012739048 0.07710477 0.70400006
-0.011398096 0.07710477 0.70400006
-0.010071429 0.077214293 0.70500004
-0.0087285722 0.077214293 0.70500004
-0.0073857149 0.077214293 0.70500004
-0.0060428577 0.077214293 0.70500004
-0.0047000004 0.077214293 0.70500004
-0.0033571431 0.077214293 0.70500004
-0.0020142859 0.077214293 0.70500004
-0.00067142863 0.077214293 0.70500004
0.00067142863 0.077214293 0.70500004
0.0020200002 0.07743334 0.70700002
0.0033666668 0.07743334 0.70700002
0.0047133337 0.07743334 0.70700002
0.0060600005 0.07743334 0.70700002
0.0074171433 0.077542864 0.708
0.0087904772 0.077761911 0.71000004
0.011495239 0.077761911 0.71000004
0.01284762 0.077761911 0.71000004
0.014200001 0.077761911 0.71000004
0.015552382 0.077761911 0.71000004
0.016904764 0.077761911 0.71000004
0.018257145 0.077761911 0.71000004
0.019609526 0.077761911 0.71000004
0.020902859 0.077542864 0.708
0.022251431 0.077542864 0.708
0.023600001 0.077542864 0.708
0.024948573 0.077542864 0.708
0.026297145 0.077542864 0.708
0.027645716 0.077542864 0.708
0.028994288 0.077542864 0.708
0.030342858 0.077542864 0.708
0.031646669 0.07743334 0.70700002
0.03633143 0.081923813 0.74800003
0.037705716 0.081814289 0.74700004
0.039023813 0.081595242 0.74500006
0.038434289 0.077542864 0.708
0.039782859 0.077542864 0.708
0.041131433 0.077542864 0.708
0.042480003 0.077542864 0.708
0.043952383 0.077761911 0.71000004
0.045177147 0.077542864 0.708
0.046525717 0.077542864 0.708
0.048009526 0.077761911 0.71000004
0.049361907 0.077761911 0.71000004
0.050714288 0.077761911 0.71000004
0.052066669 0.077761911 0.71000004
0.053268574 0.077542864 0.708
0.054617148 0.077542864 0.708
0.055965718 0.077542864 0.708
0.056990478 0.07710477 0.70400006
0.058248576 0.076995246 0.70300001
0.059418101 0.076776199 0.70100003
0.060666669 0.076666668 0.70000005
0.062000003 0.076666668 0.70000005
0.063152388 0.076447621 0.69800001
0.064666674 0.076666668 0.70000005
-0.065434292 0.077331431 0.69400001
-0.064112388 0.077331431 0.69400001
-0.062700003 0.077220008 0.69300002
-0.061202861 0.076997146 0.69100004
-0.059886672 0.076997146 0.69100004
-0.058570482 0.076997146 0.69100004
-0.057254288 0.076997146 0.69100004
-0.055938099 0.076997146 0.69100004
-0.054621909 0.076997146 0.69100004
-0.053228576 0.076885723 0.69000006
-0.051989526 0.076997146 0.69100004
-0.050673336 0.076997146 0.69100004
-0.049500003 0.077220008 0.69300002
-0.048249528 0.077331431 0.69400001
-0.046995241 0.077442862 0.69500005
-0.045671433 0.077442862 0.69500005
-0.044347622 0.077442862 0.69500005
-0.043147624 0.077665716 0.69700003
-0.041820005 0.077665716 0.69700003
-0.040492382 0.077665716 0.69700003
-0.039220955 0.077777147 0.69800001
-0.037837144 0.077665716 0.69700003
-0.036561906 0.077777147 0.69800001
-0.035232384 0.077777147 0.69800001
-0.033902861 0.077777147 0.69800001
-0.032573335 0.077777147 0.69800001
-0.031333335 0.078000002 0.70000005
-0.030000001 0.078000002 0.70000005
-0.028666668 0.078000002 0.70000005
-0.027372383 0.078111432 0.70100003
-0.026037145 0.078111432 0.70100003
-0.024772383 0.078334294 0.70300001
-0.023433335 0.078334294 0.70300001
-0.022094287 0.078334294 0.70300001
-0.020755239 0.078334294 0.70300001
-0.01944381 0.078445718 0.70400006
-0.018102858 0.078445718 0.70400006
-0.016761906 0.078445718 0.70400006
-0.015442858 0.078557149 0.70500004
-0.014080001 0.078445718 0.70400006
-0.012739048 0.078445718 0.70400006
-0.011414287 0.078557149 0.70500004
-0.010071429 0.078557149 0.70500004
-0.0087285722 0.078557149 0.70500004
-0.0073857149 0.078557149 0.70500004
-0.0060428577 0.078557149 0.70500004
-0.0047133337 0.078780003 0.70700002
-0.0033666668 0.078780003 0.70700002
-0.0020200002 0.078780003 0.70700002
-0.00067142863 0.078557149 0.70500004
0.00067333336 0.078780003 0.70700002
0.0020228573 0.078891434 0.708
0.012865715 0.079225719 0.71100003
0.014220001 0.079225719 0.71100003
0.015574287 0.079225719 0.71100003
0.016904764 0.079114288 0.71000004
0.018257145 0.079114288 0.71000004
0.019609526 0.079114288 0.71000004
0.020902859 0.078891434 0.708
0.022251431 0.078891434 0.708
0.043952383 0.079114288 0.71000004
0.045177147 0.078891434 0.708
0.046657145 0.079114288 0.71000004
0.048009526 0.079114288 0.71000004
0.049431432 0.079225719 0.71100003
0.050714288 0.079114288 0.71000004
0.052140005 0.079225719 0.71100003
0.05341905 0.079114288 0.71000004
0.054771431 0.079114288 0.71000004
0.055965718 0.078891434 0.708
0.057071432 0.078557149 0.70500004
0.058331434 0.078445718 0.70400006
0.059587624 0.078334294 0.70300001
0.060753338 0.078111432 0.70100003
0.062088575 0.078111432 0.70100003
0.06333334 0.078000002 0.70000005
0.064759053 0.078111432 0.70100003
-0.065811433 0.079106674 0.69800001
-0.064389527 0.078993335 0.69700003
-0.062880956 0.078766674 0.69500005
-0.061380003 0.078540005 0.69300002
-0.060060006 0.078540005 0.69300002
-0.058740005 0.078540005 0.69300002
-0.057420004 0.078540005 0.69300002
-0.055938099 0.078313336 0.69100004
-0.054780003 0.078540005 0.69300002
-0.053305719 0.078313336 0.69100004
-0.051989526 0.078313336 0.69100004
-0.050820004 0.078540005 0.69300002
-0.049571432 0.078653336 0.69400001
-0.048319049 0.078766674 0.69500005
-0.046995241 0.078766674 0.69500005
-0.045802861 0.078993335 0.69700003
-0.044475242 0.078993335 0.69700003
-0.043209527 0.079106674 0.69800001
-0.041880004 0.079106674 0.69800001
-0.040550478 0.079106674 0.69800001
-0.039333336 0.079333335 0.70000005
-0.037891433 0.079106674 0.69800001
-0.036666669 0.079333335 0.70000005
-0.035333335 0.079333335 0.70000005
-0.034000002 0.079333335 0.70000005
-0.032713335 0.079446673 0.70100003
-0.031378098 0.079446673 0.70100003
-0.030042859 0.079446673 0.70100003
-0.028707622 0.079446673 0.70100003
-0.027372383 0.079446673 0.70100003
-0.026037145 0.079446673 0.70100003
-0.024772383 0.079673335 0.70300001
-0.023433335 0.079673335 0.70300001
-0.022125715 0.079786673 0.70400006
-0.020784764 0.079786673 0.70400006
-0.019471429 0.079900004 0.70500004
-0.018128572 0.079900004 0.70500004
-0.016785715 0.079900004 0.70500004
-0.015442858 0.079900004 0.70500004
-0.012757144 0.079900004 0.70500004
-0.011414287 0.079900004 0.70500004
-0.010071429 0.079900004 0.70500004
-0.0087285722 0.079900004 0.70500004
-0.0073752385 0.079786673 0.70400006
-0.0060342862 0.079786673 0.70400006
-0.0047000004 0.079900004 0.70500004
-0.0033571431 0.079900004 0.70500004
-0.0020142859 0.079900004 0.70500004
0.046657145 0.080466673 0.71000004
0.048009526 0.080466673 0.71000004
0.049361907 0.080466673 0.71000004
0.050714288 0.080466673 0.71000004
0.052066669 0.080466673 0.71000004
0.053268574 0.080240004 0.708
0.054617148 0.080240004 0.708
0.055886671 0.080126673 0.70700002
0.057233337 0.080126673 0.70700002
0.058414288 0.079900004 0.70500004
0.059672385 0.079786673 0.70400006
0.060926672 0.079673335 0.70300001
0.06226572 0.079673335 0.70300001
0.063423812 0.079446673 0.70100003
0.064759053 0.079446673 0.70100003
-0.067621909 0.081012383 0.70300001
-0.066000007 0.080666669 0.70000005
-0.064389527 0.080320954 0.69700003
-0.062880956 0.080090478 0.69500005
-0.061468575 0.07997524 0.69400001
-0.060146671 0.07997524 0.69400001
-0.058740005 0.079860002 0.69300002
-0.057420004 0.079860002 0.69300002
-0.056100003 0.079860002 0.69300002
-0.054780003 0.079860002 0.69300002
-0.053460002 0.079860002 0.69300002
-0.052140005 0.079860002 0.69300002
-0.050893337 0.07997524 0.69400001
-0.049642861 0.080090478 0.69500005
-0.048458099 0.080320954 0.69700003
-0.047198098 0.080436192 0.69800001
-0.045868576 0.080436192 0.69800001
-0.044539049 0.080436192 0.69800001
-0.043333337 0.080666669 0.70000005
-0.042000003 0.080666669 0.70000005
-0.04066667 0.080666669 0.70000005
-0.039389525 0.080781907 0.70100003
-0.038162861 0.081012383 0.70300001
-0.03671905 0.080781907 0.70100003
-0.035383813 0.080781907 0.70100003
-0.034048572 0.080781907 0.70100003
-0.032806668 0.081012383 0.70300001
-0.031378098 0.080781907 0.70100003
-0.030042859 0.080781907 0.70100003
-0.028707622 0.080781907 0.70100003
-0.027372383 0.080781907 0.70100003
-0.026037145 0.080781907 0.70100003
-0.024772383 0.081012383 0.70300001
-0.023466669 0.081127621 0.70400006
-0.019080002 0.08550667 0.74200004
-0.017666668 0.08550667 0.74200004
-0.016253334 0.08550667 0.74200004
-0.014840001 0.08550667 0.74200004
-0.013426668 0.08550667 0.74200004
-0.012029525 0.085621908 0.74300003
-0.010614286 0.085621908 0.74300003
-0.0091990484 0.085621908 0.74300003
0.052066669 0.08181905 0.71000004
0.05341905 0.08181905 0.71000004
0.054771431 0.08181905 0.71000004
0.055886671 0.081473336 0.70700002
0.057071432 0.081242859 0.70500004
0.058414288 0.081242859 0.70500004
0.059757147 0.081242859 0.70500004
0.060926672 0.081012383 0.70300001
0.062354289 0.081127621 0.70400006
0.063423812 0.080781907 0.70100003
0.064759053 0.080781907 0.70100003
-0.066094287 0.082117148 0.70100003
-0.064481907 0.081765719 0.69800001
-0.062880956 0.08141429 0.69500005
-0.061557148 0.08141429 0.69500005
-0.060233336 0.08141429 0.69500005
-0.058824766 0.081297152 0.69400001
-0.057502862 0.081297152 0.69400001
-0.056100003 0.081180006 0.69300002
-0.05485905 0.081297152 0.69400001
-0.053537145 0.081297152 0.69400001
-0.052290481 0.08141429 0.69500005
-0.051113337 0.081648573 0.69700003
-0.049857147 0.081765719 0.69800001
-0.048527621 0.081765719 0.69800001
-0.047333337 0.082000002 0.70000005
-0.046000004 0.082000002 0.70000005
-0.04466667 0.082000002 0.70000005
-0.043333337 0.082000002 0.70000005
-0.042060003 0.082117148 0.70100003
-0.040724766 0.082117148 0.70100003
-0.039501909 0.082351431 0.70300001
-0.038162861 0.082351431 0.70300001
-0.036823813 0.082351431 0.70300001
-0.035484765 0.082351431 0.70300001
-0.034145717 0.082351431 0.70300001
-0.032806668 0.082351431 0.70300001
-0.03146762 0.082351431 0.70300001
-0.030128574 0.082351431 0.70300001
-0.028707622 0.082117148 0.70100003
-0.027372383 0.082117148 0.70100003
-0.026037145 0.082117148 0.70100003
-0.024701906 0.082117148 0.70100003
0.053644765 0.083522864 0.71300006
0.055002861 0.083522864 0.71300006
0.056360956 0.083522864 0.71300006
0.057557147 0.08328858 0.71100003
0.058662862 0.082937151 0.708
0.05992667 0.082820006 0.70700002
0.061273336 0.082820006 0.70700002
0.062620007 0.082820006 0.70700002
0.063423812 0.082117148 0.70100003
0.064759053 0.082117148 0.70100003
-0.066000007 0.083333336 0.70000005
-0.064389527 0.082976192 0.69700003
-0.062880956 0.082738101 0.69500005
-0.061557148 0.082738101 0.69500005
-0.060233336 0.082738101 0.69500005
-0.058909528 0.082738101 0.69500005
-0.057585716 0.082738101 0.69500005
-0.056261908 0.082738101 0.69500005
-0.055096194 0.082976192 0.69700003
-0.053768575 0.082976192 0.69700003
-0.052516192 0.083095245 0.69800001
-0.051333338 0.083333336 0.70000005
-0.050000004 0.083333336 0.70000005
-0.048666671 0.083333336 0.70000005
-0.047400955 0.083452389 0.70100003
-0.046065718 0.083452389 0.70100003
-0.044730481 0.083452389 0.70100003
-0.04339524 0.083452389 0.70100003
-0.042060003 0.083452389 0.70100003
-0.040840954 0.083690479 0.70300001
-0.039558098 0.083809532 0.70400006
-0.038271431 0.083928578 0.70500004
-0.036823813 0.083690479 0.70300001
-0.035484765 0.083690479 0.70300001
-0.034145717 0.083690479 0.70300001
-0.028789526 0.083690479 0.70300001
-0.027372383 0.083452389 0.70100003
-0.026037145 0.083452389 0.70100003
0.053644765 0.084880956 0.71300006
0.055002861 0.084880956 0.71300006
0.056360956 0.084880956 0.71300006
0.057557147 0.084642865 0.71100003
0.058662862 0.084285721 0.708
0.05992667 0.084166676 0.70700002
0.061273336 0.084166676 0.70700002
0.062620007 0.084166676 0.70700002
-0.064481907 0.084424764 0.69800001
-0.063061908 0.084303819 0.69700003
-0.061557148 0.084061913 0.69500005
-0.06040667 0.084303819 0.69700003
-0.059079051 0.084303819 0.69700003
-0.057751432 0.084303819 0.69700003
-0.056423813 0.084303819 0.69700003
-0.055333339 0.084666669 0.70000005
-0.053845719 0.084424764 0.69800001
-0.052666672 0.084666669 0.70000005
-0.05140667 0.084787622 0.70100003
-0.050071433 0.084787622 0.70100003
-0.048736192 0.084787622 0.70100003
-0.047400955 0.084787622 0.70100003
-0.046197146 0.085029528 0.70300001
-0.044858098 0.085029528 0.70300001
-0.04339524 0.084787622 0.70100003
-0.042060003 0.084787622 0.70100003
-0.040724766 0.084787622 0.70100003
-0.039501909 0.085029528 0.70300001
-0.038271431 0.085271433 0.70500004
0.054848574 0.085997149 0.71100003
0.056202862 0.085997149 0.71100003
0.057557147 0.085997149 0.71100003
0.058662862 0.085634291 0.708
0.05992667 0.085513338 0.70700002
0.061273336 0.085513338 0.70700002
0.062620007 0.085513338 0.70700002
-0.064666674 0.086000003 0.70000005
-0.063152388 0.08575429 0.69800001
-0.061734289 0.085631438 0.69700003
-0.060493339 0.08575429 0.69800001
-0.059163813 0.08575429 0.69800001
-0.057751432 0.085631438 0.69700003
-0.056423813 0.085631438 0.69700003
-0.055333339 0.086000003 0.70000005
-0.054077145 0.086122863 0.70100003
-0.052741908 0.086122863 0.70100003
-0.051553335 0.086368576 0.70300001
-0.050214291 0.086368576 0.70300001
-0.048875242 0.086368576 0.70300001
-0.047536194 0.086368576 0.70300001
-0.046197146 0.086368576 0.70300001
-0.044858098 0.086368576 0.70300001
-0.04351905 0.086368576 0.70300001
-0.042060003 0.086122863 0.70100003
-0.040724766 0.086122863 0.70100003
-0.039558098 0.086491436 0.70400006
0.055074289 0.089931436 0.73200005
0.056468576 0.089931436 0.73200005
0.057783812 0.089808576 0.73100001
0.059176195 0.089808576 0.73100001
0.058580004 0.086860009 0.70700002
0.05992667 0.086860009 0.70700002
0.061273336 0.086860009 0.70700002
-0.06333334 0.087333336 0.70000005
-0.061822861 0.087083817 0.69800001
-0.060666669 0.087333336 0.70000005
-0.059333336 0.087333336 0.70000005
-0.05808286 0.087458104 0.70100003
-0.056909528 0.087707624 0.70300001
-0.055570479 0.087707624 0.70300001
-0.054231431 0.087707624 0.70300001
-0.052967623 0.087832384 0.70400006
-0.051626671 0.087832384 0.70400006
-0.050285719 0.087832384 0.70400006
-0.048875242 0.087707624 0.70300001
-0.047603812 0.087832384 0.70400006
-0.04626286 0.087832384 0.70400006
-0.044921909 0.087832384 0.70400006
-0.04351905 0.087707624 0.70300001
-0.042060003 0.087458104 0.70100003
-0.063604765 0.089046672 0.70300001
-0.062088575 0.088793337 0.70100003
-0.060753338 0.088793337 0.70100003
-0.059418101 0.088793337 0.70100003
-0.058248576 0.089046672 0.70300001
-0.056909528 0.089046672 0.70300001
-0.055570479 0.089046672 0.70300001
-0.054231431 0.089046672 0.70300001
-0.052967623 0.089173339 0.70400006
-0.051626671 0.089173339 0.70400006
-0.050285719 0.089173339 0.70400006
-0.048944764 0.089173339 0.70400006
-0.047671434 0.089300007 0.70500004
-0.046328574 0.089300007 0.70500004
