# .PCD v0.7 - Point Cloud Data file format
VERSION 0.7
FIELDS x y z
SIZE 4 4 4
TYPE F F F
COUNT 1 1 1
WIDTH 1341
HEIGHT 1
VIEWPOINT 0 0 0 1 0 0 0
POINTS 1341
DATA ascii
-0.064491436 0.020194286 0.68400002
-0.063096195 0.020164764 0.68300003
-0.061523814 0.020076191 0.68000001
-0.060140003 0.020046668 0.67900002
-0.058846671 0.020046668 0.67900002
-0.057553336 0.020046668 0.67900002
-0.056177147 0.020017143 0.67800003
-0.054723814 0.019958096 0.67600006
-0.053357147 0.019928573 0.67500001
-0.052071434 0.019928573 0.67500001
-0.050710481 0.01989905 0.67400002
-0.049426671 0.01989905 0.67400002
-0.048142862 0.01989905 0.67400002
-0.046859052 0.01989905 0.67400002
-0.045575242 0.01989905 0.67400002
-0.044291433 0.01989905 0.67400002
-0.04307143 0.019928573 0.67500001
-0.041785717 0.019928573 0.67500001
-0.040500004 0.019928573 0.67500001
-0.039214287 0.019928573 0.67500001
-0.037928574 0.019928573 0.67500001
-0.036642861 0.019928573 0.67500001
-0.035357144 0.019928573 0.67500001
-0.034071431 0.019928573 0.67500001
-0.032785717 0.019928573 0.67500001
-0.031546667 0.019958096 0.67600006
-0.03025905 0.019958096 0.67600006
-0.029057145 0.020017143 0.67800003
-0.027806668 0.020046668 0.67900002
-0.026552383 0.020076191 0.68000001
-0.02533143 0.020135239 0.68200004
-0.024032382 0.020135239 0.68200004
-0.022766668 0.020164764 0.68300003
-0.021497143 0.020194286 0.68400002
-0.020194286 0.020194286 0.68400002
-0.070620008 0.021780001 0.69300002
-0.069300003 0.021780001 0.69300002
-0.067783818 0.021717144 0.69100004
-0.066082865 0.021591431 0.68700004
-0.064680003 0.021560002 0.68600005
-0.063188575 0.021497143 0.68400002
-0.061704766 0.021434287 0.68200004
-0.060228575 0.02137143 0.68000001
-0.058933336 0.02137143 0.68000001
-0.057553336 0.021340001 0.67900002
-0.056260005 0.021340001 0.67900002
-0.054885719 0.021308573 0.67800003
-0.053594287 0.021308573 0.67800003
-0.052148573 0.021245716 0.67600006
-0.050785717 0.021214288 0.67500001
-0.049500003 0.021214288 0.67500001
-0.04821429 0.021214288 0.67500001
-0.046928573 0.021214288 0.67500001
-0.04564286 0.021214288 0.67500001
-0.044357147 0.021214288 0.67500001
-0.04307143 0.021214288 0.67500001
-0.041785717 0.021214288 0.67500001
-0.040500004 0.021214288 0.67500001
-0.039272383 0.021245716 0.67600006
-0.037984766 0.021245716 0.67600006
-0.036697146 0.021245716 0.67600006
-0.035409525 0.021245716 0.67600006
-0.034121908 0.021245716 0.67600006
-0.032834288 0.021245716 0.67600006
-0.031640001 0.021308573 0.67800003
-0.030348573 0.021308573 0.67800003
-0.029100003 0.021340001 0.67900002
-0.027847622 0.02137143 0.68000001
-0.026630478 0.021434287 0.68200004
-0.025368573 0.021465715 0.68300003
-0.024102859 0.021497143 0.68400002
-0.022866668 0.021560002 0.68600005
-0.021560002 0.021560002 0.68600005
-0.020282859 0.021591431 0.68700004
-0.072355241 0.023233335 0.69700003
-0.070823811 0.023166668 0.69500005
-0.069400005 0.023133336 0.69400001
-0.068078101 0.023133336 0.69400001
-0.066371433 0.023000002 0.69000006
-0.06477429 0.022900002 0.68700004
-0.063373335 0.022866668 0.68600005
-0.061795242 0.022766668 0.68300003
-0.06040572 0.022733334 0.68200004
-0.058933336 0.022666669 0.68000001
-0.057638098 0.022666669 0.68000001
-0.056260005 0.022633335 0.67900002
-0.05496667 0.022633335 0.67900002
-0.053594287 0.022600001 0.67800003
-0.05230286 0.022600001 0.67800003
-0.050785717 0.022500001 0.67500001
-0.049573336 0.022533335 0.67600006
-0.04821429 0.022500001 0.67500001
-0.046928573 0.022500001 0.67500001
-0.04564286 0.022500001 0.67500001
-0.044357147 0.022500001 0.67500001
-0.043135241 0.022533335 0.67600006
-0.04184762 0.022533335 0.67600006
-0.040560003 0.022533335 0.67600006
-0.039272383 0.022533335 0.67600006
-0.037984766 0.022533335 0.67600006
-0.036805715 0.022600001 0.67800003
-0.035514288 0.022600001 0.67800003
-0.03422286 0.022600001 0.67800003
-0.032931432 0.022600001 0.67800003
-0.031686667 0.022633335 0.67900002
-0.030393336 0.022633335 0.67900002
-0.029142858 0.022666669 0.68000001
-0.027929526 0.022733334 0.68200004
-0.026669526 0.022766668 0.68300003
-0.025405716 0.022800002 0.68400002
-0.024102859 0.022800002 0.68400002
-0.022900002 0.022900002 0.68700004
-0.021591431 0.022900002 0.68700004
-0.020341907 0.022966668 0.68900001
-0.019029524 0.022966668 0.68900001
-0.07368286 0.024560954 0.69700003
-0.072355241 0.024560954 0.69700003
-0.070823811 0.024490478 0.69500005
-0.069500007 0.024490478 0.69500005
-0.068078101 0.02445524 0.69400001
-0.06646762 0.024349526 0.69100004
-0.064962864 0.024279049 0.68900001
-0.063373335 0.024173334 0.68600005
-0.061885718 0.024102859 0.68400002
-0.060494289 0.02406762 0.68300003
-0.05910667 0.024032382 0.68200004
-0.057638098 0.023961907 0.68000001
-0.056342863 0.023961907 0.68000001
-0.055047624 0.023961907 0.68000001
-0.053673338 0.023926668 0.67900002
-0.052380003 0.023926668 0.67900002
-0.050860956 0.023820953 0.67600006
-0.049573336 0.023820953 0.67600006
-0.048285719 0.023820953 0.67600006
-0.046998098 0.023820953 0.67600006
-0.045710478 0.023820953 0.67600006
-0.044422861 0.023820953 0.67600006
-0.043262862 0.02389143 0.67800003
-0.04197143 0.02389143 0.67800003
-0.040680002 0.02389143 0.67800003
-0.039388575 0.02389143 0.67800003
-0.038097147 0.02389143 0.67800003
-0.036805715 0.02389143 0.67800003
-0.035514288 0.02389143 0.67800003
-0.03422286 0.02389143 0.67800003
-0.032931432 0.02389143 0.67800003
-0.031686667 0.023926668 0.67900002
-0.030438097 0.023961907 0.68000001
-0.029228574 0.024032382 0.68200004
-0.027970478 0.02406762 0.68300003
-0.026708573 0.024102859 0.68400002
-0.025480002 0.024173334 0.68600005
-0.024173334 0.024173334 0.68600005
-0.022900002 0.024208574 0.68700004
-0.021654287 0.024279049 0.68900001
-0.020341907 0.024279049 0.68900001
-0.019057143 0.024314288 0.69000006
-0.07368286 0.025888573 0.69700003
-0.072355241 0.025888573 0.69700003
-0.070823811 0.025814287 0.69500005
-0.069500007 0.025814287 0.69500005
-0.068078101 0.025777144 0.69400001
-0.06646762 0.025665715 0.69100004
-0.064962864 0.025591429 0.68900001
-0.063373335 0.025480002 0.68600005
-0.062066671 0.025480002 0.68600005
-0.060494289 0.025368573 0.68300003
-0.059193335 0.025368573 0.68300003
-0.057807624 0.02533143 0.68200004
-0.056508575 0.02533143 0.68200004
-0.055047624 0.025257144 0.68000001
-0.053752385 0.025257144 0.68000001
-0.052380003 0.025220001 0.67900002
-0.051086672 0.025220001 0.67900002
-0.049720004 0.025182858 0.67800003
-0.048428576 0.025182858 0.67800003
-0.047137145 0.025182858 0.67800003
-0.045845717 0.025182858 0.67800003
-0.044554289 0.025182858 0.67800003
-0.043262862 0.025182858 0.67800003
-0.04197143 0.025182858 0.67800003
-0.040680002 0.025182858 0.67800003
-0.039446671 0.025220001 0.67900002
-0.038153335 0.025220001 0.67900002
-0.036860004 0.025220001 0.67900002
-0.035566669 0.025220001 0.67900002
-0.034273334 0.025220001 0.67900002
-0.032980002 0.025220001 0.67900002
-0.031733334 0.025257144 0.68000001
-0.030527622 0.02533143 0.68200004
-0.029271431 0.025368573 0.68300003
-0.02801143 0.025405716 0.68400002
-0.026708573 0.025405716 0.68400002
-0.025480002 0.025480002 0.68600005
-0.024208574 0.025517145 0.68700004
-0.022966668 0.025591429 0.68900001
-0.021654287 0.025591429 0.68900001
-0.02037143 0.025628572 0.69000006
-0.019057143 0.025628572 0.69000006
-0.017768573 0.025665715 0.69100004
-0.071027622 0.027216192 0.69700003
-0.069500007 0.027138097 0.69500005
-0.067980006 0.027060002 0.69300002
-0.06646762 0.026981907 0.69100004
-0.065057144 0.026942858 0.69000006
-0.063465722 0.026825717 0.68700004
-0.062157147 0.026825717 0.68700004
-0.060582861 0.026708573 0.68400002
-0.059280004 0.026708573 0.68400002
-0.057892386 0.026669526 0.68300003
-0.056508575 0.026630478 0.68200004
-0.055209529 0.026630478 0.68200004
-0.053752385 0.026552383 0.68000001
-0.052457146 0.026552383 0.68000001
-0.051161908 0.026552383 0.68000001
-0.049793337 0.026513334 0.67900002
-0.048500001 0.026513334 0.67900002
-0.04720667 0.026513334 0.67900002
-0.045913335 0.026513334 0.67900002
-0.044620004 0.026513334 0.67900002
-0.043326668 0.026513334 0.67900002
-0.042033337 0.026513334 0.67900002
-0.040740002 0.026513334 0.67900002
-0.039446671 0.026513334 0.67900002
-0.038153335 0.026513334 0.67900002
-0.036860004 0.026513334 0.67900002
-0.035566669 0.026513334 0.67900002
-0.034323812 0.026552383 0.68000001
-0.033028573 0.026552383 0.68000001
-0.031733334 0.026552383 0.68000001
-0.030572383 0.026669526 0.68300003
-0.029271431 0.026669526 0.68300003
-0.02801143 0.026708573 0.68400002
-0.026786668 0.026786668 0.68600005
-0.025480002 0.026786668 0.68600005
-0.024208574 0.026825717 0.68700004
-0.022966668 0.026903812 0.68900001
-0.021685716 0.026942858 0.69000006
-0.02037143 0.026942858 0.69000006
-0.019084763 0.026981907 0.69100004
-0.017820001 0.027060002 0.69300002
-0.069500007 0.028461907 0.69500005
-0.067980006 0.028380001 0.69300002
-0.06646762 0.028298097 0.69100004
-0.065057144 0.028257145 0.69000006
-0.063650481 0.028216192 0.68900001
-0.062157147 0.028134288 0.68700004
-0.060760003 0.028093334 0.68600005
-0.059280004 0.02801143 0.68400002
-0.057977147 0.02801143 0.68400002
-0.056591433 0.027970478 0.68300003
-0.055209529 0.027929526 0.68200004
-0.053910479 0.027929526 0.68200004
-0.052457146 0.027847622 0.68000001
-0.051161908 0.027847622 0.68000001
-0.049866669 0.027847622 0.68000001
-0.048500001 0.027806668 0.67900002
-0.04720667 0.027806668 0.67900002
-0.045913335 0.027806668 0.67900002
-0.044620004 0.027806668 0.67900002
-0.043326668 0.027806668 0.67900002
-0.042033337 0.027806668 0.67900002
-0.040740002 0.027806668 0.67900002
-0.039446671 0.027806668 0.67900002
-0.038153335 0.027806668 0.67900002
-0.036914289 0.027847622 0.68000001
-0.03561905 0.027847622 0.68000001
-0.034323812 0.027847622 0.68000001
-0.033125717 0.027929526 0.68200004
-0.031826667 0.027929526 0.68200004
-0.030572383 0.027970478 0.68300003
-0.029314287 0.02801143 0.68400002
-0.02801143 0.02801143 0.68400002
-0.026786668 0.028093334 0.68600005
-0.025517145 0.028134288 0.68700004
-0.024279049 0.028216192 0.68900001
-0.023000002 0.028257145 0.69000006
-0.021717144 0.028298097 0.69100004
-0.020400954 0.028298097 0.69100004
-0.019140001 0.028380001 0.69300002
-0.017845716 0.028420955 0.69400001
-0.069500007 0.029785717 0.69500005
-0.067980006 0.029700002 0.69300002
-0.06646762 0.029614288 0.69100004
-0.065057144 0.029571431 0.69000006
-0.063650481 0.029528573 0.68900001
-0.062157147 0.02944286 0.68700004
-0.060760003 0.029400002 0.68600005
-0.059453338 0.029400002 0.68600005
-0.057977147 0.029314287 0.68400002
-0.05667429 0.029314287 0.68400002
-0.055290479 0.029271431 0.68300003
-0.053989526 0.029271431 0.68300003
-0.052611433 0.029228574 0.68200004
-0.051161908 0.029142858 0.68000001
-0.049866669 0.029142858 0.68000001
-0.04857143 0.029142858 0.68000001
-0.047276195 0.029142858 0.68000001
-0.045913335 0.029100003 0.67900002
-0.044620004 0.029100003 0.67900002
-0.043326668 0.029100003 0.67900002
-0.04209524 0.029142858 0.68000001
-0.040740002 0.029100003 0.67900002
-0.039504763 0.029142858 0.68000001
-0.038209528 0.029142858 0.68000001
-0.036914289 0.029142858 0.68000001
-0.03561905 0.029142858 0.68000001
-0.034424763 0.029228574 0.68200004
-0.033125717 0.029228574 0.68200004
-0.031826667 0.029228574 0.68200004
-0.030617144 0.029314287 0.68400002
-0.029314287 0.029314287 0.68400002
-0.028093334 0.029400002 0.68600005
-0.026825717 0.02944286 0.68700004
-0.025517145 0.02944286 0.68700004
-0.024314288 0.029571431 0.69000006
-0.023033334 0.029614288 0.69100004
-0.021717144 0.029614288 0.69100004
-0.020460002 0.029700002 0.69300002
-0.019140001 0.029700002 0.69300002
-0.017845716 0.029742859 0.69400001
-0.01654762 0.029785717 0.69500005
-0.069500007 0.031109527 0.69500005
-0.067980006 0.031020002 0.69300002
-0.06646762 0.030930478 0.69100004
-0.065151431 0.030930478 0.69100004
-0.063742861 0.030885717 0.69000006
-0.062338099 0.030840954 0.68900001
-0.060760003 0.030706668 0.68600005
-0.059453338 0.030706668 0.68600005
-0.05814667 0.030706668 0.68600005
-0.056840003 0.030706668 0.68600005
-0.055371433 0.030617144 0.68400002
-0.054068577 0.030617144 0.68400002
-0.052688576 0.030572383 0.68300003
-0.051312383 0.030527622 0.68200004
-0.050013337 0.030527622 0.68200004
-0.04857143 0.030438097 0.68000001
-0.047276195 0.030438097 0.68000001
-0.045980956 0.030438097 0.68000001
-0.044685718 0.030438097 0.68000001
-0.043390479 0.030438097 0.68000001
-0.04209524 0.030438097 0.68000001
-0.040800001 0.030438097 0.68000001
-0.039504763 0.030438097 0.68000001
-0.038209528 0.030438097 0.68000001
-0.037022859 0.030527622 0.68200004
-0.035723813 0.030527622 0.68200004
-0.034424763 0.030527622 0.68200004
-0.033174288 0.030572383 0.68300003
-0.031873334 0.030572383 0.68300003
-0.030617144 0.030617144 0.68400002
-0.029400002 0.030706668 0.68600005
-0.028093334 0.030706668 0.68600005
-0.026825717 0.030751431 0.68700004
-0.025591429 0.030840954 0.68900001
-0.024314288 0.030885717 0.69000006
-0.023033334 0.030930478 0.69100004
-0.021717144 0.030930478 0.69100004
-0.020460002 0.031020002 0.69300002
-0.019140001 0.031020002 0.69300002
-0.017845716 0.031064764 0.69400001
-0.01654762 0.031109527 0.69500005
-0.071027622 0.032526668 0.69700003
-0.069500007 0.032433335 0.69500005
-0.067980006 0.032340001 0.69300002
-0.066660002 0.032340001 0.69300002
-0.065151431 0.032246668 0.69100004
-0.063742861 0.032200001 0.69000006
-0.062428575 0.032200001 0.69000006
-0.060848575 0.032060001 0.68700004
-0.059540004 0.032060001 0.68700004
-0.05814667 0.032013334 0.68600005
-0.056840003 0.032013334 0.68600005
-0.055533338 0.032013334 0.68600005
-0.054068577 0.031920001 0.68400002
-0.052688576 0.031873334 0.68300003
-0.051387623 0.031873334 0.68300003
-0.05008667 0.031873334 0.68300003
-0.048714288 0.031826667 0.68200004
-0.047276195 0.031733334 0.68000001
-0.045980956 0.031733334 0.68000001
-0.044685718 0.031733334 0.68000001
-0.0435181 0.031826667 0.68200004
-0.04221905 0.031826667 0.68200004
-0.040920004 0.031826667 0.68200004
-0.039620955 0.031826667 0.68200004
-0.038321909 0.031826667 0.68200004
-0.037077144 0.031873334 0.68300003
-0.035776194 0.031873334 0.68300003
-0.034475241 0.031873334 0.68300003
-0.033222858 0.031920001 0.68400002
-0.031920001 0.031920001 0.68400002
-0.030617144 0.031920001 0.68400002
-0.029400002 0.032013334 0.68600005
-0.028134288 0.032060001 0.68700004
-0.026903812 0.032153334 0.68900001
-0.025591429 0.032153334 0.68900001
-0.024349526 0.032246668 0.69100004
-0.023033334 0.032246668 0.69100004
-0.021780001 0.032340001 0.69300002
-0.020460002 0.032340001 0.69300002
-0.019167621 0.032386668 0.69400001
-0.01787143 0.032433335 0.69500005
-0.016595239 0.032526668 0.69700003
-0.074740008 0.034340002 0.70700002
-0.07318572 0.034242861 0.70500004
-0.071842864 0.034242861 0.70500004
-0.069700003 0.033854287 0.69700003
-0.067980006 0.033660002 0.69300002
-0.066660002 0.033660002 0.69300002
-0.065151431 0.033562858 0.69100004
-0.063742861 0.033514287 0.69000006
-0.062428575 0.033514287 0.69000006
-0.06102572 0.033465717 0.68900001
-0.059540004 0.033368573 0.68700004
-0.058231432 0.033368573 0.68700004
-0.056840003 0.033320002 0.68600005
-0.055533338 0.033320002 0.68600005
-0.05422667 0.033320002 0.68600005
-0.05276572 0.033222858 0.68400002
-0.051462859 0.033222858 0.68400002
-0.05008667 0.033174288 0.68300003
-0.048714288 0.033125717 0.68200004
-0.047415242 0.033125717 0.68200004
-0.046116192 0.033125717 0.68200004
-0.044817146 0.033125717 0.68200004
-0.0435181 0.033125717 0.68200004
-0.04221905 0.033125717 0.68200004
-0.040920004 0.033125717 0.68200004
-0.039620955 0.033125717 0.68200004
-0.038321909 0.033125717 0.68200004
-0.037077144 0.033174288 0.68300003
-0.035776194 0.033174288 0.68300003
-0.034525715 0.033222858 0.68400002
-0.033222858 0.033222858 0.68400002
-0.031920001 0.033222858 0.68400002
-0.030706668 0.033320002 0.68600005
-0.029400002 0.033320002 0.68600005
-0.028134288 0.033368573 0.68700004
-0.026903812 0.033465717 0.68900001
-0.025628572 0.033514287 0.69000006
-0.024349526 0.033562858 0.69100004
-0.023033334 0.033562858 0.69100004
-0.021780001 0.033660002 0.69300002
-0.020460002 0.033660002 0.69300002
-0.019167621 0.033708572 0.69400001
-0.01787143 0.033757146 0.69500005
-0.016595239 0.033854287 0.69700003
-0.074740008 0.035686668 0.70700002
-0.07318572 0.035585716 0.70500004
-0.071842864 0.035585716 0.70500004
-0.070100002 0.035383813 0.70100003
-0.068372384 0.035181906 0.69700003
-0.066756196 0.035030477 0.69400001
-0.065340005 0.034980003 0.69300002
-0.063835241 0.034879051 0.69100004
-0.062519051 0.034879051 0.69100004
-0.061114289 0.034828573 0.69000006
-0.059800003 0.034828573 0.69000006
-0.058400955 0.034778096 0.68900001
-0.057088576 0.034778096 0.68900001
-0.055614289 0.034677144 0.68700004
-0.05422667 0.03462667 0.68600005
-0.052920002 0.03462667 0.68600005
-0.051462859 0.034525715 0.68400002
-0.050160002 0.034525715 0.68400002
-0.048857145 0.034525715 0.68400002
-0.047484767 0.034475241 0.68300003
-0.046183813 0.034475241 0.68300003
-0.04488286 0.034475241 0.68300003
-0.043581907 0.034475241 0.68300003
-0.042280953 0.034475241 0.68300003
-0.040980004 0.034475241 0.68300003
-0.03967905 0.034475241 0.68300003
-0.038434289 0.034525715 0.68400002
-0.037131432 0.034525715 0.68400002
-0.035828575 0.034525715 0.68400002
-0.034525715 0.034525715 0.68400002
-0.033320002 0.03462667 0.68600005
-0.032013334 0.03462667 0.68600005
-0.030751431 0.034677144 0.68700004
-0.029528573 0.034778096 0.68900001
-0.028216192 0.034778096 0.68900001
-0.026942858 0.034828573 0.69000006
-0.025628572 0.034828573 0.69000006
-0.024349526 0.034879051 0.69100004
-0.023033334 0.034879051 0.69100004
-0.021780001 0.034980003 0.69300002
-0.020489525 0.035030477 0.69400001
-0.01919524 0.035080954 0.69500005
-0.017922858 0.035181906 0.69700003
-0.016666668 0.035333335 0.70000005
-0.015355239 0.035383813 0.70100003
-0.07608667 0.037033334 0.70700002
-0.074740008 0.037033334 0.70700002
-0.07318572 0.036928575 0.70500004
-0.071842864 0.036928575 0.70500004
-0.070100002 0.03671905 0.70100003
-0.068470478 0.036561906 0.69800001
-0.066852383 0.036404766 0.69500005
-0.065434292 0.036352385 0.69400001
-0.064020008 0.036300004 0.69300002
-0.062519051 0.036195241 0.69100004
-0.061114289 0.03614286 0.69000006
-0.059800003 0.03614286 0.69000006
-0.058400955 0.036090478 0.68900001
-0.057088576 0.036090478 0.68900001
-0.055614289 0.035985716 0.68700004
-0.054305717 0.035985716 0.68700004
-0.052920002 0.035933334 0.68600005
-0.051613338 0.035933334 0.68600005
-0.050160002 0.035828575 0.68400002
-0.048857145 0.035828575 0.68400002
-0.047554288 0.035828575 0.68400002
-0.046251431 0.035828575 0.68400002
-0.04488286 0.035776194 0.68300003
-0.043645717 0.035828575 0.68400002
-0.04234286 0.035828575 0.68400002
-0.041040003 0.035828575 0.68400002
-0.039737146 0.035828575 0.68400002
-0.038434289 0.035828575 0.68400002
-0.037131432 0.035828575 0.68400002
-0.035828575 0.035828575 0.68400002
-0.03462667 0.035933334 0.68600005
-0.033320002 0.035933334 0.68600005
-0.032013334 0.035933334 0.68600005
-0.030751431 0.035985716 0.68700004
-0.029528573 0.036090478 0.68900001
-0.028257145 0.03614286 0.69000006
-0.026942858 0.03614286 0.69000006
-0.025665715 0.036195241 0.69100004
-0.024349526 0.036195241 0.69100004
-0.023033334 0.036195241 0.69100004
-0.021780001 0.036300004 0.69300002
-0.02051905 0.036404766 0.69500005
-0.019250477 0.036509525 0.69700003
-0.018000001 0.036666669 0.70000005
-0.016690478 0.03671905 0.70100003
-0.015355239 0.03671905 0.70100003
-0.014060001 0.036823813 0.70300001
-0.07743334 0.038380001 0.70700002
-0.07608667 0.038380001 0.70700002
-0.074740008 0.038380001 0.70700002
-0.07318572 0.038271431 0.70500004
-0.071740955 0.038217146 0.70400006
-0.070100002 0.038054287 0.70100003
-0.068470478 0.037891433 0.69800001
-0.067044765 0.037837144 0.69700003
-0.065528579 0.037728574 0.69500005
-0.064112388 0.037674289 0.69400001
-0.062700003 0.037620004 0.69300002
-0.061202861 0.037511431 0.69100004
-0.059800003 0.037457146 0.69000006
-0.058400955 0.037402861 0.68900001
-0.057088576 0.037402861 0.68900001
-0.055614289 0.037294287 0.68700004
-0.054305717 0.037294287 0.68700004
-0.052920002 0.037240002 0.68600005
-0.051613338 0.037240002 0.68600005
-0.05030667 0.037240002 0.68600005
-0.049000002 0.037240002 0.68600005
-0.047554288 0.037131432 0.68400002
-0.046251431 0.037131432 0.68400002
-0.044948574 0.037131432 0.68400002
-0.043645717 0.037131432 0.68400002
-0.04234286 0.037131432 0.68400002
-0.041040003 0.037131432 0.68400002
-0.039737146 0.037131432 0.68400002
-0.038434289 0.037131432 0.68400002
-0.037131432 0.037131432 0.68400002
-0.035933334 0.037240002 0.68600005
-0.03462667 0.037240002 0.68600005
-0.033320002 0.037240002 0.68600005
-0.032060001 0.037294287 0.68700004
-0.030751431 0.037294287 0.68700004
-0.029528573 0.037402861 0.68900001
-0.028216192 0.037402861 0.68900001
-0.026942858 0.037457146 0.69000006
-0.025665715 0.037511431 0.69100004
-0.024349526 0.037511431 0.69100004
-0.023100002 0.037620004 0.69300002
-0.021811429 0.037674289 0.69400001
-0.02051905 0.037728574 0.69500005
-0.019250477 0.037837144 0.69700003
-0.018000001 0.038000003 0.70000005
-0.016690478 0.038054287 0.70100003
-0.015355239 0.038054287 0.70100003
-0.014060001 0.038162861 0.70300001
-0.07743334 0.039726671 0.70700002
-0.07608667 0.039726671 0.70700002
-0.074740008 0.039726671 0.70700002
-0.07318572 0.03961429 0.70500004
-0.071740955 0.039558098 0.70400006
-0.070100002 0.039389525 0.70100003
-0.068666674 0.039333336 0.70000005
-0.067044765 0.039164763 0.69700003
-0.065717146 0.039164763 0.69700003
-0.064204767 0.039052382 0.69500005
-0.062790483 0.038996194 0.69400001
-0.061202861 0.03882762 0.69100004
-0.059800003 0.038771432 0.69000006
-0.058485717 0.038771432 0.69000006
-0.057088576 0.03871524 0.68900001
-0.055614289 0.038602859 0.68700004
-0.054305717 0.038602859 0.68700004
-0.052997146 0.038602859 0.68700004
-0.051688574 0.038602859 0.68700004
-0.05030667 0.03854667 0.68600005
-0.049000002 0.03854667 0.68600005
-0.047554288 0.038434289 0.68400002
-0.046251431 0.038434289 0.68400002
-0.044948574 0.038434289 0.68400002
-0.043645717 0.038434289 0.68400002
-0.04234286 0.038434289 0.68400002
-0.041040003 0.038434289 0.68400002
-0.039737146 0.038434289 0.68400002
-0.038434289 0.038434289 0.68400002
-0.037240002 0.03854667 0.68600005
-0.035933334 0.03854667 0.68600005
-0.03462667 0.03854667 0.68600005
-0.033320002 0.03854667 0.68600005
-0.032060001 0.038602859 0.68700004
-0.030840954 0.03871524 0.68900001
-0.029528573 0.03871524 0.68900001
-0.028257145 0.038771432 0.69000006
-0.026942858 0.038771432 0.69000006
-0.025665715 0.03882762 0.69100004
-0.024420002 0.038940001 0.69300002
-0.023100002 0.038940001 0.69300002
-0.021842858 0.039052382 0.69500005
-0.020578096 0.039164763 0.69700003
-0.019278096 0.039220955 0.69800001
-0.018000001 0.039333336 0.70000005
-0.016690478 0.039389525 0.70100003
-0.015399049 0.039501909 0.70300001
-0.014060001 0.039501909 0.70300001
-0.012739048 0.039558098 0.70400006
-0.078891434 0.041131433 0.708
-0.077542864 0.041131433 0.708
-0.07608667 0.041073337 0.70700002
-0.074740008 0.041073337 0.70700002
-0.073393337 0.041073337 0.70700002
-0.071842864 0.040957145 0.70500004
-0.070400007 0.040899049 0.70400006
-0.068666674 0.04066667 0.70000005
-0.067140959 0.040550478 0.69800001
-0.065717146 0.040492382 0.69700003
-0.064204767 0.040376194 0.69500005
-0.062790483 0.040318098 0.69400001
-0.061380003 0.040260002 0.69300002
-0.059800003 0.040085718 0.69000006
-0.058485717 0.040085718 0.69000006
-0.057088576 0.040027622 0.68900001
-0.055776194 0.040027622 0.68900001
-0.054463815 0.040027622 0.68900001
-0.052997146 0.03991143 0.68700004
-0.051688574 0.03991143 0.68700004
-0.05030667 0.039853334 0.68600005
-0.049000002 0.039853334 0.68600005
-0.047693338 0.039853334 0.68600005
-0.04638667 0.039853334 0.68600005
-0.045080002 0.039853334 0.68600005
-0.043773334 0.039853334 0.68600005
-0.04234286 0.039737146 0.68400002
-0.041160002 0.039853334 0.68600005
-0.039737146 0.039737146 0.68400002
-0.038434289 0.039737146 0.68400002
-0.037240002 0.039853334 0.68600005
-0.035933334 0.039853334 0.68600005
-0.03462667 0.039853334 0.68600005
-0.033320002 0.039853334 0.68600005
-0.032060001 0.03991143 0.68700004
-0.030840954 0.040027622 0.68900001
-0.029571431 0.040085718 0.69000006
-0.028257145 0.040085718 0.69000006
-0.026981907 0.040143814 0.69100004
-0.025665715 0.040143814 0.69100004
-0.024420002 0.040260002 0.69300002
-0.023133336 0.040318098 0.69400001
-0.021842858 0.040376194 0.69500005
-0.02060762 0.040550478 0.69800001
-0.019333335 0.04066667 0.70000005
-0.018025715 0.040724766 0.70100003
-0.016738096 0.040840954 0.70300001
-0.015399049 0.040840954 0.70300001
-0.014060001 0.040840954 0.70300001
-0.012720954 0.040840954 0.70300001
-0.07743334 0.042420004 0.70700002
-0.076194294 0.042480003 0.708
-0.074845716 0.042480003 0.708
-0.073393337 0.042420004 0.70700002
-0.071842864 0.042300005 0.70500004
-0.070400007 0.042240001 0.70400006
-0.068764769 0.042060003 0.70100003
-0.067140959 0.041880004 0.69800001
-0.065717146 0.041820005 0.69700003
-0.064204767 0.041700002 0.69500005
-0.062880956 0.041700002 0.69500005
-0.061468575 0.041640002 0.69400001
-0.060060006 0.041580003 0.69300002
-0.058485717 0.041400004 0.69000006
-0.057171434 0.041400004 0.69000006
-0.055776194 0.041340001 0.68900001
-0.054463815 0.041340001 0.68900001
-0.052997146 0.041220002 0.68700004
-0.051688574 0.041220002 0.68700004
-0.05030667 0.041160002 0.68600005
-0.049000002 0.041160002 0.68600005
-0.047693338 0.041160002 0.68600005
-0.04638667 0.041160002 0.68600005
-0.045080002 0.041160002 0.68600005
-0.043773334 0.041160002 0.68600005
-0.04234286 0.041040003 0.68400002
-0.041160002 0.041160002 0.68600005
-0.039737146 0.041040003 0.68400002
-0.03854667 0.041160002 0.68600005
-0.037240002 0.041160002 0.68600005
-0.035933334 0.041160002 0.68600005
-0.03462667 0.041160002 0.68600005
-0.033368573 0.041220002 0.68700004
-0.032153334 0.041340001 0.68900001
-0.030885717 0.041400004 0.69000006
-0.029571431 0.041400004 0.69000006
-0.028257145 0.041400004 0.69000006
-0.026981907 0.041460004 0.69100004
-0.025665715 0.041460004 0.69100004
-0.024420002 0.041580003 0.69300002
-0.023133336 0.041640002 0.69400001
-0.021905717 0.041820005 0.69700003
-0.020666668 0.042000003 0.70000005
-0.019360954 0.042060003 0.70100003
-0.018025715 0.042060003 0.70100003
-0.016738096 0.042180002 0.70300001
-0.015399049 0.042180002 0.70300001
-0.014060001 0.042180002 0.70300001
-0.012684762 0.042060003 0.70100003
-0.076194294 0.043828573 0.708
-0.074845716 0.043828573 0.708
-0.073497146 0.043828573 0.708
-0.072046675 0.04376667 0.70700002
-0.070400007 0.043580957 0.70400006
-0.068666674 0.043333337 0.70000005
-0.067140959 0.043209527 0.69800001
-0.065717146 0.043147624 0.69700003
-0.064204767 0.043023814 0.69500005
-0.062880956 0.043023814 0.69500005
-0.061468575 0.042961907 0.69400001
-0.060060006 0.042900003 0.69300002
-0.058570482 0.042776193 0.69100004
-0.057171434 0.04271429 0.69000006
-0.055776194 0.042652383 0.68900001
-0.054463815 0.042652383 0.68900001
-0.052997146 0.042528573 0.68700004
-0.051688574 0.042528573 0.68700004
-0.05030667 0.04246667 0.68600005
-0.049000002 0.04246667 0.68600005
-0.047693338 0.04246667 0.68600005
-0.04638667 0.04246667 0.68600005
-0.045080002 0.04246667 0.68600005
-0.043773334 0.04246667 0.68600005
-0.04246667 0.04246667 0.68600005
-0.041160002 0.04246667 0.68600005
-0.039853334 0.04246667 0.68600005
-0.03854667 0.04246667 0.68600005
-0.037240002 0.04246667 0.68600005
-0.035985716 0.042528573 0.68700004
-0.034677144 0.042528573 0.68700004
-0.033465717 0.042652383 0.68900001
-0.032153334 0.042652383 0.68900001
-0.030885717 0.04271429 0.69000006
-0.029614288 0.042776193 0.69100004
-0.028298097 0.042776193 0.69100004
-0.026981907 0.042776193 0.69100004
-0.025740001 0.042900003 0.69300002
-0.02445524 0.042961907 0.69400001
-0.023233335 0.043147624 0.69700003
-0.021937145 0.043209527 0.69800001
-0.020666668 0.043333337 0.70000005
-0.019360954 0.04339524 0.70100003
-0.018077144 0.04351905 0.70300001
-0.016738096 0.04351905 0.70300001
-0.015399049 0.04351905 0.70300001
-0.014060001 0.04351905 0.70300001
-0.012684762 0.04339524 0.70100003
-0.076409526 0.045304764 0.71000004
-0.075057149 0.045304764 0.71000004
-0.073497146 0.045177147 0.708
-0.072148576 0.045177147 0.708
-0.070500001 0.044985719 0.70500004
-0.068764769 0.044730481 0.70100003
-0.067140959 0.044539049 0.69800001
-0.065811433 0.044539049 0.69800001
-0.064389527 0.044475242 0.69700003
-0.062880956 0.044347622 0.69500005
-0.061557148 0.044347622 0.69500005
-0.060146671 0.044283811 0.69400001
-0.058570482 0.044092383 0.69100004
-0.057171434 0.044028573 0.69000006
-0.055857148 0.044028573 0.69000006
-0.054463815 0.043964766 0.68900001
-0.052997146 0.043837145 0.68700004
-0.051688574 0.043837145 0.68700004
-0.05030667 0.043773334 0.68600005
-0.049000002 0.043773334 0.68600005
-0.047693338 0.043773334 0.68600005
-0.04638667 0.043773334 0.68600005
-0.045080002 0.043773334 0.68600005
-0.043773334 0.043773334 0.68600005
-0.04246667 0.043773334 0.68600005
-0.041160002 0.043773334 0.68600005
-0.039853334 0.043773334 0.68600005
-0.03854667 0.043773334 0.68600005
-0.037294287 0.043837145 0.68700004
-0.035985716 0.043837145 0.68700004
-0.034778096 0.043964766 0.68900001
-0.033465717 0.043964766 0.68900001
-0.032153334 0.043964766 0.68900001
-0.030885717 0.044028573 0.69000006
-0.029614288 0.044092383 0.69100004
-0.028298097 0.044092383 0.69100004
-0.027060002 0.044220004 0.69300002
-0.025777144 0.044283811 0.69400001
-0.024490478 0.044347622 0.69500005
-0.023233335 0.044475242 0.69700003
-0.021937145 0.044539049 0.69800001
-0.020666668 0.04466667 0.70000005
-0.019360954 0.044730481 0.70100003
-0.018077144 0.044858098 0.70300001
-0.016738096 0.044858098 0.70300001
-0.015399049 0.044858098 0.70300001
-0.014080001 0.044921909 0.70400006
-0.012720954 0.044858098 0.70300001
-0.078528576 0.047117148 0.71700001
-0.07673239 0.046854287 0.71300006
-0.07537429 0.046854287 0.71300006
-0.073704764 0.046657145 0.71000004
-0.072352387 0.046657145 0.71000004
-0.070700005 0.046460003 0.70700002
-0.068764769 0.046065718 0.70100003
-0.067333341 0.046000004 0.70000005
-0.065811433 0.045868576 0.69800001
-0.064389527 0.045802861 0.69700003
-0.063061908 0.045802861 0.69700003
-0.061557148 0.045671433 0.69500005
-0.060146671 0.045605719 0.69400001
-0.058570482 0.045408573 0.69100004
-0.057254288 0.045408573 0.69100004
-0.055857148 0.045342859 0.69000006
-0.054463815 0.045277145 0.68900001
-0.053151432 0.045277145 0.68900001
-0.051688574 0.045145717 0.68700004
-0.05030667 0.045080002 0.68600005
-0.049071431 0.045145717 0.68700004
-0.04776286 0.045145717 0.68700004
-0.046454288 0.045145717 0.68700004
-0.045080002 0.045080002 0.68600005
-0.043837145 0.045145717 0.68700004
-0.04246667 0.045080002 0.68600005
-0.041220002 0.045145717 0.68700004
-0.03991143 0.045145717 0.68700004
-0.038602859 0.045145717 0.68700004
-0.037294287 0.045145717 0.68700004
-0.036090478 0.045277145 0.68900001
-0.034778096 0.045277145 0.68900001
-0.033465717 0.045277145 0.68900001
-0.032200001 0.045342859 0.69000006
-0.030930478 0.045408573 0.69100004
-0.029614288 0.045408573 0.69100004
-0.028298097 0.045408573 0.69100004
-0.027060002 0.045540001 0.69300002
-0.025777144 0.045605719 0.69400001
-0.024490478 0.045671433 0.69500005
-0.023233335 0.045802861 0.69700003
-0.022000002 0.046000004 0.70000005
-0.020666668 0.046000004 0.70000005
-0.019360954 0.046065718 0.70100003
-0.018077144 0.046197146 0.70300001
-0.016738096 0.046197146 0.70300001
-0.015420954 0.04626286 0.70400006
-0.014080001 0.04626286 0.70400006
-0.012739048 0.04626286 0.70400006
-0.011446668 0.046460003 0.70700002
-0.078528576 0.048482861 0.71700001
-0.07673239 0.048212383 0.71300006
-0.07537429 0.048212383 0.71300006
-0.073808573 0.048077147 0.71100003
-0.072352387 0.048009526 0.71000004
-0.070700005 0.047806669 0.70700002
-0.068764769 0.047400955 0.70100003
-0.067140959 0.047198098 0.69800001
-0.065811433 0.047198098 0.69800001
-0.064389527 0.04713048 0.69700003
-0.063061908 0.04713048 0.69700003
-0.061557148 0.046995241 0.69500005
-0.060146671 0.046927623 0.69400001
-0.058740005 0.046860002 0.69300002
-0.057254288 0.046724766 0.69100004
-0.055938099 0.046724766 0.69100004
-0.054542862 0.046657145 0.69000006
-0.053151432 0.046589527 0.68900001
-0.051688574 0.046454288 0.68700004
-0.050380003 0.046454288 0.68700004
-0.049071431 0.046454288 0.68700004
-0.04776286 0.046454288 0.68700004
-0.046454288 0.046454288 0.68700004
-0.045145717 0.046454288 0.68700004
-0.043837145 0.046454288 0.68700004
-0.042528573 0.046454288 0.68700004
-0.041220002 0.046454288 0.68700004
-0.03991143 0.046454288 0.68700004
-0.03871524 0.046589527 0.68900001
-0.037402861 0.046589527 0.68900001
-0.036090478 0.046589527 0.68900001
-0.034778096 0.046589527 0.68900001
-0.033514287 0.046657145 0.69000006
-0.032200001 0.046657145 0.69000006
-0.030930478 0.046724766 0.69100004
-0.029614288 0.046724766 0.69100004
-0.028298097 0.046724766 0.69100004
-0.027099049 0.046927623 0.69400001
-0.025777144 0.046927623 0.69400001
-0.024490478 0.046995241 0.69500005
-0.023233335 0.04713048 0.69700003
-0.022000002 0.047333337 0.70000005
-0.020666668 0.047333337 0.70000005
-0.019360954 0.047400955 0.70100003
-0.018077144 0.047536194 0.70300001
-0.016761906 0.047603812 0.70400006
-0.015420954 0.047603812 0.70400006
-0.014100001 0.047671434 0.70500004
-0.012757144 0.047671434 0.70500004
-0.011446668 0.047806669 0.70700002
-0.076840006 0.049640004 0.71400005
-0.07537429 0.049570478 0.71300006
-0.073808573 0.049431432 0.71100003
-0.072352387 0.049361907 0.71000004
-0.070800006 0.04922286 0.708
-0.068764769 0.048736192 0.70100003
-0.067140959 0.048527621 0.69800001
-0.065811433 0.048527621 0.69800001
-0.064389527 0.048458099 0.69700003
-0.063061908 0.048458099 0.69700003
-0.061557148 0.048319049 0.69500005
-0.060233336 0.048319049 0.69500005
-0.058824766 0.048249528 0.69400001
-0.057420004 0.048180003 0.69300002
-0.055938099 0.048040956 0.69100004
-0.054621909 0.048040956 0.69100004
-0.053228576 0.047971431 0.69000006
-0.05183905 0.047901906 0.68900001
-0.050380003 0.04776286 0.68700004
-0.049071431 0.04776286 0.68700004
-0.04776286 0.04776286 0.68700004
-0.046454288 0.04776286 0.68700004
-0.045145717 0.04776286 0.68700004
-0.043837145 0.04776286 0.68700004
-0.042528573 0.04776286 0.68700004
-0.041340001 0.047901906 0.68900001
-0.040027622 0.047901906 0.68900001
-0.03871524 0.047901906 0.68900001
-0.037402861 0.047901906 0.68900001
-0.03614286 0.047971431 0.69000006
-0.034828573 0.047971431 0.69000006
-0.033514287 0.047971431 0.69000006
-0.032200001 0.047971431 0.69000006
-0.030930478 0.048040956 0.69100004
-0.029700002 0.048180003 0.69300002
-0.028380001 0.048180003 0.69300002
-0.027099049 0.048249528 0.69400001
-0.025814287 0.048319049 0.69500005
-0.024490478 0.048319049 0.69500005
-0.023233335 0.048458099 0.69700003
-0.021937145 0.048527621 0.69800001
-0.020666668 0.048666671 0.70000005
-0.019360954 0.048736192 0.70100003
-0.018077144 0.048875242 0.70300001
-0.016761906 0.048944764 0.70400006
-0.015420954 0.048944764 0.70400006
-0.014100001 0.049014289 0.70500004
-0.012757144 0.049014289 0.70500004
-0.011446668 0.049153335 0.70700002
-0.076840006 0.051000003 0.71400005
-0.07537429 0.050928574 0.71300006
-0.074016199 0.050928574 0.71300006
-0.072454289 0.050785717 0.71100003
-0.070800006 0.05057143 0.708
-0.069059052 0.050285719 0.70400006
-0.067429528 0.050071433 0.70100003
-0.066000007 0.050000004 0.70000005
-0.064481907 0.049857147 0.69800001
-0.063061908 0.049785718 0.69700003
-0.061557148 0.049642861 0.69500005
-0.060233336 0.049642861 0.69500005
-0.058909528 0.049642861 0.69500005
-0.057420004 0.049500003 0.69300002
-0.056100003 0.049500003 0.69300002
-0.054621909 0.049357146 0.69100004
-0.053305719 0.049357146 0.69100004
-0.05191429 0.049285717 0.69000006
-0.050600003 0.049285717 0.69000006
-0.049285717 0.049285717 0.69000006
-0.047971431 0.049285717 0.69000006
-0.046657145 0.049285717 0.69000006
-0.045342859 0.049285717 0.69000006
-0.044028573 0.049285717 0.69000006
-0.04271429 0.049285717 0.69000006
-0.041400004 0.049285717 0.69000006
-0.040085718 0.049285717 0.69000006
-0.038771432 0.049285717 0.69000006
-0.037457146 0.049285717 0.69000006
-0.036195241 0.049357146 0.69100004
-0.034879051 0.049357146 0.69100004
-0.033562858 0.049357146 0.69100004
-0.032246668 0.049357146 0.69100004
-0.031020002 0.049500003 0.69300002
-0.029700002 0.049500003 0.69300002
-0.028420955 0.049571432 0.69400001
-0.027138097 0.049642861 0.69500005
-0.025814287 0.049642861 0.69500005
-0.024560954 0.049785718 0.69700003
-0.023266668 0.049857147 0.69800001
-0.022000002 0.050000004 0.70000005
-0.020666668 0.050000004 0.70000005
-0.019360954 0.050071433 0.70100003
-0.018077144 0.050214291 0.70300001
-0.016761906 0.050285719 0.70400006
-0.015442858 0.050357144 0.70500004
-0.014140001 0.050500002 0.70700002
-0.01281143 0.05057143 0.708
-0.011446668 0.050500002 0.70700002
-0.078200005 0.052360002 0.71400005
-0.076840006 0.052360002 0.71400005
-0.07537429 0.05228667 0.71300006
-0.073808573 0.052140005 0.71100003
-0.072454289 0.052140005 0.71100003
-0.070800006 0.051920004 0.708
-0.069059052 0.051626671 0.70400006
-0.067621909 0.051553335 0.70300001
-0.066000007 0.051333338 0.70000005
-0.064481907 0.05118667 0.69800001
-0.063061908 0.051113337 0.69700003
-0.061734289 0.051113337 0.69700003
-0.060233336 0.050966669 0.69500005
-0.058909528 0.050966669 0.69500005
-0.057420004 0.050820004 0.69300002
-0.056100003 0.050820004 0.69300002
-0.054780003 0.050820004 0.69300002
-0.053305719 0.050673336 0.69100004
-0.051989526 0.050673336 0.69100004
-0.050600003 0.050600003 0.69000006
-0.049285717 0.050600003 0.69000006
-0.047971431 0.050600003 0.69000006
-0.046657145 0.050600003 0.69000006
-0.045342859 0.050600003 0.69000006
-0.044028573 0.050600003 0.69000006
-0.04271429 0.050600003 0.69000006
-0.041460004 0.050673336 0.69100004
-0.040143814 0.050673336 0.69100004
-0.03882762 0.050673336 0.69100004
-0.037511431 0.050673336 0.69100004
-0.036195241 0.050673336 0.69100004
-0.034879051 0.050673336 0.69100004
-0.033562858 0.050673336 0.69100004
-0.032246668 0.050673336 0.69100004
-0.031020002 0.050820004 0.69300002
-0.029742859 0.050893337 0.69400001
-0.028420955 0.050893337 0.69400001
-0.027138097 0.050966669 0.69500005
-0.025814287 0.050966669 0.69500005
-0.024560954 0.051113337 0.69700003
-0.023266668 0.05118667 0.69800001
-0.022000002 0.051333338 0.70000005
-0.020666668 0.051333338 0.70000005
-0.019360954 0.05140667 0.70100003
-0.018077144 0.051553335 0.70300001
-0.016761906 0.051626671 0.70400006
-0.015442858 0.051700003 0.70500004
-0.014140001 0.051846672 0.70700002
-0.01281143 0.051920004 0.708
-0.011446668 0.051846672 0.70700002
-0.078090481 0.053644765 0.71300006
-0.07673239 0.053644765 0.71300006
-0.075162865 0.05349429 0.71100003
-0.073704764 0.05341905 0.71000004
-0.072352387 0.05341905 0.71000004
-0.070800006 0.053268574 0.708
-0.069059052 0.052967623 0.70400006
-0.067621909 0.052892383 0.70300001
-0.066000007 0.052666672 0.70000005
-0.064481907 0.052516192 0.69800001
-0.063061908 0.052440956 0.69700003
-0.061734289 0.052440956 0.69700003
-0.060233336 0.052290481 0.69500005
-0.058909528 0.052290481 0.69500005
-0.057420004 0.052140005 0.69300002
-0.056100003 0.052140005 0.69300002
-0.054780003 0.052140005 0.69300002
-0.053305719 0.051989526 0.69100004
-0.051989526 0.051989526 0.69100004
-0.050600003 0.05191429 0.69000006
-0.049285717 0.05191429 0.69000006
-0.047971431 0.05191429 0.69000006
-0.046657145 0.05191429 0.69000006
-0.045342859 0.05191429 0.69000006
-0.044028573 0.05191429 0.69000006
-0.042776193 0.051989526 0.69100004
-0.041460004 0.051989526 0.69100004
-0.040143814 0.051989526 0.69100004
-0.03882762 0.051989526 0.69100004
-0.037511431 0.051989526 0.69100004
-0.036195241 0.051989526 0.69100004
-0.034879051 0.051989526 0.69100004
-0.033660002 0.052140005 0.69300002
-0.032340001 0.052140005 0.69300002
-0.031020002 0.052140005 0.69300002
-0.029785717 0.052290481 0.69500005
-0.028461907 0.052290481 0.69500005
-0.027138097 0.052290481 0.69500005
-0.025888573 0.052440956 0.69700003
-0.024560954 0.052440956 0.69700003
-0.023266668 0.052516192 0.69800001
-0.022000002 0.052666672 0.70000005
-0.020696191 0.052741908 0.70100003
-0.019416193 0.052892383 0.70300001
-0.018102858 0.052967623 0.70400006
-0.016785715 0.053042859 0.70500004
-0.015486668 0.053193338 0.70700002
-0.014160001 0.053268574 0.708
-0.01281143 0.053268574 0.708
-0.011446668 0.053193338 0.70700002
-0.078090481 0.055002861 0.71300006
-0.07651715 0.054848574 0.71100003
-0.075057149 0.054771431 0.71000004
-0.073704764 0.054771431 0.71000004
-0.072148576 0.054617148 0.708
-0.070700005 0.054540005 0.70700002
-0.069059052 0.054308575 0.70400006
-0.067621909 0.054231431 0.70300001
-0.066000007 0.054000005 0.70000005
-0.064481907 0.053845719 0.69800001
-0.063061908 0.053768575 0.69700003
-0.061734289 0.053768575 0.69700003
-0.060233336 0.053614289 0.69500005
-0.058909528 0.053614289 0.69500005
-0.057502862 0.053537145 0.69400001
-0.056100003 0.053460002 0.69300002
-0.054780003 0.053460002 0.69300002
-0.053305719 0.053305719 0.69100004
-0.051989526 0.053305719 0.69100004
-0.050673336 0.053305719 0.69100004
-0.049357146 0.053305719 0.69100004
-0.048040956 0.053305719 0.69100004
-0.046724766 0.053305719 0.69100004
-0.045408573 0.053305719 0.69100004
-0.044092383 0.053305719 0.69100004
-0.042776193 0.053305719 0.69100004
-0.041460004 0.053305719 0.69100004
-0.040143814 0.053305719 0.69100004
-0.03882762 0.053305719 0.69100004
-0.037511431 0.053305719 0.69100004
-0.036195241 0.053305719 0.69100004
-0.034980003 0.053460002 0.69300002
-0.033660002 0.053460002 0.69300002
-0.032386668 0.053537145 0.69400001
-0.031064764 0.053537145 0.69400001
-0.029785717 0.053614289 0.69500005
-0.028461907 0.053614289 0.69500005
-0.027138097 0.053614289 0.69500005
-0.025888573 0.053768575 0.69700003
-0.024560954 0.053768575 0.69700003
-0.023266668 0.053845719 0.69800001
-0.022000002 0.054000005 0.70000005
-0.020696191 0.054077145 0.70100003
-0.019416193 0.054231431 0.70300001
-0.018102858 0.054308575 0.70400006
-0.016785715 0.054385718 0.70500004
-0.015486668 0.054540005 0.70700002
-0.014160001 0.054617148 0.708
-0.01281143 0.054617148 0.708
-0.011462858 0.054617148 0.708
-0.078090481 0.056360956 0.71300006
-0.07651715 0.056202862 0.71100003
-0.075057149 0.056123812 0.71000004
-0.073497146 0.055965718 0.708
-0.072148576 0.055965718 0.708
-0.070800006 0.055965718 0.708
-0.069353335 0.055886671 0.70700002
-0.067621909 0.055570479 0.70300001
-0.066000007 0.055333339 0.70000005
-0.064481907 0.055175241 0.69800001
-0.063061908 0.055096194 0.69700003
-0.061734289 0.055096194 0.69700003
-0.060233336 0.0549381 0.69500005
-0.058909528 0.0549381 0.69500005
-0.057502862 0.05485905 0.69400001
-0.056100003 0.054780003 0.69300002
-0.054780003 0.054780003 0.69300002
-0.053460002 0.054780003 0.69300002
-0.051989526 0.054621909 0.69100004
-0.050673336 0.054621909 0.69100004
-0.049357146 0.054621909 0.69100004
-0.048040956 0.054621909 0.69100004
-0.046724766 0.054621909 0.69100004
-0.045408573 0.054621909 0.69100004
-0.044092383 0.054621909 0.69100004
-0.042776193 0.054621909 0.69100004
-0.041460004 0.054621909 0.69100004
-0.040143814 0.054621909 0.69100004
-0.03882762 0.054621909 0.69100004
-0.037511431 0.054621909 0.69100004
-0.036300004 0.054780003 0.69300002
-0.034980003 0.054780003 0.69300002
-0.033708572 0.05485905 0.69400001
-0.032386668 0.05485905 0.69400001
-0.031109527 0.0549381 0.69500005
-0.029785717 0.0549381 0.69500005
-0.028461907 0.0549381 0.69500005
-0.027216192 0.055096194 0.69700003
-0.025888573 0.055096194 0.69700003
-0.024596192 0.055175241 0.69800001
-0.023266668 0.055175241 0.69800001
-0.022000002 0.055333339 0.70000005
-0.020696191 0.055412386 0.70100003
-0.019416193 0.055570479 0.70300001
-0.018102858 0.055649526 0.70400006
-0.016785715 0.055728573 0.70500004
-0.015486668 0.055886671 0.70700002
-0.014160001 0.055965718 0.708
-0.01281143 0.055965718 0.708
-0.011462858 0.055965718 0.708
-0.078200005 0.057800002 0.71400005
-0.07673239 0.057719052 0.71300006
-0.075162865 0.057557147 0.71100003
-0.073704764 0.057476193 0.71000004
-0.072148576 0.057314288 0.708
-0.070800006 0.057314288 0.708
-0.069353335 0.057233337 0.70700002
-0.067718096 0.056990478 0.70400006
-0.066094287 0.056747623 0.70100003
-0.064666674 0.056666672 0.70000005
-0.063061908 0.056423813 0.69700003
-0.061734289 0.056423813 0.69700003
-0.06040667 0.056423813 0.69700003
-0.058909528 0.056261908 0.69500005
-0.057502862 0.056180958 0.69400001
-0.056180958 0.056180958 0.69400001
-0.054780003 0.056100003 0.69300002
-0.053460002 0.056100003 0.69300002
-0.052140005 0.056100003 0.69300002
-0.050673336 0.055938099 0.69100004
-0.049357146 0.055938099 0.69100004
-0.048040956 0.055938099 0.69100004
-0.046724766 0.055938099 0.69100004
-0.045408573 0.055938099 0.69100004
-0.044092383 0.055938099 0.69100004
-0.042776193 0.055938099 0.69100004
-0.041460004 0.055938099 0.69100004
-0.040143814 0.055938099 0.69100004
-0.038940001 0.056100003 0.69300002
-0.037620004 0.056100003 0.69300002
-0.036352385 0.056180958 0.69400001
-0.035030477 0.056180958 0.69400001
-0.033708572 0.056180958 0.69400001
-0.032433335 0.056261908 0.69500005
-0.031109527 0.056261908 0.69500005
-0.029785717 0.056261908 0.69500005
-0.028461907 0.056261908 0.69500005
-0.027216192 0.056423813 0.69700003
-0.025888573 0.056423813 0.69700003
-0.024596192 0.056504767 0.69800001
-0.023266668 0.056504767 0.69800001
-0.022000002 0.056666672 0.70000005
-0.020696191 0.056747623 0.70100003
-0.019416193 0.056909528 0.70300001
-0.018102858 0.056990478 0.70400006
-0.016785715 0.057071432 0.70500004
-0.015486668 0.057233337 0.70700002
-0.014160001 0.057314288 0.708
-0.01284762 0.057476193 0.71000004
-0.011462858 0.057314288 0.708
-0.010157144 0.057557147 0.71100003
-0.078200005 0.059160005 0.71400005
-0.07673239 0.059077147 0.71300006
-0.075162865 0.058911432 0.71100003
-0.073704764 0.058828574 0.71000004
-0.072352387 0.058828574 0.71000004
-0.070800006 0.058662862 0.708
-0.069059052 0.058331434 0.70400006
-0.067718096 0.058331434 0.70400006
-0.066094287 0.05808286 0.70100003
-0.064666674 0.058000002 0.70000005
-0.063152388 0.05783429 0.69800001
-0.061734289 0.057751432 0.69700003
-0.06040667 0.057751432 0.69700003
-0.058909528 0.057585716 0.69500005
-0.057585716 0.057585716 0.69500005
-0.056180958 0.057502862 0.69400001
-0.05485905 0.057502862 0.69400001
-0.053537145 0.057502862 0.69400001
-0.052140005 0.057420004 0.69300002
-0.050820004 0.057420004 0.69300002
-0.049500003 0.057420004 0.69300002
-0.048040956 0.057254288 0.69100004
-0.046724766 0.057254288 0.69100004
-0.045408573 0.057254288 0.69100004
-0.044092383 0.057254288 0.69100004
-0.042776193 0.057254288 0.69100004
-0.041460004 0.057254288 0.69100004
-0.040260002 0.057420004 0.69300002
-0.038940001 0.057420004 0.69300002
-0.037620004 0.057420004 0.69300002
-0.036352385 0.057502862 0.69400001
-0.035030477 0.057502862 0.69400001
-0.033708572 0.057502862 0.69400001
-0.032433335 0.057585716 0.69500005
-0.031109527 0.057585716 0.69500005
-0.029785717 0.057585716 0.69500005
-0.028543811 0.057751432 0.69700003
-0.027216192 0.057751432 0.69700003
-0.025888573 0.057751432 0.69700003
-0.024596192 0.05783429 0.69800001
-0.023266668 0.05783429 0.69800001
-0.022000002 0.058000002 0.70000005
-0.020696191 0.05808286 0.70100003
-0.01944381 0.058331434 0.70400006
-0.018128572 0.058414288 0.70500004
-0.016833335 0.058580004 0.70700002
-0.015486668 0.058580004 0.70700002
-0.014160001 0.058662862 0.708
-0.01284762 0.058828574 0.71000004
-0.011495239 0.058828574 0.71000004
-0.010157144 0.058911432 0.71100003
-0.078200005 0.060520004 0.71400005
-0.07651715 0.06026572 0.71100003
-0.075057149 0.060180955 0.71000004
-0.073704764 0.060180955 0.71000004
-0.072148576 0.060011432 0.708
-0.070800006 0.060011432 0.708
-0.069353335 0.05992667 0.70700002
-0.067718096 0.059672385 0.70400006
