# .PCD v0.7 - Point Cloud Data file format
VERSION 0.7
FIELDS x y z
SIZE 4 4 4
TYPE F F F
COUNT 1 1 1
WIDTH 1353
HEIGHT 1
VIEWPOINT 0 0 0 1 0 0 0
POINTS 1353
DATA ascii
0.021818096 0.047155242 0.73900002
0.023162859 0.047027621 0.73700005
0.024566669 0.047027621 0.73700005
0.02593524 0.046963811 0.73600006
0.027188573 0.046708573 0.73200005
0.028543811 0.046644766 0.73100001
0.029936193 0.046644766 0.73100001
0.031242859 0.046517145 0.72900003
0.032497145 0.046325717 0.72600001
0.033833336 0.046261907 0.72500002
0.035117146 0.046134289 0.72300005
0.036342859 0.045942862 0.72000003
0.037661906 0.045879051 0.71900004
0.038922861 0.04575143 0.71700001
0.040288575 0.04575143 0.71700001
0.041596193 0.045687623 0.71600002
0.042840004 0.045560002 0.71400005
0.0441381 0.045496192 0.71300006
0.045496192 0.045496192 0.71300006
0.046854287 0.045496192 0.71300006
0.048077147 0.045368575 0.71100003
0.049431432 0.045368575 0.71100003
0.050928574 0.045496192 0.71300006
0.05228667 0.045496192 0.71300006
-0.070857145 0.052571431 0.80000001
-0.069333337 0.052571431 0.80000001
-0.067640007 0.052440003 0.79800004
-0.066037148 0.052374288 0.79700005
-0.064519055 0.052374288 0.79700005
-0.063000955 0.052374288 0.79700005
-0.061482862 0.052374288 0.79700005
-0.060040005 0.052440003 0.79800004
-0.058666669 0.052571431 0.80000001
-0.057142861 0.052571431 0.80000001
-0.05561905 0.052571431 0.80000001
-0.054095242 0.052571431 0.80000001
-0.051047623 0.052571431 0.80000001
-0.043860003 0.048037145 0.73100001
-0.04246762 0.048037145 0.73100001
-0.04096286 0.047905717 0.72900003
-0.039520003 0.047840003 0.72800004
-0.038028575 0.047708575 0.72600001
-0.036443811 0.047445718 0.72200006
-0.034825716 0.047117148 0.71700001
-0.033133335 0.046657145 0.71000004
-0.031691432 0.046525717 0.708
-0.030300003 0.046460003 0.70700002
-0.02887143 0.046328574 0.70500004
-0.027450478 0.046197146 0.70300001
-0.026000002 0.046000004 0.70000005
-0.024314288 0.045342859 0.69000006
-0.022866668 0.045080002 0.68600005
-0.021465715 0.04488286 0.68300003
-0.020164764 0.04488286 0.68300003
-0.018836191 0.044817146 0.68200004
-0.017485715 0.044685718 0.68000001
-0.016142858 0.044554289 0.67800003
-0.014763811 0.044291433 0.67400002
-0.013440001 0.044160005 0.67200005
-0.012141906 0.044094287 0.671
-0.01084762 0.044028573 0.67000002
-0.0095714293 0.044028573 0.67000002
-0.00830762 0.044094287 0.671
-0.0050733336 0.050008576 0.76100004
-0.0036238097 0.050008576 0.76100004
-0.0021742859 0.050008576 0.76100004
-0.00072476198 0.050008576 0.76100004
0.00072380959 0.049942862 0.76000005
0.0021714286 0.049942862 0.76000005
0.0036095241 0.04981143 0.75800002
0.0050400002 0.049680002 0.75600004
0.006471429 0.049614288 0.75500005
0.0078885723 0.04948286 0.75300002
0.0093104765 0.049417146 0.75200003
0.010742858 0.049417146 0.75200003
0.012142858 0.049285717 0.75000006
0.013535239 0.049154289 0.74800003
0.014960001 0.049154289 0.74800003
0.016362859 0.049088575 0.74700004
0.017690478 0.048825718 0.74300003
0.019080002 0.048760004 0.74200004
0.020493334 0.048760004 0.74200004
0.021847621 0.048628576 0.74000001
0.023162859 0.04843143 0.73700005
0.024566669 0.04843143 0.73700005
0.02593524 0.048365716 0.73600006
0.027262859 0.048234288 0.73400003
0.02858286 0.048102859 0.73200005
0.029936193 0.048037145 0.73100001
0.031242859 0.047905717 0.72900003
0.032586668 0.047840003 0.72800004
0.033880003 0.047708575 0.72600001
0.035214286 0.047642861 0.72500002
0.036443811 0.047445718 0.72200006
0.037661906 0.047248576 0.71900004
0.039031431 0.047248576 0.71900004
0.040288575 0.047117148 0.71700001
0.041654289 0.047117148 0.71700001
0.042960003 0.047051433 0.71600002
0.044200003 0.046920002 0.71400005
0.045496192 0.046854287 0.71300006
0.046854287 0.046854287 0.71300006
0.048212383 0.046854287 0.71300006
0.049570478 0.046854287 0.71300006
0.050928574 0.046854287 0.71300006
-0.067979053 0.054230481 0.80200005
-0.066285722 0.054095242 0.80000001
-0.064600006 0.053960003 0.79800004
-0.063238099 0.054095242 0.80000001
-0.061714292 0.054095242 0.80000001
-0.06019048 0.054095242 0.80000001
-0.058813337 0.054230481 0.80200005
-0.057285719 0.054230481 0.80200005
-0.054095242 0.054095242 0.80000001
-0.052571431 0.054095242 0.80000001
-0.043860003 0.049429528 0.73100001
-0.04246762 0.049429528 0.73100001
-0.04096286 0.049294289 0.72900003
-0.039574288 0.049294289 0.72900003
-0.038133334 0.049226671 0.72800004
-0.03659524 0.049023814 0.72500002
-0.034971431 0.048685718 0.72000003
-0.033133335 0.048009526 0.71000004
-0.031691432 0.04787429 0.708
-0.030300003 0.047806669 0.70700002
-0.02887143 0.047671434 0.70500004
-0.027372383 0.047400955 0.70100003
-0.025888573 0.04713048 0.69700003
-0.024314288 0.046657145 0.69000006
-0.022866668 0.04638667 0.68600005
-0.021465715 0.046183813 0.68300003
-0.020135239 0.046116192 0.68200004
-0.018753335 0.045913335 0.67900002
-0.017434286 0.045845717 0.67800003
-0.016071429 0.04564286 0.67500001
-0.014720001 0.045440003 0.67200005
-0.013420001 0.045372386 0.671
-0.01212381 0.045304764 0.67000002
-0.01083143 0.045237146 0.66900003
-0.0095571438 0.045237146 0.66900003
-0.0050866669 0.051593337 0.76300001
-0.0036238097 0.051458098 0.76100004
-0.0021742859 0.051458098 0.76100004
-0.00072476198 0.051458098 0.76100004
0.00072380959 0.05139048 0.76000005
0.0021657145 0.051255241 0.75800002
0.0036095241 0.051255241 0.75800002
0.0050400002 0.051120002 0.75600004
0.0064542862 0.050917145 0.75300002
0.0078885723 0.050917145 0.75300002
0.0093104765 0.050849527 0.75200003
0.010714286 0.050714288 0.75000006
0.012142858 0.050714288 0.75000006
0.013535239 0.050579052 0.74800003
0.014960001 0.050579052 0.74800003
0.016362859 0.050511431 0.74700004
0.017690478 0.050240956 0.74300003
0.019105716 0.050240956 0.74300003
0.020493334 0.050173335 0.74200004
0.021847621 0.050038099 0.74000001
0.023225715 0.049970478 0.73900002
0.024566669 0.049835242 0.73700005
0.025970478 0.049835242 0.73700005
0.027262859 0.049632385 0.73400003
0.02858286 0.049497146 0.73200005
0.029936193 0.049429528 0.73100001
0.031242859 0.049294289 0.72900003
0.032631431 0.049294289 0.72900003
0.033880003 0.049091432 0.72600001
0.035214286 0.049023814 0.72500002
0.036443811 0.048820954 0.72200006
0.037714288 0.048685718 0.72000003
0.039031431 0.048618097 0.71900004
0.040400956 0.048618097 0.71900004
0.041654289 0.048482861 0.71700001
0.042960003 0.04841524 0.71600002
0.044200003 0.048280004 0.71400005
0.045560002 0.048280004 0.71400005
0.046854287 0.048212383 0.71300006
0.048212383 0.048212383 0.71300006
0.049570478 0.048212383 0.71300006
0.050928574 0.048212383 0.71300006
0.05228667 0.048212383 0.71300006
-0.043860003 0.050821908 0.73100001
-0.042351432 0.050682861 0.72900003
-0.04096286 0.050682861 0.72900003
-0.039520003 0.050613336 0.72800004
-0.038028575 0.05047429 0.72600001
-0.035737146 0.04922286 0.708
-0.034388572 0.04922286 0.708
-0.033040002 0.04922286 0.708
-0.031646669 0.049153335 0.70700002
-0.030214287 0.049014289 0.70500004
-0.02887143 0.049014289 0.70500004
-0.027372383 0.048736192 0.70100003
-0.025740001 0.048180003 0.69300002
-0.024173334 0.047693338 0.68600005
-0.022800002 0.047554288 0.68400002
-0.02137143 0.047276195 0.68000001
-0.020046668 0.04720667 0.67900002
-0.018725716 0.047137145 0.67800003
-0.017357145 0.046928573 0.67500001
-0.016047619 0.046859052 0.67400002
-0.014720001 0.046720002 0.67200005
-0.013420001 0.04665048 0.671
-0.01212381 0.046580955 0.67000002
-0.01084762 0.046580955 0.67000002
-0.0079723811 0.052907623 0.76100004
-0.0065228576 0.052907623 0.76100004
-0.0050733336 0.052907623 0.76100004
-0.0036238097 0.052907623 0.76100004
-0.0021714286 0.052838098 0.76000005
-0.00072380959 0.052838098 0.76000005
0.00072380959 0.052838098 0.76000005
0.0021657145 0.052699052 0.75800002
0.0036000002 0.052560002 0.75600004
0.0050333338 0.05249048 0.75500005
0.0064542862 0.052351434 0.75300002
0.0078780958 0.052281909 0.75200003
0.0092857145 0.052142862 0.75000006
0.010714286 0.052142862 0.75000006
0.012142858 0.052142862 0.75000006
0.013535239 0.052003812 0.74800003
0.014940001 0.051934291 0.74700004
0.016362859 0.051934291 0.74700004
0.017690478 0.051656194 0.74300003
0.019105716 0.051656194 0.74300003
0.020493334 0.051586669 0.74200004
0.021847621 0.051447622 0.74000001
0.023225715 0.051378097 0.73900002
0.024566669 0.051239051 0.73700005
0.025970478 0.051239051 0.73700005
0.027337145 0.051169526 0.73600006
0.028660955 0.051030479 0.73400003
0.029977145 0.050891433 0.73200005
0.031328574 0.050821908 0.73100001
0.032631431 0.050682861 0.72900003
0.033973336 0.050613336 0.72800004
0.03526286 0.05047429 0.72600001
0.036494289 0.050265718 0.72300005
0.03781905 0.050196193 0.72200006
0.039085716 0.050057147 0.72000003
0.040400956 0.049987622 0.71900004
0.041770481 0.049987622 0.71900004
0.043020003 0.049848575 0.71700001
0.044323813 0.04977905 0.71600002
0.045687623 0.04977905 0.71600002
0.046920002 0.049640004 0.71400005
0.048212383 0.049570478 0.71300006
0.049570478 0.049570478 0.71300006
0.050928574 0.049570478 0.71300006
0.05228667 0.049570478 0.71300006
-0.043860003 0.052214291 0.73100001
-0.04246762 0.052214291 0.73100001
-0.041075241 0.052214291 0.73100001
-0.039574288 0.052071434 0.72900003
-0.038185716 0.052071434 0.72900003
-0.035686668 0.050500002 0.70700002
-0.034340002 0.050500002 0.70700002
-0.033040002 0.05057143 0.708
-0.031557146 0.050357144 0.70500004
-0.030214287 0.050357144 0.70500004
-0.02887143 0.050357144 0.70500004
-0.027606668 0.050500002 0.70700002
-0.025591429 0.049214289 0.68900001
-0.024173334 0.049000002 0.68600005
-0.022766668 0.048785716 0.68300003
-0.02137143 0.04857143 0.68000001
-0.020046668 0.048500001 0.67900002
-0.018725716 0.048428576 0.67800003
-0.017382858 0.048285719 0.67600006
-0.016071429 0.04821429 0.67500001
-0.014763811 0.048142862 0.67400002
-0.013440001 0.048000004 0.67200005
-0.01212381 0.047857147 0.67000002
-0.0079723811 0.054357145 0.76100004
-0.0065228576 0.054357145 0.76100004
-0.0050733336 0.054357145 0.76100004
-0.0036190478 0.054285716 0.76000005
-0.0021714286 0.054285716 0.76000005
-0.00072380959 0.054285716 0.76000005
0.0007219048 0.054142863 0.75800002
0.0021600001 0.054000005 0.75600004
0.0036000002 0.054000005 0.75600004
0.0050333338 0.053928576 0.75500005
0.0064542862 0.053785719 0.75300002
0.0078780958 0.05371429 0.75200003
0.0093104765 0.05371429 0.75200003
0.010714286 0.053571433 0.75000006
0.012142858 0.053571433 0.75000006
0.013535239 0.053428575 0.74800003
0.014960001 0.053428575 0.74800003
0.016362859 0.053357147 0.74700004
0.017690478 0.053071432 0.74300003
0.019105716 0.053071432 0.74300003
0.020493334 0.053000003 0.74200004
0.021847621 0.052857146 0.74000001
0.023225715 0.052785717 0.73900002
0.024566669 0.05264286 0.73700005
0.025970478 0.05264286 0.73700005
0.027337145 0.052571431 0.73600006
0.028660955 0.052428573 0.73400003
0.029977145 0.052285716 0.73200005
0.031328574 0.052214291 0.73100001
0.032720953 0.052214291 0.73100001
0.034020003 0.052071434 0.72900003
0.035360001 0.052000005 0.72800004
0.036645718 0.051857147 0.72600001
0.037871432 0.051642861 0.72300005
0.03919429 0.051571433 0.72200006
0.040457144 0.051428575 0.72000003
0.041770481 0.051357146 0.71900004
0.043140002 0.051357146 0.71900004
0.044385716 0.051214289 0.71700001
0.04575143 0.051214289 0.71700001
0.047051433 0.05114286 0.71600002
0.048280004 0.051000003 0.71400005
0.049640004 0.051000003 0.71400005
0.051000003 0.051000003 0.71400005
0.052360002 0.051000003 0.71400005
-0.043860003 0.05360667 0.73100001
-0.04246762 0.05360667 0.73100001
-0.041075241 0.05360667 0.73100001
-0.039682861 0.05360667 0.73100001
-0.038185716 0.053460002 0.72900003
-0.033040002 0.051920004 0.708
-0.031646669 0.051846672 0.70700002
-0.030300003 0.051846672 0.70700002
-0.028420955 0.050893337 0.69400001
-0.026942858 0.050600003 0.69000006
-0.025591429 0.050526671 0.68900001
-0.024173334 0.05030667 0.68600005
-0.022766668 0.05008667 0.68300003
-0.02137143 0.049866669 0.68000001
-0.020017143 0.049720004 0.67800003
-0.018670477 0.049573336 0.67600006
-0.017357145 0.049500003 0.67500001
-0.016047619 0.049426671 0.67400002
-0.014763811 0.049426671 0.67400002
-0.013440001 0.049280003 0.67200005
-0.012105715 0.049060002 0.66900003
-0.0079723811 0.05580667 0.76100004
-0.0065142862 0.055733338 0.76000005
-0.0050666672 0.055733338 0.76000005
-0.0036190478 0.055733338 0.76000005
-0.0021657145 0.05558667 0.75800002
-0.0007219048 0.05558667 0.75800002
0.0007219048 0.05558667 0.75800002
0.0021600001 0.055440005 0.75600004
0.0036000002 0.055440005 0.75600004
0.0050333338 0.055366669 0.75500005
0.0064457147 0.055146672 0.75200003
0.0078780958 0.055146672 0.75200003
0.0092857145 0.055000003 0.75000006
0.010714286 0.055000003 0.75000006
0.012142858 0.055000003 0.75000006
0.013535239 0.054853339 0.74800003
0.014960001 0.054853339 0.74800003
0.016362859 0.054780003 0.74700004
0.017738096 0.054633338 0.74500006
0.019105716 0.05448667 0.74300003
0.020493334 0.054413337 0.74200004
0.021847621 0.054266669 0.74000001
0.023225715 0.054193337 0.73900002
0.024566669 0.054046672 0.73700005
0.025970478 0.054046672 0.73700005
0.027337145 0.053973336 0.73600006
0.028660955 0.053826671 0.73400003
0.029977145 0.053680003 0.73200005
0.031328574 0.05360667 0.73100001
0.032720953 0.05360667 0.73100001
0.034020003 0.053460002 0.72900003
0.035360001 0.05338667 0.72800004
0.036645718 0.053240005 0.72600001
0.037871432 0.053020004 0.72300005
0.03919429 0.052946672 0.72200006
0.040457144 0.052800003 0.72000003
0.041828573 0.052800003 0.72000003
0.043140002 0.052726671 0.71900004
0.044509526 0.052726671 0.71900004
0.04575143 0.052580003 0.71700001
0.047117148 0.052580003 0.71700001
0.04841524 0.05250667 0.71600002
0.04977905 0.05250667 0.71600002
0.051000003 0.052360002 0.71400005
0.052360002 0.052360002 0.71400005
0.053720005 0.052360002 0.71400005
0.055080004 0.052360002 0.71400005
-0.043920003 0.055074289 0.73200005
-0.042525716 0.055074289 0.73200005
-0.041131433 0.055074289 0.73200005
-0.039682861 0.05499905 0.73100001
-0.038185716 0.054848574 0.72900003
-0.032993335 0.053193338 0.70700002
-0.031512383 0.052967623 0.70400006
-0.03017143 0.052967623 0.70400006
-0.028298097 0.051989526 0.69100004
-0.026942858 0.05191429 0.69000006
-0.025517145 0.051688574 0.68700004
-0.024102859 0.051462859 0.68400002
-0.022766668 0.051387623 0.68300003
-0.021340001 0.051086672 0.67900002
-0.020017143 0.051011432 0.67800003
-0.018642858 0.050785717 0.67500001
-0.017357145 0.050785717 0.67500001
-0.016047619 0.050710481 0.67400002
-0.014720001 0.050560005 0.67200005
-0.013420001 0.050484765 0.671
-0.0108 0.056880005 0.75600004
-0.0094095245 0.057180956 0.76000005
-0.0079619056 0.057180956 0.76000005
-0.0065142862 0.057180956 0.76000005
-0.0050666672 0.057180956 0.76000005
-0.0036095241 0.05703048 0.75800002
-0.0021657145 0.05703048 0.75800002
-0.00072000007 0.056880005 0.75600004
0.00072000007 0.056880005 0.75600004
0.0021600001 0.056880005 0.75600004
0.0035952383 0.056804765 0.75500005
0.0050333338 0.056804765 0.75500005
0.0064457147 0.05657905 0.75200003
0.0078780958 0.05657905 0.75200003
0.0092857145 0.056428574 0.75000006
0.010714286 0.056428574 0.75000006
0.012142858 0.056428574 0.75000006
0.013535239 0.056278098 0.74800003
0.014960001 0.056278098 0.74800003
0.016362859 0.056202862 0.74700004
0.017738096 0.056052383 0.74500006
0.019105716 0.055901907 0.74300003
0.020493334 0.055826671 0.74200004
0.021847621 0.055676196 0.74000001
0.023257144 0.055676196 0.74000001
0.024633335 0.055600956 0.73900002
0.025970478 0.05545048 0.73700005
0.027337145 0.055375241 0.73600006
0.028660955 0.055224765 0.73400003
0.029977145 0.055074289 0.73200005
0.031328574 0.05499905 0.73100001
0.032720953 0.05499905 0.73100001
0.034020003 0.054848574 0.72900003
0.035360001 0.054773338 0.72800004
0.036645718 0.054622862 0.72600001
0.037871432 0.054397147 0.72300005
0.03919429 0.054321907 0.72200006
0.040569525 0.054321907 0.72200006
0.041828573 0.054171432 0.72000003
0.043140002 0.054096196 0.71900004
0.044509526 0.054096196 0.71900004
0.04575143 0.053945716 0.71700001
0.047117148 0.053945716 0.71700001
0.04841524 0.053870481 0.71600002
0.049640004 0.053720005 0.71400005
0.051000003 0.053720005 0.71400005
0.052360002 0.053720005 0.71400005
0.053720005 0.053720005 0.71400005
-0.042525716 0.056468576 0.73200005
-0.039737146 0.056468576 0.73200005
-0.031243812 0.053845719 0.69800001
-0.029785717 0.053614289 0.69500005
-0.028420955 0.053537145 0.69400001
-0.026981907 0.053305719 0.69100004
-0.025517145 0.052997146 0.68700004
-0.024102859 0.05276572 0.68400002
-0.022666669 0.052457146 0.68000001
-0.021340001 0.052380003 0.67900002
-0.019958096 0.052148573 0.67600006
-0.018642858 0.052071434 0.67500001
-0.017331429 0.05199429 0.67400002
-0.016000001 0.051840004 0.67200005
-0.014720001 0.051840004 0.67200005
-0.013420001 0.05176286 0.671
-0.0108 0.058320004 0.75600004
-0.0093847625 0.058474291 0.75800002
-0.0079409527 0.058474291 0.75800002
-0.0064971433 0.058474291 0.75800002
-0.0050533335 0.058474291 0.75800002
-0.0036095241 0.058474291 0.75800002
-0.0021600001 0.058320004 0.75600004
-0.00072000007 0.058320004 0.75600004
0.00072000007 0.058320004 0.75600004
0.0021571431 0.058242861 0.75500005
0.0035952383 0.058242861 0.75500005
0.0050200005 0.058088575 0.75300002
0.0064457147 0.058011431 0.75200003
0.0078780958 0.058011431 0.75200003
0.0092857145 0.057857148 0.75000006
0.010714286 0.057857148 0.75000006
0.012110477 0.057702862 0.74800003
0.013535239 0.057702862 0.74800003
0.014960001 0.057702862 0.74800003
0.016362859 0.057625718 0.74700004
0.017690478 0.057317145 0.74300003
0.019105716 0.057317145 0.74300003
0.020493334 0.057240006 0.74200004
0.021906668 0.057240006 0.74200004
0.023257144 0.057085719 0.74000001
0.024633335 0.057008576 0.73900002
0.025970478 0.056854289 0.73700005
0.027374288 0.056854289 0.73700005
0.028660955 0.056622859 0.73400003
0.029977145 0.056468576 0.73200005
0.031328574 0.056391433 0.73100001
0.032720953 0.056391433 0.73100001
0.034020003 0.056237146 0.72900003
0.035360001 0.056160003 0.72800004
0.03674667 0.056160003 0.72800004
0.037976194 0.055928577 0.72500002
0.039248575 0.05577429 0.72300005
0.040569525 0.055697147 0.72200006
0.041944765 0.055697147 0.72200006
0.043140002 0.055465717 0.71900004
0.044509526 0.055465717 0.71900004
0.04575143 0.055311434 0.71700001
0.047117148 0.055311434 0.71700001
0.04841524 0.055234291 0.71600002
0.04977905 0.055234291 0.71600002
0.05114286 0.055234291 0.71600002
0.05250667 0.055234291 0.71600002
-0.031199049 0.055096194 0.69700003
-0.029785717 0.0549381 0.69500005
-0.028380001 0.054780003 0.69300002
-0.027060002 0.054780003 0.69300002
-0.025517145 0.054305717 0.68700004
-0.024102859 0.054068577 0.68400002
-0.022666669 0.053752385 0.68000001
-0.021340001 0.053673338 0.67900002
-0.019958096 0.053436194 0.67600006
-0.018642858 0.053357147 0.67500001
-0.017331429 0.0532781 0.67400002
-0.016000001 0.053120002 0.67200005
-0.014720001 0.053120002 0.67200005
-0.012240001 0.059760004 0.75600004
-0.0108 0.059760004 0.75600004
-0.0093600005 0.059760004 0.75600004
-0.0079409527 0.059918098 0.75800002
-0.0064971433 0.059918098 0.75800002
-0.0050400002 0.059760004 0.75600004
-0.0036000002 0.059760004 0.75600004
-0.0021600001 0.059760004 0.75600004
-0.00072000007 0.059760004 0.75600004
0.00071904768 0.059680957 0.75500005
0.0021571431 0.059680957 0.75500005
0.0035952383 0.059680957 0.75500005
0.0050133336 0.059443813 0.75200003
0.0064285719 0.059285719 0.75000006
0.0078571429 0.059285719 0.75000006
0.0092857145 0.059285719 0.75000006
0.010714286 0.059285719 0.75000006
0.012110477 0.059127621 0.74800003
0.013535239 0.059127621 0.74800003
0.014940001 0.059048574 0.74700004
0.016362859 0.059048574 0.74700004
0.017690478 0.058732383 0.74300003
0.019105716 0.058732383 0.74300003
0.020493334 0.058653336 0.74200004
0.021847621 0.058495242 0.74000001
0.023257144 0.058495242 0.74000001
0.024633335 0.058416195 0.73900002
0.025970478 0.058258098 0.73700005
0.027337145 0.058179051 0.73600006
0.028660955 0.058020957 0.73400003
0.029977145 0.057862859 0.73200005
0.031328574 0.057783812 0.73100001
0.032720953 0.057783812 0.73100001
0.034020003 0.057625718 0.72900003
0.035360001 0.057546671 0.72800004
0.03674667 0.057546671 0.72800004
0.037976194 0.057309527 0.72500002
0.039357144 0.057309527 0.72500002
0.040625717 0.057151433 0.72300005
0.041944765 0.057072386 0.72200006
0.043200001 0.056914289 0.72000003
0.044571433 0.056914289 0.72000003
0.045879051 0.056835242 0.71900004
0.047248576 0.056835242 0.71900004
0.048482861 0.056677148 0.71700001
0.049848575 0.056677148 0.71700001
0.051214289 0.056677148 0.71700001
0.05250667 0.056598101 0.71600002
-0.029785717 0.056261908 0.69500005
-0.028461907 0.056261908 0.69500005
-0.026786668 0.055533338 0.68600005
-0.025480002 0.055533338 0.68600005
-0.02406762 0.055290479 0.68300003
-0.022666669 0.055047624 0.68000001
-0.021308573 0.054885719 0.67800003
-0.019958096 0.054723814 0.67600006
-0.018642858 0.05464286 0.67500001
-0.017331429 0.054561909 0.67400002
-0.016047619 0.054561909 0.67400002
-0.014720001 0.054400004 0.67200005
-0.012240001 0.061200004 0.75600004
-0.010785715 0.06111905 0.75500005
-0.0093600005 0.061200004 0.75600004
-0.0079200007 0.061200004 0.75600004
-0.0064800004 0.061200004 0.75600004
-0.0050400002 0.061200004 0.75600004
-0.0036000002 0.061200004 0.75600004
-0.0021571431 0.06111905 0.75500005
-0.00071904768 0.06111905 0.75500005
0.00071904768 0.06111905 0.75500005
0.0021571431 0.06111905 0.75500005
0.0035857146 0.060957149 0.75300002
0.0050133336 0.060876194 0.75200003
0.0064285719 0.06071429 0.75000006
0.0078571429 0.06071429 0.75000006
0.0092857145 0.06071429 0.75000006
0.010685715 0.060552385 0.74800003
0.012110477 0.060552385 0.74800003
0.013535239 0.060552385 0.74800003
0.014940001 0.060471434 0.74700004
0.01631905 0.060309529 0.74500006
0.017690478 0.060147624 0.74300003
0.019105716 0.060147624 0.74300003
0.020493334 0.06006667 0.74200004
0.021847621 0.059904765 0.74000001
0.023257144 0.059904765 0.74000001
0.024633335 0.059823815 0.73900002
0.025970478 0.05966191 0.73700005
0.027337145 0.059580956 0.73600006
0.028660955 0.059419051 0.73400003
0.029977145 0.059257146 0.73200005
0.03137143 0.059257146 0.73200005
0.032720953 0.059176195 0.73100001
0.034020003 0.059014291 0.72900003
0.035408575 0.059014291 0.72900003
0.03674667 0.058933336 0.72800004
0.038028575 0.058771431 0.72600001
0.039357144 0.058690481 0.72500002
0.040625717 0.058528576 0.72300005
0.04200286 0.058528576 0.72300005
0.043320004 0.058447622 0.72200006
0.044571433 0.058285717 0.72000003
0.045879051 0.058204766 0.71900004
0.047248576 0.058204766 0.71900004
0.048482861 0.058042862 0.71700001
0.049848575 0.058042862 0.71700001
0.051214289 0.058042862 0.71700001
0.052580003 0.058042862 0.71700001
-0.026786668 0.056840003 0.68600005
-0.025480002 0.056840003 0.68600005
-0.02406762 0.056591433 0.68300003
-0.022666669 0.056342863 0.68000001
-0.021308573 0.056177147 0.67800003
-0.019958096 0.056011431 0.67600006
-0.018642858 0.055928577 0.67500001
-0.017331429 0.055845719 0.67400002
-0.016000001 0.055680003 0.67200005
-0.013661906 0.062557146 0.75500005
-0.01222381 0.062557146 0.75500005
-0.010785715 0.062557146 0.75500005
-0.0093476195 0.062557146 0.75500005
-0.0079095243 0.062557146 0.75500005
-0.006471429 0.062557146 0.75500005
-0.0050333338 0.062557146 0.75500005
-0.0035952383 0.062557146 0.75500005
-0.0021571431 0.062557146 0.75500005
-0.00071904768 0.062557146 0.75500005
0.00071714289 0.062391434 0.75300002
0.0021514287 0.062391434 0.75300002
0.0035857146 0.062391434 0.75300002
0.0050133336 0.062308576 0.75200003
0.0064285719 0.06214286 0.75000006
0.0078571429 0.06214286 0.75000006
0.0092857145 0.06214286 0.75000006
0.010685715 0.061977148 0.74800003
0.012110477 0.061977148 0.74800003
0.013517144 0.06189429 0.74700004
0.014940001 0.06189429 0.74700004
0.01631905 0.061728574 0.74500006
0.017690478 0.061562862 0.74300003
0.019105716 0.061562862 0.74300003
0.020493334 0.061480004 0.74200004
0.021847621 0.061314289 0.74000001
0.023225715 0.061231434 0.73900002
0.024566669 0.061065719 0.73700005
0.025970478 0.061065719 0.73700005
0.027337145 0.060982861 0.73600006
0.028660955 0.060817149 0.73400003
0.029977145 0.060651433 0.73200005
0.031328574 0.060568575 0.73100001
0.032720953 0.060568575 0.73100001
0.034113336 0.060568575 0.73100001
0.035408575 0.060402863 0.72900003
0.036797144 0.060402863 0.72900003
0.038028575 0.060154289 0.72600001
0.039357144 0.060071431 0.72500002
0.040738098 0.060071431 0.72500002
0.04200286 0.059905719 0.72300005
0.043320004 0.059822861 0.72200006
0.04469524 0.059822861 0.72200006
0.045942862 0.059657145 0.72000003
0.047248576 0.059574291 0.71900004
0.048618097 0.059574291 0.71900004
0.049987622 0.059574291 0.71900004
0.051357146 0.059574291 0.71900004
0.052580003 0.059408575 0.71700001
-0.026786668 0.05814667 0.68600005
-0.025480002 0.05814667 0.68600005
-0.02406762 0.057892386 0.68300003
-0.022666669 0.057638098 0.68000001
-0.021308573 0.057468574 0.67800003
-0.019958096 0.057299051 0.67600006
-0.018642858 0.05721429 0.67500001
-0.017331429 0.057129528 0.67400002
-0.016047619 0.057129528 0.67400002
-0.013661906 0.063995242 0.75500005
-0.01222381 0.063995242 0.75500005
-0.010785715 0.063995242 0.75500005
-0.0093476195 0.063995242 0.75500005
-0.0079095243 0.063995242 0.75500005
-0.006471429 0.063995242 0.75500005
-0.0050333338 0.063995242 0.75500005
-0.0035857146 0.063825719 0.75300002
-0.0021514287 0.063825719 0.75300002
-0.00071714289 0.063825719 0.75300002
0.00071714289 0.063825719 0.75300002
0.0021514287 0.063825719 0.75300002
0.0035809525 0.063740954 0.75200003
0.0050133336 0.063740954 0.75200003
0.0064285719 0.063571431 0.75000006
0.0078571429 0.063571431 0.75000006
0.0092609534 0.063401908 0.74800003
0.010685715 0.063401908 0.74800003
0.012110477 0.063401908 0.74800003
0.013517144 0.06331715 0.74700004
0.014940001 0.06331715 0.74700004
0.01631905 0.063147627 0.74500006
0.017690478 0.062978096 0.74300003
0.019080002 0.062893339 0.74200004
0.020493334 0.062893339 0.74200004
0.021847621 0.062723815 0.74000001
0.023225715 0.06263905 0.73900002
0.024566669 0.062469527 0.73700005
0.025970478 0.062469527 0.73700005
0.027337145 0.062384766 0.73600006
0.028660955 0.062215243 0.73400003
0.030059049 0.062215243 0.73400003
0.03137143 0.062045719 0.73200005
0.032720953 0.061960958 0.73100001
0.034113336 0.061960958 0.73100001
0.035408575 0.061791431 0.72900003
0.036797144 0.061791431 0.72900003
0.038133334 0.06170667 0.72800004
0.039411429 0.061537147 0.72600001
0.040738098 0.061452385 0.72500002
0.04200286 0.061282862 0.72300005
0.043320004 0.0611981 0.72200006
0.04469524 0.0611981 0.72200006
0.045942862 0.061028574 0.72000003
0.047248576 0.060943812 0.71900004
0.048618097 0.060943812 0.71900004
0.049987622 0.060943812 0.71900004
0.051357146 0.060943812 0.71900004
0.052726671 0.060943812 0.71900004
0.14388667 0.067046672 0.79100001
0.14539334 0.067046672 0.79100001
-0.026708573 0.059280004 0.68400002
-0.025405716 0.059280004 0.68400002
-0.02406762 0.059193335 0.68300003
-0.022666669 0.058933336 0.68000001
-0.021308573 0.058760002 0.67800003
-0.019958096 0.058586672 0.67600006
-0.018642858 0.058500003 0.67500001
-0.016538097 0.065433338 0.75500005
-0.015100001 0.065433338 0.75500005
-0.013661906 0.065433338 0.75500005
-0.01222381 0.065433338 0.75500005
-0.010757144 0.065260008 0.75300002
-0.0093228575 0.065260008 0.75300002
-0.0078885723 0.065260008 0.75300002
-0.0064542862 0.065260008 0.75300002
-0.0050200005 0.065260008 0.75300002
-0.0035857146 0.065260008 0.75300002
-0.0021485717 0.065173335 0.75200003
-0.00071619055 0.065173335 0.75200003
0.00071619055 0.065173335 0.75200003
0.0021485717 0.065173335 0.75200003
0.0035809525 0.065173335 0.75200003
0.0050000004 0.065000005 0.75000006
0.0064285719 0.065000005 0.75000006
0.007836191 0.064826667 0.74800003
0.0092609534 0.064826667 0.74800003
0.010685715 0.064826667 0.74800003
0.012094286 0.064740002 0.74700004
0.013480953 0.064566672 0.74500006
0.014900001 0.064566672 0.74500006
0.016275238 0.064393334 0.74300003
0.017666668 0.064306669 0.74200004
0.019080002 0.064306669 0.74200004
0.020493334 0.064306669 0.74200004
0.021847621 0.064133339 0.74000001
0.023225715 0.064046673 0.73900002
0.024566669 0.063873336 0.73700005
0.025970478 0.063873336 0.73700005
0.027337145 0.063786671 0.73600006
0.028660955 0.06361334 0.73400003
0.029977145 0.063440003 0.73200005
0.031328574 0.063353337 0.73100001
0.032720953 0.063353337 0.73100001
0.034113336 0.063353337 0.73100001
0.035408575 0.063180007 0.72900003
0.036797144 0.063180007 0.72900003
0.038185716 0.063180007 0.72900003
0.039411429 0.062920004 0.72600001
0.040794287 0.062920004 0.72600001
0.042119049 0.062833339 0.72500002
0.043380003 0.062660001 0.72300005
0.04469524 0.062573336 0.72200006
0.045942862 0.062400006 0.72000003
0.04731429 0.062400006 0.72000003
0.048618097 0.062313337 0.71900004
0.049987622 0.062313337 0.71900004
0.051357146 0.062313337 0.71900004
0.052726671 0.062313337 0.71900004
0.14502573 0.068380006 0.78900003
0.14652859 0.068380006 0.78900003
0.17486097 0.068293341 0.78800005
-0.025405716 0.060582861 0.68400002
-0.023961907 0.060228575 0.68000001
-0.022600001 0.060051434 0.67800003
-0.021245716 0.059874289 0.67600006
-0.019928573 0.05978572 0.67500001
-0.018642858 0.05978572 0.67500001
-0.016538097 0.066871434 0.75500005
-0.015060001 0.066694289 0.75300002
-0.013625715 0.066694289 0.75300002
-0.01219143 0.066694289 0.75300002
-0.010742858 0.066605717 0.75200003
-0.0093104765 0.066605717 0.75200003
-0.0078780958 0.066605717 0.75200003
-0.0064542862 0.066694289 0.75300002
-0.0050200005 0.066694289 0.75300002
-0.0035809525 0.066605717 0.75200003
-0.0021485717 0.066605717 0.75200003
-0.00071619055 0.066605717 0.75200003
0.00071428576 0.066428579 0.75000006
0.0021428573 0.066428579 0.75000006
0.0035714288 0.066428579 0.75000006
0.0049866671 0.066251434 0.74800003
0.006411429 0.066251434 0.74800003
0.007836191 0.066251434 0.74800003
0.0092485724 0.066162862 0.74700004
0.010642858 0.065985717 0.74500006
0.012029525 0.065808579 0.74300003
0.013444763 0.065808579 0.74300003
0.014860001 0.065808579 0.74300003
0.016253334 0.065720007 0.74200004
0.017666668 0.065720007 0.74200004
0.019028572 0.065542862 0.74000001
0.020438097 0.065542862 0.74000001
0.021818096 0.065454289 0.73900002
0.023162859 0.065277144 0.73700005
0.024566669 0.065277144 0.73700005
0.02593524 0.065188579 0.73600006
0.027262859 0.065011434 0.73400003
0.02858286 0.064834289 0.73200005
0.029977145 0.064834289 0.73200005
0.031328574 0.064745717 0.73100001
0.032720953 0.064745717 0.73100001
0.034020003 0.064568579 0.72900003
0.035408575 0.064568579 0.72900003
0.036797144 0.064568579 0.72900003
0.038185716 0.064568579 0.72900003
0.039411429 0.064302862 0.72600001
0.040794287 0.064302862 0.72600001
0.042119049 0.064214289 0.72500002
0.043380003 0.064037144 0.72300005
0.04469524 0.063948579 0.72200006
0.046070479 0.063948579 0.72200006
0.04731429 0.063771434 0.72000003
0.048685718 0.063771434 0.72000003
0.050057147 0.063771434 0.72000003
0.051428575 0.063771434 0.72000003
0.052726671 0.063682862 0.71900004
-0.023961907 0.061523814 0.68000001
-0.022600001 0.061342862 0.67800003
-0.021245716 0.061161909 0.67600006
-0.019928573 0.061071433 0.67500001
-0.018642858 0.061071433 0.67500001
-0.016538097 0.068309531 0.75500005
-0.015060001 0.068128578 0.75300002
-0.01360762 0.068038099 0.75200003
-0.012175239 0.068038099 0.75200003
-0.010742858 0.068038099 0.75200003
-0.0092857145 0.067857146 0.75000006
-0.0078780958 0.068038099 0.75200003
-0.0064285719 0.067857146 0.75000006
-0.0050133336 0.068038099 0.75200003
-0.0035714288 0.067857146 0.75000006
-0.0021428573 0.067857146 0.75000006
-0.00071428576 0.067857146 0.75000006
0.00071238098 0.067676194 0.74800003
0.0021428573 0.067857146 0.75000006
0.0035619049 0.067676194 0.74800003
0.0049800002 0.067585722 0.74700004
0.0064028576 0.067585722 0.74700004
0.0078257145 0.067585722 0.74700004
0.0092238104 0.067404769 0.74500006
0.010614286 0.067223817 0.74300003
0.012029525 0.067223817 0.74300003
0.013444763 0.067223817 0.74300003
0.014840001 0.067133337 0.74200004
0.016253334 0.067133337 0.74200004
0.017619049 0.066952385 0.74000001
0.019002859 0.066861913 0.73900002
0.020410478 0.066861913 0.73900002
0.02175905 0.06668096 0.73700005
0.023162859 0.06668096 0.73700005
0.024533335 0.066590481 0.73600006
0.02593524 0.066590481 0.73600006
0.027188573 0.066228576 0.73200005
0.02858286 0.066228576 0.73200005
0.029977145 0.066228576 0.73200005
0.031328574 0.066138096 0.73100001
0.032720953 0.066138096 0.73100001
0.034020003 0.065957144 0.72900003
0.035408575 0.065957144 0.72900003
0.036797144 0.065957144 0.72900003
0.038133334 0.065866672 0.72800004
0.039411429 0.065685719 0.72600001
0.040794287 0.065685719 0.72600001
0.042119049 0.065595239 0.72500002
0.043380003 0.065414287 0.72300005
0.044757146 0.065414287 0.72300005
0.046070479 0.065323815 0.72200006
0.047445718 0.065323815 0.72200006
0.048685718 0.065142862 0.72000003
0.050057147 0.065142862 0.72000003
-0.023926668 0.062726669 0.67900002
-0.022600001 0.062634289 0.67800003
-0.021245716 0.06244953 0.67600006
-0.019958096 0.06244953 0.67600006
-0.018642858 0.062357146 0.67500001
-0.016494287 0.06956286 0.75300002
-0.015040001 0.06947048 0.75200003
-0.013571429 0.069285721 0.75000006
-0.012142858 0.069285721 0.75000006
-0.010714286 0.069285721 0.75000006
-0.0092857145 0.069285721 0.75000006
-0.0078571429 0.069285721 0.75000006
-0.0064285719 0.069285721 0.75000006
-0.0050000004 0.069285721 0.75000006
-0.0035714288 0.069285721 0.75000006
-0.0021371429 0.069100954 0.74800003
-0.00071238098 0.069100954 0.74800003
0.00071238098 0.069100954 0.74800003
0.0021371429 0.069100954 0.74800003
0.003557143 0.069008574 0.74700004
0.0049800002 0.069008574 0.74700004
0.0064028576 0.069008574 0.74700004
0.0078047626 0.068823814 0.74500006
0.0092238104 0.068823814 0.74500006
0.010614286 0.068639055 0.74300003
0.012013334 0.068546668 0.74200004
0.013426668 0.068546668 0.74200004
0.014840001 0.068546668 0.74200004
0.016209524 0.068361908 0.74000001
0.017595239 0.068269528 0.73900002
0.019002859 0.068269528 0.73900002
0.020410478 0.068269528 0.73900002
0.02175905 0.068084769 0.73700005
0.02313143 0.067992382 0.73600006
0.024533335 0.067992382 0.73600006
0.02593524 0.067992382 0.73600006
0.027262859 0.067807622 0.73400003
0.02858286 0.067622863 0.73200005
0.029977145 0.067622863 0.73200005
0.031328574 0.067530483 0.73100001
0.032720953 0.067530483 0.73100001
0.034020003 0.067345716 0.72900003
0.035408575 0.067345716 0.72900003
0.036797144 0.067345716 0.72900003
0.038133334 0.067253336 0.72800004
0.039411429 0.067068577 0.72600001
0.040794287 0.067068577 0.72600001
0.042119049 0.066976197 0.72500002
0.043380003 0.06679143 0.72300005
0.044757146 0.06679143 0.72300005
0.046134289 0.06679143 0.72300005
0.047445718 0.06669905 0.72200006
0.048820954 0.06669905 0.72200006
0.050196193 0.06669905 0.72200006
-0.023926668 0.064020008 0.67900002
-0.022633335 0.064020008 0.67900002
-0.021308573 0.063925721 0.67800003
-0.020017143 0.063925721 0.67800003
-0.018670477 0.063737147 0.67600006
-0.016472382 0.070902862 0.75200003
-0.015000001 0.070714287 0.75000006
-0.013535239 0.070525721 0.74800003
-0.012142858 0.070714287 0.75000006
-0.010685715 0.070525721 0.74800003
-0.0092609534 0.070525721 0.74800003
-0.007836191 0.070525721 0.74800003
-0.006411429 0.070525721 0.74800003
-0.0049866671 0.070525721 0.74800003
-0.0035619049 0.070525721 0.74800003
-0.0021342859 0.070431434 0.74700004
-0.00071142864 0.070431434 0.74700004
0.00071142864 0.070431434 0.74700004
0.0021342859 0.070431434 0.74700004
0.003557143 0.070431434 0.74700004
0.0049666669 0.070242859 0.74500006
0.0063685719 0.070054293 0.74300003
0.0077838101 0.070054293 0.74300003
0.0091990484 0.070054293 0.74300003
0.010600001 0.069960006 0.74200004
0.012013334 0.069960006 0.74200004
0.013426668 0.069960006 0.74200004
0.014800001 0.069771431 0.74000001
0.016209524 0.069771431 0.74000001
0.017595239 0.069677144 0.73900002
0.018951429 0.069488578 0.73700005
0.02035524 0.069488578 0.73700005
0.02175905 0.069488578 0.73700005
0.02313143 0.06939429 0.73600006
0.024533335 0.06939429 0.73600006
0.025864763 0.069205716 0.73400003
0.027188573 0.06901715 0.73200005
0.02858286 0.06901715 0.73200005
0.029977145 0.06901715 0.73200005
0.031328574 0.068922862 0.73100001
0.032720953 0.068922862 0.73100001
0.034020003 0.068734288 0.72900003
0.035408575 0.068734288 0.72900003
0.036797144 0.068734288 0.72900003
0.038028575 0.068451434 0.72600001
0.039411429 0.068451434 0.72600001
0.040794287 0.068451434 0.72600001
0.042119049 0.068357147 0.72500002
0.043380003 0.068168573 0.72300005
0.044757146 0.068168573 0.72300005
0.046134289 0.068168573 0.72300005
0.047445718 0.068074293 0.72200006
0.048820954 0.068074293 0.72200006
0.050196193 0.068074293 0.72200006
-0.02389143 0.065217145 0.67800003
-0.022633335 0.065313339 0.67900002
-0.021308573 0.065217145 0.67800003
-0.020017143 0.065217145 0.67800003
-0.018670477 0.065024763 0.67600006
-0.016428573 0.072142862 0.75000006
-0.014960001 0.07195048 0.74800003
-0.013535239 0.07195048 0.74800003
-0.012110477 0.07195048 0.74800003
-0.010685715 0.07195048 0.74800003
-0.0092609534 0.07195048 0.74800003
-0.0078257145 0.071854293 0.74700004
-0.0064028576 0.071854293 0.74700004
-0.0049800002 0.071854293 0.74700004
-0.003557143 0.071854293 0.74700004
-0.0021285715 0.071661912 0.74500006
-0.00070952385 0.071661912 0.74500006
0.00070952385 0.071661912 0.74500006
0.0021285715 0.071661912 0.74500006
0.0035476193 0.071661912 0.74500006
0.0049533336 0.07146953 0.74300003
0.0063685719 0.07146953 0.74300003
0.0077838101 0.07146953 0.74300003
0.0091990484 0.07146953 0.74300003
0.010600001 0.071373336 0.74200004
0.011980954 0.071180955 0.74000001
0.013390477 0.071180955 0.74000001
0.014800001 0.071180955 0.74000001
0.016187619 0.071084768 0.73900002
0.01754762 0.070892386 0.73700005
0.018951429 0.070892386 0.73700005
0.02035524 0.070892386 0.73700005
0.021729525 0.070796192 0.73600006
0.02313143 0.070796192 0.73600006
0.024533335 0.070796192 0.73600006
0.025794288 0.070411436 0.73200005
0.027188573 0.070411436 0.73200005
0.028543811 0.070315242 0.73100001
0.029936193 0.070315242 0.73100001
0.031328574 0.070315242 0.73100001
0.032631431 0.07012286 0.72900003
0.034020003 0.07012286 0.72900003
0.035360001 0.070026673 0.72800004
0.03674667 0.070026673 0.72800004
0.038028575 0.069834292 0.72600001
0.039357144 0.069738097 0.72500002
0.040738098 0.069738097 0.72500002
0.042119049 0.069738097 0.72500002
0.043380003 0.069545716 0.72300005
0.044757146 0.069545716 0.72300005
0.046134289 0.069545716 0.72300005
0.047445718 0.069449529 0.72200006
0.048820954 0.069449529 0.72200006
0.050196193 0.069449529 0.72200006
-0.02389143 0.066508576 0.67800003
-0.022633335 0.066606671 0.67900002
-0.021308573 0.066508576 0.67800003
-0.020017143 0.066508576 0.67800003
-0.018670477 0.066312388 0.67600006
-0.016428573 0.073571436 0.75000006
-0.014960001 0.07337524 0.74800003
-0.013517144 0.073277146 0.74700004
-0.012110477 0.07337524 0.74800003
-0.010671429 0.073277146 0.74700004
-0.0092485724 0.073277146 0.74700004
-0.0078047626 0.073080957 0.74500006
-0.0063857147 0.073080957 0.74500006
-0.0049533336 0.072884768 0.74300003
-0.0035476193 0.073080957 0.74500006
-0.0021228574 0.072884768 0.74300003
-0.00070761907 0.072884768 0.74300003
0.00070761907 0.072884768 0.74300003
0.0021228574 0.072884768 0.74300003
0.0035380954 0.072884768 0.74300003
0.0049533336 0.072884768 0.74300003
0.0063685719 0.072884768 0.74300003
0.0077733337 0.072786674 0.74200004
0.0091866674 0.072786674 0.74200004
0.01057143 0.072590478 0.74000001
0.011980954 0.072590478 0.74000001
0.013390477 0.072590478 0.74000001
0.014780001 0.072492383 0.73900002
0.016187619 0.072492383 0.73900002
0.01754762 0.072296195 0.73700005
0.018951429 0.072296195 0.73700005
0.02035524 0.072296195 0.73700005
0.021729525 0.0721981 0.73600006
0.02313143 0.0721981 0.73600006
0.024466669 0.072001912 0.73400003
0.025794288 0.071805716 0.73200005
0.027188573 0.071805716 0.73200005
0.028543811 0.071707621 0.73100001
0.029936193 0.071707621 0.73100001
0.031328574 0.071707621 0.73100001
0.032631431 0.071511433 0.72900003
0.034020003 0.071511433 0.72900003
0.035360001 0.071413338 0.72800004
0.03674667 0.071413338 0.72800004
0.038028575 0.071217149 0.72600001
0.039357144 0.071119055 0.72500002
0.040738098 0.071119055 0.72500002
0.042119049 0.071119055 0.72500002
0.043380003 0.070922859 0.72300005
0.044757146 0.070922859 0.72300005
0.046134289 0.070922859 0.72300005
0.047511432 0.070922859 0.72300005
0.048820954 0.070824765 0.72200006
0.050196193 0.070824765 0.72200006
-0.02389143 0.067800008 0.67800003
-0.022633335 0.067900002 0.67900002
-0.021340001 0.067900002 0.67900002
-0.020017143 0.067800008 0.67800003
-0.018725716 0.067800008 0.67800003
-0.016275238 0.074300006 0.74300003
-0.014860001 0.074300006 0.74300003
-0.013426668 0.074200004 0.74200004
-0.012029525 0.074300006 0.74300003
-0.010614286 0.074300006 0.74300003
-0.0091990484 0.074300006 0.74300003
-0.0077838101 0.074300006 0.74300003
-0.0063685719 0.074300006 0.74300003
-0.0049533336 0.074300006 0.74300003
-0.0035380954 0.074300006 0.74300003
-0.0021228574 0.074300006 0.74300003
-0.00070761907 0.074300006 0.74300003
0.00070761907 0.074300006 0.74300003
0.0021228574 0.074300006 0.74300003
0.0035380954 0.074300006 0.74300003
0.0049466668 0.074200004 0.74200004
0.0063600005 0.074200004 0.74200004
0.0077733337 0.074200004 0.74200004
0.0091619054 0.074000008 0.74000001
0.01057143 0.074000008 0.74000001
0.011980954 0.074000008 0.74000001
0.013372382 0.073900007 0.73900002
0.014740001 0.073700003 0.73700005
0.01614381 0.073700003 0.73700005
0.01754762 0.073700003 0.73700005
0.018925715 0.073600002 0.73600006
0.02032762 0.073600002 0.73600006
0.021729525 0.073600002 0.73600006
0.023068573 0.073400006 0.73400003
0.024466669 0.073400006 0.73400003
0.025794288 0.073200002 0.73200005
0.02715143 0.073100008 0.73100001
0.028543811 0.073100008 0.73100001
0.029936193 0.073100008 0.73100001
0.031242859 0.072900005 0.72900003
0.032631431 0.072900005 0.72900003
0.034020003 0.072900005 0.72900003
0.035360001 0.072800003 0.72800004
0.03674667 0.072800003 0.72800004
0.037976194 0.072500005 0.72500002
0.039357144 0.072500005 0.72500002
0.040738098 0.072500005 0.72500002
0.042119049 0.072500005 0.72500002
0.043380003 0.072300002 0.72300005
0.044757146 0.072300002 0.72300005
0.046134289 0.072300002 0.72300005
0.047511432 0.072300002 0.72300005
0.048888575 0.072300002 0.72300005
0.050196193 0.072200008 0.72200006
-0.023926668 0.069193341 0.67900002
-0.022633335 0.069193341 0.67900002
-0.021340001 0.069193341 0.67900002
-0.020046668 0.069193341 0.67900002
-0.018753335 0.069193341 0.67900002
-0.017460002 0.069193341 0.67900002
-0.014720001 0.07500191 0.73600006
-0.013336191 0.075103812 0.73700005
-0.011964763 0.075307623 0.73900002
-0.01057143 0.075409532 0.74000001
-0.0091866674 0.075613335 0.74200004
-0.0077733337 0.075613335 0.74200004
-0.0063600005 0.075613335 0.74200004
-0.0049466668 0.075613335 0.74200004
-0.0035333335 0.075613335 0.74200004
-0.0021200001 0.075613335 0.74200004
-0.00070666673 0.075613335 0.74200004
0.00070666673 0.075613335 0.74200004
0.0021200001 0.075613335 0.74200004
0.0035333335 0.075613335 0.74200004
0.0049466668 0.075613335 0.74200004
0.0063428576 0.075409532 0.74000001
0.0077523813 0.075409532 0.74000001
0.0091495244 0.075307623 0.73900002
0.010557144 0.075307623 0.73900002
0.011964763 0.075307623 0.73900002
0.013336191 0.075103812 0.73700005
0.014740001 0.075103812 0.73700005
0.01614381 0.075103812 0.73700005
0.01752381 0.07500191 0.73600006
0.018925715 0.07500191 0.73600006
0.02032762 0.07500191 0.73600006
0.021670477 0.0747981 0.73400003
0.023068573 0.0747981 0.73400003
0.024466669 0.0747981 0.73400003
0.025794288 0.074594289 0.73200005
0.02715143 0.074492387 0.73100001
0.028543811 0.074492387 0.73100001
0.029854288 0.074288577 0.72900003
0.031242859 0.074288577 0.72900003
0.032631431 0.074288577 0.72900003
0.034020003 0.074288577 0.72900003
0.035360001 0.074186675 0.72800004
0.036645718 0.073982865 0.72600001
0.037976194 0.073880956 0.72500002
0.039357144 0.073880956 0.72500002
0.040738098 0.073880956 0.72500002
0.042119049 0.073880956 0.72500002
0.043380003 0.073677145 0.72300005
0.044757146 0.073677145 0.72300005
0.046134289 0.073677145 0.72300005
0.047511432 0.073677145 0.72300005
0.048888575 0.073677145 0.72300005
-0.023961907 0.070590481 0.68000001
-0.022733334 0.070798099 0.68200004
-0.021434287 0.070798099 0.68200004
-0.020076191 0.070590481 0.68000001
-0.018780954 0.070590481 0.68000001
-0.017485715 0.070590481 0.68000001
-0.016078096 0.076196194 0.73400003
-0.014680001 0.076196194 0.73400003
-0.013281906 0.076196194 0.73400003
-0.011916191 0.076403812 0.73600006
-0.010557144 0.076715246 0.73900002
-0.0091619054 0.076819055 0.74000001
-0.0077523813 0.076819055 0.74000001
-0.0063600005 0.077026673 0.74200004
-0.0049466668 0.077026673 0.74200004
-0.0035333335 0.077026673 0.74200004
-0.0021200001 0.077026673 0.74200004
-0.00070666673 0.077026673 0.74200004
0.00070666673 0.077026673 0.74200004
0.0021200001 0.077026673 0.74200004
0.0035333335 0.077026673 0.74200004
0.0049333335 0.076819055 0.74000001
0.0063428576 0.076819055 0.74000001
0.0077419053 0.076715246 0.73900002
0.0091495244 0.076715246 0.73900002
0.010528572 0.076507621 0.73700005
0.011932381 0.076507621 0.73700005
0.013336191 0.076507621 0.73700005
0.014740001 0.076507621 0.73700005
0.016121905 0.076403812 0.73600006
0.01752381 0.076403812 0.73600006
0.018925715 0.076403812 0.73600006
0.020272382 0.076196194 0.73400003
0.021670477 0.076196194 0.73400003
0.023005717 0.075988576 0.73200005
0.024400001 0.075988576 0.73200005
0.025759049 0.075884767 0.73100001
0.02715143 0.075884767 0.73100001
0.028543811 0.075884767 0.73100001
0.029854288 0.075677149 0.72900003
0.031242859 0.075677149 0.72900003
0.032631431 0.075677149 0.72900003
0.033973336 0.07557334 0.72800004
0.035360001 0.07557334 0.72800004
0.036645718 0.075365722 0.72600001
0.037976194 0.075261913 0.72500002
0.039357144 0.075261913 0.72500002
0.040738098 0.075261913 0.72500002
0.042119049 0.075261913 0.72500002
0.043380003 0.075054288 0.72300005
0.044757146 0.075054288 0.72300005
0.046134289 0.075054288 0.72300005
0.047511432 0.075054288 0.72300005
-0.023961907 0.07188572 0.68000001
-0.022733334 0.072097145 0.68200004
-0.021434287 0.072097145 0.68200004
-0.020135239 0.072097145 0.68200004
-0.018780954 0.07188572 0.68000001
-0.017485715 0.07188572 0.68000001
-0.016034286 0.077382863 0.73200005
-0.014640001 0.077382863 0.73200005
-0.013245715 0.077382863 0.73200005
-0.01188381 0.077594288 0.73400003
-0.010514286 0.07780572 0.73600006
-0.0091247624 0.077911437 0.73700005
-0.0077419053 0.078122862 0.73900002
-0.0063428576 0.078228578 0.74000001
-0.0049333335 0.078228578 0.74000001
-0.0035333335 0.078440003 0.74200004
-0.0021200001 0.078440003 0.74200004
-0.00070666673 0.078440003 0.74200004
0.00070476194 0.078228578 0.74000001
0.0021142859 0.078228578 0.74000001
0.0035238098 0.078228578 0.74000001
0.0049266671 0.078122862 0.73900002
0.0063342862 0.078122862 0.73900002
0.0077209529 0.077911437 0.73700005
0.0091247624 0.077911437 0.73700005
0.010528572 0.077911437 0.73700005
0.011932381 0.077911437 0.73700005
0.013336191 0.077911437 0.73700005
0.014720001 0.07780572 0.73600006
0.016121905 0.07780572 0.73600006
0.01752381 0.07780572 0.73600006
0.018874288 0.077594288 0.73400003
0.020272382 0.077594288 0.73400003
0.02161143 0.077382863 0.73200005
0.023005717 0.077382863 0.73200005
0.024366667 0.077277146 0.73100001
0.025759049 0.077277146 0.73100001
0.02715143 0.077277146 0.73100001
0.028465716 0.077065721 0.72900003
0.029854288 0.077065721 0.72900003
0.031242859 0.077065721 0.72900003
0.032631431 0.077065721 0.72900003
0.033973336 0.076960005 0.72800004
0.03526286 0.07674858 0.72600001
0.036645718 0.07674858 0.72600001
0.037976194 0.076642863 0.72500002
0.039357144 0.076642863 0.72500002
