# .PCD v0.7 - Point Cloud Data file format
VERSION 0.7
FIELDS x y z
SIZE 4 4 4
TYPE F F F
COUNT 1 1 1
WIDTH 1357
HEIGHT 1
VIEWPOINT 0 0 0 1 0 0 0
POINTS 1357
DATA ascii
0.050673336 0.021717144 0.69100004
0.05191429 0.021685716 0.69000006
0.053305719 0.021717144 0.69100004
0.054542862 0.021685716 0.69000006
0.055857148 0.021685716 0.69000006
0.057088576 0.021654287 0.68900001
0.057977147 0.021497143 0.68400002
0.059453338 0.021560002 0.68600005
0.060582861 0.021497143 0.68400002
0.061885718 0.021497143 0.68400002
0.063188575 0.021497143 0.68400002
0.064114287 0.02137143 0.68000001
0.065409526 0.02137143 0.68000001
0.028420955 0.023133336 0.69400001
0.029742859 0.023133336 0.69400001
0.031064764 0.023133336 0.69400001
0.032386668 0.023133336 0.69400001
0.033902861 0.023266668 0.69800001
0.035232384 0.023266668 0.69800001
0.036352385 0.023133336 0.69400001
0.037674289 0.023133336 0.69400001
0.038996194 0.023133336 0.69400001
0.040318098 0.023133336 0.69400001
0.041640002 0.023133336 0.69400001
0.042961907 0.023133336 0.69400001
0.044283811 0.023133336 0.69400001
0.045540001 0.023100002 0.69300002
0.046860002 0.023100002 0.69300002
0.048040956 0.023033334 0.69100004
0.049357146 0.023033334 0.69100004
0.050600003 0.023000002 0.69000006
0.05191429 0.023000002 0.69000006
0.053228576 0.023000002 0.69000006
0.054463815 0.022966668 0.68900001
0.055776194 0.022966668 0.68900001
0.05692286 0.022900002 0.68700004
0.057977147 0.022800002 0.68400002
0.059453338 0.022866668 0.68600005
0.060582861 0.022800002 0.68400002
0.061885718 0.022800002 0.68400002
0.063096195 0.022766668 0.68300003
0.064114287 0.022666669 0.68000001
0.065313339 0.022633335 0.67900002
0.066606671 0.022633335 0.67900002
-0.054617148 0.024948573 0.708
0.028420955 0.02445524 0.69400001
0.029742859 0.02445524 0.69400001
0.031064764 0.02445524 0.69400001
0.032386668 0.02445524 0.69400001
0.033757146 0.024490478 0.69500005
0.035080954 0.024490478 0.69500005
0.036352385 0.02445524 0.69400001
0.037620004 0.024420002 0.69300002
0.038996194 0.02445524 0.69400001
0.040318098 0.02445524 0.69400001
0.041640002 0.02445524 0.69400001
0.042961907 0.02445524 0.69400001
0.044220004 0.024420002 0.69300002
0.045408573 0.024349526 0.69100004
0.046724766 0.024349526 0.69100004
0.047971431 0.024314288 0.69000006
0.049285717 0.024314288 0.69000006
0.050526671 0.024279049 0.68900001
0.05183905 0.024279049 0.68900001
0.053151432 0.024279049 0.68900001
0.054068577 0.024102859 0.68400002
0.055371433 0.024102859 0.68400002
0.05667429 0.024102859 0.68400002
0.057892386 0.02406762 0.68300003
0.059193335 0.02406762 0.68300003
0.060494289 0.02406762 0.68300003
0.061704766 0.024032382 0.68200004
0.062819049 0.023961907 0.68000001
0.064114287 0.023961907 0.68000001
0.065217145 0.02389143 0.67800003
0.066508576 0.02389143 0.67800003
-0.058331434 0.026148573 0.70400006
-0.056909528 0.02611143 0.70300001
-0.055649526 0.026148573 0.70400006
-0.054385718 0.026185716 0.70500004
0.02445524 0.025777144 0.69400001
0.025777144 0.025777144 0.69400001
0.027099049 0.025777144 0.69400001
0.028380001 0.025740001 0.69300002
0.029700002 0.025740001 0.69300002
0.031020002 0.025740001 0.69300002
0.032340001 0.025740001 0.69300002
0.033660002 0.025740001 0.69300002
0.035030477 0.025777144 0.69400001
0.036300004 0.025740001 0.69300002
0.037511431 0.025665715 0.69100004
0.038940001 0.025740001 0.69300002
0.040318098 0.025777144 0.69400001
0.041580003 0.025740001 0.69300002
0.042776193 0.025665715 0.69100004
0.044092383 0.025665715 0.69100004
0.045342859 0.025628572 0.69000006
0.046657145 0.025628572 0.69000006
0.047971431 0.025628572 0.69000006
0.049214289 0.025591429 0.68900001
0.050526671 0.025591429 0.68900001
0.051688574 0.025517145 0.68700004
0.052997146 0.025517145 0.68700004
0.054068577 0.025405716 0.68400002
0.055533338 0.025480002 0.68600005
0.05667429 0.025405716 0.68400002
0.057892386 0.025368573 0.68300003
0.05910667 0.02533143 0.68200004
0.060228575 0.025257144 0.68000001
0.061523814 0.025257144 0.68000001
0.062819049 0.025257144 0.68000001
0.064020008 0.025220001 0.67900002
0.065217145 0.025182858 0.67800003
0.066606671 0.025220001 0.67900002
-0.059333336 0.027333336 0.70000005
-0.058000002 0.027333336 0.70000005
-0.056666672 0.027333336 0.70000005
-0.055333339 0.027333336 0.70000005
-0.054231431 0.027450478 0.70300001
0.019333335 0.027333336 0.70000005
0.020578096 0.027216192 0.69700003
0.021842858 0.027138097 0.69500005
0.023166668 0.027138097 0.69500005
0.02445524 0.027099049 0.69400001
0.025777144 0.027099049 0.69400001
0.027099049 0.027099049 0.69400001
0.028380001 0.027060002 0.69300002
0.029614288 0.026981907 0.69100004
0.030930478 0.026981907 0.69100004
0.032246668 0.026981907 0.69100004
0.033562858 0.026981907 0.69100004
0.034879051 0.026981907 0.69100004
0.036195241 0.026981907 0.69100004
0.037511431 0.026981907 0.69100004
0.038771432 0.026942858 0.69000006
0.040143814 0.026981907 0.69100004
0.041460004 0.026981907 0.69100004
0.04271429 0.026942858 0.69000006
0.044028573 0.026942858 0.69000006
0.045277145 0.026903812 0.68900001
0.046589527 0.026903812 0.68900001
0.047901906 0.026903812 0.68900001
0.049071431 0.026825717 0.68700004
0.050380003 0.026825717 0.68700004
0.051613338 0.026786668 0.68600005
0.05276572 0.026708573 0.68400002
0.053989526 0.026669526 0.68300003
0.055371433 0.026708573 0.68400002
0.056591433 0.026669526 0.68300003
0.057807624 0.026630478 0.68200004
0.058846671 0.026513334 0.67900002
0.060140003 0.026513334 0.67900002
0.061433338 0.026513334 0.67900002
0.062726669 0.026513334 0.67900002
0.063925721 0.026474288 0.67800003
0.065217145 0.026474288 0.67800003
-0.059163813 0.028584763 0.69800001
-0.05783429 0.028584763 0.69800001
-0.056504767 0.028584763 0.69800001
-0.055333339 0.028666668 0.70000005
-0.054077145 0.028707622 0.70100003
0.0085923811 0.028420955 0.69400001
0.01654762 0.028461907 0.69500005
0.01787143 0.028461907 0.69500005
0.019278096 0.028584763 0.69800001
0.02051905 0.028461907 0.69500005
0.021842858 0.028461907 0.69500005
0.023133336 0.028420955 0.69400001
0.024420002 0.028380001 0.69300002
0.025740001 0.028380001 0.69300002
0.027060002 0.028380001 0.69300002
0.028298097 0.028298097 0.69100004
0.029614288 0.028298097 0.69100004
0.030885717 0.028257145 0.69000006
0.032200001 0.028257145 0.69000006
0.033514287 0.028257145 0.69000006
0.034828573 0.028257145 0.69000006
0.03614286 0.028257145 0.69000006
0.037457146 0.028257145 0.69000006
0.038771432 0.028257145 0.69000006
0.040085718 0.028257145 0.69000006
0.041340001 0.028216192 0.68900001
0.042652383 0.028216192 0.68900001
0.043964766 0.028216192 0.68900001
0.045277145 0.028216192 0.68900001
0.046589527 0.028216192 0.68900001
0.047693338 0.028093334 0.68600005
0.048857145 0.02801143 0.68400002
0.050160002 0.02801143 0.68400002
0.051462859 0.02801143 0.68400002
0.052688576 0.027970478 0.68300003
0.053989526 0.027970478 0.68300003
0.055209529 0.027929526 0.68200004
0.056342863 0.027847622 0.68000001
0.057553336 0.027806668 0.67900002
0.058760002 0.027765715 0.67800003
0.060140003 0.027806668 0.67900002
0.061342862 0.027765715 0.67800003
0.062634289 0.027765715 0.67800003
0.063925721 0.027765715 0.67800003
0.065217145 0.027765715 0.67800003
-0.059163813 0.029914288 0.69800001
-0.057751432 0.02987143 0.69700003
-0.056504767 0.029914288 0.69800001
-0.055175241 0.029914288 0.69800001
-0.054000005 0.030000001 0.70000005
-0.0020142859 0.030214287 0.70500004
0.00066952384 0.030128574 0.70300001
0.0020028572 0.030042859 0.70100003
0.0033333336 0.030000001 0.70000005
0.004666667 0.030000001 0.70000005
0.0059571434 0.029785717 0.69500005
0.0072704768 0.029742859 0.69400001
0.0085923811 0.029742859 0.69400001
0.0099142864 0.029742859 0.69400001
0.011236191 0.029742859 0.69400001
0.012558096 0.029742859 0.69400001
0.013900001 0.029785717 0.69500005
0.01522381 0.029785717 0.69500005
0.01652381 0.029742859 0.69400001
0.01787143 0.029785717 0.69500005
0.01919524 0.029785717 0.69500005
0.02051905 0.029785717 0.69500005
0.021811429 0.029742859 0.69400001
0.023100002 0.029700002 0.69300002
0.024420002 0.029700002 0.69300002
0.025628572 0.029571431 0.69000006
0.027060002 0.029700002 0.69300002
0.028298097 0.029614288 0.69100004
0.029614288 0.029614288 0.69100004
0.030885717 0.029571431 0.69000006
0.032200001 0.029571431 0.69000006
0.033514287 0.029571431 0.69000006
0.034828573 0.029571431 0.69000006
0.036090478 0.029528573 0.68900001
0.037402861 0.029528573 0.68900001
0.03871524 0.029528573 0.68900001
0.040027622 0.029528573 0.68900001
0.041220002 0.02944286 0.68700004
0.042528573 0.02944286 0.68700004
0.043837145 0.02944286 0.68700004
0.045145717 0.02944286 0.68700004
0.046251431 0.029314287 0.68400002
0.047554288 0.029314287 0.68400002
0.048785716 0.029271431 0.68300003
0.05008667 0.029271431 0.68300003
0.051312383 0.029228574 0.68200004
0.052611433 0.029228574 0.68200004
0.053752385 0.029142858 0.68000001
0.055047624 0.029142858 0.68000001
0.056260005 0.029100003 0.67900002
0.057468574 0.029057145 0.67800003
0.058760002 0.029057145 0.67800003
0.060051434 0.029057145 0.67800003
0.061342862 0.029057145 0.67800003
0.062634289 0.029057145 0.67800003
0.063737147 0.02897143 0.67600006
0.065024763 0.02897143 0.67600006
0.066312388 0.02897143 0.67600006
-0.060233336 0.031109527 0.69500005
-0.058909528 0.031109527 0.69500005
-0.057585716 0.031109527 0.69500005
-0.056423813 0.031199049 0.69700003
-0.055175241 0.031243812 0.69800001
-0.053845719 0.031243812 0.69800001
-0.052516192 0.031243812 0.69800001
-0.0020142859 0.031557146 0.70500004
-0.00067047623 0.031512383 0.70400006
0.00066666672 0.031333335 0.70000005
0.0020000001 0.031333335 0.70000005
0.0033238097 0.031243812 0.69800001
0.0046333335 0.031109527 0.69500005
0.0059571434 0.031109527 0.69500005
0.0072704768 0.031064764 0.69400001
0.0085923811 0.031064764 0.69400001
0.0099142864 0.031064764 0.69400001
0.011236191 0.031064764 0.69400001
0.01254 0.031020002 0.69300002
0.013860001 0.031020002 0.69300002
0.015180001 0.031020002 0.69300002
0.016500002 0.031020002 0.69300002
0.017820001 0.031020002 0.69300002
0.019167621 0.031064764 0.69400001
0.020489525 0.031064764 0.69400001
0.021811429 0.031064764 0.69400001
0.023100002 0.031020002 0.69300002
0.024420002 0.031020002 0.69300002
0.025628572 0.030885717 0.69000006
0.026981907 0.030930478 0.69100004
0.028298097 0.030930478 0.69100004
0.029571431 0.030885717 0.69000006
0.030885717 0.030885717 0.69000006
0.032153334 0.030840954 0.68900001
0.033465717 0.030840954 0.68900001
0.034778096 0.030840954 0.68900001
0.036090478 0.030840954 0.68900001
0.037402861 0.030840954 0.68900001
0.038602859 0.030751431 0.68700004
0.03991143 0.030751431 0.68700004
0.041160002 0.030706668 0.68600005
0.04246667 0.030706668 0.68600005
0.043773334 0.030706668 0.68600005
0.044948574 0.030617144 0.68400002
0.046183813 0.030572383 0.68300003
0.047415242 0.030527622 0.68200004
0.048714288 0.030527622 0.68200004
0.050013337 0.030527622 0.68200004
0.051161908 0.030438097 0.68000001
0.052457146 0.030438097 0.68000001
0.053673338 0.030393336 0.67900002
0.05496667 0.030393336 0.67900002
0.056260005 0.030393336 0.67900002
0.057468574 0.030348573 0.67800003
0.058586672 0.03025905 0.67600006
0.059874289 0.03025905 0.67600006
0.061161909 0.03025905 0.67600006
0.06244953 0.03025905 0.67600006
0.063737147 0.03025905 0.67600006
0.064832382 0.030169526 0.67400002
0.066116191 0.030169526 0.67400002
-0.060060006 0.032340001 0.69300002
-0.058740005 0.032340001 0.69300002
-0.057502862 0.032386668 0.69400001
-0.056423813 0.032526668 0.69700003
-0.055096194 0.032526668 0.69700003
-0.053845719 0.032573335 0.69800001
-0.052516192 0.032573335 0.69800001
-0.051333338 0.032666668 0.70000005
-0.050071433 0.032713335 0.70100003
-0.0072857146 0.039666668 0.85000002
-0.004666667 0.032666668 0.70000005
-0.0033333336 0.032666668 0.70000005
-0.0020085715 0.032806668 0.70300001
-0.00066666672 0.032666668 0.70000005
0.00066380959 0.032526668 0.69700003
0.0019914287 0.032526668 0.69700003
0.0033190479 0.032526668 0.69700003
0.0046333335 0.032433335 0.69500005
0.0059571434 0.032433335 0.69500005
0.0072704768 0.032386668 0.69400001
0.0085923811 0.032386668 0.69400001
0.0099142864 0.032386668 0.69400001
0.011220001 0.032340001 0.69300002
0.01254 0.032340001 0.69300002
0.013860001 0.032340001 0.69300002
0.015180001 0.032340001 0.69300002
0.016500002 0.032340001 0.69300002
0.017820001 0.032340001 0.69300002
0.019140001 0.032340001 0.69300002
0.020460002 0.032340001 0.69300002
0.021780001 0.032340001 0.69300002
0.023033334 0.032246668 0.69100004
0.024349526 0.032246668 0.69100004
0.025628572 0.032200001 0.69000006
0.026942858 0.032200001 0.69000006
0.028257145 0.032200001 0.69000006
0.029528573 0.032153334 0.68900001
0.030840954 0.032153334 0.68900001
0.032153334 0.032153334 0.68900001
0.033465717 0.032153334 0.68900001
0.034677144 0.032060001 0.68700004
0.035985716 0.032060001 0.68700004
0.037294287 0.032060001 0.68700004
0.03854667 0.032013334 0.68600005
0.039853334 0.032013334 0.68600005
0.041040003 0.031920001 0.68400002
0.04234286 0.031920001 0.68400002
0.043645717 0.031920001 0.68400002
0.04488286 0.031873334 0.68300003
0.046116192 0.031826667 0.68200004
0.047415242 0.031826667 0.68200004
0.04857143 0.031733334 0.68000001
0.049866669 0.031733334 0.68000001
0.051086672 0.031686667 0.67900002
0.052380003 0.031686667 0.67900002
0.053673338 0.031686667 0.67900002
0.05496667 0.031686667 0.67900002
0.056177147 0.031640001 0.67800003
0.057299051 0.031546667 0.67600006
0.058586672 0.031546667 0.67600006
0.059520002 0.03136 0.67200005
0.061071433 0.031500001 0.67500001
0.062357146 0.031500001 0.67500001
0.063642859 0.031500001 0.67500001
0.064640008 0.03136 0.67200005
0.065821908 0.031313334 0.671
-0.061114289 0.033514287 0.69000006
-0.059886672 0.033562858 0.69100004
-0.058570482 0.033562858 0.69100004
-0.057420004 0.033660002 0.69300002
-0.056100003 0.033660002 0.69300002
-0.05485905 0.033708572 0.69400001
-0.053768575 0.033854287 0.69700003
-0.052440956 0.033854287 0.69700003
-0.05118667 0.033902861 0.69800001
-0.050000004 0.034000002 0.70000005
-0.048666671 0.034000002 0.70000005
-0.047333337 0.034000002 0.70000005
-0.046000004 0.034000002 0.70000005
-0.044730481 0.034048572 0.70100003
-0.04339524 0.034048572 0.70100003
-0.042060003 0.034048572 0.70100003
-0.040724766 0.034048572 0.70100003
-0.039389525 0.034048572 0.70100003
-0.03671905 0.034048572 0.70100003
-0.028584763 0.033902861 0.69800001
-0.027255239 0.033902861 0.69800001
-0.025925716 0.033902861 0.69800001
-0.024666669 0.034000002 0.70000005
-0.023333335 0.034000002 0.70000005
-0.022000002 0.034000002 0.70000005
-0.02060762 0.033902861 0.69800001
-0.019250477 0.033854287 0.69700003
-0.017922858 0.033854287 0.69700003
-0.016595239 0.033854287 0.69700003
-0.01526762 0.033854287 0.69700003
-0.013940001 0.033854287 0.69700003
-0.012612382 0.033854287 0.69700003
-0.011284763 0.033854287 0.69700003
-0.0099571431 0.033854287 0.69700003
-0.0086047621 0.033757146 0.69500005
-0.0073019052 0.033854287 0.69700003
-0.0059571434 0.033757146 0.69500005
-0.0046333335 0.033757146 0.69500005
-0.0033095239 0.033757146 0.69500005
-0.0019857143 0.033757146 0.69500005
-0.00066190481 0.033757146 0.69500005
0.00066190481 0.033757146 0.69500005
0.0019828572 0.033708572 0.69400001
0.0033047621 0.033708572 0.69400001
0.0046266671 0.033708572 0.69400001
0.005948572 0.033708572 0.69400001
0.0072600003 0.033660002 0.69300002
0.0085800001 0.033660002 0.69300002
0.0099000009 0.033660002 0.69300002
0.01118762 0.033562858 0.69100004
0.01250381 0.033562858 0.69100004
0.013820001 0.033562858 0.69100004
0.015114287 0.033514287 0.69000006
0.016452381 0.033562858 0.69100004
0.017742859 0.033514287 0.69000006
0.019057143 0.033514287 0.69000006
0.02037143 0.033514287 0.69000006
0.021685716 0.033514287 0.69000006
0.023000002 0.033514287 0.69000006
0.024314288 0.033514287 0.69000006
0.025591429 0.033465717 0.68900001
0.026903812 0.033465717 0.68900001
0.028134288 0.033368573 0.68700004
0.02944286 0.033368573 0.68700004
0.030706668 0.033320002 0.68600005
0.032013334 0.033320002 0.68600005
0.033320002 0.033320002 0.68600005
0.034525715 0.033222858 0.68400002
0.035828575 0.033222858 0.68400002
0.037131432 0.033222858 0.68400002
0.038434289 0.033222858 0.68400002
0.03967905 0.033174288 0.68300003
0.040980004 0.033174288 0.68300003
0.04221905 0.033125717 0.68200004
0.0435181 0.033125717 0.68200004
0.044620004 0.032980002 0.67900002
0.045913335 0.032980002 0.67900002
0.04720667 0.032980002 0.67900002
0.048500001 0.032980002 0.67900002
0.049793337 0.032980002 0.67900002
0.051011432 0.032931432 0.67800003
0.05230286 0.032931432 0.67800003
0.053594287 0.032931432 0.67800003
0.054885719 0.032931432 0.67800003
0.055845719 0.032737143 0.67400002
0.056960005 0.032640003 0.67200005
0.058240004 0.032640003 0.67200005
0.059520002 0.032640003 0.67200005
0.060980957 0.032737143 0.67400002
0.062264767 0.032737143 0.67400002
0.063360006 0.032640003 0.67200005
0.064640008 0.032640003 0.67200005
0.065821908 0.032591432 0.671
-0.061114289 0.034828573 0.69000006
-0.059800003 0.034828573 0.69000006
-0.058485717 0.034828573 0.69000006
-0.057254288 0.034879051 0.69100004
-0.055938099 0.034879051 0.69100004
-0.054621909 0.034879051 0.69100004
-0.053537145 0.035030477 0.69400001
-0.052290481 0.035080954 0.69500005
-0.051113337 0.035181906 0.69700003
-0.049857147 0.035232384 0.69800001
-0.048527621 0.035232384 0.69800001
-0.047198098 0.035232384 0.69800001
-0.045868576 0.035232384 0.69800001
-0.044539049 0.035232384 0.69800001
-0.043209527 0.035232384 0.69800001
-0.042000003 0.035333335 0.70000005
-0.040550478 0.035232384 0.69800001
-0.039333336 0.035333335 0.70000005
-0.038000003 0.035333335 0.70000005
-0.036666669 0.035333335 0.70000005
-0.035232384 0.035232384 0.69800001
-0.033902861 0.035232384 0.69800001
-0.032526668 0.035181906 0.69700003
-0.028543811 0.035181906 0.69700003
-0.027216192 0.035181906 0.69700003
-0.025925716 0.035232384 0.69800001
-0.024596192 0.035232384 0.69800001
-0.023266668 0.035232384 0.69800001
-0.021937145 0.035232384 0.69800001
-0.020578096 0.035181906 0.69700003
-0.019250477 0.035181906 0.69700003
-0.017922858 0.035181906 0.69700003
-0.016595239 0.035181906 0.69700003
-0.01522381 0.035080954 0.69500005
-0.013940001 0.035181906 0.69700003
-0.012612382 0.035181906 0.69700003
-0.011252382 0.035080954 0.69500005
-0.009928572 0.035080954 0.69500005
-0.0086047621 0.035080954 0.69500005
-0.0072809528 0.035080954 0.69500005
-0.0059571434 0.035080954 0.69500005
-0.0046266671 0.035030477 0.69400001
-0.0033047621 0.035030477 0.69400001
-0.0019828572 0.035030477 0.69400001
-0.00066095241 0.035030477 0.69400001
0.00066095241 0.035030477 0.69400001
0.0019828572 0.035030477 0.69400001
0.0033000002 0.034980003 0.69300002
0.0046200003 0.034980003 0.69300002
0.0059400005 0.034980003 0.69300002
0.0072600003 0.034980003 0.69300002
0.0085800001 0.034980003 0.69300002
0.0098714288 0.034879051 0.69100004
0.011171429 0.034828573 0.69000006
0.012485716 0.034828573 0.69000006
0.013800001 0.034828573 0.69000006
0.015114287 0.034828573 0.69000006
0.016428573 0.034828573 0.69000006
0.017742859 0.034828573 0.69000006
0.019029524 0.034778096 0.68900001
0.020341907 0.034778096 0.68900001
0.021654287 0.034778096 0.68900001
0.022966668 0.034778096 0.68900001
0.024208574 0.034677144 0.68700004
0.025517145 0.034677144 0.68700004
0.026825717 0.034677144 0.68700004
0.028093334 0.03462667 0.68600005
0.029400002 0.03462667 0.68600005
0.030617144 0.034525715 0.68400002
0.031920001 0.034525715 0.68400002
0.033222858 0.034525715 0.68400002
0.034525715 0.034525715 0.68400002
0.035828575 0.034525715 0.68400002
0.037077144 0.034475241 0.68300003
0.038378097 0.034475241 0.68300003
0.03967905 0.034475241 0.68300003
0.040920004 0.034424763 0.68200004
0.04221905 0.034424763 0.68200004
0.043390479 0.034323812 0.68000001
0.044620004 0.034273334 0.67900002
0.045845717 0.03422286 0.67800003
0.047137145 0.03422286 0.67800003
0.048428576 0.03422286 0.67800003
0.049720004 0.03422286 0.67800003
0.051011432 0.03422286 0.67800003
0.05230286 0.03422286 0.67800003
0.053436194 0.034121908 0.67600006
0.054561909 0.034020953 0.67400002
0.055928577 0.034071431 0.67500001
0.05721429 0.034071431 0.67500001
0.058413338 0.034020953 0.67400002
0.059697147 0.034020953 0.67400002
0.060980957 0.034020953 0.67400002
0.062080003 0.033920001 0.67200005
0.063360006 0.033920001 0.67200005
0.064543813 0.033869527 0.671
0.065821908 0.033869527 0.671
-0.06102572 0.036090478 0.68900001
-0.059713338 0.036090478 0.68900001
-0.058400955 0.036090478 0.68900001
-0.057171434 0.03614286 0.69000006
-0.055857148 0.03614286 0.69000006
-0.054542862 0.03614286 0.69000006
-0.053305719 0.036195241 0.69100004
-0.052215241 0.036352385 0.69400001
-0.050966669 0.036404766 0.69500005
-0.049785718 0.036509525 0.69700003
-0.048458099 0.036509525 0.69700003
-0.04713048 0.036509525 0.69700003
-0.045868576 0.036561906 0.69800001
-0.044539049 0.036561906 0.69800001
-0.043209527 0.036561906 0.69800001
-0.041880004 0.036561906 0.69800001
-0.040550478 0.036561906 0.69800001
-0.039220955 0.036561906 0.69800001
-0.037891433 0.036561906 0.69800001
-0.036561906 0.036561906 0.69800001
-0.035232384 0.036561906 0.69800001
-0.033854287 0.036509525 0.69700003
-0.032526668 0.036509525 0.69700003
-0.031199049 0.036509525 0.69700003
-0.02987143 0.036509525 0.69700003
-0.028543811 0.036509525 0.69700003
-0.027216192 0.036509525 0.69700003
-0.025888573 0.036509525 0.69700003
-0.024596192 0.036561906 0.69800001
-0.023233335 0.036509525 0.69700003
-0.021905717 0.036509525 0.69700003
-0.020578096 0.036509525 0.69700003
-0.01919524 0.036404766 0.69500005
-0.01787143 0.036404766 0.69500005
-0.01652381 0.036352385 0.69400001
-0.015201906 0.036352385 0.69400001
-0.01388 0.036352385 0.69400001
-0.012576192 0.036404766 0.69500005
-0.011220001 0.036300004 0.69300002
-0.0099142864 0.036352385 0.69400001
-0.0085800001 0.036300004 0.69300002
-0.0072704768 0.036352385 0.69400001
-0.005948572 0.036352385 0.69400001
-0.0046266671 0.036352385 0.69400001
-0.0033047621 0.036352385 0.69400001
-0.0019828572 0.036352385 0.69400001
-0.00066000002 0.036300004 0.69300002
0.00066000002 0.036300004 0.69300002
0.0019800002 0.036300004 0.69300002
0.0032904765 0.036195241 0.69100004
0.0046000001 0.03614286 0.69000006
0.0059228577 0.036195241 0.69100004
0.0072285719 0.03614286 0.69000006
0.0085428581 0.03614286 0.69000006
0.0098571433 0.03614286 0.69000006
0.011155238 0.036090478 0.68900001
0.012485716 0.03614286 0.69000006
0.013800001 0.03614286 0.69000006
0.015092382 0.036090478 0.68900001
0.016404763 0.036090478 0.68900001
0.017717144 0.036090478 0.68900001
0.019029524 0.036090478 0.68900001
0.020341907 0.036090478 0.68900001
0.021654287 0.036090478 0.68900001
0.022900002 0.035985716 0.68700004
0.024173334 0.035933334 0.68600005
0.025480002 0.035933334 0.68600005
0.026786668 0.035933334 0.68600005
0.02801143 0.035828575 0.68400002
0.029314287 0.035828575 0.68400002
0.030617144 0.035828575 0.68400002
0.031920001 0.035828575 0.68400002
0.033174288 0.035776194 0.68300003
0.034475241 0.035776194 0.68300003
0.035776194 0.035776194 0.68300003
0.037022859 0.035723813 0.68200004
0.038321909 0.035723813 0.68200004
0.039504763 0.03561905 0.68000001
0.040800001 0.03561905 0.68000001
0.042033337 0.035566669 0.67900002
0.043262862 0.035514288 0.67800003
0.044554289 0.035514288 0.67800003
0.045710478 0.035409525 0.67600006
0.046998098 0.035409525 0.67600006
0.048428576 0.035514288 0.67800003
0.049720004 0.035514288 0.67800003
0.050860956 0.035409525 0.67600006
0.05199429 0.035304762 0.67400002
0.0532781 0.035304762 0.67400002
0.054561909 0.035304762 0.67400002
0.055928577 0.035357144 0.67500001
0.057129528 0.035304762 0.67400002
0.058413338 0.035304762 0.67400002
0.059520002 0.035200004 0.67200005
0.060800005 0.035200004 0.67200005
0.062080003 0.035200004 0.67200005
0.063360006 0.035200004 0.67200005
0.064543813 0.035147622 0.671
-0.059540004 0.037294287 0.68700004
-0.058231432 0.037294287 0.68700004
-0.05692286 0.037294287 0.68700004
-0.055776194 0.037402861 0.68900001
-0.054542862 0.037457146 0.69000006
-0.053228576 0.037457146 0.69000006
-0.052140005 0.037620004 0.69300002
-0.050893337 0.037674289 0.69400001
-0.049642861 0.037728574 0.69500005
-0.048458099 0.037837144 0.69700003
-0.04713048 0.037837144 0.69700003
-0.045802861 0.037837144 0.69700003
-0.044539049 0.037891433 0.69800001
-0.043147624 0.037837144 0.69700003
-0.041820005 0.037837144 0.69700003
-0.040492382 0.037837144 0.69700003
-0.039164763 0.037837144 0.69700003
-0.037837144 0.037837144 0.69700003
-0.036509525 0.037837144 0.69700003
-0.035181906 0.037837144 0.69700003
-0.033757146 0.037728574 0.69500005
-0.032433335 0.037728574 0.69500005
-0.031109527 0.037728574 0.69500005
-0.02987143 0.037837144 0.69700003
-0.028543811 0.037837144 0.69700003
-0.027216192 0.037837144 0.69700003
-0.025888573 0.037837144 0.69700003
-0.024560954 0.037837144 0.69700003
-0.023233335 0.037837144 0.69700003
-0.021842858 0.037728574 0.69500005
-0.02051905 0.037728574 0.69500005
-0.01919524 0.037728574 0.69500005
-0.01787143 0.037728574 0.69500005
-0.01652381 0.037674289 0.69400001
-0.015201906 0.037674289 0.69400001
-0.01388 0.037674289 0.69400001
-0.012558096 0.037674289 0.69400001
-0.011220001 0.037620004 0.69300002
-0.0099000009 0.037620004 0.69300002
-0.0085552391 0.037511431 0.69100004
-0.0072600003 0.037620004 0.69300002
-0.0059400005 0.037620004 0.69300002
-0.004606667 0.037511431 0.69100004
-0.0032904765 0.037511431 0.69100004
-0.0019800002 0.037620004 0.69300002
-0.00065809529 0.037511431 0.69100004
0.00065809529 0.037511431 0.69100004
0.0019742858 0.037511431 0.69100004
0.0032857144 0.037457146 0.69000006
0.0046000001 0.037457146 0.69000006
0.0059142862 0.037457146 0.69000006
0.0072285719 0.037457146 0.69000006
0.0085304771 0.037402861 0.68900001
0.0098428577 0.037402861 0.68900001
0.011155238 0.037402861 0.68900001
0.01246762 0.037402861 0.68900001
0.013780001 0.037402861 0.68900001
0.015092382 0.037402861 0.68900001
0.016404763 0.037402861 0.68900001
0.017665716 0.037294287 0.68700004
0.018974287 0.037294287 0.68700004
0.020282859 0.037294287 0.68700004
0.021560002 0.037240002 0.68600005
0.022800002 0.037131432 0.68400002
0.024102859 0.037131432 0.68400002
0.025405716 0.037131432 0.68400002
0.026669526 0.037077144 0.68300003
0.027970478 0.037077144 0.68300003
0.029271431 0.037077144 0.68300003
0.030527622 0.037022859 0.68200004
0.031826667 0.037022859 0.68200004
0.033125717 0.037022859 0.68200004
0.034424763 0.037022859 0.68200004
0.035723813 0.037022859 0.68200004
0.036914289 0.036914289 0.68000001
0.038209528 0.036914289 0.68000001
0.039504763 0.036914289 0.68000001
0.040740002 0.036860004 0.67900002
0.042033337 0.036860004 0.67900002
0.043262862 0.036805715 0.67800003
0.044422861 0.036697146 0.67600006
0.045710478 0.036697146 0.67600006
0.046998098 0.036697146 0.67600006
0.04821429 0.036642861 0.67500001
0.049500003 0.036642861 0.67500001
0.050710481 0.036588576 0.67400002
0.05199429 0.036588576 0.67400002
0.053120002 0.036480002 0.67200005
0.054400004 0.036480002 0.67200005
0.055845719 0.036588576 0.67400002
0.057129528 0.036588576 0.67400002
0.058413338 0.036588576 0.67400002
0.059520002 0.036480002 0.67200005
0.060800005 0.036480002 0.67200005
0.062080003 0.036480002 0.67200005
0.063360006 0.036480002 0.67200005
0.064447626 0.036371432 0.67000002
-0.060760003 0.03854667 0.68600005
-0.059453338 0.03854667 0.68600005
-0.05814667 0.03854667 0.68600005
-0.056840003 0.03854667 0.68600005
-0.055614289 0.038602859 0.68700004
-0.054463815 0.03871524 0.68900001
-0.053151432 0.03871524 0.68900001
-0.051989526 0.03882762 0.69100004
-0.050673336 0.03882762 0.69100004
-0.049500003 0.038940001 0.69300002
-0.048249528 0.038996194 0.69400001
-0.046995241 0.039052382 0.69500005
-0.045671433 0.039052382 0.69500005
-0.044347622 0.039052382 0.69500005
-0.043147624 0.039164763 0.69700003
-0.041820005 0.039164763 0.69700003
-0.040376194 0.039052382 0.69500005
-0.039164763 0.039164763 0.69700003
-0.037728574 0.039052382 0.69500005
-0.036404766 0.039052382 0.69500005
-0.035080954 0.039052382 0.69500005
-0.033757146 0.039052382 0.69500005
-0.032433335 0.039052382 0.69500005
-0.031109527 0.039052382 0.69500005
-0.029785717 0.039052382 0.69500005
-0.028461907 0.039052382 0.69500005
-0.027138097 0.039052382 0.69500005
-0.025814287 0.039052382 0.69500005
-0.024490478 0.039052382 0.69500005
-0.023166668 0.039052382 0.69500005
-0.021842858 0.039052382 0.69500005
-0.020489525 0.038996194 0.69400001
-0.019167621 0.038996194 0.69400001
-0.017845716 0.038996194 0.69400001
-0.016500002 0.038940001 0.69300002
-0.015180001 0.038940001 0.69300002
-0.013860001 0.038940001 0.69300002
-0.01254 0.038940001 0.69300002
-0.01118762 0.03882762 0.69100004
-0.0098714288 0.03882762 0.69100004
-0.0085552391 0.03882762 0.69100004
-0.0072390479 0.03882762 0.69100004
-0.0059228577 0.03882762 0.69100004
-0.004606667 0.03882762 0.69100004
-0.0032904765 0.03882762 0.69100004
-0.0019742858 0.03882762 0.69100004
-0.0006571429 0.038771432 0.69000006
0.0006571429 0.038771432 0.69000006
0.0019714287 0.038771432 0.69000006
0.0032809526 0.03871524 0.68900001
0.0045933337 0.03871524 0.68900001
0.0059057148 0.03871524 0.68900001
0.0071971435 0.038602859 0.68700004
0.0085057151 0.038602859 0.68700004
0.0098142866 0.038602859 0.68700004
0.011122858 0.038602859 0.68700004
0.01243143 0.038602859 0.68700004
0.013740001 0.038602859 0.68700004
0.015048573 0.038602859 0.68700004
0.016357144 0.038602859 0.68700004
0.017640002 0.03854667 0.68600005
0.018946668 0.03854667 0.68600005
0.020194286 0.038434289 0.68400002
0.021497143 0.038434289 0.68400002
0.022766668 0.038378097 0.68300003
0.02406762 0.038378097 0.68300003
0.025368573 0.038378097 0.68300003
0.026669526 0.038378097 0.68300003
0.027970478 0.038378097 0.68300003
0.029228574 0.038321909 0.68200004
0.030527622 0.038321909 0.68200004
0.031826667 0.038321909 0.68200004
0.033125717 0.038321909 0.68200004
0.034273334 0.038153335 0.67900002
0.03561905 0.038209528 0.68000001
0.036914289 0.038209528 0.68000001
0.038153335 0.038153335 0.67900002
0.039446671 0.038153335 0.67900002
0.040740002 0.038153335 0.67900002
0.04197143 0.038097147 0.67800003
0.043135241 0.037984766 0.67600006
0.044422861 0.037984766 0.67600006
0.04564286 0.037928574 0.67500001
0.046928573 0.037928574 0.67500001
0.048142862 0.037872385 0.67400002
0.049426671 0.037872385 0.67400002
0.050560005 0.037760001 0.67200005
0.051840004 0.037760001 0.67200005
0.053040955 0.037703812 0.671
0.054561909 0.037872385 0.67400002
0.055845719 0.037872385 0.67400002
0.056960005 0.037760001 0.67200005
0.058240004 0.037760001 0.67200005
0.059431434 0.037703812 0.671
0.060709529 0.037703812 0.671
0.061987624 0.037703812 0.671
0.063265719 0.037703812 0.671
0.064447626 0.03764762 0.67000002
0.065723814 0.03764762 0.67000002
-0.060760003 0.039853334 0.68600005
-0.059453338 0.039853334 0.68600005
-0.057977147 0.039737146 0.68400002
-0.056840003 0.039853334 0.68600005
-0.055533338 0.039853334 0.68600005
-0.054305717 0.03991143 0.68700004
-0.052997146 0.03991143 0.68700004
-0.05183905 0.040027622 0.68900001
-0.050600003 0.040085718 0.69000006
-0.049357146 0.040143814 0.69100004
-0.048180003 0.040260002 0.69300002
-0.046860002 0.040260002 0.69300002
-0.045605719 0.040318098 0.69400001
-0.044283811 0.040318098 0.69400001
-0.043023814 0.040376194 0.69500005
-0.041700002 0.040376194 0.69500005
-0.040376194 0.040376194 0.69500005
-0.039052382 0.040376194 0.69500005
-0.037728574 0.040376194 0.69500005
-0.036404766 0.040376194 0.69500005
-0.035080954 0.040376194 0.69500005
-0.033757146 0.040376194 0.69500005
-0.032386668 0.040318098 0.69400001
-0.031064764 0.040318098 0.69400001
-0.029742859 0.040318098 0.69400001
-0.028420955 0.040318098 0.69400001
-0.027138097 0.040376194 0.69500005
-0.025777144 0.040318098 0.69400001
-0.02445524 0.040318098 0.69400001
-0.023133336 0.040318098 0.69400001
-0.021811429 0.040318098 0.69400001
-0.020489525 0.040318098 0.69400001
-0.019167621 0.040318098 0.69400001
-0.017820001 0.040260002 0.69300002
-0.016500002 0.040260002 0.69300002
-0.015136192 0.040143814 0.69100004
-0.013820001 0.040143814 0.69100004
-0.01250381 0.040143814 0.69100004
-0.011171429 0.040085718 0.69000006
-0.0098571433 0.040085718 0.69000006
-0.0085428581 0.040085718 0.69000006
-0.0072285719 0.040085718 0.69000006
-0.0059142862 0.040085718 0.69000006
-0.0046000001 0.040085718 0.69000006
-0.0032857144 0.040085718 0.69000006
-0.0019714287 0.040085718 0.69000006
-0.0006571429 0.040085718 0.69000006
0.0006571429 0.040085718 0.69000006
0.0019714287 0.040085718 0.69000006
0.0032809526 0.040027622 0.68900001
0.0045933337 0.040027622 0.68900001
0.005888572 0.03991143 0.68700004
0.0071866671 0.039853334 0.68600005
0.0084933341 0.039853334 0.68600005
0.009800001 0.039853334 0.68600005
0.011106667 0.039853334 0.68600005
0.012413334 0.039853334 0.68600005
0.013720001 0.039853334 0.68600005
0.015026668 0.039853334 0.68600005
0.016333334 0.039853334 0.68600005
0.017588573 0.039737146 0.68400002
0.01889143 0.039737146 0.68400002
0.020194286 0.039737146 0.68400002
0.021465715 0.03967905 0.68300003
0.022766668 0.03967905 0.68300003
0.02406762 0.03967905 0.68300003
0.025368573 0.03967905 0.68300003
0.026630478 0.039620955 0.68200004
0.027929526 0.039620955 0.68200004
0.029142858 0.039504763 0.68000001
0.030438097 0.039504763 0.68000001
0.031733334 0.039504763 0.68000001
0.033028573 0.039504763 0.68000001
0.034273334 0.039446671 0.67900002
0.035566669 0.039446671 0.67900002
0.036860004 0.039446671 0.67900002
0.038153335 0.039446671 0.67900002
0.039388575 0.039388575 0.67800003
0.040680002 0.039388575 0.67800003
0.04197143 0.039388575 0.67800003
0.043135241 0.039272383 0.67600006
0.044357147 0.039214287 0.67500001
0.04564286 0.039214287 0.67500001
0.046859052 0.039156195 0.67400002
0.048142862 0.039156195 0.67400002
0.049280003 0.039040003 0.67200005
0.050560005 0.039040003 0.67200005
0.051840004 0.039040003 0.67200005
0.053040955 0.038981907 0.671
0.054561909 0.039156195 0.67400002
0.055597145 0.038981907 0.671
0.056790479 0.038923811 0.67000002
0.05806667 0.038923811 0.67000002
0.059342861 0.038923811 0.67000002
0.060709529 0.038981907 0.671
0.061895244 0.038923811 0.67000002
0.063171431 0.038923811 0.67000002
0.064351432 0.038865715 0.66900003
0.06562572 0.038865715 0.66900003
-0.060582861 0.041040003 0.68400002
-0.059280004 0.041040003 0.68400002
-0.057977147 0.041040003 0.68400002
-0.05667429 0.041040003 0.68400002
-0.055533338 0.041160002 0.68600005
-0.05422667 0.041160002 0.68600005
-0.052920002 0.041160002 0.68600005
-0.051688574 0.041220002 0.68700004
-0.050600003 0.041400004 0.69000006
-0.049285717 0.041400004 0.69000006
-0.048040956 0.041460004 0.69100004
-0.046724766 0.041460004 0.69100004
-0.045540001 0.041580003 0.69300002
-0.044220004 0.041580003 0.69300002
-0.042900003 0.041580003 0.69300002
-0.041640002 0.041640002 0.69400001
-0.040318098 0.041640002 0.69400001
-0.038996194 0.041640002 0.69400001
-0.037674289 0.041640002 0.69400001
-0.036300004 0.041580003 0.69300002
-0.035030477 0.041640002 0.69400001
-0.033708572 0.041640002 0.69400001
-0.032340001 0.041580003 0.69300002
-0.031020002 0.041580003 0.69300002
-0.029700002 0.041580003 0.69300002
-0.028380001 0.041580003 0.69300002
-0.027060002 0.041580003 0.69300002
-0.025740001 0.041580003 0.69300002
-0.024420002 0.041580003 0.69300002
-0.023100002 0.041580003 0.69300002
-0.021780001 0.041580003 0.69300002
-0.020460002 0.041580003 0.69300002
-0.019140001 0.041580003 0.69300002
-0.017768573 0.041460004 0.69100004
-0.016452381 0.041460004 0.69100004
-0.015136192 0.041460004 0.69100004
-0.013820001 0.041460004 0.69100004
-0.01250381 0.041460004 0.69100004
-0.011155238 0.041340001 0.68900001
-0.0098428577 0.041340001 0.68900001
-0.0085304771 0.041340001 0.68900001
-0.0072180959 0.041340001 0.68900001
-0.0059057148 0.041340001 0.68900001
-0.0045933337 0.041340001 0.68900001
-0.0032809526 0.041340001 0.68900001
-0.0019685715 0.041340001 0.68900001
-0.0006561905 0.041340001 0.68900001
0.0006561905 0.041340001 0.68900001
0.0019685715 0.041340001 0.68900001
0.0032714289 0.041220002 0.68700004
0.0045733335 0.041160002 0.68600005
0.0058800005 0.041160002 0.68600005
0.0071657146 0.041040003 0.68400002
0.0084685721 0.041040003 0.68400002
0.009771429 0.041040003 0.68400002
0.011074287 0.041040003 0.68400002
0.012377144 0.041040003 0.68400002
0.013660001 0.040980004 0.68300003
0.014960953 0.040980004 0.68300003
0.016261905 0.040980004 0.68300003
0.017562859 0.040980004 0.68300003
0.01886381 0.040980004 0.68300003
0.020164764 0.040980004 0.68300003
0.021465715 0.040980004 0.68300003
0.022733334 0.040920004 0.68200004
0.024032382 0.040920004 0.68200004
0.02533143 0.040920004 0.68200004
0.026630478 0.040920004 0.68200004
0.027847622 0.040800001 0.68000001
0.029100003 0.040740002 0.67900002
0.030393336 0.040740002 0.67900002
0.031686667 0.040740002 0.67900002
0.032980002 0.040740002 0.67900002
0.034273334 0.040740002 0.67900002
0.035566669 0.040740002 0.67900002
0.036805715 0.040680002 0.67800003
0.038097147 0.040680002 0.67800003
0.039388575 0.040680002 0.67800003
0.040560003 0.040560003 0.67600006
0.04184762 0.040560003 0.67600006
0.04307143 0.040500004 0.67500001
0.044357147 0.040500004 0.67500001
0.04564286 0.040500004 0.67500001
0.046928573 0.040500004 0.67500001
0.04821429 0.040500004 0.67500001
0.049280003 0.040320002 0.67200005
0.050560005 0.040320002 0.67200005
0.05176286 0.040260002 0.671
0.053040955 0.040260002 0.671
0.05431905 0.040260002 0.671
0.055597145 0.040260002 0.671
0.056790479 0.040200002 0.67000002
0.05806667 0.040200002 0.67000002
0.059342861 0.040200002 0.67000002
0.060619052 0.040200002 0.67000002
0.06180286 0.040140003 0.66900003
0.063077144 0.040140003 0.66900003
0.064351432 0.040140003 0.66900003
0.06562572 0.040140003 0.66900003
-0.061795242 0.042280953 0.68300003
-0.060494289 0.042280953 0.68300003
-0.059193335 0.042280953 0.68300003
-0.057892386 0.042280953 0.68300003
-0.05667429 0.04234286 0.68400002
-0.055371433 0.04234286 0.68400002
-0.05422667 0.04246667 0.68600005
-0.052920002 0.04246667 0.68600005
-0.051613338 0.04246667 0.68600005
-0.050526671 0.042652383 0.68900001
-0.049285717 0.04271429 0.69000006
-0.048040956 0.042776193 0.69100004
-0.046724766 0.042776193 0.69100004
-0.045408573 0.042776193 0.69100004
-0.044220004 0.042900003 0.69300002
-0.042900003 0.042900003 0.69300002
-0.041580003 0.042900003 0.69300002
-0.040260002 0.042900003 0.69300002
-0.038940001 0.042900003 0.69300002
-0.037620004 0.042900003 0.69300002
-0.036195241 0.042776193 0.69100004
-0.034980003 0.042900003 0.69300002
-0.033660002 0.042900003 0.69300002
-0.032246668 0.042776193 0.69100004
-0.031020002 0.042900003 0.69300002
-0.029614288 0.042776193 0.69100004
-0.028298097 0.042776193 0.69100004
-0.027060002 0.042900003 0.69300002
-0.025665715 0.042776193 0.69100004
-0.024349526 0.042776193 0.69100004
-0.023033334 0.042776193 0.69100004
-0.021717144 0.042776193 0.69100004
-0.020400954 0.042776193 0.69100004
-0.019084763 0.042776193 0.69100004
-0.017768573 0.042776193 0.69100004
-0.016428573 0.04271429 0.69000006
-0.015114287 0.04271429 0.69000006
-0.013800001 0.04271429 0.69000006
-0.012485716 0.04271429 0.69000006
-0.011155238 0.042652383 0.68900001
-0.0098428577 0.042652383 0.68900001
-0.0085304771 0.042652383 0.68900001
-0.0072180959 0.042652383 0.68900001
-0.0059057148 0.042652383 0.68900001
-0.0045933337 0.042652383 0.68900001
-0.0032809526 0.042652383 0.68900001
-0.0019685715 0.042652383 0.68900001
-0.00065428577 0.042528573 0.68700004
0.00065428577 0.042528573 0.68700004
0.0019628573 0.042528573 0.68700004
0.0032666668 0.04246667 0.68600005
0.0045733335 0.04246667 0.68600005
0.0058628577 0.04234286 0.68400002
0.0071657146 0.04234286 0.68400002
0.0084685721 0.04234286 0.68400002
0.009771429 0.04234286 0.68400002
0.011074287 0.04234286 0.68400002
0.012359048 0.042280953 0.68300003
0.013660001 0.042280953 0.68300003
0.014960953 0.042280953 0.68300003
0.016261905 0.042280953 0.68300003
0.017562859 0.042280953 0.68300003
0.01886381 0.042280953 0.68300003
0.020135239 0.04221905 0.68200004
0.021434287 0.04221905 0.68200004
0.022733334 0.04221905 0.68200004
0.024032382 0.04221905 0.68200004
0.025257144 0.04209524 0.68000001
0.026552383 0.04209524 0.68000001
0.027806668 0.042033337 0.67900002
0.029100003 0.042033337 0.67900002
0.030393336 0.042033337 0.67900002
0.031640001 0.04197143 0.67800003
0.032931432 0.04197143 0.67800003
0.03422286 0.04197143 0.67800003
0.035514288 0.04197143 0.67800003
0.036805715 0.04197143 0.67800003
0.037984766 0.04184762 0.67600006
0.039272383 0.04184762 0.67600006
0.040560003 0.04184762 0.67600006
0.041785717 0.041785717 0.67500001
0.04307143 0.041785717 0.67500001
0.044291433 0.041723814 0.67400002
0.045575242 0.041723814 0.67400002
0.046859052 0.041723814 0.67400002
0.048142862 0.041723814 0.67400002
0.049280003 0.041600004 0.67200005
0.050484765 0.041538097 0.671
0.051685717 0.041476194 0.67000002
0.052961908 0.041476194 0.67000002
0.05431905 0.041538097 0.671
0.055514291 0.041476194 0.67000002
0.056790479 0.041476194 0.67000002
0.057980005 0.041414287 0.66900003
0.059342861 0.041476194 0.67000002
0.060528576 0.041414287 0.66900003
0.06180286 0.041414287 0.66900003
0.063077144 0.041414287 0.66900003
0.064351432 0.041414287 0.66900003
0.06562572 0.041414287 0.66900003
-0.061795242 0.043581907 0.68300003
-0.060494289 0.043581907 0.68300003
-0.059193335 0.043581907 0.68300003
-0.057892386 0.043581907 0.68300003
-0.056591433 0.043581907 0.68300003
-0.055371433 0.043645717 0.68400002
-0.054068577 0.043645717 0.68400002
-0.05276572 0.043645717 0.68400002
-0.051613338 0.043773334 0.68600005
-0.050380003 0.043837145 0.68700004
-0.049214289 0.043964766 0.68900001
-0.047971431 0.044028573 0.69000006
-0.046657145 0.044028573 0.69000006
-0.045408573 0.044092383 0.69100004
-0.044092383 0.044092383 0.69100004
-0.042776193 0.044092383 0.69100004
-0.041460004 0.044092383 0.69100004
-0.040143814 0.044092383 0.69100004
-0.03882762 0.044092383 0.69100004
-0.037511431 0.044092383 0.69100004
-0.036195241 0.044092383 0.69100004
-0.034879051 0.044092383 0.69100004
-0.033562858 0.044092383 0.69100004
-0.032246668 0.044092383 0.69100004
-0.030930478 0.044092383 0.69100004
-0.029614288 0.044092383 0.69100004
-0.028298097 0.044092383 0.69100004
-0.026981907 0.044092383 0.69100004
-0.025665715 0.044092383 0.69100004
-0.024349526 0.044092383 0.69100004
-0.023033334 0.044092383 0.69100004
-0.021717144 0.044092383 0.69100004
-0.02037143 0.044028573 0.69000006
-0.019057143 0.044028573 0.69000006
-0.017742859 0.044028573 0.69000006
-0.016428573 0.044028573 0.69000006
-0.015114287 0.044028573 0.69000006
-0.013800001 0.044028573 0.69000006
-0.01246762 0.043964766 0.68900001
-0.011122858 0.043837145 0.68700004
-0.0098142866 0.043837145 0.68700004
-0.0085057151 0.043837145 0.68700004
-0.0071971435 0.043837145 0.68700004
-0.005888572 0.043837145 0.68700004
-0.0045800004 0.043837145 0.68700004
-0.0032714289 0.043837145 0.68700004
-0.0019628573 0.043837145 0.68700004
-0.00065333338 0.043773334 0.68600005
0.00065428577 0.043837145 0.68700004
0.00196 0.043773334 0.68600005
0.0032666668 0.043773334 0.68600005
0.0045733335 0.043773334 0.68600005
0.0058628577 0.043645717 0.68400002
0.0071657146 0.043645717 0.68400002
0.0084685721 0.043645717 0.68400002
0.0097571434 0.043581907 0.68300003
0.011058096 0.043581907 0.68300003
0.012359048 0.043581907 0.68300003
0.013660001 0.043581907 0.68300003
0.014960953 0.043581907 0.68300003
0.016261905 0.043581907 0.68300003
0.017537143 0.0435181 0.68200004
0.018836191 0.0435181 0.68200004
0.020135239 0.0435181 0.68200004
0.021434287 0.0435181 0.68200004
0.022666669 0.043390479 0.68000001
0.023961907 0.043390479 0.68000001
0.025257144 0.043390479 0.68000001
0.026513334 0.043326668 0.67900002
0.027806668 0.043326668 0.67900002
0.029100003 0.043326668 0.67900002
0.030348573 0.043262862 0.67800003
0.031640001 0.043262862 0.67800003
0.032931432 0.043262862 0.67800003
0.03422286 0.043262862 0.67800003
0.035409525 0.043135241 0.67600006
0.036697146 0.043135241 0.67600006
0.037928574 0.04307143 0.67500001
0.039214287 0.04307143 0.67500001
0.040500004 0.04307143 0.67500001
0.041785717 0.04307143 0.67500001
0.04307143 0.04307143 0.67500001
0.044291433 0.043007623 0.67400002
0.045575242 0.043007623 0.67400002
0.046859052 0.043007623 0.67400002
0.048142862 0.043007623 0.67400002
0.049280003 0.042880002 0.67200005
0.050560005 0.042880002 0.67200005
0.051685717 0.042752385 0.67000002
0.052961908 0.042752385 0.67000002
0.0542381 0.042752385 0.67000002
0.055514291 0.042752385 0.67000002
0.056790479 0.042752385 0.67000002
0.057980005 0.042688575 0.66900003
0.059254289 0.042688575 0.66900003
0.060528576 0.042688575 0.66900003
0.06180286 0.042688575 0.66900003
0.063077144 0.042688575 0.66900003
0.064159051 0.042560954 0.66700006
0.065429531 0.042560954 0.66700006
-0.061704766 0.044817146 0.68200004
-0.060494289 0.04488286 0.68300003
-0.05910667 0.044817146 0.68200004
-0.057807624 0.044817146 0.68200004
-0.056591433 0.04488286 0.68300003
-0.055290479 0.04488286 0.68300003
-0.053989526 0.04488286 0.68300003
-0.05276572 0.044948574 0.68400002
-0.051613338 0.045080002 0.68600005
-0.05030667 0.045080002 0.68600005
-0.049214289 0.045277145 0.68900001
-0.047971431 0.045342859 0.69000006
-0.046657145 0.045342859 0.69000006
-0.045342859 0.045342859 0.69000006
-0.044028573 0.045342859 0.69000006
-0.04271429 0.045342859 0.69000006
-0.041400004 0.045342859 0.69000006
-0.040085718 0.045342859 0.69000006
-0.038771432 0.045342859 0.69000006
-0.037457146 0.045342859 0.69000006
-0.03614286 0.045342859 0.69000006
-0.034828573 0.045342859 0.69000006
-0.033514287 0.045342859 0.69000006
-0.032200001 0.045342859 0.69000006
-0.030885717 0.045342859 0.69000006
-0.029614288 0.045408573 0.69100004
-0.028257145 0.045342859 0.69000006
-0.026942858 0.045342859 0.69000006
-0.025628572 0.045342859 0.69000006
-0.024314288 0.045342859 0.69000006
-0.023000002 0.045342859 0.69000006
-0.021685716 0.045342859 0.69000006
-0.02037143 0.045342859 0.69000006
-0.019029524 0.045277145 0.68900001
-0.017717144 0.045277145 0.68900001
-0.016404763 0.045277145 0.68900001
-0.015092382 0.045277145 0.68900001
-0.013780001 0.045277145 0.68900001
-0.01246762 0.045277145 0.68900001
-0.011106667 0.045080002 0.68600005
-0.009800001 0.045080002 0.68600005
-0.0084933341 0.045080002 0.68600005
-0.0071866671 0.045080002 0.68600005
-0.0058800005 0.045080002 0.68600005
-0.0045800004 0.045145717 0.68700004
-0.0032666668 0.045080002 0.68600005
-0.0019628573 0.045145717 0.68700004
-0.00065333338 0.045080002 0.68600005
0.00065333338 0.045080002 0.68600005
0.00196 0.045080002 0.68600005
0.0032571431 0.044948574 0.68400002
0.0045600003 0.044948574 0.68400002
0.0058628577 0.044948574 0.68400002
0.0071552387 0.04488286 0.68300003
0.008456191 0.04488286 0.68300003
0.0097571434 0.04488286 0.68300003
0.011058096 0.04488286 0.68300003
0.012359048 0.04488286 0.68300003
0.013660001 0.04488286 0.68300003
0.014939048 0.044817146 0.68200004
0.016238097 0.044817146 0.68200004
0.017485715 0.044685718 0.68000001
0.018836191 0.044817146 0.68200004
0.020076191 0.044685718 0.68000001
0.02137143 0.044685718 0.68000001
0.022633335 0.044620004 0.67900002
0.023926668 0.044620004 0.67900002
0.025220001 0.044620004 0.67900002
0.026513334 0.044620004 0.67900002
0.027806668 0.044620004 0.67900002
0.029057145 0.044554289 0.67800003
0.030348573 0.044554289 0.67800003
0.031640001 0.044554289 0.67800003
0.032834288 0.044422861 0.67600006
0.034121908 0.044422861 0.67600006
0.035409525 0.044422861 0.67600006
0.036642861 0.044357147 0.67500001
0.037928574 0.044357147 0.67500001
0.039214287 0.044357147 0.67500001
0.040500004 0.044357147 0.67500001
0.041785717 0.044357147 0.67500001
0.043007623 0.044291433 0.67400002
0.044291433 0.044291433 0.67400002
0.045575242 0.044291433 0.67400002
0.046859052 0.044291433 0.67400002
0.048142862 0.044291433 0.67400002
0.049280003 0.044160005 0.67200005
0.050560005 0.044160005 0.67200005
0.051840004 0.044160005 0.67200005
