# .PCD v0.7 - Point Cloud Data file format
VERSION 0.7
FIELDS x y z
SIZE 4 4 4
TYPE F F F
COUNT 1 1 1
WIDTH 1362
HEIGHT 1
VIEWPOINT 0 0 0 1 0 0 0
POINTS 1362
DATA ascii
-0.39838955 -0.20591715 0.74300003
-0.39804289 -0.20647144 0.74500006
-0.39662385 -0.20647144 0.74500006
-0.40504003 -0.20147429 0.73200005
-0.40364575 -0.20147429 0.73200005
-0.40225145 -0.20147429 0.73200005
-0.40085718 -0.20147429 0.73200005
-0.4005543 -0.20202477 0.73400003
-0.40024385 -0.20257525 0.73600006
-0.40046763 -0.20340097 0.73900002
-0.39960003 -0.20367621 0.74000001
-0.3998048 -0.20450191 0.74300003
-0.39838955 -0.20450191 0.74300003
-0.39804289 -0.20505239 0.74500006
-0.39662385 -0.20505239 0.74500006
-0.40504003 -0.20008001 0.73200005
-0.40364575 -0.20008001 0.73200005
-0.40225145 -0.20008001 0.73200005
-0.40195242 -0.20062669 0.73400003
-0.4005543 -0.20062669 0.73400003
-0.40024385 -0.20117335 0.73600006
-0.39938384 -0.20144668 0.73700005
-0.39906004 -0.20199335 0.73900002
-0.39926669 -0.20281334 0.74200004
-0.39785334 -0.20281334 0.74200004
-0.39804289 -0.20363335 0.74500006
-0.39662385 -0.20363335 0.74500006
-0.40364575 -0.19868572 0.73200005
-0.40225145 -0.19868572 0.73200005
-0.40195242 -0.19922858 0.73400003
-0.40164575 -0.19977145 0.73600006
-0.40024385 -0.19977145 0.73600006
-0.39938384 -0.20004287 0.73700005
-0.39798003 -0.20004287 0.73700005
-0.3981905 -0.20085716 0.74000001
-0.39678097 -0.20085716 0.74000001
-0.39804289 -0.2022143 0.74500006
-0.3976886 -0.20275715 0.74700004
-0.40364575 -0.19729145 0.73200005
-0.40225145 -0.19729145 0.73200005
-0.40195242 -0.19783048 0.73400003
-0.40164575 -0.19836953 0.73600006
-0.40024385 -0.19836953 0.73600006
-0.39938384 -0.19863907 0.73700005
-0.39798003 -0.19863907 0.73700005
-0.39765242 -0.19917811 0.73900002
-0.39678097 -0.19944763 0.74000001
-0.39911145 -0.2013343 0.74700004
-0.3976886 -0.2013343 0.74700004
-0.39891812 -0.20268191 0.75200003
-0.39748573 -0.20268191 0.75200003
-0.40444955 -0.19696763 0.73600006
-0.40359527 -0.19723526 0.73700005
-0.40219146 -0.19723526 0.73700005
-0.40078765 -0.19723526 0.73700005
-0.40046763 -0.19777049 0.73900002
-0.39906004 -0.19777049 0.73900002
-0.39926669 -0.19857335 0.74200004
-0.39785334 -0.19857335 0.74200004
-0.39911145 -0.19991145 0.74700004
-0.3976886 -0.19991145 0.74700004
-0.39785716 -0.20071431 0.75000006
-0.39748573 -0.20124954 0.75200003
-0.40444955 -0.19556573 0.73600006
-0.40359527 -0.19583145 0.73700005
-0.40219146 -0.19583145 0.73700005
-0.40187526 -0.19636287 0.73900002
-0.40046763 -0.19636287 0.73900002
-0.39906004 -0.19636287 0.73900002
-0.39926669 -0.19716001 0.74200004
-0.39838955 -0.19742572 0.74300003
-0.39804289 -0.19795716 0.74500006
-0.39662385 -0.19795716 0.74500006
-0.39785716 -0.19928573 0.75000006
-0.39748573 -0.19981715 0.75200003
-0.39658004 -0.20008287 0.75300002
-0.39776954 -0.20141144 0.75800002
-0.40359527 -0.19442764 0.73700005
-0.40219146 -0.19442764 0.73700005
-0.40187526 -0.19495524 0.73900002
-0.40046763 -0.19495524 0.73900002
-0.39906004 -0.19495524 0.73900002
-0.39926669 -0.19574668 0.74200004
-0.39838955 -0.19601049 0.74300003
-0.39964575 -0.19732954 0.74800003
-0.39928573 -0.19785716 0.75000006
-0.39891812 -0.19838478 0.75200003
-0.39801431 -0.19864859 0.75300002
-0.39763337 -0.19917621 0.75500005
-0.39776954 -0.19996764 0.75800002
-0.39737144 -0.20049526 0.76000005
-0.40304765 -0.19276191 0.73600006
-0.40219146 -0.19302382 0.73700005
-0.40078765 -0.19302382 0.73700005
-0.40046763 -0.19354764 0.73900002
-0.39906004 -0.19354764 0.73900002
-0.39765242 -0.19354764 0.73900002
-0.39838955 -0.19459525 0.74300003
-0.39964575 -0.19590478 0.74800003
-0.39928573 -0.19642858 0.75000006
-0.39891812 -0.19695239 0.75200003
-0.39801431 -0.19721431 0.75300002
-0.39763337 -0.19773811 0.75500005
-0.39776954 -0.19852382 0.75800002
-0.39737144 -0.19904763 0.76000005
-0.39748669 -0.19983335 0.76300001
-0.40359527 -0.19162001 0.73700005
-0.40219146 -0.19162001 0.73700005
-0.40187526 -0.19214001 0.73900002
-0.40046763 -0.19214001 0.73900002
-0.39906004 -0.19214001 0.73900002
-0.3981905 -0.19240001 0.74000001
-0.39785334 -0.19292001 0.74200004
-0.40071431 -0.19500001 0.75000006
-0.39928573 -0.19500001 0.75000006
-0.39891812 -0.19552001 0.75200003
-0.39801431 -0.19578001 0.75300002
-0.39816004 -0.19656001 0.75600004
-0.39776954 -0.19708002 0.75800002
-0.39737144 -0.19760001 0.76000005
-0.39748669 -0.19838001 0.76300001
-0.40304765 -0.18995811 0.73600006
-0.40219146 -0.1902162 0.73700005
-0.40187526 -0.19073239 0.73900002
-0.40046763 -0.19073239 0.73900002
-0.39906004 -0.19073239 0.73900002
-0.3981905 -0.19099049 0.74000001
-0.39785334 -0.19150668 0.74200004
-0.39964575 -0.19305526 0.74800003
-0.39822099 -0.19305526 0.74800003
-0.39891812 -0.19408762 0.75200003
-0.39801431 -0.19434573 0.75300002
-0.39921337 -0.1956362 0.75800002
-0.39881906 -0.19615239 0.76000005
-0.39737144 -0.19615239 0.76000005
-0.39748669 -0.19692668 0.76300001
-0.40304765 -0.18855621 0.73600006
-0.40219146 -0.18881239 0.73700005
-0.40187526 -0.18932478 0.73900002
-0.40046763 -0.18932478 0.73900002
-0.39906004 -0.18932478 0.73900002
-0.3981905 -0.18958096 0.74000001
-0.39785334 -0.19009334 0.74200004
-0.39911145 -0.1913743 0.74700004
-0.39928573 -0.19214287 0.75000006
-0.39891812 -0.19265525 0.75200003
-0.39907146 -0.19342382 0.75500005
-0.39816004 -0.19368002 0.75600004
-0.39776954 -0.19419239 0.75800002
-0.39737144 -0.19470477 0.76000005
-0.39748669 -0.19547334 0.76300001
-0.40219146 -0.18740858 0.73700005
-0.40187526 -0.18791716 0.73900002
-0.40046763 -0.18791716 0.73900002
-0.39906004 -0.18791716 0.73900002
-0.3981905 -0.18817145 0.74000001
-0.39785334 -0.18868001 0.74200004
-0.39964575 -0.19020572 0.74800003
-0.39928573 -0.1907143 0.75000006
-0.39891812 -0.19122288 0.75200003
-0.39801431 -0.19147715 0.75300002
-0.39816004 -0.19224001 0.75600004
-0.39776954 -0.19274859 0.75800002
-0.39737144 -0.19325715 0.76000005
-0.39852861 -0.19452858 0.76500005
-0.39810956 -0.19503716 0.76700002
-0.4005543 -0.18524763 0.73400003
-0.40078765 -0.18600477 0.73700005
-0.40046763 -0.18650953 0.73900002
-0.39960003 -0.18676192 0.74000001
-0.3981905 -0.18676192 0.74000001
-0.39838955 -0.18751906 0.74300003
-0.39964575 -0.18878096 0.74800003
-0.39928573 -0.18928573 0.75000006
-0.39891812 -0.18979049 0.75200003
-0.39907146 -0.19054763 0.75500005
-0.39816004 -0.19080001 0.75600004
-0.39776954 -0.19130477 0.75800002
-0.39737144 -0.19180954 0.76000005
-0.39748669 -0.19256668 0.76300001
-0.39707145 -0.19307144 0.76500005
-0.39946288 -0.18334858 0.73200005
-0.40078765 -0.18460096 0.73700005
-0.40100956 -0.1853524 0.74000001
-0.39960003 -0.1853524 0.74000001
-0.39926669 -0.18585335 0.74200004
-0.39838955 -0.18610382 0.74300003
-0.39911145 -0.18710573 0.74700004
-0.39822099 -0.1873562 0.74800003
-0.39785716 -0.18785715 0.75000006
-0.39801431 -0.18860859 0.75300002
-0.39816004 -0.18936001 0.75600004
-0.39776954 -0.18986097 0.75800002
-0.39737144 -0.19036192 0.76000005
-0.39748669 -0.19111335 0.76300001
-0.39707145 -0.1916143 0.76500005
-0.40100956 -0.18394287 0.74000001
-0.39960003 -0.18394287 0.74000001
-0.39926669 -0.18444002 0.74200004
-0.39838955 -0.18468858 0.74300003
-0.39804289 -0.18518573 0.74500006
-0.39822099 -0.18593144 0.74800003
-0.39785716 -0.18642858 0.75000006
-0.39748573 -0.18692572 0.75200003
-0.39763337 -0.18767144 0.75500005
-0.39672002 -0.18792002 0.75600004
-0.39632574 -0.18841715 0.75800002
-0.3964448 -0.18916287 0.76100004
-0.39707145 -0.19015716 0.76500005
-0.40100956 -0.18253334 0.74000001
-0.40068004 -0.18302667 0.74200004
-0.3998048 -0.18327335 0.74300003
-0.39838955 -0.18327335 0.74300003
-0.39804289 -0.18376668 0.74500006
-0.3976886 -0.18426001 0.74700004
-0.39626575 -0.18426001 0.74700004
-0.39642859 -0.18500002 0.75000006
-0.39658004 -0.18574001 0.75300002
-0.39672002 -0.18648002 0.75600004
-0.39632574 -0.18697335 0.75800002
-0.39592382 -0.18746668 0.76000005
-0.39707145 -0.18870001 0.76500005
-0.39561433 -0.18870001 0.76500005
-0.40068004 -0.18161334 0.74200004
-0.3998048 -0.18185811 0.74300003
-0.39838955 -0.18185811 0.74300003
-0.39804289 -0.18234763 0.74500006
-0.3976886 -0.18283716 0.74700004
-0.39626575 -0.18283716 0.74700004
-0.39642859 -0.18357144 0.75000006
-0.39605337 -0.18406096 0.75200003
-0.39619526 -0.18479525 0.75500005
-0.39528003 -0.18504001 0.75600004
-0.39592382 -0.18601906 0.76000005
-0.39603335 -0.18675335 0.76300001
-0.39561433 -0.18724287 0.76500005
-0.40068004 -0.18020001 0.74200004
-0.3998048 -0.18044287 0.74300003
-0.39838955 -0.18044287 0.74300003
-0.39804289 -0.18092859 0.74500006
-0.39662385 -0.18092859 0.74500006
-0.39626575 -0.18141429 0.74700004
-0.39642859 -0.18214287 0.75000006
-0.39605337 -0.18262859 0.75200003
-0.39619526 -0.18335715 0.75500005
-0.39528003 -0.18360001 0.75600004
-0.39592382 -0.18457144 0.76000005
-0.39499527 -0.1848143 0.76100004
-0.39561433 -0.18578573 0.76500005
-0.39960003 -0.17830478 0.74000001
-0.39926669 -0.17878668 0.74200004
-0.39838955 -0.17902763 0.74300003
-0.39697433 -0.17902763 0.74300003
-0.39662385 -0.17950954 0.74500006
-0.39520478 -0.17950954 0.74500006
-0.39537147 -0.18023239 0.74800003
-0.39605337 -0.1811962 0.75200003
-0.39514574 -0.18143715 0.75300002
-0.39528003 -0.18216 0.75600004
-0.39592382 -0.18312383 0.76000005
-0.39603335 -0.18384668 0.76300001
-0.39960003 -0.17689525 0.74000001
-0.39926669 -0.17737335 0.74200004
-0.39838955 -0.17761239 0.74300003
-0.39804289 -0.17809048 0.74500006
-0.39662385 -0.17809048 0.74500006
-0.39520478 -0.17809048 0.74500006
-0.39642859 -0.17928572 0.75000006
-0.39605337 -0.17976382 0.75200003
-0.39514574 -0.18000287 0.75300002
-0.39528003 -0.18072002 0.75600004
-0.39592382 -0.18167621 0.76000005
-0.39707145 -0.18287145 0.76500005
-0.39561433 -0.18287145 0.76500005
-0.39960003 -0.17548573 0.74000001
-0.39926669 -0.17596 0.74200004
-0.39838955 -0.17619716 0.74300003
-0.39804289 -0.17667145 0.74500006
-0.39662385 -0.17667145 0.74500006
-0.39520478 -0.17667145 0.74500006
-0.39537147 -0.17738287 0.74800003
-0.39500004 -0.17785716 0.75000006
-0.39514574 -0.17856859 0.75300002
-0.39475718 -0.17904288 0.75500005
-0.39592382 -0.18022858 0.76000005
-0.39707145 -0.18141429 0.76500005
-0.39561433 -0.18141429 0.76500005
-0.40068004 -0.17454667 0.74200004
-0.3998048 -0.17478192 0.74300003
-0.39838955 -0.17478192 0.74300003
-0.39804289 -0.17525239 0.74500006
-0.39662385 -0.17525239 0.74500006
-0.39520478 -0.17525239 0.74500006
-0.39537147 -0.17595811 0.74800003
-0.39500004 -0.17642859 0.75000006
-0.39514574 -0.17713429 0.75300002
-0.39528003 -0.17784001 0.75600004
-0.39748669 -0.17948668 0.76300001
-0.39810956 -0.18042763 0.76700002
-0.39561433 -0.17995715 0.76500005
-0.39926669 -0.17313334 0.74200004
-0.39946193 -0.17383334 0.74500006
-0.39804289 -0.17383334 0.74500006
-0.39662385 -0.17383334 0.74500006
-0.39520478 -0.17383334 0.74500006
-0.39537147 -0.17453334 0.74800003
-0.39500004 -0.17500001 0.75000006
-0.39514574 -0.17570001 0.75300002
-0.39789432 -0.17756668 0.76100004
-0.39852861 -0.17850001 0.76500005
-0.39810956 -0.17896667 0.76700002
-0.39664859 -0.17896667 0.76700002
-0.39798003 -0.17056286 0.73700005
-0.3981905 -0.17125715 0.74000001
-0.39838955 -0.17195144 0.74300003
-0.39911145 -0.17287715 0.74700004
-0.3976886 -0.17287715 0.74700004
-0.39520478 -0.1724143 0.74500006
-0.39537147 -0.17310858 0.74800003
-0.39500004 -0.17357144 0.75000006
-0.39514574 -0.17426573 0.75300002
-0.39789432 -0.17611715 0.76100004
-0.39748669 -0.17658001 0.76300001
-0.39707145 -0.17704287 0.76500005
-0.39561433 -0.17704287 0.76500005
-0.39415717 -0.17704287 0.76500005
-0.3981905 -0.16984764 0.74000001
-0.39838955 -0.17053621 0.74300003
-0.39911145 -0.1714543 0.74700004
-0.39662385 -0.17099525 0.74500006
-0.39520478 -0.17099525 0.74500006
-0.39537147 -0.17168382 0.74800003
-0.39500004 -0.17214286 0.75000006
-0.39514574 -0.17283145 0.75300002
-0.39789432 -0.17466763 0.76100004
-0.39852861 -0.17558573 0.76500005
-0.39810956 -0.17604478 0.76700002
-0.39664859 -0.17604478 0.76700002
-0.39518765 -0.17604478 0.76700002
-0.3981905 -0.16843811 0.74000001
-0.39785334 -0.16889334 0.74200004
-0.39911145 -0.17003144 0.74700004
-0.39662385 -0.1695762 0.74500006
-0.39520478 -0.1695762 0.74500006
-0.39484289 -0.17003144 0.74700004
-0.39500004 -0.1707143 0.75000006
-0.39514574 -0.17139715 0.75300002
-0.39789432 -0.1732181 0.76100004
-0.39748669 -0.17367335 0.76300001
-0.39810956 -0.17458382 0.76700002
-0.39664859 -0.17458382 0.76700002
-0.39518765 -0.17458382 0.76700002
-0.39372671 -0.17458382 0.76700002
-0.39926669 -0.16748001 0.74200004
-0.39785334 -0.16748001 0.74200004
-0.39804289 -0.16815716 0.74500006
-0.39662385 -0.16815716 0.74500006
-0.39520478 -0.16815716 0.74500006
-0.39537147 -0.1688343 0.74800003
-0.39500004 -0.16928573 0.75000006
-0.39514574 -0.16996287 0.75300002
-0.39737144 -0.17154287 0.76000005
-0.39748669 -0.17222001 0.76300001
-0.39707145 -0.17267144 0.76500005
-0.39561433 -0.17267144 0.76500005
-0.39518765 -0.17312287 0.76700002
-0.39372671 -0.17312287 0.76700002
-0.39380002 -0.17380001 0.77000004
-0.39335242 -0.17425144 0.77200001
-0.39662385 -0.16673811 0.74500006
-0.39520478 -0.16673811 0.74500006
-0.39748573 -0.16830477 0.75200003
-0.39658004 -0.16852859 0.75300002
-0.39619526 -0.1689762 0.75500005
-0.39632574 -0.16964763 0.75800002
-0.39748669 -0.17076668 0.76300001
-0.39707145 -0.1712143 0.76500005
-0.39561433 -0.1712143 0.76500005
-0.39518765 -0.17166191 0.76700002
-0.39372671 -0.17166191 0.76700002
-0.39380002 -0.17233334 0.77000004
-0.39335242 -0.17278096 0.77200001
-0.39238954 -0.17300478 0.77300006
-0.39642859 -0.16642858 0.75000006
-0.39605337 -0.1668724 0.75200003
-0.39514574 -0.16709429 0.75300002
-0.39632574 -0.16820382 0.75800002
-0.3964448 -0.16886954 0.76100004
-0.39707145 -0.16975716 0.76500005
-0.39561433 -0.16975716 0.76500005
-0.39518765 -0.17020096 0.76700002
-0.39372671 -0.17020096 0.76700002
-0.39380002 -0.17086668 0.77000004
-0.39335242 -0.17131048 0.77200001
-0.39188194 -0.17131048 0.77200001
-0.39785716 -0.16500001 0.75000006
-0.39748573 -0.16544001 0.75200003
-0.39658004 -0.16566001 0.75300002
-0.39619526 -0.16610001 0.75500005
-0.39632574 -0.16676001 0.75800002
-0.3964448 -0.16742001 0.76100004
-0.39603335 -0.16786002 0.76300001
-0.39561433 -0.16830002 0.76500005
-0.39518765 -0.16874 0.76700002
-0.39372671 -0.16874 0.76700002
-0.39380002 -0.16940001 0.77000004
-0.39233336 -0.16940001 0.77000004
-0.39891812 -0.16400763 0.75200003
-0.39801431 -0.16422573 0.75300002
-0.39658004 -0.16422573 0.75300002
-0.39619526 -0.16466191 0.75500005
-0.39528003 -0.16488001 0.75600004
-0.3964448 -0.16597049 0.76100004
-0.39603335 -0.16640668 0.76300001
-0.39561433 -0.16684286 0.76500005
-0.39518765 -0.16727906 0.76700002
-0.39372671 -0.16727906 0.76700002
-0.39380002 -0.16793334 0.77000004
-0.39335242 -0.16836953 0.77200001
-0.39188194 -0.16836953 0.77200001
-0.40035051 -0.16257524 0.75200003
-0.3994486 -0.16279145 0.75300002
-0.39801431 -0.16279145 0.75300002
-0.39658004 -0.16279145 0.75300002
-0.39619526 -0.16322382 0.75500005
-0.39528003 -0.16344 0.75600004
-0.39488193 -0.16387239 0.75800002
-0.39603335 -0.16495335 0.76300001
-0.39561433 -0.16538572 0.76500005
-0.39518765 -0.16581811 0.76700002
-0.39372671 -0.16581811 0.76700002
-0.3948229 -0.16689906 0.77200001
-0.39335242 -0.16689906 0.77200001
-0.40088287 -0.16135715 0.75300002
-0.3994486 -0.16135715 0.75300002
-0.39801431 -0.16135715 0.75300002
-0.39763337 -0.16178572 0.75500005
-0.39619526 -0.16178572 0.75500005
-0.39528003 -0.16200002 0.75600004
-0.39592382 -0.16285716 0.76000005
-0.39561433 -0.16392858 0.76500005
-0.39518765 -0.16435716 0.76700002
-0.39424002 -0.16457143 0.76800001
-0.3953343 -0.16564287 0.77300006
-0.39691907 -0.16692859 0.77900004
-0.39695811 -0.16757144 0.78200006
-0.3994486 -0.15992287 0.75300002
-0.39801431 -0.15992287 0.75300002
-0.39658004 -0.15992287 0.75300002
-0.39619526 -0.16034763 0.75500005
-0.39475718 -0.16034763 0.75500005
-0.39488193 -0.16098477 0.75800002
-0.39603335 -0.16204667 0.76300001
-0.39561433 -0.16247144 0.76500005
-0.39415717 -0.16247144 0.76500005
-0.39372671 -0.1628962 0.76700002
-0.3948229 -0.1639581 0.77200001
-0.39335242 -0.1639581 0.77200001
-0.40178287 -0.15827811 0.75200003
-0.40088287 -0.15848859 0.75300002
-0.3994486 -0.15848859 0.75300002
-0.39801431 -0.15848859 0.75300002
-0.39658004 -0.15848859 0.75300002
-0.39619526 -0.15890953 0.75500005
-0.39528003 -0.15912001 0.75600004
-0.39592382 -0.15996191 0.76000005
-0.39603335 -0.16059335 0.76300001
-0.39458004 -0.16059335 0.76300001
-0.39415717 -0.1610143 0.76500005
-0.39372671 -0.16143525 0.76700002
-0.3948229 -0.16248763 0.77200001
-0.3974286 -0.16417144 0.78000003
-0.3959429 -0.16417144 0.78000003
-0.40088287 -0.15705429 0.75300002
-0.3994486 -0.15705429 0.75300002
-0.39801431 -0.15705429 0.75300002
-0.39658004 -0.15705429 0.75300002
-0.39672002 -0.15768 0.75600004
-0.39528003 -0.15768 0.75600004
-0.39488193 -0.15809715 0.75800002
-0.39499527 -0.15872286 0.76100004
-0.39458004 -0.15914001 0.76300001
-0.3931267 -0.15914001 0.76300001
-0.39372671 -0.15997429 0.76700002
-0.3948229 -0.16101715 0.77200001
-0.39335242 -0.16101715 0.77200001
-0.39543527 -0.16247715 0.77900004
-0.3994486 -0.15562001 0.75300002
-0.39801431 -0.15562001 0.75300002
-0.39658004 -0.15562001 0.75300002
-0.39619526 -0.15603334 0.75500005
-0.39475718 -0.15603334 0.75500005
-0.39384001 -0.15624002 0.75600004
-0.39343813 -0.15665334 0.75800002
-0.39302859 -0.15706667 0.76000005
-0.39158097 -0.15706667 0.76000005
-0.39013335 -0.15706667 0.76000005
-0.38919717 -0.15727334 0.76100004
-0.39891812 -0.15398096 0.75200003
-0.39748573 -0.15398096 0.75200003
-0.39605337 -0.15398096 0.75200003
-0.39514574 -0.15418573 0.75300002
-0.39475718 -0.15459524 0.75500005
-0.39384001 -0.15480001 0.75600004
-0.39240003 -0.15480001 0.75600004
-0.3919943 -0.15520954 0.75800002
-0.39055049 -0.15520954 0.75800002
-0.38910669 -0.15520954 0.75800002
-0.3974286 -0.1597143 0.78000003
-0.39748573 -0.15254858 0.75200003
-0.39605337 -0.15254858 0.75200003
-0.39619526 -0.15315716 0.75500005
-0.39475718 -0.15315716 0.75500005
-0.39384001 -0.15336001 0.75600004
-0.39240003 -0.15336001 0.75600004
-0.3919943 -0.15376572 0.75800002
-0.39055049 -0.15376572 0.75800002
-0.38910669 -0.15376572 0.75800002
-0.3948229 -0.15660572 0.77200001
-0.3974286 -0.15822858 0.78000003
-0.3959429 -0.15822858 0.78000003
-0.39648002 -0.15904 0.78400004
-0.39605337 -0.15111621 0.75200003
-0.39514574 -0.15131715 0.75300002
-0.39528003 -0.15192001 0.75600004
-0.39592382 -0.15272382 0.76000005
-0.39343813 -0.15232192 0.75800002
-0.39302859 -0.15272382 0.76000005
-0.39158097 -0.15272382 0.76000005
-0.39013335 -0.15272382 0.76000005
-0.3948229 -0.15513524 0.77200001
-0.39335242 -0.15513524 0.77200001
-0.39543527 -0.15654191 0.77900004
-0.39658004 -0.14988287 0.75300002
-0.39619526 -0.15028097 0.75500005
-0.39528003 -0.15048002 0.75600004
-0.39447621 -0.1512762 0.76000005
-0.39354575 -0.15147525 0.76100004
-0.3931267 -0.15187335 0.76300001
-0.39629337 -0.15366477 0.77200001
-0.3948229 -0.15366477 0.77200001
-0.39590004 -0.15466002 0.77700001
-0.39543527 -0.1550581 0.77900004
-0.39546859 -0.15565525 0.78200006
-0.39475718 -0.14884287 0.75500005
-0.39592382 -0.14982858 0.76000005
-0.39447621 -0.14982858 0.76000005
-0.39302859 -0.14982858 0.76000005
-0.39209622 -0.15002573 0.76100004
-0.39372671 -0.15120858 0.76700002
-0.3948229 -0.15219429 0.77200001
-0.39590004 -0.15318 0.77700001
-0.3959429 -0.15377145 0.78000003
-0.39546859 -0.15416573 0.78200006
-0.39498669 -0.15456001 0.78400004
-0.39462098 -0.14681906 0.75200003
-0.39371145 -0.14701429 0.75300002
-0.39488193 -0.14799048 0.75800002
-0.39447621 -0.14838096 0.76000005
-0.39302859 -0.14838096 0.76000005
-0.39209622 -0.1485762 0.76100004
-0.3906467 -0.1485762 0.76100004
-0.3948229 -0.15072381 0.77200001
-0.39590004 -0.1517 0.77700001
-0.3959429 -0.15228572 0.78000003
-0.39546859 -0.15267619 0.78200006
-0.39498669 -0.15306668 0.78400004
-0.39449716 -0.15345715 0.78600001
-0.39475718 -0.14596668 0.75500005
-0.39592382 -0.14693335 0.76000005
-0.39499527 -0.14712667 0.76100004
-0.39354575 -0.14712667 0.76100004
-0.3931267 -0.14751334 0.76300001
-0.39372671 -0.14828667 0.76700002
-0.3948229 -0.14925334 0.77200001
-0.39590004 -0.15022001 0.77700001
-0.3959429 -0.1508 0.78000003
-0.39546859 -0.15118667 0.78200006
-0.39599431 -0.15196002 0.78600001
-0.39449716 -0.15196002 0.78600001
-0.39300004 -0.15196002 0.78600001
-0.39488193 -0.14510287 0.75800002
-0.39499527 -0.14567715 0.76100004
-0.39354575 -0.14567715 0.76100004
-0.39209622 -0.14567715 0.76100004
-0.39270002 -0.14644286 0.76500005
-0.39380002 -0.14740001 0.77000004
-0.39691907 -0.14912286 0.77900004
-0.3959429 -0.1493143 0.78000003
-0.39546859 -0.14969715 0.78200006
-0.39599431 -0.15046287 0.78600001
-0.39449716 -0.15046287 0.78600001
-0.39400002 -0.15084572 0.78800005
-0.39488193 -0.14365906 0.75800002
-0.39499527 -0.14422762 0.76100004
-0.39458004 -0.14460668 0.76300001
-0.3931267 -0.14460668 0.76300001
-0.39372671 -0.14536478 0.76700002
-0.3948229 -0.14631239 0.77200001
-0.39590004 -0.14726001 0.77700001
-0.3959429 -0.14782858 0.78000003
-0.39445716 -0.14782858 0.78000003
-0.39498669 -0.14858668 0.78400004
-0.39449716 -0.14896573 0.78600001
-0.39400002 -0.14934477 0.78800005
-0.39603335 -0.14315334 0.76300001
-0.39458004 -0.14315334 0.76300001
-0.39415717 -0.14352858 0.76500005
-0.39424002 -0.14409144 0.76800001
-0.39380002 -0.14446668 0.77000004
-0.39488098 -0.14540477 0.77500004
-0.39543527 -0.14615525 0.77900004
-0.39445716 -0.14634287 0.78000003
-0.39397907 -0.1467181 0.78200006
-0.39349335 -0.14709334 0.78400004
-0.39300004 -0.14746858 0.78600001
-0.39603335 -0.14170001 0.76300001
-0.39561433 -0.14207144 0.76500005
-0.39415717 -0.14207144 0.76500005
-0.39526668 -0.14300001 0.77000004
-0.3953343 -0.14355715 0.77300006
-0.39590004 -0.14430001 0.77700001
-0.39543527 -0.14467144 0.77900004
-0.39445716 -0.14485715 0.78000003
-0.39397907 -0.14522858 0.78200006
-0.39349335 -0.14560001 0.78400004
-0.39300004 -0.14597143 0.78600001
-0.39603335 -0.14024667 0.76300001
-0.39561433 -0.1406143 0.76500005
-0.39518765 -0.14098191 0.76700002
-0.39424002 -0.14116572 0.76800001
-0.3948229 -0.14190096 0.77200001
-0.39488098 -0.14245239 0.77500004
-0.39442003 -0.14282002 0.77700001
-0.39395145 -0.14318763 0.77900004
-0.39297146 -0.14337143 0.78000003
-0.39349335 -0.14410667 0.78400004
-0.39300004 -0.1444743 0.78600001
-0.39249906 -0.14484191 0.78800005
-0.39852861 -0.13915715 0.76500005
-0.39707145 -0.13915715 0.76500005
-0.39561433 -0.13915715 0.76500005
-0.39518765 -0.13952096 0.76700002
-0.39424002 -0.13970287 0.76800001
-0.3948229 -0.14043048 0.77200001
-0.39488098 -0.14097621 0.77500004
-0.39442003 -0.14134 0.77700001
-0.39395145 -0.14170381 0.77900004
-0.39297146 -0.14188573 0.78000003
-0.39349335 -0.14261334 0.78400004
-0.39400002 -0.14334096 0.78800005
-0.39299718 -0.14352287 0.78900003
-0.39248669 -0.14388667 0.79100001
-0.39707145 -0.13770001 0.76500005
-0.39561433 -0.13770001 0.76500005
-0.39518765 -0.13806 0.76700002
-0.39424002 -0.13824001 0.76800001
-0.39635718 -0.13950001 0.77500004
-0.39488098 -0.13950001 0.77500004
-0.39442003 -0.13986 0.77700001
-0.39395145 -0.14022002 0.77900004
-0.39297146 -0.14040001 0.78000003
-0.39248955 -0.14076 0.78200006
-0.39400002 -0.14184001 0.78800005
-0.39299718 -0.14202 0.78900003
-0.39248669 -0.14238001 0.79100001
-0.39603335 -0.13588667 0.76300001
-0.39561433 -0.13624287 0.76500005
-0.39518765 -0.13659906 0.76700002
-0.39424002 -0.13677715 0.76800001
-0.39635718 -0.13802382 0.77500004
-0.39590004 -0.13838001 0.77700001
-0.39442003 -0.13838001 0.77700001
-0.39395145 -0.1387362 0.77900004
-0.39297146 -0.1389143 0.78000003
-0.39349335 -0.13962668 0.78400004
-0.39300004 -0.13998286 0.78600001
-0.39299718 -0.14051715 0.78900003
-0.39248669 -0.14087334 0.79100001
-0.39098004 -0.14087334 0.79100001
-0.39603335 -0.13443334 0.76300001
-0.39664859 -0.13513811 0.76700002
-0.39518765 -0.13513811 0.76700002
-0.39372671 -0.13513811 0.76700002
-0.39840287 -0.13725239 0.77900004
-0.39590004 -0.13690001 0.77700001
-0.39543527 -0.13725239 0.77900004
-0.39445716 -0.13742858 0.78000003
-0.39397907 -0.13778096 0.78200006
-0.39349335 -0.13813335 0.78400004
-0.39400002 -0.1388381 0.78800005
-0.39299718 -0.13901429 0.78900003
-0.39248669 -0.13936667 0.79100001
-0.39098004 -0.13936667 0.79100001
-0.39603335 -0.13298 0.76300001
-0.39354575 -0.13263144 0.76100004
-0.39415717 -0.13332859 0.76500005
-0.39167336 -0.13298 0.76300001
-0.39891431 -0.13594286 0.78000003
-0.39691907 -0.13576858 0.77900004
-0.39695811 -0.13629144 0.78200006
-0.39648002 -0.13664001 0.78400004
-0.39498669 -0.13664001 0.78400004
-0.39449716 -0.13698858 0.78600001
-0.39450002 -0.13751143 0.78900003
-0.39399335 -0.13786002 0.79100001
-0.39248669 -0.13786002 0.79100001
-0.39098004 -0.13786002 0.79100001
-0.38947335 -0.13786002 0.79100001
-0.38894764 -0.13820858 0.79300004
-0.3964448 -0.13118191 0.76100004
-0.39603335 -0.13152668 0.76300001
-0.3919943 -0.13066477 0.75800002
-0.39415717 -0.13187143 0.76500005
-0.38910669 -0.13066477 0.75800002
-0.38766289 -0.13066477 0.75800002
-0.39691907 -0.13428476 0.77900004
-0.3959429 -0.13445716 0.78000003
-0.39749146 -0.13549143 0.78600001
-0.39599431 -0.13549143 0.78600001
-0.39600289 -0.13600858 0.78900003
-0.39450002 -0.13600858 0.78900003
-0.39399335 -0.13635334 0.79100001
-0.39248669 -0.13635334 0.79100001
-0.39098004 -0.13635334 0.79100001
-0.38947335 -0.13635334 0.79100001
-0.39528003 -0.12888001 0.75600004
-0.39384001 -0.12888001 0.75600004
-0.39240003 -0.12888001 0.75600004
-0.39096004 -0.12888001 0.75600004
-0.38952002 -0.12888001 0.75600004
-0.39840287 -0.13280097 0.77900004
-0.39691907 -0.13280097 0.77900004
-0.39695811 -0.13331239 0.78200006
-0.39749146 -0.1339943 0.78600001
-0.39700192 -0.13433525 0.78800005
-0.39600289 -0.13450572 0.78900003
-0.39450002 -0.13450572 0.78900003
-0.39399335 -0.13484667 0.79100001
-0.39248669 -0.13484667 0.79100001
-0.39098004 -0.13484667 0.79100001
-0.38947335 -0.13484667 0.79100001
-0.39672002 -0.12744001 0.75600004
-0.39528003 -0.12744001 0.75600004
-0.39227718 -0.12693429 0.75300002
-0.39084288 -0.12693429 0.75300002
-0.39096004 -0.12744001 0.75600004
-0.38952002 -0.12744001 0.75600004
-0.39840287 -0.13131715 0.77900004
-0.39691907 -0.13131715 0.77900004
-0.39695811 -0.13182287 0.78200006
-0.39749146 -0.13249715 0.78600001
-0.39700192 -0.1328343 0.78800005
-0.39600289 -0.13300286 0.78900003
-0.39450002 -0.13300286 0.78900003
-0.39299718 -0.13300286 0.78900003
-0.39248669 -0.13334002 0.79100001
-0.39098004 -0.13334002 0.79100001
-0.38947335 -0.13334002 0.79100001
-0.39738002 -0.1295 0.77700001
-0.39335242 -0.12866667 0.77200001
-0.39188194 -0.12866667 0.77200001
-0.39041147 -0.12866667 0.77200001
-0.39700192 -0.13133334 0.78800005
-0.39600289 -0.13150001 0.78900003
-0.39450002 -0.13150001 0.78900003
-0.39299718 -0.13150001 0.78900003
-0.39248669 -0.13183334 0.79100001
-0.39098004 -0.13183334 0.79100001
-0.38947335 -0.13183334 0.79100001
-0.38894764 -0.13216667 0.79300004
-0.3908667 -0.12686667 0.77000004
-0.39750573 -0.12999715 0.78900003
-0.39600289 -0.12999715 0.78900003
-0.39450002 -0.12999715 0.78900003
-0.39299718 -0.12999715 0.78900003
-0.39248669 -0.13032667 0.79100001
-0.39098004 -0.13032667 0.79100001
-0.39045811 -0.1306562 0.79300004
-0.38992861 -0.13098572 0.79500002
-0.39776385 -0.12572572 0.77200001
-0.39629337 -0.12572572 0.77200001
-0.39380002 -0.12540001 0.77000004
-0.39233336 -0.12540001 0.77000004
-0.3908667 -0.12540001 0.77000004
-0.39192858 -0.1262143 0.77500004
-0.39045241 -0.1262143 0.77500004
-0.39600289 -0.12849429 0.78900003
-0.39450002 -0.12849429 0.78900003
-0.39299718 -0.12849429 0.78900003
-0.39248669 -0.12882 0.79100001
-0.39196861 -0.12914573 0.79300004
-0.39144289 -0.12947144 0.79500002
-0.39090955 -0.12979715 0.79700005
-0.38988003 -0.12996002 0.79800004
-0.39776385 -0.12425525 0.77200001
-0.39629337 -0.12425525 0.77200001
-0.3948229 -0.12425525 0.77200001
-0.39335242 -0.12425525 0.77200001
-0.39238954 -0.1244162 0.77300006
-0.39192858 -0.1247381 0.77500004
-0.39045241 -0.1247381 0.77500004
-0.39600289 -0.12699144 0.78900003
-0.39450002 -0.12699144 0.78900003
-0.39299718 -0.12699144 0.78900003
-0.3914943 -0.12699144 0.78900003
-0.39196861 -0.12763524 0.79300004
-0.39144289 -0.12795715 0.79500002
-0.39140004 -0.12844001 0.79800004
-0.38988003 -0.12844001 0.79800004
-0.39629337 -0.12278477 0.77200001
-0.3948229 -0.12278477 0.77200001
-0.39335242 -0.12278477 0.77200001
-0.39238954 -0.12294382 0.77300006
-0.39091718 -0.12294382 0.77300006
-0.3894448 -0.12294382 0.77300006
-0.38797241 -0.12294382 0.77300006
-0.39300004 -0.12501144 0.78600001
-0.39150289 -0.12501144 0.78600001
-0.39000574 -0.12501144 0.78600001
-0.39295718 -0.12644286 0.79500002
-0.39144289 -0.12644286 0.79500002
-0.39140004 -0.12692001 0.79800004
-0.38988003 -0.12692001 0.79800004
-0.38836002 -0.12692001 0.79800004
-0.39776385 -0.12131429 0.77200001
-0.39526668 -0.12100001 0.77000004
-0.39380002 -0.12100001 0.77000004
-0.39335242 -0.12131429 0.77200001
-0.39340478 -0.12178572 0.77500004
-0.39192858 -0.12178572 0.77500004
-0.39045241 -0.12178572 0.77500004
-0.38452956 -0.12131429 0.77200001
-0.39596003 -0.12540001 0.79800004
-0.39140004 -0.12540001 0.79800004
-0.38988003 -0.12540001 0.79800004
-0.38836002 -0.12540001 0.79800004
-0.38780954 -0.12571429 0.80000001
-0.39629337 -0.11984382 0.77200001
-0.39380002 -0.11953334 0.77000004
-0.39233336 -0.11953334 0.77000004
-0.39188194 -0.11984382 0.77200001
-0.39091718 -0.11999906 0.77300006
-0.38894099 -0.11984382 0.77200001
-0.38747051 -0.11984382 0.77200001
-0.39292002 -0.12388001 0.79800004
-0.39140004 -0.12388001 0.79800004
-0.38988003 -0.12388001 0.79800004
-0.39629337 -0.11837334 0.77200001
-0.39380002 -0.11806668 0.77000004
-0.39233336 -0.11806668 0.77000004
-0.39340478 -0.11883334 0.77500004
-0.39192858 -0.11883334 0.77500004
-0.3894448 -0.11852667 0.77300006
-0.38747051 -0.11837334 0.77200001
-0.38801622 -0.11944667 0.77900004
-0.39238098 -0.12266667 0.80000001
-0.38988003 -0.12236001 0.79800004
-0.3948229 -0.11690287 0.77200001
-0.39386192 -0.11705429 0.77300006
-0.39442003 -0.11766001 0.77700001
-0.39192858 -0.11735715 0.77500004
-0.39045241 -0.11735715 0.77500004
-0.39098385 -0.11796287 0.77900004
-0.38950002 -0.11796287 0.77900004
-0.39238098 -0.12114286 0.80000001
-0.38988003 -0.12084001 0.79800004
-0.38836002 -0.12084001 0.79800004
-0.38684002 -0.12084001 0.79800004
-0.3953343 -0.11558191 0.77300006
-0.39488098 -0.11588096 0.77500004
-0.39442003 -0.11618001 0.77700001
-0.39294001 -0.11618001 0.77700001
-0.39246765 -0.11647905 0.77900004
-0.39098385 -0.11647905 0.77900004
-0.38950002 -0.11647905 0.77900004
-0.38988003 -0.11932001 0.79800004
-0.39488098 -0.11440477 0.77500004
-0.39442003 -0.1147 0.77700001
-0.39294001 -0.1147 0.77700001
-0.39246765 -0.11499525 0.77900004
-0.39098385 -0.11499525 0.77900004
-0.38950002 -0.11499525 0.77900004
-0.38801622 -0.11499525 0.77900004
-0.39590004 -0.11322001 0.77700001
-0.39543527 -0.11351144 0.77900004
-0.39395145 -0.11351144 0.77900004
-0.39246765 -0.11351144 0.77900004
-0.39098385 -0.11351144 0.77900004
-0.38950002 -0.11351144 0.77900004
-0.38801622 -0.11351144 0.77900004
-0.39543527 -0.11202762 0.77900004
-0.39395145 -0.11202762 0.77900004
-0.39297146 -0.11217143 0.78000003
-0.39148575 -0.11217143 0.78000003
-0.39000002 -0.11217143 0.78000003
-0.38801622 -0.11202762 0.77900004
-0.3959429 -0.11068572 0.78000003
-0.39546859 -0.11096953 0.78200006
-0.39397907 -0.11096953 0.78200006
-0.39148575 -0.11068572 0.78000003
-0.39000002 -0.11068572 0.78000003
-0.38851431 -0.11068572 0.78000003
-0.3959429 -0.10920001 0.78000003
-0.39546859 -0.10948001 0.78200006
-0.39397907 -0.10948001 0.78200006
-0.39248955 -0.10948001 0.78200006
-0.39100003 -0.10948001 0.78200006
-0.38951051 -0.10948001 0.78200006
-0.38901335 -0.10976001 0.78400004
-0.39648002 -0.10826667 0.78400004
-0.39498669 -0.10826667 0.78400004
-0.39248955 -0.10799048 0.78200006
-0.39100003 -0.10799048 0.78200006
-0.39050668 -0.10826667 0.78400004
-0.38901335 -0.10826667 0.78400004
-0.39648002 -0.10677334 0.78400004
-0.39498669 -0.10677334 0.78400004
-0.39248955 -0.10650096 0.78200006
-0.39200002 -0.10677334 0.78400004
-0.39050668 -0.10677334 0.78400004
-0.38901335 -0.10677334 0.78400004
-0.39797336 -0.10528 0.78400004
-0.39648002 -0.10528 0.78400004
-0.39498669 -0.10528 0.78400004
-0.39248955 -0.10501143 0.78200006
-0.39200002 -0.10528 0.78400004
-0.39050668 -0.10528 0.78400004
-0.38901335 -0.10528 0.78400004
-0.38850859 -0.10554858 0.78600001
-0.39797336 -0.10378668 0.78400004
-0.39648002 -0.10378668 0.78400004
-0.39498669 -0.10378668 0.78400004
-0.39349335 -0.10378668 0.78400004
-0.39200002 -0.10378668 0.78400004
-0.39150289 -0.10405143 0.78600001
-0.39000574 -0.10405143 0.78600001
-0.39797336 -0.10229334 0.78400004
-0.39648002 -0.10229334 0.78400004
-0.39498669 -0.10229334 0.78400004
-0.39349335 -0.10229334 0.78400004
-0.39200002 -0.10229334 0.78400004
-0.39150289 -0.10255429 0.78600001
-0.39000574 -0.10255429 0.78600001
-0.38850859 -0.10255429 0.78600001
-0.39648002 -0.10080001 0.78400004
-0.39498669 -0.10080001 0.78400004
-0.39349335 -0.10080001 0.78400004
-0.39300004 -0.10105715 0.78600001
-0.39150289 -0.10105715 0.78600001
-0.39000574 -0.10105715 0.78600001
-0.38850859 -0.10105715 0.78600001
-0.38848859 -0.10144287 0.78900003
-0.38894764 -0.10195715 0.79300004
-0.38836002 -0.10260001 0.79800004
-0.38780954 -0.10285715 0.80000001
-0.39498669 -0.099306673 0.78400004
-0.39449716 -0.099560007 0.78600001
-0.39300004 -0.099560007 0.78600001
-0.39249906 -0.099813342 0.78800005
-0.3914943 -0.099940009 0.78900003
-0.39098004 -0.10019334 0.79100001
-0.39045811 -0.10044667 0.79300004
-0.39090955 -0.10095334 0.79700005
-0.38939145 -0.10095334 0.79700005
-0.38836002 -0.10108001 0.79800004
-0.38780954 -0.10133334 0.80000001
-0.38628575 -0.10133334 0.80000001
-0.39599431 -0.098062865 0.78600001
-0.39449716 -0.098062865 0.78600001
-0.39300004 -0.098062865 0.78600001
-0.39249906 -0.098312385 0.78800005
-0.3914943 -0.098437153 0.78900003
-0.39098004 -0.098686673 0.79100001
-0.39045811 -0.0989362 0.79300004
-0.38992861 -0.09918572 0.79500002
-0.38939145 -0.099435247 0.79700005
-0.38836002 -0.099560007 0.79800004
-0.38780954 -0.099809527 0.80000001
-0.39449716 -0.096565723 0.78600001
-0.39400002 -0.096811436 0.78800005
-0.39299718 -0.096934289 0.78900003
-0.39248669 -0.097180009 0.79100001
-0.39098004 -0.097180009 0.79100001
-0.39045811 -0.097425722 0.79300004
-0.39090955 -0.097917147 0.79700005
-0.38988003 -0.098040007 0.79800004
-0.38933337 -0.09828572 0.80000001
-0.38780954 -0.09828572 0.80000001
-0.39550099 -0.095310479 0.78800005
-0.39400002 -0.095310479 0.78800005
-0.39299718 -0.095431432 0.78900003
-0.39347908 -0.095915243 0.79300004
-0.39196861 -0.095915243 0.79300004
-0.39045811 -0.095915243 0.79300004
-0.39090955 -0.096399054 0.79700005
-0.38988003 -0.096520007 0.79800004
-0.38933337 -0.096761912 0.80000001
-0.38780954 -0.096761912 0.80000001
-0.39400002 -0.09380953 0.78800005
-0.39299718 -0.093928576 0.78900003
-0.39347908 -0.094404764 0.79300004
-0.39098004 -0.094166674 0.79100001
-0.39045811 -0.094404764 0.79300004
-0.38894764 -0.094404764 0.79300004
-0.38939145 -0.094880961 0.79700005
-0.38933337 -0.095238104 0.80000001
-0.38780954 -0.095238104 0.80000001
-0.39208004 -0.096666671 0.81200004
-0.39149526 -0.09690477 0.81400001
-0.38994479 -0.09690477 0.81400001
-0.38744003 -0.096666671 0.81200004
-0.39450002 -0.092425719 0.78900003
-0.39399335 -0.092660002 0.79100001
-0.39347908 -0.092894293 0.79300004
-0.39196861 -0.092894293 0.79300004
-0.39045811 -0.092894293 0.79300004
-0.38894764 -0.092894293 0.79300004
-0.38939145 -0.09336286 0.79700005
-0.38933337 -0.093714289 0.80000001
-0.38780954 -0.093714289 0.80000001
-0.39352861 -0.095471434 0.81500006
-0.39149526 -0.095354289 0.81400001
-0.38898671 -0.095120005 0.81200004
-0.38744003 -0.095120005 0.81200004
-0.39450002 -0.090922862 0.78900003
-0.39299718 -0.090922862 0.78900003
-0.39347908 -0.091383815 0.79300004
-0.39196861 -0.091383815 0.79300004
-0.39144289 -0.091614291 0.79500002
-0.39090955 -0.091844767 0.79700005
-0.38988003 -0.091960005 0.79800004
-0.38933337 -0.092190482 0.80000001
-0.38877907 -0.092420958 0.80200005
-0.39208004 -0.093573339 0.81200004
-0.39053336 -0.093573339 0.81200004
-0.38898671 -0.093573339 0.81200004
-0.38744003 -0.093573339 0.81200004
-0.39299718 -0.089420006 0.78900003
-0.39347908 -0.089873336 0.79300004
-0.39196861 -0.089873336 0.79300004
-0.39144289 -0.090100005 0.79500002
-0.38992861 -0.090100005 0.79500002
-0.38988003 -0.090440005 0.79800004
-0.38933337 -0.090666674 0.80000001
-0.3897486 -0.091120005 0.80400002
-0.39208004 -0.092026673 0.81200004
-0.39053336 -0.092026673 0.81200004
-0.38898671 -0.092026673 0.81200004
-0.38839433 -0.092253342 0.81400001
-0.38684383 -0.092253342 0.81400001
-0.39248669 -0.088140003 0.79100001
-0.39098004 -0.088140003 0.79100001
-0.39045811 -0.088362865 0.79300004
-0.38894764 -0.088362865 0.79300004
-0.38988003 -0.088920005 0.79800004
-0.39030668 -0.089365721 0.80200005
-0.39362669 -0.090480007 0.81200004
-0.39304575 -0.090702862 0.81400001
-0.39149526 -0.090702862 0.81400001
-0.38994479 -0.090702862 0.81400001
-0.38839433 -0.090702862 0.81400001
-0.38731906 -0.090814292 0.81500006
-0.39347908 -0.086852387 0.79300004
-0.39098004 -0.08663334 0.79100001
-0.39045811 -0.086852387 0.79300004
-0.38894764 -0.086852387 0.79300004
-0.38841432 -0.087071434 0.79500002
-0.38836002 -0.087400004 0.79800004
-0.39168763 -0.088495247 0.80800003
-0.39304575 -0.089152388 0.81400001
-0.39149526 -0.089152388 0.81400001
-0.38994479 -0.089152388 0.81400001
-0.38887146 -0.089261912 0.81500006
-0.38731906 -0.089261912 0.81500006
-0.39347908 -0.085341908 0.79300004
-0.39098004 -0.085126676 0.79100001
-0.39045811 -0.085341908 0.79300004
-0.38796669 -0.085126676 0.79100001
-0.38743716 -0.085341908 0.79300004
-0.38592669 -0.085341908 0.79300004
-0.3897486 -0.086525723 0.80400002
-0.39111432 -0.087171435 0.81000006
-0.39149526 -0.087601908 0.81400001
-0.38994479 -0.087601908 0.81400001
-0.38887146 -0.087709531 0.81500006
-0.38826954 -0.087924771 0.81700003
-0.38766003 -0.088140003 0.81900007
-0.38610002 -0.088140003 0.81900007
-0.39498955 -0.083831437 0.79300004
-0.39347908 -0.083831437 0.79300004
-0.39098004 -0.083620004 0.79100001
-0.39045811 -0.083831437 0.79300004
-0.38894764 -0.083831437 0.79300004
-0.38841432 -0.084042862 0.79500002
-0.38690004 -0.084042862 0.79500002
-0.38780954 -0.084571436 0.80000001
-0.39014861 -0.085417151 0.80800003
-0.39149526 -0.086051434 0.81400001
-0.39042383 -0.086157151 0.81500006
-0.39078003 -0.086580008 0.81900007
-0.38922003 -0.086580008 0.81900007
-0.3886067 -0.086791433 0.82100004
-0.38704288 -0.086791433 0.82100004
-0.38547906 -0.086791433 0.82100004
-0.39498955 -0.082320958 0.79300004
-0.39347908 -0.082320958 0.79300004
-0.39196861 -0.082320958 0.79300004
-0.39045811 -0.082320958 0.79300004
-0.38894764 -0.082320958 0.79300004
-0.38841432 -0.082528576 0.79500002
-0.38787335 -0.082736194 0.79700005
-0.3897486 -0.083462864 0.80400002
-0.39014861 -0.0838781 0.80800003
-0.39149526 -0.084500961 0.81400001
-0.39042383 -0.08460477 0.81500006
-0.39078003 -0.085020006 0.81900007
-0.39017051 -0.085227624 0.82100004
-0.3886067 -0.085227624 0.82100004
-0.38704288 -0.085227624 0.82100004
-0.38547906 -0.085227624 0.82100004
-0.39900002 -0.081320003 0.79800004
-0.39598575 -0.08101429 0.79500002
-0.39347908 -0.08081048 0.79300004
-0.39196861 -0.08081048 0.79300004
-0.39045811 -0.08081048 0.79300004
-0.38894764 -0.08081048 0.79300004
-0.38939145 -0.081218101 0.79700005
-0.38836002 -0.081320003 0.79800004
-0.3897486 -0.081931435 0.80400002
-0.39014861 -0.082339056 0.80800003
-0.39197621 -0.083052389 0.81500006
-0.39042383 -0.083052389 0.81500006
-0.38982573 -0.083256193 0.81700003
-0.38922003 -0.083460003 0.81900007
-0.3886067 -0.083663814 0.82100004
-0.38704288 -0.083663814 0.82100004
-0.38641813 -0.083867624 0.82300001
-0.39900002 -0.079800002 0.79800004
-0.39598575 -0.079500005 0.79500002
-0.39347908 -0.079300009 0.79300004
-0.39196861 -0.079300009 0.79300004
-0.39045811 -0.079300009 0.79300004
-0.38894764 -0.079300009 0.79300004
-0.38841432 -0.079500005 0.79500002
-0.38836002 -0.079800002 0.79800004
-0.3897486 -0.080400005 0.80400002
-0.39014861 -0.080800004 0.80800003
-0.39149526 -0.081400007 0.81400001
-0.39042383 -0.081500009 0.81500006
-0.38887146 -0.081500009 0.81500006
-0.38922003 -0.081900008 0.81900007
-0.3886067 -0.082100004 0.82100004
-0.38798574 -0.082300007 0.82300001
-0.38641813 -0.082300007 0.82300001
-0.40100002 -0.078672387 0.80200005
-0.39748004 -0.078280002 0.79800004
-0.39546382 -0.078181908 0.79700005
-0.39295718 -0.077985719 0.79500002
-0.39144289 -0.077985719 0.79500002
-0.38992861 -0.077985719 0.79500002
-0.38939145 -0.078181908 0.79700005
-0.38836002 -0.078280002 0.79800004
-0.38780954 -0.078476198 0.80000001
-0.39014861 -0.07926096 0.80800003
-0.39197621 -0.079947621 0.81500006
-0.39042383 -0.079947621 0.81500006
-0.38887146 -0.079947621 0.81500006
-0.38922003 -0.080340005 0.81900007
-0.3886067 -0.080536194 0.82100004
-0.38798574 -0.080732383 0.82300001
-0.40100002 -0.077144764 0.80200005
-0.39748004 -0.076760001 0.79800004
-0.39546382 -0.076663814 0.79700005
-0.39394575 -0.076663814 0.79700005
-0.39144289 -0.076471433 0.79500002
-0.38992861 -0.076471433 0.79500002
-0.38988003 -0.076760001 0.79800004
-0.38836002 -0.076760001 0.79800004
-0.38780954 -0.076952383 0.80000001
-0.39111432 -0.07791429 0.81000006
-0.39149526 -0.078299053 0.81400001
-0.39042383 -0.07839524 0.81500006
-0.38839433 -0.078299053 0.81400001
-0.38731906 -0.07839524 0.81500006
-0.40100002 -0.075617149 0.80200005
-0.39847621 -0.075428575 0.80000001
-0.39596003 -0.075240009 0.79800004
-0.39394575 -0.075145721 0.79700005
-0.39242765 -0.075145721 0.79700005
-0.39090955 -0.075145721 0.79700005
-0.38988003 -0.075240009 0.79800004
-0.38933337 -0.075428575 0.80000001
-0.38877907 -0.075617149 0.80200005
-0.39014861 -0.076182865 0.80800003
-0.39053336 -0.076560006 0.81200004
-0.38994479 -0.07674858 0.81400001
-0.38839433 -0.07674858 0.81400001
-0.38731906 -0.076842859 0.81500006
-0.39947242 -0.074089527 0.80200005
-0.39695242 -0.073904768 0.80000001
-0.39444003 -0.073720008 0.79800004
-0.39292002 -0.073720008 0.79800004
-0.39140004 -0.073720008 0.79800004
-0.39085716 -0.073904768 0.80000001
-0.38933337 -0.073904768 0.80000001
-0.39071813 -0.074459054 0.80600005
-0.39111432 -0.07482858 0.81000006
-0.39149526 -0.075198099 0.81400001
-0.38994479 -0.075198099 0.81400001
-0.38839433 -0.075198099 0.81400001
-0.38731906 -0.075290479 0.81500006
-0.39695242 -0.07238096 0.80000001
-0.3954286 -0.07238096 0.80000001
-0.39292002 -0.072200008 0.79800004
-0.39140004 -0.072200008 0.79800004
-0.39085716 -0.07238096 0.80000001
-0.39030668 -0.072561912 0.80200005
-0.39362669 -0.073466673 0.81200004
-0.39208004 -0.073466673 0.81200004
-0.39149526 -0.073647626 0.81400001
-0.38994479 -0.073647626 0.81400001
-0.38887146 -0.073738098 0.81500006
-0.38826954 -0.07391905 0.81700003
-0.38766003 -0.074100003 0.81900007
-0.3954286 -0.070857145 0.80000001
-0.39390478 -0.070857145 0.80000001
-0.39140004 -0.070680007 0.79800004
-0.39085716 -0.070857145 0.80000001
-0.38933337 -0.070857145 0.80000001
-0.39362669 -0.071920007 0.81200004
-0.39208004 -0.071920007 0.81200004
-0.39149526 -0.072097145 0.81400001
-0.38994479 -0.072097145 0.81400001
-0.38887146 -0.072185718 0.81500006
-0.38826954 -0.072362863 0.81700003
-0.38766003 -0.072540008 0.81900007
-0.39140004 -0.069160007 0.79800004
-0.39085716 -0.069333337 0.80000001
-0.38933337 -0.069333337 0.80000001
-0.39265716 -0.070200004 0.81000006
-0.39208004 -0.070373341 0.81200004
-0.39053336 -0.070373341 0.81200004
-0.38994479 -0.070546672 0.81400001
-0.38982573 -0.070806675 0.81700003
-0.38826954 -0.070806675 0.81700003
-0.38766003 -0.070980005 0.81900007
-0.39030668 -0.067979053 0.80200005
-0.39168763 -0.068487622 0.80800003
-0.39111432 -0.068657145 0.81000006
-0.38957146 -0.068657145 0.81000006
-0.38898671 -0.068826668 0.81200004
-0.38982573 -0.069250479 0.81700003
-0.38922003 -0.069420002 0.81900007
-0.38766003 -0.069420002 0.81900007
-0.39225337 -0.066782862 0.80600005
-0.39168763 -0.066948578 0.80800003
-0.39014861 -0.066948578 0.80800003
-0.38957146 -0.067114294 0.81000006
-0.38802859 -0.067114294 0.81000006
-0.38982573 -0.067694291 0.81700003
-0.38922003 -0.067860007 0.81900007
-0.3886067 -0.068025716 0.82100004
-0.38892859 -0.068357147 0.82500005
-0.39225337 -0.065247625 0.80600005
-0.39168763 -0.065409526 0.80800003
-0.39111432 -0.065571435 0.81000006
-0.38957146 -0.065571435 0.81000006
-0.38802859 -0.065571435 0.81000006
-0.38982573 -0.066138096 0.81700003
-0.39017051 -0.066461906 0.82100004
-0.3886067 -0.066461906 0.82100004
-0.38892859 -0.066785716 0.82500005
-0.39225337 -0.063712388 0.80600005
-0.39168763 -0.063870482 0.80800003
-0.39111432 -0.064028576 0.81000006
-0.39053336 -0.06418667 0.81200004
-0.38994479 -0.064344764 0.81400001
-0.38982573 -0.064581908 0.81700003
-0.39017051 -0.064898096 0.82100004
-0.3886067 -0.064898096 0.82100004
-0.39225337 -0.062177148 0.80600005
-0.39168763 -0.062331434 0.80800003
-0.39111432 -0.062485717 0.81000006
-0.38957146 -0.062485717 0.81000006
-0.38994479 -0.06279429 0.81400001
-0.38887146 -0.062871434 0.81500006
-0.38922003 -0.063180007 0.81900007
-0.38766003 -0.063180007 0.81900007
-0.39071813 -0.060641907 0.80600005
-0.39014861 -0.060792387 0.80800003
-0.38957146 -0.060942862 0.81000006
-0.38802859 -0.060942862 0.81000006
-0.38839433 -0.061243813 0.81400001
-0.38922003 -0.061620004 0.81900007
-0.38766003 -0.061620004 0.81900007
-0.39265716 -0.059400003 0.81000006
-0.39208004 -0.059546672 0.81200004
-0.39053336 -0.059546672 0.81200004
-0.38994479 -0.059693336 0.81400001
-0.38887146 -0.059766669 0.81500006
-0.39017051 -0.06020667 0.82100004
-0.3886067 -0.06020667 0.82100004
-0.38798574 -0.060353339 0.82300001
-0.39322668 -0.057714291 0.80800003
-0.39265716 -0.057857148 0.81000006
-0.39208004 -0.058000002 0.81200004
-0.39149526 -0.058142859 0.81400001
-0.38994479 -0.058142859 0.81400001
-0.38982573 -0.058357146 0.81700003
-0.39112097 -0.058785718 0.82300001
-0.38955337 -0.058785718 0.82300001
-0.38892859 -0.058928575 0.82500005
-0.39265716 -0.05631429 0.81000006
-0.39208004 -0.056453336 0.81200004
-0.39053336 -0.056453336 0.81200004
-0.38898671 -0.056453336 0.81200004
-0.38839433 -0.056592386 0.81400001
-0.39112097 -0.057218097 0.82300001
-0.38955337 -0.057218097 0.82300001
-0.38892859 -0.057357147 0.82500005
-0.39459622 -0.055041909 0.81400001
-0.39304575 -0.055041909 0.81400001
-0.39197621 -0.055109527 0.81500006
-0.39042383 -0.055109527 0.81500006
-0.38887146 -0.055109527 0.81500006
-0.38922003 -0.055380005 0.81900007
-0.3886067 -0.055515241 0.82100004
-0.38798574 -0.05565048 0.82300001
-0.39508098 -0.053557146 0.81500006
-0.39352861 -0.053557146 0.81500006
-0.39197621 -0.053557146 0.81500006
-0.39042383 -0.053557146 0.81500006
-0.38887146 -0.053557146 0.81500006
-0.38826954 -0.053688575 0.81700003
-0.3886067 -0.053951431 0.82100004
-0.39508098 -0.052004766 0.81500006
-0.39352861 -0.052004766 0.81500006
-0.39197621 -0.052004766 0.81500006
-0.39042383 -0.052004766 0.81500006
-0.38887146 -0.052004766 0.81500006
-0.38826954 -0.052132383 0.81700003
-0.38766003 -0.052260004 0.81900007
-0.39605051 -0.050576195 0.81700003
-0.39352861 -0.050452385 0.81500006
-0.39197621 -0.050452385 0.81500006
-0.39042383 -0.050452385 0.81500006
-0.38887146 -0.050452385 0.81500006
-0.38826954 -0.050576195 0.81700003
-0.38671336 -0.050576195 0.81700003
-0.38610002 -0.050700005 0.81900007
-0.39508098 -0.048900004 0.81500006
-0.39352861 -0.048900004 0.81500006
-0.39197621 -0.048900004 0.81500006
-0.39042383 -0.048900004 0.81500006
-0.38887146 -0.048900004 0.81500006
-0.38826954 -0.049020004 0.81700003
-0.38671336 -0.049020004 0.81700003
-0.38610002 -0.049140003 0.81900007
-0.39508098 -0.047347624 0.81500006
-0.39352861 -0.047347624 0.81500006
-0.39197621 -0.047347624 0.81500006
