# .PCD v0.7 - Point Cloud Data file format
VERSION 0.7
FIELDS x y z
SIZE 4 4 4
TYPE F F F
COUNT 1 1 1
WIDTH 1339
HEIGHT 1
VIEWPOINT 0 0 0 1 0 0 0
POINTS 1339
DATA ascii
-0.050785717 0.04564286 0.67500001
-0.049500003 0.04564286 0.67500001
-0.04821429 0.04564286 0.67500001
-0.046928573 0.04564286 0.67500001
-0.04564286 0.04564286 0.67500001
-0.044357147 0.04564286 0.67500001
-0.04307143 0.04564286 0.67500001
-0.041785717 0.04564286 0.67500001
-0.040500004 0.04564286 0.67500001
-0.039214287 0.04564286 0.67500001
-0.037984766 0.045710478 0.67600006
-0.036697146 0.045710478 0.67600006
-0.035409525 0.045710478 0.67600006
-0.034121908 0.045710478 0.67600006
-0.032931432 0.045845717 0.67800003
-0.031640001 0.045845717 0.67800003
-0.030393336 0.045913335 0.67900002
-0.029100003 0.045913335 0.67900002
-0.027847622 0.045980956 0.68000001
-0.026630478 0.046116192 0.68200004
-0.02533143 0.046116192 0.68200004
-0.02406762 0.046183813 0.68300003
-0.022800002 0.046251431 0.68400002
-0.021560002 0.04638667 0.68600005
-0.020282859 0.046454288 0.68700004
-0.019029524 0.046589527 0.68900001
-0.017768573 0.046724766 0.69100004
-0.016500002 0.046860002 0.69300002
-0.01522381 0.046995241 0.69500005
-0.014000001 0.047333337 0.70000005
-0.012684762 0.047400955 0.70100003
-0.011349524 0.047400955 0.70100003
-0.07611905 0.048319049 0.69500005
-0.074687622 0.048249528 0.69400001
-0.073048577 0.048040956 0.69100004
-0.071732387 0.048040956 0.69100004
-0.070314288 0.047971431 0.69000006
-0.068900004 0.047901906 0.68900001
-0.067391433 0.04776286 0.68700004
-0.065794289 0.047554288 0.68400002
-0.064397149 0.047484767 0.68300003
-0.062819049 0.047276195 0.68000001
-0.061523814 0.047276195 0.68000001
-0.060228575 0.047276195 0.68000001
-0.058846671 0.04720667 0.67900002
-0.057553336 0.04720667 0.67900002
-0.056260005 0.04720667 0.67900002
-0.054885719 0.047137145 0.67800003
-0.053594287 0.047137145 0.67800003
-0.05230286 0.047137145 0.67800003
-0.050860956 0.046998098 0.67600006
-0.049573336 0.046998098 0.67600006
-0.04821429 0.046928573 0.67500001
-0.046928573 0.046928573 0.67500001
-0.045710478 0.046998098 0.67600006
-0.044422861 0.046998098 0.67600006
-0.043135241 0.046998098 0.67600006
-0.04184762 0.046998098 0.67600006
-0.040560003 0.046998098 0.67600006
-0.039272383 0.046998098 0.67600006
-0.038097147 0.047137145 0.67800003
-0.036697146 0.046998098 0.67600006
-0.035514288 0.047137145 0.67800003
-0.03422286 0.047137145 0.67800003
-0.032980002 0.04720667 0.67900002
-0.031686667 0.04720667 0.67900002
-0.030393336 0.04720667 0.67900002
-0.029142858 0.047276195 0.68000001
-0.027847622 0.047276195 0.68000001
-0.026630478 0.047415242 0.68200004
-0.025368573 0.047484767 0.68300003
-0.024102859 0.047554288 0.68400002
-0.022866668 0.047693338 0.68600005
-0.021591431 0.04776286 0.68700004
-0.020341907 0.047901906 0.68900001
-0.019057143 0.047971431 0.69000006
-0.017768573 0.048040956 0.69100004
-0.01652381 0.048249528 0.69400001
-0.01526762 0.048458099 0.69700003
-0.014000001 0.048666671 0.70000005
-0.012684762 0.048736192 0.70100003
-0.076338097 0.049785718 0.69700003
-0.074795246 0.049642861 0.69500005
-0.073365718 0.049571432 0.69400001
-0.071940005 0.049500003 0.69300002
-0.070416197 0.049357146 0.69100004
-0.069000006 0.049285717 0.69000006
-0.067587622 0.049214289 0.68900001
-0.066082865 0.049071431 0.68700004
-0.064680003 0.049000002 0.68600005
-0.063188575 0.048857145 0.68400002
-0.061795242 0.048785716 0.68300003
-0.06040572 0.048714288 0.68200004
-0.058933336 0.04857143 0.68000001
-0.057638098 0.04857143 0.68000001
-0.056342863 0.04857143 0.68000001
-0.05496667 0.048500001 0.67900002
-0.053673338 0.048500001 0.67900002
-0.052380003 0.048500001 0.67900002
-0.051086672 0.048500001 0.67900002
-0.049720004 0.048428576 0.67800003
-0.048428576 0.048428576 0.67800003
-0.047137145 0.048428576 0.67800003
-0.045845717 0.048428576 0.67800003
-0.044554289 0.048428576 0.67800003
-0.043262862 0.048428576 0.67800003
-0.042033337 0.048500001 0.67900002
-0.040740002 0.048500001 0.67900002
-0.039446671 0.048500001 0.67900002
-0.038153335 0.048500001 0.67900002
-0.036860004 0.048500001 0.67900002
-0.035566669 0.048500001 0.67900002
-0.034273334 0.048500001 0.67900002
-0.033028573 0.04857143 0.68000001
-0.031686667 0.048500001 0.67900002
-0.030438097 0.04857143 0.68000001
-0.029142858 0.04857143 0.68000001
-0.027929526 0.048714288 0.68200004
-0.026669526 0.048785716 0.68300003
-0.025405716 0.048857145 0.68400002
-0.024173334 0.049000002 0.68600005
-0.022900002 0.049071431 0.68700004
-0.021654287 0.049214289 0.68900001
-0.02037143 0.049285717 0.69000006
-0.019057143 0.049285717 0.69000006
-0.017768573 0.049357146 0.69100004
-0.01526762 0.049785718 0.69700003
-0.014020001 0.050071433 0.70100003
-0.012684762 0.050071433 0.70100003
-0.076447621 0.05118667 0.69800001
-0.075010478 0.051113337 0.69700003
-0.073471434 0.050966669 0.69500005
-0.072043814 0.050893337 0.69400001
-0.070620008 0.050820004 0.69300002
-0.069100007 0.050673336 0.69100004
-0.067587622 0.050526671 0.68900001
-0.066082865 0.050380003 0.68700004
-0.064680003 0.05030667 0.68600005
-0.063188575 0.050160002 0.68400002
-0.061795242 0.05008667 0.68300003
-0.06040572 0.050013337 0.68200004
-0.05910667 0.050013337 0.68200004
-0.057638098 0.049866669 0.68000001
-0.056342863 0.049866669 0.68000001
-0.055047624 0.049866669 0.68000001
-0.053752385 0.049866669 0.68000001
-0.052380003 0.049793337 0.67900002
-0.051086672 0.049793337 0.67900002
-0.049793337 0.049793337 0.67900002
-0.048500001 0.049793337 0.67900002
-0.04720667 0.049793337 0.67900002
-0.045913335 0.049793337 0.67900002
-0.044620004 0.049793337 0.67900002
-0.043326668 0.049793337 0.67900002
-0.042033337 0.049793337 0.67900002
-0.040740002 0.049793337 0.67900002
-0.039446671 0.049793337 0.67900002
-0.038153335 0.049793337 0.67900002
-0.036860004 0.049793337 0.67900002
-0.035566669 0.049793337 0.67900002
-0.034273334 0.049793337 0.67900002
-0.033028573 0.049866669 0.68000001
-0.031733334 0.049866669 0.68000001
-0.030438097 0.049866669 0.68000001
-0.029228574 0.050013337 0.68200004
-0.027970478 0.05008667 0.68300003
-0.026708573 0.050160002 0.68400002
-0.025480002 0.05030667 0.68600005
-0.024173334 0.05030667 0.68600005
-0.022966668 0.050526671 0.68900001
-0.021654287 0.050526671 0.68900001
-0.02037143 0.050600003 0.69000006
-0.019057143 0.050600003 0.69000006
-0.017768573 0.050673336 0.69100004
-0.01526762 0.051113337 0.69700003
-0.014020001 0.05140667 0.70100003
-0.075010478 0.052440956 0.69700003
-0.07368286 0.052440956 0.69700003
-0.072043814 0.052215241 0.69400001
-0.070620008 0.052140005 0.69300002
-0.069100007 0.051989526 0.69100004
-0.067685716 0.05191429 0.69000006
-0.066082865 0.051688574 0.68700004
-0.064680003 0.051613338 0.68600005
-0.063373335 0.051613338 0.68600005
-0.061885718 0.051462859 0.68400002
-0.060494289 0.051387623 0.68300003
-0.05910667 0.051312383 0.68200004
-0.057807624 0.051312383 0.68200004
-0.056342863 0.051161908 0.68000001
-0.055047624 0.051161908 0.68000001
-0.053752385 0.051161908 0.68000001
-0.052457146 0.051161908 0.68000001
-0.051086672 0.051086672 0.67900002
-0.049793337 0.051086672 0.67900002
-0.048500001 0.051086672 0.67900002
-0.04720667 0.051086672 0.67900002
-0.045980956 0.051161908 0.68000001
-0.044685718 0.051161908 0.68000001
-0.043390479 0.051161908 0.68000001
-0.04209524 0.051161908 0.68000001
-0.040800001 0.051161908 0.68000001
-0.039504763 0.051161908 0.68000001
-0.038209528 0.051161908 0.68000001
-0.036914289 0.051161908 0.68000001
-0.035566669 0.051086672 0.67900002
-0.034323812 0.051161908 0.68000001
-0.033028573 0.051161908 0.68000001
-0.031733334 0.051161908 0.68000001
-0.030527622 0.051312383 0.68200004
-0.029271431 0.051387623 0.68300003
-0.02801143 0.051462859 0.68400002
-0.026708573 0.051462859 0.68400002
-0.025480002 0.051613338 0.68600005
-0.024208574 0.051688574 0.68700004
-0.022966668 0.05183905 0.68900001
-0.021654287 0.05183905 0.68900001
-0.02037143 0.05191429 0.69000006
-0.019084763 0.051989526 0.69100004
-0.017820001 0.052140005 0.69300002
-0.01652381 0.052215241 0.69400001
-0.015289525 0.052516192 0.69800001
-0.014020001 0.052741908 0.70100003
-0.075010478 0.053768575 0.69700003
-0.07368286 0.053768575 0.69700003
-0.072043814 0.053537145 0.69400001
-0.070721909 0.053537145 0.69400001
-0.069100007 0.053305719 0.69100004
-0.067685716 0.053228576 0.69000006
-0.066082865 0.052997146 0.68700004
-0.06477429 0.052997146 0.68700004
-0.063373335 0.052920002 0.68600005
-0.061885718 0.05276572 0.68400002
-0.060494289 0.052688576 0.68300003
-0.059193335 0.052688576 0.68300003
-0.057807624 0.052611433 0.68200004
-0.056508575 0.052611433 0.68200004
-0.055047624 0.052457146 0.68000001
-0.053752385 0.052457146 0.68000001
-0.052457146 0.052457146 0.68000001
-0.051161908 0.052457146 0.68000001
-0.049793337 0.052380003 0.67900002
-0.048500001 0.052380003 0.67900002
-0.047276195 0.052457146 0.68000001
-0.045980956 0.052457146 0.68000001
-0.044685718 0.052457146 0.68000001
-0.043390479 0.052457146 0.68000001
-0.04209524 0.052457146 0.68000001
-0.040800001 0.052457146 0.68000001
-0.039504763 0.052457146 0.68000001
-0.038209528 0.052457146 0.68000001
-0.036914289 0.052457146 0.68000001
-0.03561905 0.052457146 0.68000001
-0.034323812 0.052457146 0.68000001
-0.033125717 0.052611433 0.68200004
-0.031826667 0.052611433 0.68200004
-0.030572383 0.052688576 0.68300003
-0.029314287 0.05276572 0.68400002
-0.02801143 0.05276572 0.68400002
-0.026786668 0.052920002 0.68600005
-0.025480002 0.052920002 0.68600005
-0.024208574 0.052997146 0.68700004
-0.022966668 0.053151432 0.68900001
-0.021685716 0.053228576 0.69000006
-0.02037143 0.053228576 0.69000006
-0.019084763 0.053305719 0.69100004
-0.017820001 0.053460002 0.69300002
-0.01652381 0.053537145 0.69400001
-0.01526762 0.053768575 0.69700003
-0.075010478 0.055096194 0.69700003
-0.07368286 0.055096194 0.69700003
-0.072043814 0.05485905 0.69400001
-0.070721909 0.05485905 0.69400001
-0.069300003 0.054780003 0.69300002
-0.067783818 0.054621909 0.69100004
-0.066275239 0.054463815 0.68900001
-0.06477429 0.054305717 0.68700004
-0.063465722 0.054305717 0.68700004
-0.062066671 0.05422667 0.68600005
-0.060582861 0.054068577 0.68400002
-0.059193335 0.053989526 0.68300003
-0.057892386 0.053989526 0.68300003
-0.056508575 0.053910479 0.68200004
-0.055209529 0.053910479 0.68200004
-0.053752385 0.053752385 0.68000001
-0.052457146 0.053752385 0.68000001
-0.051161908 0.053752385 0.68000001
-0.049866669 0.053752385 0.68000001
-0.048500001 0.053673338 0.67900002
-0.047276195 0.053752385 0.68000001
-0.045980956 0.053752385 0.68000001
-0.044685718 0.053752385 0.68000001
-0.043390479 0.053752385 0.68000001
-0.04209524 0.053752385 0.68000001
-0.040800001 0.053752385 0.68000001
-0.039504763 0.053752385 0.68000001
-0.038209528 0.053752385 0.68000001
-0.036914289 0.053752385 0.68000001
-0.03561905 0.053752385 0.68000001
-0.034424763 0.053910479 0.68200004
-0.033125717 0.053910479 0.68200004
-0.031873334 0.053989526 0.68300003
-0.030617144 0.054068577 0.68400002
-0.029314287 0.054068577 0.68400002
-0.028093334 0.05422667 0.68600005
-0.026786668 0.05422667 0.68600005
-0.025517145 0.054305717 0.68700004
-0.024208574 0.054305717 0.68700004
-0.023000002 0.054542862 0.69000006
-0.021685716 0.054542862 0.69000006
-0.020400954 0.054621909 0.69100004
-0.019140001 0.054780003 0.69300002
-0.017845716 0.05485905 0.69400001
-0.01654762 0.0549381 0.69500005
-0.01526762 0.055096194 0.69700003
-0.075118102 0.056504767 0.69800001
-0.07368286 0.056423813 0.69700003
-0.072147623 0.056261908 0.69500005
-0.070721909 0.056180958 0.69400001
-0.069300003 0.056100003 0.69300002
-0.067783818 0.055938099 0.69100004
-0.066371433 0.055857148 0.69000006
-0.064962864 0.055776194 0.68900001
-0.063465722 0.055614289 0.68700004
-0.062066671 0.055533338 0.68600005
-0.060582861 0.055371433 0.68400002
-0.059280004 0.055371433 0.68400002
-0.057892386 0.055290479 0.68300003
-0.056591433 0.055290479 0.68300003
-0.055209529 0.055209529 0.68200004
-0.053910479 0.055209529 0.68200004
-0.052611433 0.055209529 0.68200004
-0.051161908 0.055047624 0.68000001
-0.049866669 0.055047624 0.68000001
-0.04857143 0.055047624 0.68000001
-0.047276195 0.055047624 0.68000001
-0.045980956 0.055047624 0.68000001
-0.044685718 0.055047624 0.68000001
-0.043390479 0.055047624 0.68000001
-0.04209524 0.055047624 0.68000001
-0.040800001 0.055047624 0.68000001
-0.039504763 0.055047624 0.68000001
-0.038321909 0.055209529 0.68200004
-0.037022859 0.055209529 0.68200004
-0.035723813 0.055209529 0.68200004
-0.034424763 0.055209529 0.68200004
-0.033174288 0.055290479 0.68300003
-0.031920001 0.055371433 0.68400002
-0.030617144 0.055371433 0.68400002
-0.029314287 0.055371433 0.68400002
-0.028093334 0.055533338 0.68600005
-0.026786668 0.055533338 0.68600005
-0.025517145 0.055614289 0.68700004
-0.024279049 0.055776194 0.68900001
-0.023000002 0.055857148 0.69000006
-0.021717144 0.055938099 0.69100004
-0.020400954 0.055938099 0.69100004
-0.019140001 0.056100003 0.69300002
-0.017845716 0.056180958 0.69400001
-0.01654762 0.056261908 0.69500005
-0.01526762 0.056423813 0.69700003
-0.072147623 0.057585716 0.69500005
-0.070721909 0.057502862 0.69400001
-0.069300003 0.057420004 0.69300002
-0.067783818 0.057254288 0.69100004
-0.066371433 0.057171434 0.69000006
-0.065057144 0.057171434 0.69000006
-0.063650481 0.057088576 0.68900001
-0.062157147 0.05692286 0.68700004
-0.060760003 0.056840003 0.68600005
-0.059280004 0.05667429 0.68400002
-0.057977147 0.05667429 0.68400002
-0.05667429 0.05667429 0.68400002
-0.055290479 0.056591433 0.68300003
-0.053989526 0.056591433 0.68300003
-0.052611433 0.056508575 0.68200004
-0.051312383 0.056508575 0.68200004
-0.050013337 0.056508575 0.68200004
-0.048714288 0.056508575 0.68200004
-0.047415242 0.056508575 0.68200004
-0.046116192 0.056508575 0.68200004
-0.044817146 0.056508575 0.68200004
-0.0435181 0.056508575 0.68200004
-0.04221905 0.056508575 0.68200004
-0.040920004 0.056508575 0.68200004
-0.039620955 0.056508575 0.68200004
-0.038321909 0.056508575 0.68200004
-0.037022859 0.056508575 0.68200004
-0.035776194 0.056591433 0.68300003
-0.034475241 0.056591433 0.68300003
-0.033222858 0.05667429 0.68400002
-0.031920001 0.05667429 0.68400002
-0.030617144 0.05667429 0.68400002
-0.029400002 0.056840003 0.68600005
-0.028093334 0.056840003 0.68600005
-0.026825717 0.05692286 0.68700004
-0.025591429 0.057088576 0.68900001
-0.024279049 0.057088576 0.68900001
-0.023000002 0.057171434 0.69000006
-0.021717144 0.057254288 0.69100004
-0.020460002 0.057420004 0.69300002
-0.019167621 0.057502862 0.69400001
-0.01787143 0.057585716 0.69500005
-0.016595239 0.057751432 0.69700003
-0.015289525 0.05783429 0.69800001
-0.072147623 0.058909528 0.69500005
-0.070823811 0.058909528 0.69500005
-0.069400005 0.058824766 0.69400001
-0.067980006 0.058740005 0.69300002
-0.06646762 0.058570482 0.69100004
-0.065151431 0.058570482 0.69100004
-0.063742861 0.058485717 0.69000006
-0.062338099 0.058400955 0.68900001
-0.060848575 0.058231432 0.68700004
-0.059453338 0.05814667 0.68600005
-0.057977147 0.057977147 0.68400002
-0.05667429 0.057977147 0.68400002
-0.055371433 0.057977147 0.68400002
-0.054068577 0.057977147 0.68400002
-0.052688576 0.057892386 0.68300003
-0.051387623 0.057892386 0.68300003
-0.050013337 0.057807624 0.68200004
-0.048714288 0.057807624 0.68200004
-0.047415242 0.057807624 0.68200004
-0.046116192 0.057807624 0.68200004
-0.044817146 0.057807624 0.68200004
-0.0435181 0.057807624 0.68200004
-0.042280953 0.057892386 0.68300003
-0.040980004 0.057892386 0.68300003
-0.039620955 0.057807624 0.68200004
-0.038378097 0.057892386 0.68300003
-0.037077144 0.057892386 0.68300003
-0.035776194 0.057892386 0.68300003
-0.034525715 0.057977147 0.68400002
-0.033222858 0.057977147 0.68400002
-0.031920001 0.057977147 0.68400002
-0.030706668 0.05814667 0.68600005
-0.029400002 0.05814667 0.68600005
-0.028134288 0.058231432 0.68700004
-0.026825717 0.058231432 0.68700004
-0.025591429 0.058400955 0.68900001
-0.024314288 0.058485717 0.69000006
-0.023033334 0.058570482 0.69100004
-0.021780001 0.058740005 0.69300002
-0.020489525 0.058824766 0.69400001
-0.01919524 0.058909528 0.69500005
-0.017922858 0.059079051 0.69700003
-0.016619049 0.059163813 0.69800001
-0.015289525 0.059163813 0.69800001
-0.074105717 0.060753338 0.70100003
-0.07245905 0.060493339 0.69800001
-0.070823811 0.060233336 0.69500005
-0.069400005 0.060146671 0.69400001
-0.068078101 0.060146671 0.69400001
-0.06646762 0.059886672 0.69100004
-0.065151431 0.059886672 0.69100004
-0.063742861 0.059800003 0.69000006
-0.062428575 0.059800003 0.69000006
-0.060848575 0.059540004 0.68700004
-0.059453338 0.059453338 0.68600005
-0.05814667 0.059453338 0.68600005
-0.05667429 0.059280004 0.68400002
-0.055371433 0.059280004 0.68400002
-0.054068577 0.059280004 0.68400002
-0.05276572 0.059280004 0.68400002
-0.051462859 0.059280004 0.68400002
-0.05008667 0.059193335 0.68300003
-0.048785716 0.059193335 0.68300003
-0.047484767 0.059193335 0.68300003
-0.046183813 0.059193335 0.68300003
-0.04488286 0.059193335 0.68300003
-0.043581907 0.059193335 0.68300003
-0.042280953 0.059193335 0.68300003
-0.040980004 0.059193335 0.68300003
-0.03967905 0.059193335 0.68300003
-0.038378097 0.059193335 0.68300003
-0.037131432 0.059280004 0.68400002
-0.035828575 0.059280004 0.68400002
-0.034525715 0.059280004 0.68400002
-0.033222858 0.059280004 0.68400002
-0.032013334 0.059453338 0.68600005
-0.030706668 0.059453338 0.68600005
-0.029400002 0.059453338 0.68600005
-0.028134288 0.059540004 0.68700004
-0.026903812 0.059713338 0.68900001
-0.025628572 0.059800003 0.69000006
-0.024349526 0.059886672 0.69100004
-0.023033334 0.059886672 0.69100004
-0.021811429 0.060146671 0.69400001
-0.020489525 0.060146671 0.69400001
-0.01919524 0.060233336 0.69500005
-0.017922858 0.06040667 0.69700003
-0.016619049 0.060493339 0.69800001
-0.015289525 0.060493339 0.69800001
-0.014020001 0.060753338 0.70100003
-0.07608667 0.062620007 0.70700002
-0.074528575 0.062442861 0.70500004
-0.07245905 0.061822861 0.69800001
-0.071027622 0.061734289 0.69700003
-0.069500007 0.061557148 0.69500005
-0.068078101 0.061468575 0.69400001
-0.066660002 0.061380003 0.69300002
-0.065151431 0.061202861 0.69100004
-0.063835241 0.061202861 0.69100004
-0.062428575 0.061114289 0.69000006
-0.06102572 0.06102572 0.68900001
-0.059540004 0.060848575 0.68700004
-0.05814667 0.060760003 0.68600005
-0.056840003 0.060760003 0.68600005
-0.055533338 0.060760003 0.68600005
-0.054068577 0.060582861 0.68400002
-0.05276572 0.060582861 0.68400002
-0.051462859 0.060582861 0.68400002
-0.050160002 0.060582861 0.68400002
-0.048857145 0.060582861 0.68400002
-0.047554288 0.060582861 0.68400002
-0.046251431 0.060582861 0.68400002
-0.044948574 0.060582861 0.68400002
-0.043645717 0.060582861 0.68400002
-0.04234286 0.060582861 0.68400002
-0.041040003 0.060582861 0.68400002
-0.039737146 0.060582861 0.68400002
-0.038434289 0.060582861 0.68400002
-0.037131432 0.060582861 0.68400002
-0.035828575 0.060582861 0.68400002
-0.03462667 0.060760003 0.68600005
-0.033320002 0.060760003 0.68600005
-0.032013334 0.060760003 0.68600005
-0.030706668 0.060760003 0.68600005
-0.02944286 0.060848575 0.68700004
-0.028134288 0.060848575 0.68700004
-0.026942858 0.061114289 0.69000006
-0.025628572 0.061114289 0.69000006
-0.024420002 0.061380003 0.69300002
-0.023100002 0.061380003 0.69300002
-0.021842858 0.061557148 0.69500005
-0.02051905 0.061557148 0.69500005
-0.019250477 0.061734289 0.69700003
-0.017948573 0.061822861 0.69800001
-0.016666668 0.062000003 0.70000005
-0.015355239 0.062088575 0.70100003
-0.014060001 0.06226572 0.70300001
-0.012739048 0.062354289 0.70400006
-0.07608667 0.063966669 0.70700002
-0.074528575 0.063785717 0.70500004
-0.07318572 0.063785717 0.70500004
-0.071639054 0.063604765 0.70300001
-0.069700003 0.063061908 0.69700003
-0.068176195 0.062880956 0.69500005
-0.066756196 0.062790483 0.69400001
-0.065340005 0.062700003 0.69300002
-0.063835241 0.062519051 0.69100004
-0.062519051 0.062519051 0.69100004
-0.061114289 0.062428575 0.69000006
-0.059713338 0.062338099 0.68900001
-0.058231432 0.062157147 0.68700004
-0.05692286 0.062157147 0.68700004
-0.055614289 0.062157147 0.68700004
-0.05422667 0.062066671 0.68600005
-0.052920002 0.062066671 0.68600005
-0.051613338 0.062066671 0.68600005
-0.05030667 0.062066671 0.68600005
-0.049000002 0.062066671 0.68600005
-0.047693338 0.062066671 0.68600005
-0.04638667 0.062066671 0.68600005
-0.045080002 0.062066671 0.68600005
-0.043773334 0.062066671 0.68600005
-0.04246667 0.062066671 0.68600005
-0.041160002 0.062066671 0.68600005
-0.039853334 0.062066671 0.68600005
-0.03854667 0.062066671 0.68600005
-0.037240002 0.062066671 0.68600005
-0.035933334 0.062066671 0.68600005
-0.03462667 0.062066671 0.68600005
-0.033320002 0.062066671 0.68600005
-0.032060001 0.062157147 0.68700004
-0.030751431 0.062157147 0.68700004
-0.029528573 0.062338099 0.68900001
-0.028257145 0.062428575 0.69000006
-0.026981907 0.062519051 0.69100004
-0.025740001 0.062700003 0.69300002
-0.02445524 0.062790483 0.69400001
-0.023133336 0.062790483 0.69400001
-0.021842858 0.062880956 0.69500005
-0.020578096 0.063061908 0.69700003
-0.019278096 0.063152388 0.69800001
-0.018000001 0.06333334 0.70000005
-0.016690478 0.063423812 0.70100003
-0.015420954 0.063695244 0.70400006
-0.014100001 0.063785717 0.70500004
-0.012757144 0.063785717 0.70500004
-0.07743334 0.065313339 0.70700002
-0.07608667 0.065313339 0.70700002
-0.074528575 0.065128572 0.70500004
-0.07318572 0.065128572 0.70500004
-0.071639054 0.064943813 0.70300001
-0.069800004 0.064481907 0.69800001
-0.068176195 0.064204767 0.69500005
-0.066756196 0.064112388 0.69400001
-0.065340005 0.064020008 0.69300002
-0.063835241 0.063835241 0.69100004
-0.062519051 0.063835241 0.69100004
-0.061114289 0.063742861 0.69000006
-0.059800003 0.063742861 0.69000006
-0.058400955 0.063650481 0.68900001
-0.05692286 0.063465722 0.68700004
-0.055614289 0.063465722 0.68700004
-0.054305717 0.063465722 0.68700004
-0.052997146 0.063465722 0.68700004
-0.051613338 0.063373335 0.68600005
-0.05030667 0.063373335 0.68600005
-0.049000002 0.063373335 0.68600005
-0.047693338 0.063373335 0.68600005
-0.04638667 0.063373335 0.68600005
-0.045145717 0.063465722 0.68700004
-0.043837145 0.063465722 0.68700004
-0.042528573 0.063465722 0.68700004
-0.041160002 0.063373335 0.68600005
-0.039853334 0.063373335 0.68600005
-0.038602859 0.063465722 0.68700004
-0.037294287 0.063465722 0.68700004
-0.035985716 0.063465722 0.68700004
-0.034677144 0.063465722 0.68700004
-0.033368573 0.063465722 0.68700004
-0.032153334 0.063650481 0.68900001
-0.030840954 0.063650481 0.68900001
-0.029528573 0.063650481 0.68900001
-0.028257145 0.063742861 0.69000006
-0.026981907 0.063835241 0.69100004
-0.025740001 0.064020008 0.69300002
-0.02445524 0.064112388 0.69400001
-0.023166668 0.064204767 0.69500005
-0.021905717 0.064389527 0.69700003
-0.02060762 0.064481907 0.69800001
-0.019333335 0.064666674 0.70000005
-0.018025715 0.064759053 0.70100003
-0.016738096 0.064943813 0.70300001
-0.015420954 0.065036193 0.70400006
-0.014100001 0.065128572 0.70500004
-0.012757144 0.065128572 0.70500004
-0.077542864 0.066754289 0.708
-0.07608667 0.066660002 0.70700002
-0.074528575 0.066471435 0.70500004
-0.073081911 0.066377148 0.70400006
-0.071740955 0.066377148 0.70400006
-0.070000008 0.066000007 0.70000005
-0.068372384 0.065717146 0.69700003
-0.066852383 0.065528579 0.69500005
-0.065434292 0.065434292 0.69400001
-0.064020008 0.065340005 0.69300002
-0.062519051 0.065151431 0.69100004
-0.061202861 0.065151431 0.69100004
-0.059800003 0.065057144 0.69000006
-0.058485717 0.065057144 0.69000006
-0.057088576 0.064962864 0.68900001
-0.055614289 0.06477429 0.68700004
-0.054305717 0.06477429 0.68700004
-0.052997146 0.06477429 0.68700004
-0.051688574 0.06477429 0.68700004
-0.050380003 0.06477429 0.68700004
-0.049000002 0.064680003 0.68600005
-0.047693338 0.064680003 0.68600005
-0.046454288 0.06477429 0.68700004
-0.045145717 0.06477429 0.68700004
-0.043837145 0.06477429 0.68700004
-0.042528573 0.06477429 0.68700004
-0.041220002 0.06477429 0.68700004
-0.03991143 0.06477429 0.68700004
-0.038602859 0.06477429 0.68700004
-0.037294287 0.06477429 0.68700004
-0.035985716 0.06477429 0.68700004
-0.034677144 0.06477429 0.68700004
-0.033465717 0.064962864 0.68900001
-0.032153334 0.064962864 0.68900001
-0.030885717 0.065057144 0.69000006
-0.029571431 0.065057144 0.69000006
-0.028298097 0.065151431 0.69100004
-0.027060002 0.065340005 0.69300002
-0.025777144 0.065434292 0.69400001
-0.024490478 0.065528579 0.69500005
-0.023233335 0.065717146 0.69700003
-0.021905717 0.065717146 0.69700003
-0.02060762 0.065811433 0.69800001
-0.019360954 0.066094287 0.70100003
-0.018077144 0.066282861 0.70300001
-0.016738096 0.066282861 0.70300001
-0.015420954 0.066377148 0.70400006
-0.014100001 0.066471435 0.70500004
-0.078891434 0.068102859 0.708
-0.077542864 0.068102859 0.708
-0.07608667 0.068006672 0.70700002
-0.074528575 0.067814291 0.70500004
-0.073081911 0.067718096 0.70400006
-0.071740955 0.067718096 0.70400006
-0.070000008 0.067333341 0.70000005
-0.068372384 0.067044765 0.69700003
-0.066852383 0.066852383 0.69500005
-0.065528579 0.066852383 0.69500005
-0.064112388 0.066756196 0.69400001
-0.062700003 0.066660002 0.69300002
-0.061380003 0.066660002 0.69300002
-0.059886672 0.06646762 0.69100004
-0.058485717 0.066371433 0.69000006
-0.057171434 0.066371433 0.69000006
-0.055776194 0.066275239 0.68900001
-0.054463815 0.066275239 0.68900001
-0.053151432 0.066275239 0.68900001
-0.05183905 0.066275239 0.68900001
-0.050380003 0.066082865 0.68700004
-0.049071431 0.066082865 0.68700004
-0.04776286 0.066082865 0.68700004
-0.046589527 0.066275239 0.68900001
-0.045277145 0.066275239 0.68900001
-0.043964766 0.066275239 0.68900001
-0.042652383 0.066275239 0.68900001
-0.041340001 0.066275239 0.68900001
-0.040027622 0.066275239 0.68900001
-0.03871524 0.066275239 0.68900001
-0.037402861 0.066275239 0.68900001
-0.036090478 0.066275239 0.68900001
-0.034778096 0.066275239 0.68900001
-0.033465717 0.066275239 0.68900001
-0.032200001 0.066371433 0.69000006
-0.030930478 0.06646762 0.69100004
-0.029614288 0.06646762 0.69100004
-0.028420955 0.066756196 0.69400001
-0.027099049 0.066756196 0.69400001
-0.025814287 0.066852383 0.69500005
-0.024490478 0.066852383 0.69500005
-0.023233335 0.067044765 0.69700003
-0.021937145 0.067140959 0.69800001
-0.020666668 0.067333341 0.70000005
-0.019360954 0.067429528 0.70100003
-0.018077144 0.067621909 0.70300001
-0.016761906 0.067718096 0.70400006
-0.015420954 0.067718096 0.70400006
-0.014100001 0.067814291 0.70500004
-0.077542864 0.069451436 0.708
-0.07608667 0.069353335 0.70700002
-0.074528575 0.069157146 0.70500004
-0.07318572 0.069157146 0.70500004
-0.071740955 0.069059052 0.70400006
-0.070100002 0.068764769 0.70100003
-0.068470478 0.068470478 0.69800001
-0.067044765 0.068372384 0.69700003
-0.065528579 0.068176195 0.69500005
-0.064204767 0.068176195 0.69500005
-0.062790483 0.068078101 0.69400001
-0.061468575 0.068078101 0.69400001
-0.060060006 0.067980006 0.69300002
-0.058570482 0.067783818 0.69100004
-0.057171434 0.067685716 0.69000006
-0.055857148 0.067685716 0.69000006
-0.054542862 0.067685716 0.69000006
-0.053151432 0.067587622 0.68900001
-0.05183905 0.067587622 0.68900001
-0.050526671 0.067587622 0.68900001
-0.049214289 0.067587622 0.68900001
-0.047901906 0.067587622 0.68900001
-0.046589527 0.067587622 0.68900001
-0.045342859 0.067685716 0.69000006
-0.044028573 0.067685716 0.69000006
-0.04271429 0.067685716 0.69000006
-0.041400004 0.067685716 0.69000006
-0.040027622 0.067587622 0.68900001
-0.03871524 0.067587622 0.68900001
-0.037402861 0.067587622 0.68900001
-0.03614286 0.067685716 0.69000006
-0.034828573 0.067685716 0.69000006
-0.033514287 0.067685716 0.69000006
-0.032200001 0.067685716 0.69000006
-0.030930478 0.067783818 0.69100004
-0.029700002 0.067980006 0.69300002
-0.028420955 0.068078101 0.69400001
-0.027099049 0.068078101 0.69400001
-0.025814287 0.068176195 0.69500005
-0.024490478 0.068176195 0.69500005
-0.023233335 0.068372384 0.69700003
-0.021937145 0.068470478 0.69800001
-0.020696191 0.068764769 0.70100003
-0.019416193 0.068960957 0.70300001
-0.018102858 0.069059052 0.70400006
-0.016785715 0.069157146 0.70500004
-0.015442858 0.069157146 0.70500004
-0.014140001 0.069353335 0.70700002
-0.077542864 0.070800006 0.708
-0.076194294 0.070800006 0.708
-0.074740008 0.070700005 0.70700002
-0.07318572 0.070500001 0.70500004
-0.071842864 0.070500001 0.70500004
-0.070100002 0.070100002 0.70100003
-0.068666674 0.070000008 0.70000005
-0.067140959 0.069800004 0.69800001
-0.065717146 0.069700003 0.69700003
-0.064204767 0.069500007 0.69500005
-0.062880956 0.069500007 0.69500005
-0.061468575 0.069400005 0.69400001
-0.060146671 0.069400005 0.69400001
-0.058740005 0.069300003 0.69300002
-0.057254288 0.069100007 0.69100004
-0.055938099 0.069100007 0.69100004
-0.054542862 0.069000006 0.69000006
-0.053228576 0.069000006 0.69000006
-0.05191429 0.069000006 0.69000006
-0.050600003 0.069000006 0.69000006
-0.049285717 0.069000006 0.69000006
-0.047971431 0.069000006 0.69000006
-0.046657145 0.069000006 0.69000006
-0.045342859 0.069000006 0.69000006
-0.044028573 0.069000006 0.69000006
-0.04271429 0.069000006 0.69000006
-0.041400004 0.069000006 0.69000006
-0.040085718 0.069000006 0.69000006
-0.038771432 0.069000006 0.69000006
-0.037457146 0.069000006 0.69000006
-0.03614286 0.069000006 0.69000006
-0.034828573 0.069000006 0.69000006
-0.033514287 0.069000006 0.69000006
-0.032200001 0.069000006 0.69000006
-0.030930478 0.069100007 0.69100004
-0.029742859 0.069400005 0.69400001
-0.028420955 0.069400005 0.69400001
-0.027138097 0.069500007 0.69500005
-0.025814287 0.069500007 0.69500005
-0.024560954 0.069700003 0.69700003
-0.023266668 0.069800004 0.69800001
-0.022000002 0.070000008 0.70000005
-0.020696191 0.070100002 0.70100003
-0.01944381 0.070400007 0.70400006
-0.018102858 0.070400007 0.70400006
-0.016785715 0.070500001 0.70500004
-0.015442858 0.070500001 0.70500004
-0.014140001 0.070700005 0.70700002
-0.076194294 0.072148576 0.708
-0.074740008 0.072046675 0.70700002
-0.073393337 0.072046675 0.70700002
-0.071842864 0.071842864 0.70500004
-0.070100002 0.071435243 0.70100003
-0.068666674 0.071333341 0.70000005
-0.067140959 0.071129531 0.69800001
-0.065717146 0.071027622 0.69700003
-0.064204767 0.070823811 0.69500005
-0.062880956 0.070823811 0.69500005
-0.061557148 0.070823811 0.69500005
-0.060146671 0.070721909 0.69400001
-0.058740005 0.070620008 0.69300002
-0.057420004 0.070620008 0.69300002
-0.055938099 0.070416197 0.69100004
-0.054621909 0.070416197 0.69100004
-0.053228576 0.070314288 0.69000006
-0.05191429 0.070314288 0.69000006
-0.050600003 0.070314288 0.69000006
-0.049285717 0.070314288 0.69000006
-0.047971431 0.070314288 0.69000006
-0.046657145 0.070314288 0.69000006
-0.045342859 0.070314288 0.69000006
-0.044028573 0.070314288 0.69000006
-0.04271429 0.070314288 0.69000006
-0.041400004 0.070314288 0.69000006
-0.040085718 0.070314288 0.69000006
-0.038771432 0.070314288 0.69000006
-0.037457146 0.070314288 0.69000006
-0.03614286 0.070314288 0.69000006
-0.034828573 0.070314288 0.69000006
-0.033514287 0.070314288 0.69000006
-0.032246668 0.070416197 0.69100004
-0.030930478 0.070416197 0.69100004
-0.029742859 0.070721909 0.69400001
-0.028420955 0.070721909 0.69400001
-0.027138097 0.070823811 0.69500005
-0.025888573 0.071027622 0.69700003
-0.024560954 0.071027622 0.69700003
-0.023266668 0.071129531 0.69800001
-0.022000002 0.071333341 0.70000005
-0.020755239 0.071639054 0.70300001
-0.01944381 0.071740955 0.70400006
-0.018128572 0.071842864 0.70500004
-0.016833335 0.072046675 0.70700002
-0.015486668 0.072046675 0.70700002
-0.014160001 0.072148576 0.708
-0.077761911 0.073704764 0.71000004
-0.076409526 0.073704764 0.71000004
-0.074845716 0.073497146 0.708
-0.073393337 0.073393337 0.70700002
-0.071842864 0.07318572 0.70500004
-0.070300005 0.072978102 0.70300001
-0.068764769 0.072770484 0.70100003
-0.067333341 0.072666675 0.70000005
-0.065717146 0.072355241 0.69700003
-0.064389527 0.072355241 0.69700003
-0.062880956 0.072147623 0.69500005
-0.061557148 0.072147623 0.69500005
-0.060233336 0.072147623 0.69500005
-0.058824766 0.072043814 0.69400001
-0.057420004 0.071940005 0.69300002
-0.056100003 0.071940005 0.69300002
-0.054621909 0.071732387 0.69100004
-0.053305719 0.071732387 0.69100004
-0.051989526 0.071732387 0.69100004
-0.050673336 0.071732387 0.69100004
-0.049357146 0.071732387 0.69100004
-0.047971431 0.071628578 0.69000006
-0.046657145 0.071628578 0.69000006
-0.045408573 0.071732387 0.69100004
-0.044092383 0.071732387 0.69100004
-0.042776193 0.071732387 0.69100004
-0.041400004 0.071628578 0.69000006
-0.040085718 0.071628578 0.69000006
-0.038771432 0.071628578 0.69000006
-0.037457146 0.071628578 0.69000006
-0.036195241 0.071732387 0.69100004
-0.034879051 0.071732387 0.69100004
-0.033562858 0.071732387 0.69100004
-0.032246668 0.071732387 0.69100004
-0.031020002 0.071940005 0.69300002
-0.029742859 0.072043814 0.69400001
-0.028420955 0.072043814 0.69400001
-0.027138097 0.072147623 0.69500005
-0.025888573 0.072355241 0.69700003
-0.024596192 0.07245905 0.69800001
-0.023333335 0.072666675 0.70000005
-0.02203143 0.072770484 0.70100003
-0.020755239 0.072978102 0.70300001
-0.019471429 0.07318572 0.70500004
-0.018180002 0.073393337 0.70700002
-0.016857143 0.073497146 0.708
-0.015508573 0.073497146 0.708
-0.014160001 0.073497146 0.708
-0.078200005 0.075480007 0.71400005
-0.076840006 0.075480007 0.71400005
-0.074740008 0.074740008 0.70700002
-0.073393337 0.074740008 0.70700002
-0.071842864 0.074528575 0.70500004
-0.070400007 0.074422859 0.70400006
-0.068764769 0.074105717 0.70100003
-0.067333341 0.074000008 0.70000005
-0.065811433 0.073788576 0.69800001
-0.064389527 0.07368286 0.69700003
-0.063061908 0.07368286 0.69700003
-0.061734289 0.07368286 0.69700003
-0.060233336 0.073471434 0.69500005
-0.058909528 0.073471434 0.69500005
-0.057502862 0.073365718 0.69400001
-0.056180958 0.073365718 0.69400001
-0.054780003 0.073260002 0.69300002
-0.053305719 0.073048577 0.69100004
-0.051989526 0.073048577 0.69100004
-0.050673336 0.073048577 0.69100004
-0.049357146 0.073048577 0.69100004
-0.048040956 0.073048577 0.69100004
-0.046724766 0.073048577 0.69100004
-0.045408573 0.073048577 0.69100004
-0.044092383 0.073048577 0.69100004
-0.042776193 0.073048577 0.69100004
-0.041460004 0.073048577 0.69100004
-0.040143814 0.073048577 0.69100004
-0.03882762 0.073048577 0.69100004
-0.037511431 0.073048577 0.69100004
-0.036195241 0.073048577 0.69100004
-0.034879051 0.073048577 0.69100004
-0.033562858 0.073048577 0.69100004
-0.032246668 0.073048577 0.69100004
-0.031020002 0.073260002 0.69300002
-0.029742859 0.073365718 0.69400001
-0.028461907 0.073471434 0.69500005
-0.027138097 0.073471434 0.69500005
-0.025925716 0.073788576 0.69800001
-0.024666669 0.074000008 0.70000005
-0.023366667 0.074105717 0.70100003
-0.02203143 0.074105717 0.70100003
-0.020755239 0.07431715 0.70300001
-0.019471429 0.074528575 0.70500004
-0.018180002 0.074740008 0.70700002
-0.016857143 0.074845716 0.708
-0.015508573 0.074845716 0.708
-0.014160001 0.074845716 0.708
-0.078200005 0.076840006 0.71400005
-0.076840006 0.076840006 0.71400005
-0.075480007 0.076840006 0.71400005
-0.073497146 0.076194294 0.708
-0.072046675 0.07608667 0.70700002
-0.070400007 0.075763814 0.70400006
-0.068960957 0.075656198 0.70300001
-0.067429528 0.075440958 0.70100003
-0.066000007 0.075333342 0.70000005
-0.064481907 0.075118102 0.69800001
-0.063061908 0.075010478 0.69700003
-0.061734289 0.075010478 0.69700003
-0.06040667 0.075010478 0.69700003
-0.058909528 0.074795246 0.69500005
-0.057585716 0.074795246 0.69500005
-0.056180958 0.074687622 0.69400001
-0.05485905 0.074687622 0.69400001
-0.053460002 0.074580006 0.69300002
-0.051989526 0.074364766 0.69100004
-0.050820004 0.074580006 0.69300002
-0.049357146 0.074364766 0.69100004
-0.048040956 0.074364766 0.69100004
-0.046724766 0.074364766 0.69100004
-0.045408573 0.074364766 0.69100004
-0.044092383 0.074364766 0.69100004
-0.042776193 0.074364766 0.69100004
-0.041460004 0.074364766 0.69100004
-0.040143814 0.074364766 0.69100004
-0.03882762 0.074364766 0.69100004
-0.037511431 0.074364766 0.69100004
-0.036195241 0.074364766 0.69100004
-0.034879051 0.074364766 0.69100004
-0.033562858 0.074364766 0.69100004
-0.032246668 0.074364766 0.69100004
-0.031020002 0.074580006 0.69300002
-0.029785717 0.074795246 0.69500005
-0.028461907 0.074795246 0.69500005
-0.027216192 0.075010478 0.69700003
-0.025925716 0.075118102 0.69800001
-0.024666669 0.075333342 0.70000005
-0.023366667 0.075440958 0.70100003
-0.022094287 0.075656198 0.70300001
-0.020784764 0.075763814 0.70400006
-0.019471429 0.07587143 0.70500004
-0.018205715 0.076194294 0.708
-0.016857143 0.076194294 0.708
-0.015552382 0.076409526 0.71000004
-0.014220001 0.07651715 0.71100003
-0.080117151 0.078747623 0.71900004
-0.078528576 0.078528576 0.71700001
-0.076840006 0.078200005 0.71400005
-0.07537429 0.078090481 0.71300006
-0.073704764 0.077761911 0.71000004
-0.072352387 0.077761911 0.71000004
-0.070800006 0.077542864 0.708
-0.069059052 0.07710477 0.70400006
-0.067621909 0.076995246 0.70300001
-0.066282861 0.076995246 0.70300001
-0.064759053 0.076776199 0.70100003
-0.06333334 0.076666668 0.70000005
-0.061822861 0.076447621 0.69800001
-0.06040667 0.076338097 0.69700003
-0.059079051 0.076338097 0.69700003
-0.057585716 0.07611905 0.69500005
-0.056261908 0.07611905 0.69500005
-0.0549381 0.07611905 0.69500005
-0.053614289 0.07611905 0.69500005
-0.052215241 0.076009527 0.69400001
-0.050893337 0.076009527 0.69400001
-0.049571432 0.076009527 0.69400001
-0.048249528 0.076009527 0.69400001
-0.046927623 0.076009527 0.69400001
-0.045605719 0.076009527 0.69400001
-0.044283811 0.076009527 0.69400001
-0.042961907 0.076009527 0.69400001
-0.041580003 0.075900003 0.69300002
-0.040260002 0.075900003 0.69300002
-0.038940001 0.075900003 0.69300002
-0.037620004 0.075900003 0.69300002
-0.036300004 0.075900003 0.69300002
-0.034980003 0.075900003 0.69300002
-0.033660002 0.075900003 0.69300002
-0.032340001 0.075900003 0.69300002
-0.031064764 0.076009527 0.69400001
-0.029785717 0.07611905 0.69500005
-0.028543811 0.076338097 0.69700003
-0.027216192 0.076338097 0.69700003
-0.026000002 0.076666668 0.70000005
-0.024701906 0.076776199 0.70100003
-0.023433335 0.076995246 0.70300001
-0.022125715 0.07710477 0.70400006
-0.020814287 0.077214293 0.70500004
-0.019554287 0.077542864 0.708
-0.018205715 0.077542864 0.708
-0.016904764 0.077761911 0.71000004
-0.015552382 0.077761911 0.71000004
-0.014220001 0.077871434 0.71100003
-0.078419052 0.079782866 0.71600002
-0.076840006 0.079560004 0.71400005
-0.07537429 0.079448573 0.71300006
-0.073808573 0.079225719 0.71100003
-0.072148576 0.078891434 0.708
-0.070800006 0.078891434 0.708
-0.069353335 0.078780003 0.70700002
-0.067718096 0.078445718 0.70400006
-0.066282861 0.078334294 0.70300001
-0.064759053 0.078111432 0.70100003
-0.06333334 0.078000002 0.70000005
-0.061822861 0.077777147 0.69800001
-0.060493339 0.077777147 0.69800001
-0.059079051 0.077665716 0.69700003
-0.057751432 0.077665716 0.69700003
-0.056261908 0.077442862 0.69500005
-0.0549381 0.077442862 0.69500005
-0.053614289 0.077442862 0.69500005
-0.052290481 0.077442862 0.69500005
-0.050966669 0.077442862 0.69500005
-0.049571432 0.077331431 0.69400001
-0.048249528 0.077331431 0.69400001
-0.046927623 0.077331431 0.69400001
-0.045605719 0.077331431 0.69400001
-0.044283811 0.077331431 0.69400001
-0.042961907 0.077331431 0.69400001
-0.041640002 0.077331431 0.69400001
-0.040318098 0.077331431 0.69400001
-0.038996194 0.077331431 0.69400001
-0.037674289 0.077331431 0.69400001
-0.036352385 0.077331431 0.69400001
-0.035030477 0.077331431 0.69400001
-0.033708572 0.077331431 0.69400001
-0.032386668 0.077331431 0.69400001
-0.031064764 0.077331431 0.69400001
-0.029785717 0.077442862 0.69500005
-0.028584763 0.077777147 0.69800001
-0.027255239 0.077777147 0.69800001
-0.026037145 0.078111432 0.70100003
-0.024772383 0.078334294 0.70300001
-0.023433335 0.078334294 0.70300001
-0.022125715 0.078445718 0.70400006
-0.020814287 0.078557149 0.70500004
-0.019554287 0.078891434 0.708
-0.018257145 0.079114288 0.71000004
-0.016904764 0.079114288 0.71000004
-0.015574287 0.079225719 0.71100003
-0.014260001 0.079448573 0.71300006
-0.079560004 0.080920003 0.71400005
-0.078200005 0.080920003 0.71400005
-0.076840006 0.080920003 0.71400005
-0.07537429 0.080806673 0.71300006
-0.073808573 0.080580004 0.71100003
-0.072454289 0.080580004 0.71100003
-0.071000002 0.080466673 0.71000004
-0.069451436 0.080240004 0.708
-0.067814291 0.079900004 0.70500004
-0.066282861 0.079673335 0.70300001
-0.064759053 0.079446673 0.70100003
-0.063423812 0.079446673 0.70100003
-0.062088575 0.079446673 0.70100003
-0.060666669 0.079333335 0.70000005
-0.059163813 0.079106674 0.69800001
-0.057751432 0.078993335 0.69700003
-0.056423813 0.078993335 0.69700003
-0.055096194 0.078993335 0.69700003
-0.053614289 0.078766674 0.69500005
-0.052290481 0.078766674 0.69500005
-0.050966669 0.078766674 0.69500005
-0.049642861 0.078766674 0.69500005
-0.048249528 0.078653336 0.69400001
-0.046927623 0.078653336 0.69400001
-0.045605719 0.078653336 0.69400001
-0.044283811 0.078653336 0.69400001
-0.043023814 0.078766674 0.69500005
-0.041640002 0.078653336 0.69400001
-0.040318098 0.078653336 0.69400001
-0.038996194 0.078653336 0.69400001
-0.037728574 0.078766674 0.69500005
-0.036404766 0.078766674 0.69500005
-0.035080954 0.078766674 0.69500005
-0.033757146 0.078766674 0.69500005
-0.032433335 0.078766674 0.69500005
-0.031109527 0.078766674 0.69500005
-0.029785717 0.078766674 0.69500005
-0.028584763 0.079106674 0.69800001
-0.027333336 0.079333335 0.70000005
-0.026037145 0.079446673 0.70100003
-0.024772383 0.079673335 0.70300001
-0.023466669 0.079786673 0.70400006
-0.022157144 0.079900004 0.70500004
-0.020873334 0.080126673 0.70700002
-0.019609526 0.080466673 0.71000004
-0.018282859 0.080580004 0.71100003
-0.016928572 0.080580004 0.71100003
-0.015618096 0.080806673 0.71300006
-0.014280001 0.080920003 0.71400005
-0.078200005 0.082280003 0.71400005
-0.076840006 0.082280003 0.71400005
-0.07537429 0.082164764 0.71300006
-0.073808573 0.081934288 0.71100003
-0.072658099 0.082164764 0.71300006
-0.071100004 0.081934288 0.71100003
-0.069451436 0.081588574 0.708
-0.068006672 0.081473336 0.70700002
-0.066471435 0.081242859 0.70500004
-0.065036193 0.081127621 0.70400006
-0.063604765 0.081012383 0.70300001
-0.062088575 0.080781907 0.70100003
-0.060666669 0.080666669 0.70000005
-0.059163813 0.080436192 0.69800001
-0.05783429 0.080436192 0.69800001
-0.056423813 0.080320954 0.69700003
-0.055096194 0.080320954 0.69700003
-0.053768575 0.080320954 0.69700003
-0.052290481 0.080090478 0.69500005
-0.050966669 0.080090478 0.69500005
-0.049642861 0.080090478 0.69500005
-0.048319049 0.080090478 0.69500005
-0.046995241 0.080090478 0.69500005
-0.045671433 0.080090478 0.69500005
-0.044347622 0.080090478 0.69500005
-0.043023814 0.080090478 0.69500005
-0.041700002 0.080090478 0.69500005
-0.040376194 0.080090478 0.69500005
-0.039052382 0.080090478 0.69500005
-0.037728574 0.080090478 0.69500005
-0.036404766 0.080090478 0.69500005
-0.035080954 0.080090478 0.69500005
-0.033757146 0.080090478 0.69500005
-0.032433335 0.080090478 0.69500005
-0.031199049 0.080320954 0.69700003
-0.02987143 0.080320954 0.69700003
-0.028584763 0.080436192 0.69800001
-0.027372383 0.080781907 0.70100003
-0.026037145 0.080781907 0.70100003
-0.024772383 0.081012383 0.70300001
-0.023466669 0.081127621 0.70400006
-0.022220001 0.081473336 0.70700002
-0.020902859 0.081588574 0.708
-0.019637143 0.081934288 0.71100003
-0.018334286 0.082164764 0.71300006
-0.016976191 0.082164764 0.71300006
-0.015618096 0.082164764 0.71300006
-0.014280001 0.082280003 0.71400005
-0.012920001 0.082280003 0.71400005
-0.01156 0.082280003 0.71400005
-0.077162862 0.083991431 0.71700001
-0.075480007 0.083640009 0.71400005
-0.074016199 0.083522864 0.71300006
-0.072658099 0.083522864 0.71300006
-0.071300007 0.083522864 0.71300006
-0.069941908 0.083522864 0.71300006
-0.068391435 0.08328858 0.71100003
-0.066660002 0.082820006 0.70700002
-0.065128572 0.082585722 0.70500004
-0.063604765 0.082351431 0.70300001
-0.06226572 0.082351431 0.70300001
-0.060753338 0.082117148 0.70100003
-0.059418101 0.082117148 0.70100003
-0.058000002 0.082000002 0.70000005
-0.056504767 0.081765719 0.69800001
-0.055175241 0.081765719 0.69800001
-0.053768575 0.081648573 0.69700003
-0.052440956 0.081648573 0.69700003
-0.051113337 0.081648573 0.69700003
-0.049785718 0.081648573 0.69700003
-0.048458099 0.081648573 0.69700003
-0.046995241 0.08141429 0.69500005
-0.045671433 0.08141429 0.69500005
-0.044347622 0.08141429 0.69500005
-0.043023814 0.08141429 0.69500005
-0.041700002 0.08141429 0.69500005
-0.040376194 0.08141429 0.69500005
-0.039052382 0.08141429 0.69500005
-0.037837144 0.081648573 0.69700003
-0.036509525 0.081648573 0.69700003
-0.035181906 0.081648573 0.69700003
-0.033854287 0.081648573 0.69700003
-0.032526668 0.081648573 0.69700003
-0.031199049 0.081648573 0.69700003
-0.029914288 0.081765719 0.69800001
-0.028666668 0.082000002 0.70000005
-0.027372383 0.082117148 0.70100003
-0.02611143 0.082351431 0.70300001
-0.024772383 0.082351431 0.70300001
-0.023433335 0.082351431 0.70300001
-0.022157144 0.082585722 0.70500004
-0.020902859 0.082937151 0.708
-0.019692382 0.083522864 0.71300006
-0.018334286 0.083522864 0.71300006
-0.016976191 0.083522864 0.71300006
-0.015640002 0.083640009 0.71400005
-0.014280001 0.083640009 0.71400005
-0.012920001 0.083640009 0.71400005
-0.077162862 0.085357152 0.71700001
-0.075480007 0.085000008 0.71400005
-0.074120007 0.085000008 0.71400005
-0.072760008 0.085000008 0.71400005
-0.071400002 0.085000008 0.71400005
-0.069941908 0.084880956 0.71300006
-0.068391435 0.084642865 0.71100003
-0.066660002 0.084166676 0.70700002
-0.065128572 0.083928578 0.70500004
-0.063695244 0.083809532 0.70400006
-0.06226572 0.083690479 0.70300001
-0.060926672 0.083690479 0.70300001
-0.059418101 0.083452389 0.70100003
-0.05808286 0.083452389 0.70100003
-0.056504767 0.083095245 0.69800001
-0.055175241 0.083095245 0.69800001
-0.053845719 0.083095245 0.69800001
-0.052440956 0.082976192 0.69700003
-0.051113337 0.082976192 0.69700003
-0.049785718 0.082976192 0.69700003
-0.048458099 0.082976192 0.69700003
-0.04713048 0.082976192 0.69700003
-0.045802861 0.082976192 0.69700003
-0.044475242 0.082976192 0.69700003
-0.043147624 0.082976192 0.69700003
-0.041820005 0.082976192 0.69700003
-0.040492382 0.082976192 0.69700003
-0.039164763 0.082976192 0.69700003
-0.037837144 0.082976192 0.69700003
-0.036509525 0.082976192 0.69700003
-0.035181906 0.082976192 0.69700003
-0.033854287 0.082976192 0.69700003
-0.032573335 0.083095245 0.69800001
-0.031243812 0.083095245 0.69800001
-0.030000001 0.083333336 0.70000005
-0.028707622 0.083452389 0.70100003
-0.027372383 0.083452389 0.70100003
-0.02611143 0.083690479 0.70300001
-0.024807621 0.083809532 0.70400006
-0.023466669 0.083809532 0.70400006
-0.022220001 0.084166676 0.70700002
-0.02099143 0.084642865 0.71100003
-0.019720001 0.085000008 0.71400005
-0.018360002 0.085000008 0.71400005
-0.017000001 0.085000008 0.71400005
-0.015640002 0.085000008 0.71400005
-0.014320001 0.085238099 0.71600002
-0.012956192 0.085238099 0.71600002
-0.076840006 0.086360008 0.71400005
-0.075480007 0.086360008 0.71400005
-0.074120007 0.086360008 0.71400005
-0.072760008 0.086360008 0.71400005
-0.071400002 0.086360008 0.71400005
-0.069941908 0.086239055 0.71300006
-0.068391435 0.085997149 0.71100003
-0.066754289 0.085634291 0.708
-0.065313339 0.085513338 0.70700002
-0.063695244 0.08515048 0.70400006
-0.062354289 0.08515048 0.70400006
-0.060926672 0.085029528 0.70300001
-0.059587624 0.085029528 0.70300001
-0.05808286 0.084787622 0.70100003
-0.056747623 0.084787622 0.70100003
-0.055333339 0.084666669 0.70000005
-0.054000005 0.084666669 0.70000005
-0.052516192 0.084424764 0.69800001
-0.05118667 0.084424764 0.69800001
-0.049785718 0.084303819 0.69700003
-0.048458099 0.084303819 0.69700003
-0.04713048 0.084303819 0.69700003
-0.045802861 0.084303819 0.69700003
