# .PCD v0.7 - Point Cloud Data file format
VERSION 0.7
FIELDS x y z
SIZE 4 4 4
TYPE F F F
COUNT 1 1 1
WIDTH 1410
HEIGHT 1
VIEWPOINT 0 0 0 1 0 0 0
POINTS 1410
DATA ascii
-0.43187907 0.050947621 0.82300001
-0.43031147 0.050947621 0.82300001
-0.37683335 0.042433336 0.66500002
-0.37556669 0.042433336 0.66500002
-0.37430003 0.042433336 0.66500002
-0.37583813 0.042752385 0.67000002
-0.37456194 0.042752385 0.67000002
-0.37328574 0.042752385 0.67000002
-0.3742305 0.043007623 0.67400002
-0.37294668 0.043007623 0.67400002
-0.37166288 0.043007623 0.67400002
-0.37147811 0.043135241 0.67600006
-0.37183335 0.043326668 0.67900002
-0.37108573 0.043390479 0.68000001
-0.36979049 0.043390479 0.68000001
-0.36957908 0.0435181 0.68200004
-0.36698097 0.0435181 0.68200004
-0.42926574 0.052387621 0.82100004
-0.37443715 0.043568574 0.66300005
-0.37542573 0.04383143 0.66700006
-0.37527716 0.043962859 0.66900003
-0.37400287 0.043962859 0.66900003
-0.37328574 0.044028573 0.67000002
-0.37200955 0.044028573 0.67000002
-0.37184003 0.044160005 0.67200005
-0.37056002 0.044160005 0.67200005
-0.37147811 0.044422861 0.67600006
-0.3701905 0.044422861 0.67600006
-0.37108573 0.044685718 0.68000001
-0.36707145 0.044357147 0.67500001
-0.37012097 0.04488286 0.68300003
-0.42822003 0.053820003 0.81900007
-0.37486288 0.045034289 0.66600001
-0.37527716 0.045237146 0.66900003
-0.37400287 0.045237146 0.66900003
-0.37272859 0.045237146 0.66900003
-0.3714543 0.045237146 0.66900003
-0.37128669 0.045372386 0.671
-0.36945716 0.045304764 0.67000002
-0.37402382 0.046183813 0.68300003
-0.37272289 0.046183813 0.68300003
-0.37142193 0.046183813 0.68300003
-0.37012097 0.046183813 0.68300003
-0.4271743 0.055244766 0.81700003
-0.37443715 0.046094287 0.66300005
-0.37430003 0.046233337 0.66500002
-0.37359431 0.046302859 0.66600001
-0.37232575 0.046302859 0.66600001
-0.37161431 0.046372384 0.66700006
-0.37034383 0.046372384 0.66700006
-0.37073335 0.046580955 0.67000002
-0.36945716 0.046580955 0.67000002
-0.36818099 0.046580955 0.67000002
-0.37272289 0.047484767 0.68300003
-0.37142193 0.047484767 0.68300003
-0.37066287 0.047554288 0.68400002
-0.37443715 0.047357146 0.66300005
-0.37317431 0.047357146 0.66300005
-0.37303334 0.047500003 0.66500002
-0.37176669 0.047500003 0.66500002
-0.37050003 0.047500003 0.66500002
-0.37034383 0.047642861 0.66700006
-0.37018001 0.047785718 0.66900003
-0.37196574 0.048857145 0.68400002
-0.37066287 0.048857145 0.68400002
-0.37317431 0.048620004 0.66300005
-0.3713505 0.048546668 0.66200006
-0.37008956 0.048546668 0.66200006
-0.37050003 0.048766669 0.66500002
-0.36978859 0.048840005 0.66600001
-0.37018001 0.049060002 0.66900003
-0.37317431 0.049882859 0.66300005
-0.37303334 0.050033338 0.66500002
-0.37176669 0.050033338 0.66500002
-0.37105715 0.050108574 0.66600001
-0.37317431 0.051145718 0.66300005
-0.37191147 0.051145718 0.66300005
-0.37176669 0.051300004 0.66500002
-0.37105715 0.051377147 0.66600001
-0.36541337 0.05955429 0.77200001
-0.37317431 0.052408576 0.66300005
-0.37303334 0.05256667 0.66500002
-0.37176669 0.05256667 0.66500002
-0.37105715 0.052645717 0.66600001
-0.37180004 0.060866669 0.77000004
-0.36937144 0.060708575 0.76800001
-0.3679086 0.060708575 0.76800001
-0.36740002 0.060866669 0.77000004
-0.36593336 0.060866669 0.77000004
-0.36541337 0.061024766 0.77200001
-0.3738724 0.05359048 0.66200006
-0.37317431 0.053671431 0.66300005
-0.37191147 0.053671431 0.66300005
-0.37176669 0.053833336 0.66500002
-0.37105715 0.05391429 0.66600001
-0.3732667 0.062333338 0.77000004
-0.37083432 0.062171433 0.76800001
-0.36937144 0.062171433 0.76800001
-0.3679086 0.062171433 0.76800001
-0.36740002 0.062333338 0.77000004
-0.36593336 0.062333338 0.77000004
-0.36352003 0.062171433 0.76800001
-0.36158574 0.062090479 0.76700002
-0.35918573 0.061928574 0.76500005
-0.3804886 0.066138096 0.81700003
-0.37986001 0.066300005 0.81900007
-0.37330765 0.054768573 0.66100001
-0.37261146 0.054851431 0.66200006
-0.37191147 0.054934289 0.66300005
-0.37176669 0.055100005 0.66500002
-0.37180004 0.063800007 0.77000004
-0.36937144 0.063634291 0.76800001
-0.3679086 0.063634291 0.76800001
-0.36644575 0.063634291 0.76800001
-0.36593336 0.063800007 0.77000004
-0.36304668 0.063551433 0.76700002
-0.36064288 0.063385718 0.76500005
-0.35918573 0.063385718 0.76500005
-0.36006668 0.063800007 0.77000004
-0.35860002 0.063800007 0.77000004
-0.35806099 0.063965715 0.77200001
-0.37490001 0.067528576 0.81500006
-0.37274289 0.05594286 0.66000003
-0.37204859 0.056027621 0.66100001
-0.37191147 0.056197148 0.66300005
-0.37176669 0.056366671 0.66500002
-0.36742955 0.065012388 0.76700002
-0.36501431 0.064842865 0.76500005
-0.36355716 0.064842865 0.76500005
-0.36304668 0.065012388 0.76700002
-0.36064288 0.064842865 0.76500005
-0.35918573 0.064842865 0.76500005
-0.35913146 0.065097146 0.76800001
-0.35766861 0.065097146 0.76800001
-0.35713336 0.065266669 0.77000004
-0.37274289 0.057200003 0.66000003
-0.37204859 0.057286669 0.66100001
-0.37191147 0.057460003 0.66300005
-0.37176669 0.057633337 0.66500002
-0.36551335 0.066126674 0.76300001
-0.36501431 0.066300005 0.76500005
-0.36355716 0.066300005 0.76500005
-0.36304668 0.066473335 0.76700002
-0.36158574 0.066473335 0.76700002
-0.3601248 0.066473335 0.76700002
-0.36006668 0.066733338 0.77000004
-0.35953146 0.066906668 0.77200001
-0.3585248 0.066993341 0.77300006
-0.35207146 0.067166671 0.77500004
-0.34764287 0.067166671 0.77500004
-0.3448267 0.066906668 0.77200001
-0.34380096 0.066993341 0.77300006
-0.37286669 0.058280002 0.65800005
-0.37274289 0.058457147 0.66000003
-0.37204859 0.05854572 0.66100001
-0.37615144 0.067402862 0.76100004
-0.37470192 0.067402862 0.76100004
-0.37325239 0.067402862 0.76100004
-0.3718029 0.067402862 0.76100004
-0.37035337 0.067402862 0.76100004
-0.36744955 0.067137145 0.75800002
-0.36600575 0.067137145 0.75800002
-0.36552384 0.06731429 0.76000005
-0.36455527 0.067402862 0.76100004
-0.36406001 0.067580007 0.76300001
-0.36355716 0.067757145 0.76500005
-0.36210003 0.067757145 0.76500005
-0.36064288 0.067757145 0.76500005
-0.35918573 0.067757145 0.76500005
-0.35913146 0.068022862 0.76800001
-0.35860002 0.068200007 0.77000004
-0.35806099 0.068377145 0.77200001
-0.34843716 0.06793429 0.76700002
-0.34697622 0.06793429 0.76700002
-0.34551525 0.06793429 0.76700002
-0.34405431 0.06793429 0.76700002
-0.34304002 0.068022862 0.76800001
-0.34157717 0.068022862 0.76800001
-0.34100002 0.068200007 0.77000004
-0.34041527 0.068377145 0.77200001
-0.37656003 0.068400003 0.75600004
-0.3761124 0.068580955 0.75800002
-0.37565717 0.068761908 0.76000005
-0.37322479 0.068580955 0.75800002
-0.37178099 0.068580955 0.75800002
-0.37131432 0.068761908 0.76000005
-0.36889336 0.068580955 0.75800002
-0.36744955 0.068580955 0.75800002
-0.36600575 0.068580955 0.75800002
-0.36456192 0.068580955 0.75800002
-0.36407623 0.068761908 0.76000005
-0.36406001 0.06903334 0.76300001
-0.3626067 0.06903334 0.76300001
-0.36210003 0.069214292 0.76500005
-0.36064288 0.069214292 0.76500005
-0.35918573 0.069214292 0.76500005
-0.35913146 0.069485717 0.76800001
-0.35035431 0.069485717 0.76800001
-0.34843716 0.069395244 0.76700002
-0.34607145 0.069214292 0.76500005
-0.3446143 0.069214292 0.76500005
-0.34315717 0.069214292 0.76500005
-0.34259334 0.069395244 0.76700002
-0.3411324 0.069395244 0.76700002
-0.3401143 0.069485717 0.76800001
-0.33865145 0.069485717 0.76800001
-0.37656003 0.069840007 0.75600004
-0.37512001 0.069840007 0.75600004
-0.3746686 0.070024766 0.75800002
-0.37322479 0.070024766 0.75800002
-0.37178099 0.070024766 0.75800002
-0.37033716 0.070024766 0.75800002
-0.36889336 0.070024766 0.75800002
-0.36744955 0.070024766 0.75800002
-0.36504003 0.069840007 0.75600004
-0.36360002 0.069840007 0.75600004
-0.36311811 0.070024766 0.75800002
-0.36310574 0.070301913 0.76100004
-0.36165622 0.070301913 0.76100004
-0.36115336 0.070486672 0.76300001
-0.36064288 0.070671432 0.76500005
-0.35918573 0.070671432 0.76500005
-0.35044289 0.070671432 0.76500005
-0.34898573 0.070671432 0.76500005
-0.34752861 0.070671432 0.76500005
-0.34607145 0.070671432 0.76500005
-0.3446143 0.070671432 0.76500005
-0.34315717 0.070671432 0.76500005
-0.34170002 0.070671432 0.76500005
-0.3411324 0.070856199 0.76700002
-0.33967146 0.070856199 0.76700002
-0.33865145 0.070948578 0.76800001
-0.37684956 0.070525721 0.74800003
-0.37542477 0.070525721 0.74800003
-0.37600002 0.070902862 0.75200003
-0.37656003 0.071280003 0.75600004
-0.37512001 0.071280003 0.75600004
-0.3746686 0.071468577 0.75800002
-0.37322479 0.071468577 0.75800002
-0.37178099 0.071468577 0.75800002
-0.37033716 0.071468577 0.75800002
-0.36889336 0.071468577 0.75800002
-0.36648002 0.071280003 0.75600004
-0.36455718 0.071185715 0.75500005
-0.36215717 0.070997149 0.75300002
-0.36216003 0.071280003 0.75600004
-0.36072004 0.071280003 0.75600004
-0.35928002 0.071280003 0.75600004
-0.3587867 0.071468577 0.75800002
-0.35875717 0.071751431 0.76100004
-0.35824668 0.071940005 0.76300001
-0.3495267 0.071940005 0.76300001
-0.34807336 0.071940005 0.76300001
-0.34662002 0.071940005 0.76300001
-0.34516668 0.071940005 0.76300001
-0.3446143 0.072128579 0.76500005
-0.34315717 0.072128579 0.76500005
-0.34170002 0.072128579 0.76500005
-0.34024289 0.072128579 0.76500005
-0.33967146 0.072317146 0.76700002
-0.33821049 0.072317146 0.76700002
-0.3371886 0.072411433 0.76800001
-0.37533811 0.071661912 0.74500006
-0.37542477 0.07195048 0.74800003
-0.37600002 0.072335243 0.75200003
-0.37606192 0.072623812 0.75500005
-0.37462384 0.072623812 0.75500005
-0.3746686 0.072912388 0.75800002
-0.37322479 0.072912388 0.75800002
-0.36792001 0.072720006 0.75600004
-0.36359146 0.07243143 0.75300002
-0.36215717 0.07243143 0.75300002
-0.36168098 0.072623812 0.75500005
-0.3592886 0.07243143 0.75300002
-0.35785431 0.07243143 0.75300002
-0.35642001 0.07243143 0.75300002
-0.35875717 0.073200956 0.76100004
-0.35730764 0.073200956 0.76100004
-0.34571144 0.073200956 0.76100004
-0.34516668 0.073393337 0.76300001
-0.34371334 0.073393337 0.76300001
-0.34315717 0.073585719 0.76500005
-0.34170002 0.073585719 0.76500005
-0.34024289 0.073585719 0.76500005
-0.33878574 0.073585719 0.76500005
-0.33821049 0.0737781 0.76700002
-0.33674955 0.0737781 0.76700002
-0.37817621 0.073080957 0.74500006
-0.37675717 0.073080957 0.74500006
-0.37533811 0.073080957 0.74500006
-0.37492287 0.073277146 0.74700004
-0.37500003 0.073571436 0.75000006
-0.37456766 0.073767625 0.75200003
-0.37363145 0.073865719 0.75300002
-0.37318572 0.074061908 0.75500005
-0.36359146 0.073865719 0.75300002
-0.36167622 0.073767625 0.75200003
-0.36072287 0.073865719 0.75300002
-0.35881144 0.073767625 0.75200003
-0.35785431 0.073865719 0.75300002
-0.35642001 0.073865719 0.75300002
-0.35498574 0.073865719 0.75300002
-0.35589907 0.074356198 0.75800002
-0.34670478 0.074552387 0.76000005
-0.34525716 0.074552387 0.76000005
-0.34426191 0.074650481 0.76100004
-0.34371334 0.07484667 0.76300001
-0.34226003 0.07484667 0.76300001
-0.34080669 0.07484667 0.76300001
-0.33935335 0.07484667 0.76300001
-0.33790001 0.07484667 0.76300001
-0.3364467 0.07484667 0.76300001
-0.33587146 0.075042859 0.76500005
-0.37675717 0.074500002 0.74500006
-0.37634575 0.074700005 0.74700004
-0.37492287 0.074700005 0.74700004
-0.37400001 0.074800007 0.74800003
-0.37357146 0.075000003 0.75000006
-0.37313527 0.075200006 0.75200003
-0.36310861 0.075200006 0.75200003
-0.36167622 0.075200006 0.75200003
-0.36024383 0.075200006 0.75200003
-0.35881144 0.075200006 0.75200003
-0.35737908 0.075200006 0.75200003
-0.35594669 0.075200006 0.75200003
-0.35498574 0.075300008 0.75300002
-0.35449049 0.075500004 0.75500005
-0.35352004 0.075600006 0.75600004
-0.34488001 0.075600006 0.75600004
-0.34434858 0.075800002 0.75800002
-0.34380955 0.076000005 0.76000005
-0.34281239 0.076100007 0.76100004
-0.34136289 0.076100007 0.76100004
-0.33991337 0.076100007 0.76100004
-0.33846384 0.076100007 0.76100004
-0.33701432 0.076100007 0.76100004
-0.33556479 0.076100007 0.76100004
-0.37533811 0.075919054 0.74500006
-0.37391907 0.075919054 0.74500006
-0.37257525 0.076224767 0.74800003
-0.37214288 0.076428577 0.75000006
-0.36167622 0.076632388 0.75200003
-0.36024383 0.076632388 0.75200003
-0.35881144 0.076632388 0.75200003
-0.35737908 0.076632388 0.75200003
-0.35642001 0.07673429 0.75300002
-0.3559286 0.0769381 0.75500005
-0.35449049 0.0769381 0.75500005
-0.35352004 0.077040002 0.75600004
-0.3516143 0.0769381 0.75500005
-0.35017622 0.0769381 0.75500005
-0.34920001 0.077040002 0.75600004
-0.34730002 0.0769381 0.75500005
-0.34632003 0.077040002 0.75600004
-0.34488001 0.077040002 0.75600004
-0.34434858 0.077243812 0.75800002
-0.34380955 0.077447623 0.76000005
-0.34236193 0.077447623 0.76000005
-0.34091431 0.077447623 0.76000005
-0.33991337 0.077549532 0.76100004
-0.33801907 0.077447623 0.76000005
-0.33568573 0.077243812 0.75800002
-0.33512384 0.077447623 0.76000005
-0.37214288 0.077857152 0.75000006
-0.36167622 0.07806477 0.75200003
-0.36024383 0.07806477 0.75200003
-0.35881144 0.07806477 0.75200003
-0.35785431 0.078168578 0.75300002
-0.35642001 0.078168578 0.75300002
-0.3559286 0.078376196 0.75500005
-0.35449049 0.078376196 0.75500005
-0.35305241 0.078376196 0.75500005
-0.3516143 0.078376196 0.75500005
-0.35017622 0.078376196 0.75500005
-0.3487381 0.078376196 0.75500005
-0.34586194 0.078376196 0.75500005
-0.34442383 0.078376196 0.75500005
-0.34344003 0.078480005 0.75600004
-0.34290478 0.078687623 0.75800002
-0.34146097 0.078687623 0.75800002
-0.34001717 0.078687623 0.75800002
-0.33857337 0.078687623 0.75800002
-0.33712953 0.078687623 0.75800002
-0.33480003 0.078480005 0.75600004
-0.36167622 0.079497151 0.75200003
-0.36024383 0.079497151 0.75200003
-0.3592886 0.07960286 0.75300002
-0.35785431 0.07960286 0.75300002
-0.35642001 0.07960286 0.75300002
-0.3559286 0.079814292 0.75500005
-0.35449049 0.079814292 0.75500005
-0.35305241 0.079814292 0.75500005
-0.3516143 0.079814292 0.75500005
-0.35017622 0.079814292 0.75500005
-0.34442383 0.079814292 0.75500005
-0.34298575 0.079814292 0.75500005
-0.34200001 0.079920009 0.75600004
-0.34056002 0.079920009 0.75600004
-0.33912003 0.079920009 0.75600004
-0.33768001 0.079920009 0.75600004
-0.33624002 0.079920009 0.75600004
-0.33480003 0.079920009 0.75600004
-0.35881144 0.080929533 0.75200003
-0.35785431 0.081037149 0.75300002
-0.35642001 0.081037149 0.75300002
-0.35449049 0.081252389 0.75500005
-0.35305241 0.081252389 0.75500005
-0.34305525 0.080929533 0.75200003
-0.34298575 0.081252389 0.75500005
-0.34154764 0.081252389 0.75500005
-0.34010956 0.081252389 0.75500005
-0.33867145 0.081252389 0.75500005
-0.33768001 0.081360005 0.75600004
-0.33624002 0.081360005 0.75600004
-0.33435717 0.081252389 0.75500005
-0.34154764 0.082690485 0.75500005
-0.34010956 0.082690485 0.75500005
-0.33867145 0.082690485 0.75500005
-0.33768001 0.082800008 0.75600004
-0.33624002 0.082800008 0.75600004
-0.33480003 0.082800008 0.75600004
-0.33912003 0.084240004 0.75600004
-0.36622953 0.10243715 0.70300001
-0.36489049 0.10243715 0.70300001
-0.36362478 0.1030381 0.69800001
-0.3617762 0.10289048 0.69700003
-0.3604486 0.10289048 0.69700003
-0.35912097 0.10289048 0.69700003
-0.36443144 0.1042181 0.69700003
-0.36310384 0.1042181 0.69700003
-0.3617762 0.1042181 0.69700003
-0.35941431 0.10391905 0.69500005
-0.35757527 0.10376953 0.69400001
-0.35625336 0.10376953 0.69400001
-0.36338574 0.10524286 0.69500005
-0.36310384 0.10554572 0.69700003
-0.36073813 0.10524286 0.69500005
-0.35889718 0.10509144 0.69400001
-0.35706002 0.10494 0.69300002
-0.35574001 0.10494 0.69300002
-0.36575907 0.10687334 0.69700003
-0.36338574 0.10656668 0.69500005
-0.36206192 0.10656668 0.69500005
-0.36073813 0.10656668 0.69500005
-0.35889718 0.10641334 0.69400001
-0.35706002 0.10626001 0.69300002
-0.35574001 0.10626001 0.69300002
-0.35493144 0.10641334 0.69400001
-0.36286288 0.10773525 0.69400001
-0.36206192 0.10789049 0.69500005
-0.36021906 0.10773525 0.69400001
-0.35889718 0.10773525 0.69400001
-0.35706002 0.10758001 0.69300002
-0.35625336 0.10773525 0.69400001
-0.35442004 0.10758001 0.69300002
-0.36021906 0.10905715 0.69400001
-0.35889718 0.10905715 0.69400001
-0.35706002 0.10890001 0.69300002
-0.35625336 0.10905715 0.69400001
-0.35339716 0.10858572 0.69100004
-0.35310003 0.10890001 0.69300002
-0.3481324 0.10858572 0.69100004
-0.35471335 0.10990191 0.69100004
-0.35339716 0.10990191 0.69100004
-0.35310003 0.11022001 0.69300002
-0.35076478 0.10990191 0.69100004
-0.34944859 0.10990191 0.69100004
-0.3481324 0.10990191 0.69100004
-0.34681621 0.10990191 0.69100004
-0.35471335 0.1112181 0.69100004
-0.35288572 0.11105715 0.69000006
-0.35208097 0.1112181 0.69100004
-0.35076478 0.1112181 0.69100004
-0.34944859 0.1112181 0.69100004
-0.34762859 0.11105715 0.69000006
-0.34681621 0.1112181 0.69100004
-0.34550002 0.1112181 0.69100004
-0.33990002 0.11154 0.69300002
-0.33760288 0.1112181 0.69100004
-0.33628669 0.1112181 0.69100004
-0.33448574 0.11105715 0.69000006
-0.33365431 0.1112181 0.69100004
-0.33233812 0.1112181 0.69100004
-0.33054289 0.11105715 0.69000006
-0.35420004 0.11237144 0.69000006
-0.35288572 0.11237144 0.69000006
-0.34974954 0.11220858 0.68900001
-0.34843716 0.11220858 0.68900001
-0.34712479 0.11220858 0.68900001
-0.34581241 0.11220858 0.68900001
-0.34450004 0.11220858 0.68900001
-0.34105715 0.11237144 0.69000006
-0.33974287 0.11237144 0.69000006
-0.33891907 0.11253429 0.69100004
-0.33760288 0.11253429 0.69100004
-0.33580002 0.11237144 0.69000006
-0.33448574 0.11237144 0.69000006
-0.33317146 0.11237144 0.69000006
-0.33185717 0.11237144 0.69000006
-0.33054289 0.11237144 0.69000006
-0.32922858 0.11237144 0.69000006
-0.35112002 0.11269715 0.68400002
-0.34742573 0.11319143 0.68700004
-0.34611717 0.11319143 0.68700004
-0.34480861 0.11319143 0.68700004
-0.34350002 0.11319143 0.68700004
-0.34318763 0.11352096 0.68900001
-0.34088287 0.11319143 0.68700004
-0.34056288 0.11352096 0.68900001
-0.3392505 0.11352096 0.68900001
-0.33793813 0.11352096 0.68900001
-0.33662573 0.11352096 0.68900001
-0.33531335 0.11352096 0.68900001
-0.33400097 0.11352096 0.68900001
-0.3326886 0.11352096 0.68900001
-0.33137622 0.11352096 0.68900001
-0.33006382 0.11352096 0.68900001
-0.32875144 0.11352096 0.68900001
-0.34692001 0.11433334 0.68600005
-0.34611717 0.11450001 0.68700004
-0.34480861 0.11450001 0.68700004
-0.34350002 0.11450001 0.68700004
-0.34219146 0.11450001 0.68700004
-0.34088287 0.11450001 0.68700004
-0.34056288 0.11483334 0.68900001
-0.3392505 0.11483334 0.68900001
-0.33793813 0.11483334 0.68900001
-0.33662573 0.11483334 0.68900001
-0.33531335 0.11483334 0.68900001
-0.33400097 0.11483334 0.68900001
-0.3326886 0.11483334 0.68900001
-0.33137622 0.11483334 0.68900001
-0.32910573 0.11450001 0.68700004
-0.32779717 0.11450001 0.68700004
-0.32601336 0.11433334 0.68600005
-0.32470667 0.11433334 0.68600005
-0.34460574 0.11530287 0.68400002
-0.34430668 0.11564001 0.68600005
-0.34300002 0.11564001 0.68600005
-0.34169334 0.11564001 0.68600005
-0.3326886 0.11614572 0.68900001
-0.3304143 0.11580858 0.68700004
-0.32862669 0.11564001 0.68600005
-0.32732001 0.11564001 0.68600005
-0.32601336 0.11564001 0.68600005
-0.32470667 0.11564001 0.68600005
-0.32340002 0.11564001 0.68600005
-0.3211543 0.11530287 0.68400002
-0.31985146 0.11530287 0.68400002
-0.34410194 0.11643524 0.68300003
-0.34330288 0.11660572 0.68400002
-0.34150001 0.11643524 0.68300003
-0.34019908 0.11643524 0.68300003
-0.33889812 0.11643524 0.68300003
-0.33027431 0.11660572 0.68400002
-0.32897145 0.11660572 0.68400002
-0.32718953 0.11643524 0.68300003
-0.3258886 0.11643524 0.68300003
-0.32506287 0.11660572 0.68400002
-0.32376003 0.11660572 0.68400002
-0.32245716 0.11660572 0.68400002
-0.3211543 0.11660572 0.68400002
-0.31985146 0.11660572 0.68400002
-0.31854859 0.11660572 0.68400002
-0.34259051 0.11721905 0.68000001
-0.34129527 0.11721905 0.68000001
-0.34000003 0.11721905 0.68000001
-0.33870479 0.11721905 0.68000001
-0.33691335 0.11704668 0.67900002
-0.33027431 0.11790858 0.68400002
-0.32800955 0.11756381 0.68200004
-0.32671049 0.11756381 0.68200004
-0.32541144 0.11756381 0.68200004
-0.32411242 0.11756381 0.68200004
-0.32328668 0.1177362 0.68300003
-0.32057145 0.11721905 0.68000001
-0.31927621 0.11721905 0.68000001
-0.31798097 0.11721905 0.68000001
-0.31808287 0.1177362 0.68300003
-0.3420867 0.11834001 0.67900002
-0.34079334 0.11834001 0.67900002
-0.33950001 0.11834001 0.67900002
-0.33820668 0.11834001 0.67900002
-0.3293086 0.11886287 0.68200004
-0.32704765 0.11851429 0.68000001
-0.32575241 0.11851429 0.68000001
-0.32445717 0.11851429 0.68000001
-0.32316193 0.11851429 0.68000001
-0.32186669 0.11851429 0.68000001
-0.32010001 0.11834001 0.67900002
-0.31880668 0.11834001 0.67900002
-0.31751335 0.11834001 0.67900002
-0.31668574 0.11851429 0.68000001
-0.34029144 0.11945715 0.67800003
-0.33950001 0.11963334 0.67900002
-0.33820668 0.11963334 0.67900002
-0.33107144 0.11892858 0.67500001
-0.32834288 0.11980953 0.68000001
-0.32704765 0.11980953 0.68000001
-0.32575241 0.11980953 0.68000001
-0.32445717 0.11980953 0.68000001
-0.32316193 0.11980953 0.68000001
-0.32186669 0.11980953 0.68000001
-0.32010001 0.11963334 0.67900002
-0.31880668 0.11963334 0.67900002
-0.31704575 0.11945715 0.67800003
-0.31668574 0.11980953 0.68000001
-0.33928764 0.12039239 0.67600006
-0.33900002 0.12074858 0.67800003
-0.33770859 0.12074858 0.67800003
-0.33542478 0.12039239 0.67600006
-0.33364287 0.12021429 0.67500001
-0.33235717 0.12021429 0.67500001
-0.33107144 0.12021429 0.67500001
-0.32704765 0.12110477 0.68000001
-0.32575241 0.12110477 0.68000001
-0.32445717 0.12110477 0.68000001
-0.32316193 0.12110477 0.68000001
-0.32186669 0.12110477 0.68000001
-0.32010001 0.12092668 0.67900002
-0.31880668 0.12092668 0.67900002
-0.31704575 0.12074858 0.67800003
-0.31622002 0.12092668 0.67900002
-0.32316193 0.12240001 0.68000001
-0.32186669 0.12240001 0.68000001
-0.32010001 0.12222001 0.67900002
-0.31880668 0.12222001 0.67900002
-0.31751335 0.12222001 0.67900002
-0.31622002 0.12222001 0.67900002
-0.31611049 0.12296763 0.67600006
-0.31203431 0.12442286 0.68400002
-0.3169286 0.12407143 0.67500001
-0.31564286 0.12407143 0.67500001
-0.31435716 0.12407143 0.67500001
-0.31446287 0.12462287 0.67800003
-0.31317145 0.12462287 0.67800003
-0.31446287 0.12591429 0.67800003
-0.31317145 0.12591429 0.67800003
-0.31188002 0.12591429 0.67800003
-0.31150478 0.12628572 0.68000001
-0.34434953 0.1240162 0.66100001
-0.34257144 0.12382858 0.66000003
-0.33503336 0.12476668 0.66500002
-0.33276287 0.12439144 0.66300005
-0.33150002 0.12439144 0.66300005
-0.33023715 0.12439144 0.66300005
-0.31435716 0.12664287 0.67500001
-0.31446287 0.12720573 0.67800003
-0.31317145 0.12720573 0.67800003
-0.31234002 0.12739334 0.67900002
-0.31150478 0.12758096 0.68000001
-0.35011432 0.12508573 0.66000003
-0.34780002 0.12470668 0.65800005
-0.34654668 0.12470668 0.65800005
-0.34634289 0.12508573 0.66000003
-0.34508574 0.12508573 0.66000003
-0.34434953 0.12527524 0.66100001
-0.34257144 0.12508573 0.66000003
-0.34131432 0.12508573 0.66000003
-0.33679527 0.12527524 0.66100001
-0.33553621 0.12527524 0.66100001
-0.33427715 0.12527524 0.66100001
-0.33352193 0.12546477 0.66200006
-0.33226097 0.12546477 0.66200006
-0.33100003 0.12546477 0.66200006
-0.32924098 0.12527524 0.66100001
-0.32798192 0.12527524 0.66100001
-0.31317145 0.12849715 0.67800003
-0.35262859 0.12634286 0.66000003
-0.35137144 0.12634286 0.66000003
-0.34905335 0.12596001 0.65800005
-0.34780002 0.12596001 0.65800005
-0.34654668 0.12596001 0.65800005
-0.34634289 0.12634286 0.66000003
-0.34508574 0.12634286 0.66000003
-0.34382859 0.12634286 0.66000003
-0.34257144 0.12634286 0.66000003
-0.34131432 0.12634286 0.66000003
-0.33628574 0.12634286 0.66000003
-0.33502859 0.12634286 0.66000003
-0.33377144 0.12634286 0.66000003
-0.33301812 0.1265343 0.66100001
-0.33125716 0.12634286 0.66000003
-0.33050004 0.1265343 0.66100001
-0.32874289 0.12634286 0.66000003
-0.32748574 0.12634286 0.66000003
-0.32672289 0.1265343 0.66100001
-0.32497144 0.12634286 0.66000003
-0.32371432 0.12634286 0.66000003
-0.32294574 0.1265343 0.66100001
-0.35281336 0.12721334 0.65800005
-0.35156003 0.12721334 0.65800005
-0.35030669 0.12721334 0.65800005
-0.34905335 0.12721334 0.65800005
-0.34780002 0.12721334 0.65800005
-0.34654668 0.12721334 0.65800005
-0.34634289 0.12760001 0.66000003
-0.34508574 0.12760001 0.66000003
-0.34382859 0.12760001 0.66000003
-0.34257144 0.12760001 0.66000003
-0.34131432 0.12760001 0.66000003
-0.33652002 0.12721334 0.65800005
-0.33526668 0.12721334 0.65800005
-0.33401334 0.12721334 0.65800005
-0.33276004 0.12721334 0.65800005
-0.3315067 0.12721334 0.65800005
-0.32975146 0.12702 0.65700001
-0.33000001 0.12760001 0.66000003
-0.32874289 0.12760001 0.66000003
-0.32748574 0.12760001 0.66000003
-0.32672289 0.12779334 0.66100001
-0.32497144 0.12760001 0.66000003
-0.32371432 0.12760001 0.66000003
-0.32294574 0.12779334 0.66100001
-0.35030669 0.12846668 0.65800005
-0.34905335 0.12846668 0.65800005
-0.34780002 0.12846668 0.65800005
-0.34654668 0.12846668 0.65800005
-0.34529334 0.12846668 0.65800005
-0.34404004 0.12846668 0.65800005
-0.3427867 0.12846668 0.65800005
-0.34257144 0.12885715 0.66000003
-0.34131432 0.12885715 0.66000003
-0.33799621 0.1280762 0.65600002
-0.33623335 0.12788096 0.65500003
-0.33498573 0.12788096 0.65500003
-0.33526668 0.12846668 0.65800005
-0.33401334 0.12846668 0.65800005
-0.3317486 0.1280762 0.65600002
-0.33100289 0.12827143 0.65700001
-0.32924953 0.1280762 0.65600002
-0.32900003 0.12846668 0.65800005
-0.32874289 0.12885715 0.66000003
-0.32748574 0.12885715 0.66000003
-0.32622859 0.12885715 0.66000003
-0.32497144 0.12885715 0.66000003
-0.32371432 0.12885715 0.66000003
-0.32294574 0.12905239 0.66100001
-0.32168669 0.12905239 0.66100001
-0.32091239 0.12924762 0.66200006
-0.32013431 0.12944287 0.66300005
-0.31983337 0.12983334 0.66500002
-0.34924194 0.12932572 0.65600002
-0.34799239 0.12932572 0.65600002
-0.34674287 0.12932572 0.65600002
-0.34549335 0.12932572 0.65600002
-0.34476858 0.12952286 0.65700001
-0.34351715 0.12952286 0.65700001
-0.34226573 0.12952286 0.65700001
-0.3410143 0.12952286 0.65700001
-0.33976287 0.12952286 0.65700001
-0.33799621 0.12932572 0.65600002
-0.33623335 0.12912858 0.65500003
-0.33498573 0.12912858 0.65500003
-0.33373812 0.12912858 0.65500003
-0.3324905 0.12912858 0.65500003
-0.33124289 0.12912858 0.65500003
-0.33049908 0.12932572 0.65600002
-0.32874763 0.12912858 0.65500003
-0.32800001 0.12932572 0.65600002
-0.3272486 0.12952286 0.65700001
-0.32649335 0.12972 0.65800005
-0.32622859 0.13011429 0.66000003
-0.32497144 0.13011429 0.66000003
-0.32371432 0.13011429 0.66000003
-0.32294574 0.13031144 0.66100001
-0.32168669 0.13031144 0.66100001
-0.32091239 0.13050859 0.66200006
-0.32013431 0.13070573 0.66300005
-0.34870955 0.1303762 0.65500003
-0.34640098 0.12997811 0.65300006
-0.34621429 0.1303762 0.65500003
-0.34496668 0.1303762 0.65500003
-0.34371907 0.1303762 0.65500003
-0.34247145 0.1303762 0.65500003
-0.34122384 0.1303762 0.65500003
-0.34049526 0.13057524 0.65600002
-0.33872861 0.1303762 0.65500003
-0.33748096 0.1303762 0.65500003
-0.33623335 0.1303762 0.65500003
-0.33396289 0.12997811 0.65300006
-0.33271906 0.12997811 0.65300006
-0.3324905 0.1303762 0.65500003
-0.33124289 0.1303762 0.65500003
-0.32999527 0.1303762 0.65500003
-0.32874763 0.1303762 0.65500003
-0.32800001 0.13057524 0.65600002
-0.3272486 0.13077429 0.65700001
-0.32649335 0.13097334 0.65800005
-0.32524002 0.13097334 0.65800005
-0.32398668 0.13097334 0.65800005
-0.32273334 0.13097334 0.65800005
-0.32245716 0.13137144 0.66000003
-0.32120001 0.13137144 0.66000003
-0.31994289 0.13137144 0.66000003
-0.32013431 0.13196857 0.66300005
-0.34711242 0.13102096 0.65200001
-0.34587049 0.13102096 0.65200001
-0.34515718 0.13122192 0.65300006
-0.34391335 0.13122192 0.65300006
-0.34371907 0.13162382 0.65500003
-0.34142575 0.13122192 0.65300006
-0.34018192 0.13122192 0.65300006
-0.33997622 0.13162382 0.65500003
-0.33769432 0.13122192 0.65300006
-0.33748096 0.13162382 0.65500003
-0.33520669 0.13122192 0.65300006
-0.33396289 0.13122192 0.65300006
-0.33271906 0.13122192 0.65300006
-0.3324905 0.13162382 0.65500003
-0.33124289 0.13162382 0.65500003
-0.32999527 0.13162382 0.65500003
-0.32874763 0.13162382 0.65500003
-0.32800001 0.13182478 0.65600002
-0.32675049 0.13182478 0.65600002
-0.32599717 0.13202572 0.65700001
-0.32474574 0.13202572 0.65700001
-0.32398668 0.13222668 0.65800005
-0.32273334 0.13222668 0.65800005
-0.32148004 0.13222668 0.65800005
-0.32120001 0.13262857 0.66000003
-0.31994289 0.13262857 0.66000003
-0.34711242 0.13226287 0.65200001
-0.34534001 0.13206001 0.65100002
-0.3446286 0.13226287 0.65200001
-0.34391335 0.13246572 0.65300006
-0.34266955 0.13246572 0.65300006
-0.34142575 0.13246572 0.65300006
-0.34018192 0.13246572 0.65300006
-0.33893812 0.13246572 0.65300006
-0.33769432 0.13246572 0.65300006
-0.33748096 0.13287143 0.65500003
-0.33623335 0.13287143 0.65500003
-0.33396289 0.13246572 0.65300006
-0.33271906 0.13246572 0.65300006
-0.3324905 0.13287143 0.65500003
-0.33124289 0.13287143 0.65500003
-0.32999527 0.13287143 0.65500003
-0.32874763 0.13287143 0.65500003
-0.32750002 0.13287143 0.65500003
-0.32675049 0.1330743 0.65600002
-0.32599717 0.13327715 0.65700001
-0.32474574 0.13327715 0.65700001
-0.32349432 0.13327715 0.65700001
-0.32224289 0.13327715 0.65700001
-0.32148004 0.13348001 0.65800005
-0.3202267 0.13348001 0.65800005
-0.30889717 0.13510287 0.66600001
-0.3071667 0.1349 0.66500002
-0.30590001 0.1349 0.66500002
-0.34604764 0.13309525 0.65000004
-0.34480953 0.13309525 0.65000004
-0.34357145 0.13309525 0.65000004
-0.34286001 0.13330001 0.65100002
-0.34214479 0.13350476 0.65200001
-0.34090286 0.13350476 0.65200001
-0.33966097 0.13350476 0.65200001
-0.33893812 0.13370954 0.65300006
-0.33769432 0.13370954 0.65300006
-0.33748096 0.13411906 0.65500003
-0.33520669 0.13370954 0.65300006
-0.33396289 0.13370954 0.65300006
-0.33271906 0.13370954 0.65300006
-0.3324905 0.13411906 0.65500003
-0.33124289 0.13411906 0.65500003
-0.32999527 0.13411906 0.65500003
-0.32774383 0.13370954 0.65300006
-0.32750002 0.13411906 0.65500003
-0.3262524 0.13411906 0.65500003
-0.32550097 0.13432382 0.65600002
-0.32375717 0.13411906 0.65500003
-0.32300192 0.13432382 0.65600002
-0.3217524 0.13432382 0.65600002
-0.32099146 0.13452858 0.65700001
-0.31974003 0.13452858 0.65700001
-0.34514859 0.13350667 0.64600003
-0.3444505 0.13371333 0.64700001
-0.3437486 0.13392001 0.648
-0.34251431 0.13392001 0.648
-0.34233335 0.13433334 0.65000004
-0.34109527 0.13433334 0.65000004
-0.34038001 0.13454001 0.65100002
-0.33914003 0.13454001 0.65100002
-0.33790001 0.13454001 0.65100002
-0.33614287 0.13433334 0.65000004
-0.33490479 0.13433334 0.65000004
-0.33366668 0.13433334 0.65000004
-0.3324286 0.13433334 0.65000004
-0.33017144 0.13392001 0.648
-0.32995239 0.13433334 0.65000004
-0.32972574 0.13474667 0.65200001
-0.32546097 0.13350667 0.64600003
-0.32523429 0.13392001 0.648
-0.32400003 0.13392001 0.648
-0.3252562 0.13495333 0.65300006
-0.3240124 0.13495333 0.65300006
-0.32178003 0.13454001 0.65100002
-0.32054001 0.13454001 0.65100002
-0.31880954 0.13433334 0.65000004
-0.31854859 0.13474667 0.65200001
-0.31779334 0.13495333 0.65300006
-0.3446143 0.13452858 0.64500004
-0.34391811 0.13473715 0.64600003
-0.34321812 0.13494572 0.64700001
-0.34198573 0.13494572 0.64700001
-0.34128001 0.13515429 0.648
-0.34109527 0.13557144 0.65000004
-0.34038001 0.13578001 0.65100002
-0.33861908 0.13557144 0.65000004
-0.33738098 0.13557144 0.65000004
-0.33614287 0.13557144 0.65000004
-0.33490479 0.13557144 0.65000004
-0.33264002 0.13515429 0.648
-0.33140573 0.13515429 0.648
-0.32966194 0.13494572 0.64700001
-0.3274143 0.13452858 0.64500004
-0.32618573 0.13452858 0.64500004
-0.32546097 0.13473715 0.64600003
-0.32423049 0.13473715 0.64600003
-0.32350001 0.13494572 0.64700001
-0.32276574 0.13515429 0.648
-0.32153144 0.13515429 0.648
-0.32029715 0.13515429 0.648
-0.31906289 0.13515429 0.648
-0.3178286 0.13515429 0.648
-0.31757146 0.13557144 0.65000004
-0.31633335 0.13557144 0.65000004
-0.31509525 0.13557144 0.65000004
-0.3446143 0.13575715 0.64500004
-0.34391811 0.13596763 0.64600003
-0.34268764 0.13596763 0.64600003
-0.34145716 0.13596763 0.64600003
-0.34075335 0.13617811 0.64700001
-0.33952096 0.13617811 0.64700001
-0.33985716 0.13680953 0.65000004
-0.33757716 0.13638858 0.648
-0.33634287 0.13638858 0.648
-0.33510861 0.13638858 0.648
-0.33387432 0.13638858 0.648
-0.33264002 0.13638858 0.648
-0.33038288 0.13596763 0.64600003
-0.32813334 0.13554667 0.64400005
-0.32690668 0.13554667 0.64400005
-0.32568002 0.13554667 0.64400005
-0.32495716 0.13575715 0.64500004
-0.32372859 0.13575715 0.64500004
-0.32250002 0.13575715 0.64500004
-0.32127145 0.13575715 0.64500004
-0.32053906 0.13596763 0.64600003
-0.31930858 0.13596763 0.64600003
-0.31857049 0.13617811 0.64700001
-0.31733811 0.13617811 0.64700001
-0.31610572 0.13617811 0.64700001
-0.31487337 0.13617811 0.64700001
-0.31364098 0.13617811 0.64700001
-0.3124086 0.13617811 0.64700001
-0.3446143 0.13698572 0.64500004
-0.34391811 0.13719811 0.64600003
-0.34268764 0.13719811 0.64600003
-0.34092858 0.13698572 0.64500004
-0.33970001 0.13698572 0.64500004
-0.33847144 0.13698572 0.64500004
-0.33776572 0.13719811 0.64600003
-0.33653527 0.13719811 0.64600003
-0.33478573 0.13698572 0.64500004
-0.33407432 0.13719811 0.64600003
-0.33284384 0.13719811 0.64600003
-0.33161336 0.13719811 0.64600003
-0.32987145 0.13698572 0.64500004
-0.32813334 0.13677335 0.64400005
-0.32690668 0.13677335 0.64400005
-0.32568002 0.13677335 0.64400005
-0.32445335 0.13677335 0.64400005
-0.32322669 0.13677335 0.64400005
-0.32100001 0.13634858 0.64200002
-0.32077336 0.13677335 0.64400005
-0.32004288 0.13698572 0.64500004
-0.31930858 0.13719811 0.64600003
-0.31807813 0.13719811 0.64600003
-0.31684765 0.13719811 0.64600003
-0.31512859 0.13698572 0.64500004
-0.3143867 0.13719811 0.64600003
-0.31315622 0.13719811 0.64600003
-0.31144288 0.13698572 0.64500004
-0.34408003 0.13800001 0.64400005
-0.34285337 0.13800001 0.64400005
-0.3416267 0.13800001 0.64400005
-0.34040001 0.13800001 0.64400005
-0.33917335 0.13800001 0.64400005
-0.33794668 0.13800001 0.64400005
-0.33672002 0.13800001 0.64400005
-0.33549336 0.13800001 0.64400005
-0.33322859 0.13757144 0.64200002
-0.33200574 0.13757144 0.64200002
-0.33181337 0.13800001 0.64400005
-0.3305867 0.13800001 0.64400005
-0.32936001 0.13800001 0.64400005
-0.32813334 0.13800001 0.64400005
-0.32690668 0.13800001 0.64400005
-0.32568002 0.13800001 0.64400005
-0.32445335 0.13800001 0.64400005
-0.32372859 0.13821429 0.64500004
-0.32100001 0.13757144 0.64200002
-0.32077336 0.13800001 0.64400005
-0.32004288 0.13821429 0.64500004
-0.31930858 0.13842858 0.64600003
-0.31758574 0.13821429 0.64500004
-0.31635717 0.13821429 0.64500004
-0.31512859 0.13821429 0.64500004
-0.3143867 0.13842858 0.64600003
-0.31315622 0.13842858 0.64600003
-0.34301144 0.13879429 0.64200002
-0.34285337 0.13922668 0.64400005
-0.33393049 0.1385781 0.64100003
-0.33270955 0.1385781 0.64100003
-0.33148858 0.1385781 0.64100003
-0.33078289 0.13879429 0.64200002
-0.32956001 0.13879429 0.64200002
-0.32833716 0.13879429 0.64200002
-0.32711431 0.13879429 0.64200002
-0.32589144 0.13879429 0.64200002
-0.32466859 0.13879429 0.64200002
-0.32344574 0.13879429 0.64200002
-0.32372859 0.13944286 0.64500004
-0.32050002 0.1385781 0.64100003
-0.31977716 0.13879429 0.64200002
-0.32004288 0.13944286 0.64500004
-0.31930858 0.13965906 0.64600003
-0.31758574 0.13944286 0.64500004
-0.31635717 0.13944286 0.64500004
-0.31512859 0.13944286 0.64500004
-0.3143867 0.13965906 0.64600003
-0.31315622 0.13965906 0.64600003
-0.31144288 0.13944286 0.64500004
-0.33219048 0.13958097 0.64000005
-0.33097145 0.13958097 0.64000005
-0.33026764 0.13979906 0.64100003
-0.3290467 0.13979906 0.64100003
-0.32782573 0.13979906 0.64100003
-0.32711431 0.14001715 0.64200002
-0.32589144 0.14001715 0.64200002
-0.32466859 0.14001715 0.64200002
-0.32445335 0.14045334 0.64400005
-0.32322669 0.14045334 0.64400005
-0.32050002 0.13979906 0.64100003
-0.31977716 0.14001715 0.64200002
-0.32004288 0.14067143 0.64500004
-0.31881431 0.14067143 0.64500004
-0.31758574 0.14067143 0.64500004
-0.31635717 0.14067143 0.64500004
-0.31464002 0.14045334 0.64400005
-0.31390002 0.14067143 0.64500004
-0.31267145 0.14067143 0.64500004
-0.33219048 0.14080001 0.64000005
-0.33097145 0.14080001 0.64000005
-0.32975242 0.14080001 0.64000005
-0.32853335 0.14080001 0.64000005
-0.32782573 0.14102001 0.64100003
-0.32660478 0.14102001 0.64100003
-0.32538384 0.14102001 0.64100003
-0.32416287 0.14102001 0.64100003
-0.32294193 0.14102001 0.64100003
-0.32172099 0.14102001 0.64100003
-0.32050002 0.14102001 0.64100003
-0.31927907 0.14102001 0.64100003
-0.3195467 0.14168 0.64400005
-0.31832001 0.14168 0.64400005
-0.31709334 0.14168 0.64400005
-0.31586668 0.14168 0.64400005
-0.31464002 0.14168 0.64400005
-0.30070001 0.14322001 0.65100002
-0.33167145 0.14179716 0.63900006
-0.33045432 0.14179716 0.63900006
-0.32923716 0.14179716 0.63900006
-0.32802004 0.14179716 0.63900006
-0.32731432 0.14201906 0.64000005
-0.32660478 0.14224096 0.64100003
-0.32487622 0.14201906 0.64000005
-0.32416287 0.14224096 0.64100003
-0.32294193 0.14224096 0.64100003
-0.32172099 0.14224096 0.64100003
-0.32000002 0.14201906 0.64000005
-0.31878096 0.14201906 0.64000005
-0.3180581 0.14224096 0.64100003
-0.31733146 0.14246286 0.64200002
-0.31709334 0.14290668 0.64400005
-0.31586668 0.14290668 0.64400005
-0.31464002 0.14290668 0.64400005
-0.33953813 0.14122382 0.63100004
-0.3383362 0.14122382 0.63100004
-0.33606574 0.1407762 0.62900001
-0.32872194 0.14279048 0.63800001
-0.32802004 0.1430143 0.63900006
-0.32731432 0.1432381 0.64000005
-0.32609525 0.1432381 0.64000005
-0.32487622 0.1432381 0.64000005
-0.32365716 0.1432381 0.64000005
-0.32243812 0.1432381 0.64000005
-0.32121906 0.1432381 0.64000005
-0.32000002 0.1432381 0.64000005
-0.31878096 0.1432381 0.64000005
-0.31756192 0.1432381 0.64000005
-0.31586668 0.14413334 0.64400005
-0.33953813 0.14242573 0.63100004
-0.3383362 0.14242573 0.63100004
-0.3371343 0.14242573 0.63100004
-0.3359324 0.14242573 0.63100004
-0.33473051 0.14242573 0.63100004
-0.33247146 0.1419743 0.62900001
-0.33127335 0.1419743 0.62900001
-0.33007526 0.1419743 0.62900001
-0.32887715 0.1419743 0.62900001
-0.32872099 0.14242573 0.63100004
-0.32631716 0.14242573 0.63100004
-0.32511526 0.14242573 0.63100004
-0.32853335 0.14445715 0.64000005
-0.32424572 0.14310287 0.634
-0.32303813 0.14310287 0.634
-0.3243686 0.14423144 0.63900006
-0.32315144 0.14423144 0.63900006
-0.32193431 0.14423144 0.63900006
-0.32071716 0.14423144 0.63900006
-0.31950003 0.14423144 0.63900006
-0.31828287 0.14423144 0.63900006
-0.31756192 0.14445715 0.64000005
-0.33953813 0.14362763 0.63100004
-0.3383362 0.14362763 0.63100004
-0.33606574 0.14317238 0.62900001
-0.33486763 0.14317238 0.62900001
-0.33366954 0.14317238 0.62900001
-0.33194289 0.14294477 0.62800002
-0.33074668 0.14294477 0.62800002
-0.3295505 0.14294477 0.62800002
-0.3283543 0.14294477 0.62800002
-0.32715812 0.14294477 0.62800002
-0.32751906 0.14362763 0.63100004
-0.32631716 0.14362763 0.63100004
-0.32408479 0.14317238 0.62900001
-0.32424572 0.14431049 0.634
-0.32112861 0.1445381 0.63500005
-0.31991908 0.1445381 0.63500005
-0.33846194 0.14437048 0.62900001
-0.33726382 0.14437048 0.62900001
-0.33606574 0.14437048 0.62900001
-0.33486763 0.14437048 0.62900001
-0.33366954 0.14437048 0.62900001
-0.33141431 0.14391144 0.62700003
-0.33022001 0.14391144 0.62700003
-0.32902575 0.14391144 0.62700003
-0.32783145 0.14391144 0.62700003
-0.32663718 0.14391144 0.62700003
-0.32648098 0.14437048 0.62900001
-0.32528287 0.14437048 0.62900001
-0.32408479 0.14437048 0.62900001
-0.32391337 0.14482953 0.63100004
-0.32424572 0.14551811 0.634
-0.32303813 0.14551811 0.634
-0.3223381 0.14574763 0.63500005
-0.32112861 0.14574763 0.63500005
-0.33846194 0.14556858 0.62900001
-0.33672765 0.14533715 0.62800002
-0.33553144 0.14533715 0.62800002
-0.33486763 0.14556858 0.62900001
-0.33366954 0.14556858 0.62900001
-0.33194289 0.14533715 0.62800002
-0.33074668 0.14533715 0.62800002
-0.33007526 0.14556858 0.62900001
-0.3283543 0.14533715 0.62800002
-0.32715812 0.14533715 0.62800002
-0.32648098 0.14556858 0.62900001
-0.32528287 0.14556858 0.62900001
-0.32511526 0.14603144 0.63100004
-0.32391337 0.14603144 0.63100004
-0.32271144 0.14603144 0.63100004
-0.3225286 0.1464943 0.63300002
-0.32183051 0.14672573 0.634
-0.32062289 0.14672573 0.634
-0.31790382 0.14603144 0.63100004
-0.31569812 0.14556858 0.62900001
-0.33619145 0.1463 0.62700003
-0.33499718 0.1463 0.62700003
-0.33486763 0.14676668 0.62900001
-0.33366954 0.14676668 0.62900001
-0.33194289 0.14653334 0.62800002
-0.33127335 0.14676668 0.62900001
-0.3295505 0.14653334 0.62800002
-0.3283543 0.14653334 0.62800002
-0.32715812 0.14653334 0.62800002
-0.32648098 0.14676668 0.62900001
-0.32528287 0.14676668 0.62900001
-0.32408479 0.14676668 0.62900001
-0.32237336 0.14653334 0.62800002
-0.32168859 0.14676668 0.62900001
-0.32049051 0.14676668 0.62900001
-0.32081527 0.14746667 0.63200003
-0.31910574 0.14723334 0.63100004
-0.31790382 0.14723334 0.63100004
-0.31569812 0.14676668 0.62900001
-0.31450003 0.14676668 0.62900001
-0.31429812 0.14723334 0.63100004
-0.31309623 0.14723334 0.63100004
-0.3118943 0.14723334 0.63100004
-0.33446288 0.14725906 0.62600005
-0.33486763 0.14796478 0.62900001
-0.33366954 0.14796478 0.62900001
-0.33194289 0.14772953 0.62800002
-0.33127335 0.14796478 0.62900001
-0.3295505 0.14772953 0.62800002
-0.32783145 0.1474943 0.62700003
-0.32663718 0.1474943 0.62700003
-0.32492384 0.14725906 0.62600005
-0.32373145 0.14725906 0.62600005
-0.32305431 0.1474943 0.62700003
-0.32186002 0.1474943 0.62700003
-0.32117715 0.14772953 0.62800002
-0.31998098 0.14772953 0.62800002
-0.3192924 0.14796478 0.62900001
-0.31809431 0.14796478 0.62900001
-0.31639239 0.14772953 0.62800002
-0.31519622 0.14772953 0.62800002
-0.31400001 0.14772953 0.62800002
-0.31280383 0.14772953 0.62800002
-0.31160763 0.14772953 0.62800002
-0.30563241 0.15008192 0.63800001
-0.33404669 0.14774001 0.62300003
-0.33286002 0.14774001 0.62300003
-0.33167335 0.14774001 0.62300003
-0.33313906 0.14892572 0.62800002
-0.33194289 0.14892572 0.62800002
-0.33074668 0.14892572 0.62800002
-0.32902575 0.14868858 0.62700003
-0.32783145 0.14868858 0.62700003
-0.32663718 0.14868858 0.62700003
-0.32492384 0.14845143 0.62600005
-0.32373145 0.14845143 0.62600005
-0.32253906 0.14845143 0.62600005
-0.3213467 0.14845143 0.62600005
-0.32015431 0.14845143 0.62600005
-0.31896192 0.14845143 0.62600005
-0.31776956 0.14845143 0.62600005
-0.31607145 0.1482143 0.625
-0.31387335 0.14774001 0.62300003
-0.31268668 0.14774001 0.62300003
-0.31150001 0.14774001 0.62300003
-0.30685431 0.15011144 0.63300002
-0.30613145 0.15034857 0.634
-0.30540478 0.15058573 0.63500005
-0.3046743 0.15082286 0.63600004
-0.33404669 0.14892668 0.62300003
-0.33286002 0.14892668 0.62300003
-0.33167335 0.14892668 0.62300003
-0.3299562 0.14868763 0.62200004
-0.32877144 0.14868763 0.62200004
-0.32758668 0.14868763 0.62200004
-0.32640192 0.14868763 0.62200004
-0.32521716 0.14868763 0.62200004
-0.3240324 0.14868763 0.62200004
-0.32284763 0.14868763 0.62200004
-0.32166287 0.14868763 0.62200004
-0.32253906 0.14964382 0.62600005
-0.3213467 0.14964382 0.62600005
-0.32015431 0.14964382 0.62600005
-0.31845239 0.14940478 0.625
-0.31607145 0.14940478 0.625
-0.31387335 0.14892668 0.62300003
-0.31268668 0.14892668 0.62300003
-0.31200001 0.14916572 0.62400001
-0.30685431 0.15131715 0.63300002
-0.3056486 0.15131715 0.63300002
-0.30540478 0.15179525 0.63500005
-0.30419526 0.15179525 0.63500005
-0.33523336 0.15011334 0.62300003
-0.33351049 0.14987239 0.62200004
-0.33232573 0.14987239 0.62200004
-0.33114097 0.14987239 0.62200004
-0.3299562 0.14987239 0.62200004
-0.32653335 0.14939049 0.62
-0.3253524 0.14939049 0.62
-0.32417145 0.14939049 0.62
-0.32299051 0.14939049 0.62
-0.32284763 0.14987239 0.62200004
-0.32166287 0.14987239 0.62200004
-0.32202384 0.15059525 0.625
-0.32083336 0.15059525 0.625
-0.31387335 0.15011334 0.62300003
-0.31268668 0.15011334 0.62300003
-0.31150001 0.15011334 0.62300003
-0.30757335 0.15228191 0.63200003
-0.30685431 0.15252286 0.63300002
-0.30613145 0.15276381 0.634
-0.33523336 0.15130001 0.62300003
-0.33351049 0.15105715 0.62200004
-0.33232573 0.15105715 0.62200004
-0.33007622 0.15057144 0.62
-0.32889527 0.15057144 0.62
-0.3261286 0.14984287 0.61700004
-0.32600668 0.15032858 0.61900002
-0.32482764 0.15032858 0.61900002
-0.3236486 0.15032858 0.61900002
-0.32246953 0.15032858 0.61900002
-0.32129049 0.15032858 0.61900002
-0.32011145 0.15032858 0.61900002
-0.31268668 0.15130001 0.62300003
-0.31150001 0.15130001 0.62300003
-0.30843431 0.15154287 0.62400001
-0.30823049 0.15202858 0.62600005
-0.30801907 0.15251429 0.62800002
-0.30731145 0.15275715 0.62900001
-0.30708668 0.15324287 0.63100004
-0.30636954 0.15348573 0.63200003
-0.33351049 0.15224192 0.62200004
-0.33232573 0.15224192 0.62200004
-0.33007622 0.1517524 0.62
-0.32889527 0.1517524 0.62
-0.3261286 0.1510181 0.61700004
-0.32548001 0.15126286 0.61800003
-0.32430288 0.15126286 0.61800003
-0.32312575 0.15126286 0.61800003
-0.32194859 0.15126286 0.61800003
-0.32077146 0.15126286 0.61800003
-0.32062858 0.1517524 0.62
-0.30912668 0.15248668 0.62300003
-0.30794001 0.15248668 0.62300003
-0.30724573 0.15273143 0.62400001
-0.30850956 0.15395525 0.62900001
-0.3082886 0.15444477 0.63100004
-0.33243811 0.15293334 0.62
-0.32965431 0.15219334 0.61700004
-0.32847908 0.15219334 0.61700004
-0.32730383 0.15219334 0.61700004
-0.3261286 0.15219334 0.61700004
-0.32548001 0.15244001 0.61800003
-0.32430288 0.15244001 0.61800003
-0.32312575 0.15244001 0.61800003
-0.32194859 0.15244001 0.61800003
-0.32129049 0.15268667 0.61900002
-0.32062858 0.15293334 0.62
-0.32047811 0.15342668 0.62200004
-0.30744573 0.15342668 0.62200004
-0.30626097 0.15342668 0.62200004
-0.30752859 0.15466002 0.62700003
-0.30731145 0.15515335 0.62900001
-0.33146667 0.15312001 0.61600006
-0.33082953 0.15336858 0.61700004
-0.32965431 0.15336858 0.61700004
-0.32847908 0.15336858 0.61700004
-0.32730383 0.15336858 0.61700004
-0.3261286 0.15336858 0.61700004
-0.32548001 0.15361716 0.61800003
-0.32430288 0.15361716 0.61800003
-0.30801907 0.15610287 0.62800002
-0.33146667 0.15429334 0.61600006
-0.33029336 0.15429334 0.61600006
-0.32965431 0.15454382 0.61700004
-0.32847908 0.15454382 0.61700004
-0.3261286 0.15454382 0.61700004
-0.32548001 0.15479429 0.61800003
-0.30823049 0.15679811 0.62600005
-0.33146667 0.15546668 0.61600006
-0.33029336 0.15546668 0.61600006
-0.32965431 0.15571906 0.61700004
-0.32548001 0.15597144 0.61800003
-0.30724573 0.15748572 0.62400001
-0.33092859 0.15638572 0.61500001
-0.30675337 0.15842001 0.62300003
-0.33092859 0.15755716 0.61500001
-0.31673908 0.15576382 0.60800004
-0.31442288 0.15576382 0.60800004
-0.31274953 0.15550762 0.60700005
-0.30744573 0.15935048 0.62200004
-0.30626097 0.15935048 0.62200004
-0.33156002 0.15847048 0.61400002
-0.33039048 0.15847048 0.61400002
-0.31621811 0.15666382 0.60700005
-0.31558096 0.15692191 0.60800004
-0.31338859 0.15640572 0.60600001
-0.31223431 0.15640572 0.60600001
-0.31159335 0.15666382 0.60700005
-0.33210003 0.15990001 0.61500001
-0.33092859 0.15990001 0.61500001
-0.3276124 0.15886001 0.611
-0.3185305 0.15782002 0.60700005
-0.31632859 0.15730001 0.60500002
-0.31517622 0.15730001 0.60500002
-0.31454289 0.15756001 0.60600001
-0.31287146 0.15730001 0.60500002
-0.31171906 0.15730001 0.60500002
-0.31056669 0.15730001 0.60500002
-0.30992573 0.15756001 0.60600001
-0.30928096 0.15782002 0.60700005
-0.31968668 0.1589762 0.60700005
-0.31800574 0.15871429 0.60600001
-0.31632859 0.15845239 0.60500002
-0.31517622 0.15845239 0.60500002
-0.31402382 0.15845239 0.60500002
-0.31287146 0.15845239 0.60500002
-0.31171906 0.15845239 0.60500002
-0.31108001 0.15871429 0.60600001
-0.31043717 0.1589762 0.60700005
-0.30928096 0.1589762 0.60700005
-0.30812478 0.1589762 0.60700005
-0.32137144 0.1603962 0.60800004
-0.31968668 0.16013239 0.60700005
-0.31800574 0.15986858 0.60600001
-0.31632859 0.15960477 0.60500002
-0.31517622 0.15960477 0.60500002
-0.31454289 0.15986858 0.60600001
-0.31338859 0.15986858 0.60600001
-0.31171906 0.15960477 0.60500002
-0.31108001 0.15986858 0.60600001
