# .PCD v0.7 - Point Cloud Data file format
VERSION 0.7
FIELDS x y z rgb
SIZE 4 4 4 4
TYPE F F F U
COUNT 1 1 1 1
WIDTH 1026
HEIGHT 1
VIEWPOINT 0 0 0 1 0 0 0
POINTS 1026
DATA ascii
0.0089714294 -0.014952382 0.62800002 4294967295
0.010151429 -0.014928573 0.62700003 4294967295
0.01132762 -0.014904763 0.62600005 4294967295
0.012500001 -0.014880953 0.625 4294967295
0.013690477 -0.014880953 0.625 4294967295
0.014857144 -0.014857144 0.62400001 4294967295
0.016045716 -0.014857144 0.62400001 4294967295
0.017206667 -0.014833334 0.62300003 4294967295
0.018393334 -0.014833334 0.62300003 4294967295
0.019580001 -0.014833334 0.62300003 4294967295
0.020766668 -0.014833334 0.62300003 4294967295
0.021953335 -0.014833334 0.62300003 4294967295
0.023140002 -0.014833334 0.62300003 4294967295
0.0042266669 -0.01388762 0.634 4294967295
0.0054257144 -0.013865715 0.63300002 4294967295
0.0066314288 -0.013865715 0.63300002 4294967295
0.0077876197 -0.013778096 0.62900001 4294967295
0.008985715 -0.013778096 0.62900001 4294967295
0.010151429 -0.013734287 0.62700003 4294967295
0.01132762 -0.013712382 0.62600005 4294967295
0.012500001 -0.013690477 0.625 4294967295
0.013690477 -0.013690477 0.625 4294967295
0.014880953 -0.013690477 0.625 4294967295
0.016045716 -0.013668573 0.62400001 4294967295
0.017234286 -0.013668573 0.62400001 4294967295
0.018422859 -0.013668573 0.62400001 4294967295
0.019611429 -0.013668573 0.62400001 4294967295
0.020800002 -0.013668573 0.62400001 4294967295
0.021988573 -0.013668573 0.62400001 4294967295
0.023177145 -0.013668573 0.62400001 4294967295
0.024365716 -0.013668573 0.62400001 4294967295
0.025554288 -0.013668573 0.62400001 4294967295
0.026742859 -0.013668573 0.62400001 4294967295
0.0042266669 -0.012680001 0.634 4294967295
0.0054257144 -0.01266 0.63300002 4294967295
0.0066314288 -0.01266 0.63300002 4294967295
0.0078371437 -0.01266 0.63300002 4294967295
0.008985715 -0.012580001 0.62900001 4294967295
0.01016762 -0.012560001 0.62800002 4294967295
0.01132762 -0.012520001 0.62600005 4294967295
0.012500001 -0.012500001 0.625 4294967295
0.013690477 -0.012500001 0.625 4294967295
0.014880953 -0.012500001 0.625 4294967295
0.016071429 -0.012500001 0.625 4294967295
0.017234286 -0.012480001 0.62400001 4294967295
0.018422859 -0.012480001 0.62400001 4294967295
0.019611429 -0.012480001 0.62400001 4294967295
0.020800002 -0.012480001 0.62400001 4294967295
0.02202381 -0.012500001 0.625 4294967295
0.023177145 -0.012480001 0.62400001 4294967295
0.024404764 -0.012500001 0.625 4294967295
0.025554288 -0.012480001 0.62400001 4294967295
0.026785716 -0.012500001 0.625 4294967295
0.027976193 -0.012500001 0.625 4294967295
0.029166669 -0.012500001 0.625 4294967295
0.030357145 -0.012500001 0.625 4294967295
0.0030142858 -0.011454286 0.63300002 4294967295
0.0042200005 -0.011454286 0.63300002 4294967295
0.0054257144 -0.011454286 0.63300002 4294967295
0.0066314288 -0.011454286 0.63300002 4294967295
0.0078371437 -0.011454286 0.63300002 4294967295
0.0090142861 -0.011418096 0.63100004 4294967295
0.01018381 -0.011381906 0.62900001 4294967295
0.01136381 -0.01136381 0.62800002 4294967295
0.012520001 -0.01132762 0.62600005 4294967295
0.013690477 -0.011309525 0.625 4294967295
0.014880953 -0.011309525 0.625 4294967295
0.016071429 -0.011309525 0.625 4294967295
0.017234286 -0.011291429 0.62400001 4294967295
0.018422859 -0.011291429 0.62400001 4294967295
0.019611429 -0.011291429 0.62400001 4294967295
0.020833334 -0.011309525 0.625 4294967295
0.02202381 -0.011309525 0.625 4294967295
0.023214288 -0.011309525 0.625 4294967295
0.024404764 -0.011309525 0.625 4294967295
0.02559524 -0.011309525 0.625 4294967295
0.026785716 -0.011309525 0.625 4294967295
0.028020954 -0.01132762 0.62600005 4294967295
0.029213335 -0.01132762 0.62600005 4294967295
0.030405717 -0.01132762 0.62600005 4294967295
0.031648573 -0.011345715 0.62700003 4294967295
0.0018228573 -0.010329524 0.63800001 4294967295
0.0030190479 -0.010264763 0.634 4294967295
0.0042266669 -0.010264763 0.634 4294967295
0.0054257144 -0.010248573 0.63300002 4294967295
0.0066314288 -0.010248573 0.63300002 4294967295
0.0078371437 -0.010248573 0.63300002 4294967295
0.0090142861 -0.010216191 0.63100004 4294967295
0.01018381 -0.01018381 0.62900001 4294967295
0.011381906 -0.01018381 0.62900001 4294967295
0.01254 -0.010151429 0.62700003 4294967295
0.013712382 -0.010135239 0.62600005 4294967295
0.014880953 -0.010119048 0.625 4294967295
0.016071429 -0.010119048 0.625 4294967295
0.017234286 -0.010102858 0.62400001 4294967295
0.018422859 -0.010102858 0.62400001 4294967295
0.019611429 -0.010102858 0.62400001 4294967295
0.020833334 -0.010119048 0.625 4294967295
0.02202381 -0.010119048 0.625 4294967295
0.023214288 -0.010119048 0.625 4294967295
0.024404764 -0.010119048 0.625 4294967295
0.02559524 -0.010119048 0.625 4294967295
0.026828574 -0.010135239 0.62600005 4294967295
0.028020954 -0.010135239 0.62600005 4294967295
0.029260002 -0.010151429 0.62700003 4294967295
0.030454287 -0.010151429 0.62700003 4294967295
0.031648573 -0.010151429 0.62700003 4294967295
0.032895241 -0.01016762 0.62800002 4294967295
0.00060857146 -0.0091285724 0.63900006 4294967295
0.0018142859 -0.0090714293 0.63500005 4294967295
0.0030190479 -0.0090571437 0.634 4294967295
0.0042266669 -0.0090571437 0.634 4294967295
0.0054342858 -0.0090571437 0.634 4294967295
0.0066314288 -0.0090428581 0.63300002 4294967295
0.0078371437 -0.0090428581 0.63300002 4294967295
0.0090142861 -0.0090142861 0.63100004 4294967295
0.010216191 -0.0090142861 0.63100004 4294967295
0.011381906 -0.008985715 0.62900001 4294967295
0.012560001 -0.0089714294 0.62800002 4294967295
0.013712382 -0.0089428574 0.62600005 4294967295
0.014904763 -0.0089428574 0.62600005 4294967295
0.016097143 -0.0089428574 0.62600005 4294967295
0.017289525 -0.0089428574 0.62600005 4294967295
0.018452382 -0.0089285718 0.625 4294967295
0.019642858 -0.0089285718 0.625 4294967295
0.020833334 -0.0089285718 0.625 4294967295
0.022059049 -0.0089428574 0.62600005 4294967295
0.023214288 -0.0089285718 0.625 4294967295
0.024404764 -0.0089285718 0.625 4294967295
0.02559524 -0.0089285718 0.625 4294967295
0.026828574 -0.0089428574 0.62600005 4294967295
0.028065717 -0.0089571439 0.62700003 4294967295
0.029260002 -0.0089571439 0.62700003 4294967295
0.030454287 -0.0089571439 0.62700003 4294967295
0.031648573 -0.0089571439 0.62700003 4294967295
0.032895241 -0.0089714294 0.62800002 4294967295
-0.0018400002 -0.0079733338 0.64400005 4294967295
-0.00061142864 -0.0079485718 0.64200002 4294967295
0.00060857146 -0.0079114288 0.63900006 4294967295
0.0018171429 -0.0078742858 0.63600004 4294967295
0.0030238098 -0.0078619057 0.63500005 4294967295
0.0042333337 -0.0078619057 0.63500005 4294967295
0.0054342858 -0.0078495247 0.634 4294967295
0.0066419053 -0.0078495247 0.634 4294967295
0.0078371437 -0.0078371437 0.63300002 4294967295
0.0090285717 -0.0078247627 0.63200003 4294967295
0.010216191 -0.0078123813 0.63100004 4294967295
0.011381906 -0.0077876197 0.62900001 4294967295
0.012560001 -0.0077752387 0.62800002 4294967295
0.013734287 -0.0077628577 0.62700003 4294967295
0.014904763 -0.0077504767 0.62600005 4294967295
0.016097143 -0.0077504767 0.62600005 4294967295
0.017289525 -0.0077504767 0.62600005 4294967295
0.018452382 -0.0077380957 0.625 4294967295
0.019642858 -0.0077380957 0.625 4294967295
0.020833334 -0.0077380957 0.625 4294967295
0.02202381 -0.0077380957 0.625 4294967295
0.023214288 -0.0077380957 0.625 4294967295
0.024404764 -0.0077380957 0.625 4294967295
0.02559524 -0.0077380957 0.625 4294967295
0.026828574 -0.0077504767 0.62600005 4294967295
0.028065717 -0.0077628577 0.62700003 4294967295
0.029306669 -0.0077752387 0.62800002 4294967295
0.03050286 -0.0077752387 0.62800002 4294967295
0.031648573 -0.0077628577 0.62700003 4294967295
0.032895241 -0.0077752387 0.62800002 4294967295
-0.0079733338 -0.006746667 0.64400005 4294967295
-0.006746667 -0.006746667 0.64400005 4294967295
-0.0055200006 -0.006746667 0.64400005 4294967295
-0.0042933337 -0.006746667 0.64400005 4294967295
-0.003057143 -0.0067257145 0.64200002 4294967295
-0.0018314287 -0.0067152386 0.64100003 4294967295
-0.00060857146 -0.0066942861 0.63900006 4294967295
0.00060761906 -0.0066838101 0.63800001 4294967295
0.0018171429 -0.0066628577 0.63600004 4294967295
0.0030238098 -0.0066523813 0.63500005 4294967295
0.0042333337 -0.0066523813 0.63500005 4294967295
0.0054342858 -0.0066419053 0.634 4294967295
0.0066419053 -0.0066419053 0.634 4294967295
0.0078371437 -0.0066314288 0.63300002 4294967295
0.0090285717 -0.0066209529 0.63200003 4294967295
0.010232382 -0.0066209529 0.63200003 4294967295
0.011418096 -0.0066104764 0.63100004 4294967295
0.012560001 -0.006579048 0.62800002 4294967295
0.013734287 -0.006568572 0.62700003 4294967295
0.014904763 -0.0065580956 0.62600005 4294967295
0.016122859 -0.006568572 0.62700003 4294967295
0.017289525 -0.0065580956 0.62600005 4294967295
0.018452382 -0.0065476196 0.625 4294967295
0.019642858 -0.0065476196 0.625 4294967295
0.020833334 -0.0065476196 0.625 4294967295
0.022059049 -0.0065580956 0.62600005 4294967295
0.023214288 -0.0065476196 0.625 4294967295
0.024404764 -0.0065476196 0.625 4294967295
0.02559524 -0.0065476196 0.625 4294967295
0.026828574 -0.0065580956 0.62600005 4294967295
0.028065717 -0.006568572 0.62700003 4294967295
0.029306669 -0.006579048 0.62800002 4294967295
0.03050286 -0.006579048 0.62800002 4294967295
0.03169905 -0.006579048 0.62800002 4294967295
0.032895241 -0.006579048 0.62800002 4294967295
0.034145717 -0.0065895244 0.62900001 4294967295
0.035287622 -0.006579048 0.62800002 4294967295
-0.0092000002 -0.0055200006 0.64400005 4294967295
-0.0079733338 -0.0055200006 0.64400005 4294967295
-0.0067257145 -0.0055028577 0.64200002 4294967295
-0.0055028577 -0.0055028577 0.64200002 4294967295
-0.0042733336 -0.0054942863 0.64100003 4294967295
-0.0030523811 -0.0054942863 0.64100003 4294967295
-0.0018285715 -0.0054857144 0.64000005 4294967295
-0.00060761906 -0.0054685716 0.63800001 4294967295
0.00060761906 -0.0054685716 0.63800001 4294967295
0.0018142859 -0.0054428573 0.63500005 4294967295
0.0030190479 -0.0054342858 0.634 4294967295
0.0042266669 -0.0054342858 0.634 4294967295
0.0054342858 -0.0054342858 0.634 4294967295
0.0066419053 -0.0054342858 0.634 4294967295
0.0078371437 -0.0054257144 0.63300002 4294967295
0.0090285717 -0.005417143 0.63200003 4294967295
0.010232382 -0.005417143 0.63200003 4294967295
0.011418096 -0.0054085716 0.63100004 4294967295
0.012580001 -0.0053914287 0.62900001 4294967295
0.013778096 -0.0053914287 0.62900001 4294967295
0.014952382 -0.0053828573 0.62800002 4294967295
0.016174287 -0.0053914287 0.62900001 4294967295
0.017344764 -0.0053828573 0.62800002 4294967295
0.018511429 -0.0053742859 0.62700003 4294967295
0.019705715 -0.0053742859 0.62700003 4294967295
0.020900002 -0.0053742859 0.62700003 4294967295
0.022059049 -0.0053657144 0.62600005 4294967295
0.023251429 -0.0053657144 0.62600005 4294967295
0.024404764 -0.005357143 0.625 4294967295
0.025636192 -0.0053657144 0.62600005 4294967295
0.026914287 -0.0053828573 0.62800002 4294967295
0.028110478 -0.0053828573 0.62800002 4294967295
0.029353335 -0.0053914287 0.62900001 4294967295
0.03055143 -0.0053914287 0.62900001 4294967295
0.03185048 -0.0054085716 0.63100004 4294967295
0.032947622 -0.0053914287 0.62900001 4294967295
0.034145717 -0.0053914287 0.62900001 4294967295
0.035287622 -0.0053828573 0.62800002 4294967295
0.046126671 -0.0053914287 0.62900001 4294967295
0.047475241 -0.0054085716 0.63100004 4294967295
0.04852286 -0.0053914287 0.62900001 4294967295
-0.0092000002 -0.0042933337 0.64400005 4294967295
-0.0079485718 -0.0042800005 0.64200002 4294967295
-0.0067257145 -0.0042800005 0.64200002 4294967295
-0.0054942863 -0.0042733336 0.64100003 4294967295
-0.0042733336 -0.0042733336 0.64100003 4294967295
-0.0030476192 -0.0042666672 0.64000005 4294967295
-0.0018257144 -0.0042600003 0.63900006 4294967295
-0.00060761906 -0.0042533334 0.63800001 4294967295
0.00060571433 -0.0042400002 0.63600004 4294967295
0.0018142859 -0.0042333337 0.63500005 4294967295
0.0030190479 -0.0042266669 0.634 4294967295
0.0042266669 -0.0042266669 0.634 4294967295
0.0054342858 -0.0042266669 0.634 4294967295
0.0066419053 -0.0042266669 0.634 4294967295
0.0078371437 -0.0042200005 0.63300002 4294967295
0.0090285717 -0.0042133336 0.63200003 4294967295
0.010232382 -0.0042133336 0.63200003 4294967295
0.011418096 -0.0042066667 0.63100004 4294967295
0.012580001 -0.0041933334 0.62900001 4294967295
0.013778096 -0.0041933334 0.62900001 4294967295
0.014952382 -0.004186667 0.62800002 4294967295
0.016174287 -0.0041933334 0.62900001 4294967295
0.017344764 -0.004186667 0.62800002 4294967295
0.018511429 -0.0041800002 0.62700003 4294967295
0.019705715 -0.0041800002 0.62700003 4294967295
0.020900002 -0.0041800002 0.62700003 4294967295
0.022059049 -0.0041733338 0.62600005 4294967295
0.023251429 -0.0041733338 0.62600005 4294967295
0.024443811 -0.0041733338 0.62600005 4294967295
0.025718097 -0.004186667 0.62800002 4294967295
0.026957145 -0.0041933334 0.62900001 4294967295
0.028155239 -0.0041933334 0.62900001 4294967295
0.029353335 -0.0041933334 0.62900001 4294967295
0.03055143 -0.0041933334 0.62900001 4294967295
0.031749524 -0.0041933334 0.62900001 4294967295
0.032947622 -0.0041933334 0.62900001 4294967295
0.034145717 -0.0041933334 0.62900001 4294967295
0.035343811 -0.0041933334 0.62900001 4294967295
0.036483813 -0.004186667 0.62800002 4294967295
0.046126671 -0.0041933334 0.62900001 4294967295
0.047475241 -0.0042066667 0.63100004 4294967295
0.04852286 -0.0041933334 0.62900001 4294967295
-0.0092000002 -0.0030666669 0.64400005 4294967295
-0.0079733338 -0.0030666669 0.64400005 4294967295
-0.0067257145 -0.003057143 0.64200002 4294967295
-0.0054942863 -0.0030523811 0.64100003 4294967295
-0.0042733336 -0.0030523811 0.64100003 4294967295
-0.0030476192 -0.0030476192 0.64000005 4294967295
-0.0018285715 -0.0030476192 0.64000005 4294967295
-0.00060761906 -0.0030380955 0.63800001 4294967295
0.00060571433 -0.0030285716 0.63600004 4294967295
0.0018142859 -0.0030238098 0.63500005 4294967295
0.0030190479 -0.0030190479 0.634 4294967295
0.0042266669 -0.0030190479 0.634 4294967295
0.0054342858 -0.0030190479 0.634 4294967295
0.0066314288 -0.0030142858 0.63300002 4294967295
0.0078371437 -0.0030142858 0.63300002 4294967295
0.0090285717 -0.003009524 0.63200003 4294967295
0.010216191 -0.0030047621 0.63100004 4294967295
0.011418096 -0.0030047621 0.63100004 4294967295
0.012580001 -0.0029952384 0.62900001 4294967295
0.013778096 -0.0029952384 0.62900001 4294967295
0.014952382 -0.0029904763 0.62800002 4294967295
0.016148573 -0.0029904763 0.62800002 4294967295
0.017344764 -0.0029904763 0.62800002 4294967295
0.018511429 -0.0029857145 0.62700003 4294967295
0.019705715 -0.0029857145 0.62700003 4294967295
0.020900002 -0.0029857145 0.62700003 4294967295
0.022094287 -0.0029857145 0.62700003 4294967295
0.023251429 -0.0029809526 0.62600005 4294967295
0.024482859 -0.0029857145 0.62700003 4294967295
0.025677145 -0.0029857145 0.62700003 4294967295
0.026957145 -0.0029952384 0.62900001 4294967295
0.028110478 -0.0029904763 0.62800002 4294967295
0.029353335 -0.0029952384 0.62900001 4294967295
0.03055143 -0.0029952384 0.62900001 4294967295
0.031749524 -0.0029952384 0.62900001 4294967295
0.033052385 -0.0030047621 0.63100004 4294967295
0.034254286 -0.0030047621 0.63100004 4294967295
0.035343811 -0.0029952384 0.62900001 4294967295
0.036541909 -0.0029952384 0.62900001 4294967295
0.046053335 -0.0029904763 0.62800002 4294967295
0.047324765 -0.0029952384 0.62900001 4294967295
0.04852286 -0.0029952384 0.62900001 4294967295
-0.010426668 -0.0018400002 0.64400005 4294967295
-0.0092000002 -0.0018400002 0.64400005 4294967295
-0.0079733338 -0.0018400002 0.64400005 4294967295
-0.0067257145 -0.0018342858 0.64200002 4294967295
-0.0055028577 -0.0018342858 0.64200002 4294967295
-0.0042733336 -0.0018314287 0.64100003 4294967295
-0.0030476192 -0.0018285715 0.64000005 4294967295
-0.0018257144 -0.0018257144 0.63900006 4294967295
-0.00060761906 -0.0018228573 0.63800001 4294967295
0.00060476194 -0.0018142859 0.63500005 4294967295
0.0018142859 -0.0018142859 0.63500005 4294967295
0.0030190479 -0.0018114287 0.634 4294967295
0.0042200005 -0.0018085715 0.63300002 4294967295
0.0054257144 -0.0018085715 0.63300002 4294967295
0.0066314288 -0.0018085715 0.63300002 4294967295
0.0078247627 -0.0018057144 0.63200003 4294967295
0.0090142861 -0.0018028573 0.63100004 4294967295
0.01018381 -0.001797143 0.62900001 4294967295
0.011381906 -0.001797143 0.62900001 4294967295
0.012580001 -0.001797143 0.62900001 4294967295
0.013778096 -0.001797143 0.62900001 4294967295
0.014952382 -0.0017942858 0.62800002 4294967295
0.016148573 -0.0017942858 0.62800002 4294967295
0.017344764 -0.0017942858 0.62800002 4294967295
0.018540954 -0.0017942858 0.62800002 4294967295
0.019737145 -0.0017942858 0.62800002 4294967295
0.020933334 -0.0017942858 0.62800002 4294967295
0.022129524 -0.0017942858 0.62800002 4294967295
0.023288572 -0.0017914287 0.62700003 4294967295
0.024482859 -0.0017914287 0.62700003 4294967295
0.025677145 -0.0017914287 0.62700003 4294967295
0.026957145 -0.001797143 0.62900001 4294967295
0.028155239 -0.001797143 0.62900001 4294967295
0.029353335 -0.001797143 0.62900001 4294967295
0.03055143 -0.001797143 0.62900001 4294967295
0.031749524 -0.001797143 0.62900001 4294967295
0.033052385 -0.0018028573 0.63100004 4294967295
0.034254286 -0.0018028573 0.63100004 4294967295
0.035343811 -0.001797143 0.62900001 4294967295
0.036541909 -0.001797143 0.62900001 4294967295
0.037860002 -0.0018028573 0.63100004 4294967295
0.046126671 -0.001797143 0.62900001 4294967295
0.047324765 -0.001797143 0.62900001 4294967295
-0.010426668 -0.00061333337 0.64400005 4294967295
-0.0092000002 -0.00061333337 0.64400005 4294967295
-0.0079485718 -0.00061142864 0.64200002 4294967295
-0.0067257145 -0.00061142864 0.64200002 4294967295
-0.0054942863 -0.00061047624 0.64100003 4294967295
-0.0042666672 -0.00060952385 0.64000005 4294967295
-0.0030428574 -0.00060857146 0.63900006 4294967295
-0.0018257144 -0.00060857146 0.63900006 4294967295
-0.00060571433 -0.00060571433 0.63600004 4294967295
0.00060380955 -0.00060380955 0.634 4294967295
0.0018114287 -0.00060380955 0.634 4294967295
0.0030142858 -0.00060285721 0.63300002 4294967295
0.0042133336 -0.00060190482 0.63200003 4294967295
0.005417143 -0.00060190482 0.63200003 4294967295
0.0066209529 -0.00060190482 0.63200003 4294967295
0.0078123813 -0.00060095242 0.63100004 4294967295
0.008985715 -0.00059904763 0.62900001 4294967295
0.01018381 -0.00059904763 0.62900001 4294967295
0.011381906 -0.00059904763 0.62900001 4294967295
0.012580001 -0.00059904763 0.62900001 4294967295
0.013756191 -0.0005980953 0.62800002 4294967295
0.014952382 -0.0005980953 0.62800002 4294967295
0.016148573 -0.0005980953 0.62800002 4294967295
0.017344764 -0.0005980953 0.62800002 4294967295
0.018540954 -0.0005980953 0.62800002 4294967295
0.019737145 -0.0005980953 0.62800002 4294967295
0.020900002 -0.00059714291 0.62700003 4294967295
0.022094287 -0.00059714291 0.62700003 4294967295
0.023288572 -0.00059714291 0.62700003 4294967295
0.024482859 -0.00059714291 0.62700003 4294967295
0.025677145 -0.00059714291 0.62700003 4294967295
0.026957145 -0.00059904763 0.62900001 4294967295
0.028110478 -0.0005980953 0.62800002 4294967295
0.029353335 -0.00059904763 0.62900001 4294967295
0.03055143 -0.00059904763 0.62900001 4294967295
0.031749524 -0.00059904763 0.62900001 4294967295
0.033052385 -0.00060095242 0.63100004 4294967295
0.034254286 -0.00060095242 0.63100004 4294967295
0.035456192 -0.00060095242 0.63100004 4294967295
0.036658097 -0.00060095242 0.63100004 4294967295
0.037920002 -0.00060190482 0.63200003 4294967295
0.039185718 -0.00060285721 0.63300002 4294967295
0.040327623 -0.00060190482 0.63200003 4294967295
0.046273336 -0.00060095242 0.63100004 4294967295
-0.010394286 0.00061142864 0.64200002 4294967295
-0.0091714291 0.00061142864 0.64200002 4294967295
-0.0079485718 0.00061142864 0.64200002 4294967295
-0.0067257145 0.00061142864 0.64200002 4294967295
-0.0054942863 0.00061047624 0.64100003 4294967295
-0.0042666672 0.00060952385 0.64000005 4294967295
-0.0030428574 0.00060857146 0.63900006 4294967295
-0.0018171429 0.00060571433 0.63600004 4294967295
-0.00060476194 0.00060476194 0.63500005 4294967295
0.00060285721 0.00060285721 0.63300002 4294967295
0.0018085715 0.00060285721 0.63300002 4294967295
0.003009524 0.00060190482 0.63200003 4294967295
0.0042133336 0.00060190482 0.63200003 4294967295
0.0054085716 0.00060095242 0.63100004 4294967295
0.0066104764 0.00060095242 0.63100004 4294967295
0.0077876197 0.00059904763 0.62900001 4294967295
0.008985715 0.00059904763 0.62900001 4294967295
0.01016762 0.0005980953 0.62800002 4294967295
0.01136381 0.0005980953 0.62800002 4294967295
0.012560001 0.0005980953 0.62800002 4294967295
0.013756191 0.0005980953 0.62800002 4294967295
0.014952382 0.0005980953 0.62800002 4294967295
0.016148573 0.0005980953 0.62800002 4294967295
0.017344764 0.0005980953 0.62800002 4294967295
0.018540954 0.0005980953 0.62800002 4294967295
0.019705715 0.00059714291 0.62700003 4294967295
0.020900002 0.00059714291 0.62700003 4294967295
0.022094287 0.00059714291 0.62700003 4294967295
0.023251429 0.00059619051 0.62600005 4294967295
0.024482859 0.00059714291 0.62700003 4294967295
0.025677145 0.00059714291 0.62700003 4294967295
0.026914287 0.0005980953 0.62800002 4294967295
0.028110478 0.0005980953 0.62800002 4294967295
0.029353335 0.00059904763 0.62900001 4294967295
0.03055143 0.00059904763 0.62900001 4294967295
0.031749524 0.00059904763 0.62900001 4294967295
0.033052385 0.00060095242 0.63100004 4294967295
0.034145717 0.00059904763 0.62900001 4294967295
0.035343811 0.00059904763 0.62900001 4294967295
0.036716193 0.00060190482 0.63200003 4294967295
0.037980001 0.00060285721 0.63300002 4294967295
0.039123811 0.00060190482 0.63200003 4294967295
0.040327623 0.00060190482 0.63200003 4294967295
0.041531432 0.00060190482 0.63200003 4294967295
0.042735241 0.00060190482 0.63200003 4294967295
0.04393905 0.00060190482 0.63200003 4294967295
0.045142859 0.00060190482 0.63200003 4294967295
0.046346668 0.00060190482 0.63200003 4294967295
0.04875429 0.00060190482 0.63200003 4294967295
-0.010394286 0.0018342858 0.64200002 4294967295
-0.0091714291 0.0018342858 0.64200002 4294967295
-0.0079485718 0.0018342858 0.64200002 4294967295
-0.0067152386 0.0018314287 0.64100003 4294967295
-0.0054857144 0.0018285715 0.64000005 4294967295
-0.0042600003 0.0018257144 0.63900006 4294967295
-0.0030380955 0.0018228573 0.63800001 4294967295
-0.0018142859 0.0018142859 0.63500005 4294967295
-0.00060380955 0.0018114287 0.634 4294967295
0.00060285721 0.0018085715 0.63300002 4294967295
0.0018085715 0.0018085715 0.63300002 4294967295
0.0030047621 0.0018028573 0.63100004 4294967295
0.0042066667 0.0018028573 0.63100004 4294967295
0.0053914287 0.001797143 0.62900001 4294967295
0.0065895244 0.001797143 0.62900001 4294967295
0.0077876197 0.001797143 0.62900001 4294967295
0.0089714294 0.0017942858 0.62800002 4294967295
0.01016762 0.0017942858 0.62800002 4294967295
0.01136381 0.0017942858 0.62800002 4294967295
0.012560001 0.0017942858 0.62800002 4294967295
0.013756191 0.0017942858 0.62800002 4294967295
0.014928573 0.0017914287 0.62700003 4294967295
0.016122859 0.0017914287 0.62700003 4294967295
0.017317144 0.0017914287 0.62700003 4294967295
0.018511429 0.0017914287 0.62700003 4294967295
0.019705715 0.0017914287 0.62700003 4294967295
0.020866668 0.0017885716 0.62600005 4294967295
0.022059049 0.0017885716 0.62600005 4294967295
0.023251429 0.0017885716 0.62600005 4294967295
0.024443811 0.0017885716 0.62600005 4294967295
0.025636192 0.0017885716 0.62600005 4294967295
0.02687143 0.0017914287 0.62700003 4294967295
0.028110478 0.0017942858 0.62800002 4294967295
0.029306669 0.0017942858 0.62800002 4294967295
0.03050286 0.0017942858 0.62800002 4294967295
0.03169905 0.0017942858 0.62800002 4294967295
0.032947622 0.001797143 0.62900001 4294967295
0.034145717 0.001797143 0.62900001 4294967295
0.035343811 0.001797143 0.62900001 4294967295
0.036658097 0.0018028573 0.63100004 4294967295
0.037920002 0.0018057144 0.63200003 4294967295
0.039123811 0.0018057144 0.63200003 4294967295
0.04039143 0.0018085715 0.63300002 4294967295
0.041597147 0.0018085715 0.63300002 4294967295
0.042802859 0.0018085715 0.63300002 4294967295
0.044008575 0.0018085715 0.63300002 4294967295
0.045214288 0.0018085715 0.63300002 4294967295
0.046420004 0.0018085715 0.63300002 4294967295
-0.009142858 0.0030476192 0.64000005 4294967295
-0.0079238098 0.0030476192 0.64000005 4294967295
-0.0066942861 0.0030428574 0.63900006 4294967295
-0.005477143 0.0030428574 0.63900006 4294967295
-0.0042533334 0.0030380955 0.63800001 4294967295
-0.0030285716 0.0030285716 0.63600004 4294967295
-0.0018114287 0.0030190479 0.634 4294967295
-0.00060285721 0.0030142858 0.63300002 4294967295
0.00060190482 0.003009524 0.63200003 4294967295
0.0018057144 0.003009524 0.63200003 4294967295
0.0030047621 0.0030047621 0.63100004 4294967295
0.0041933334 0.0029952384 0.62900001 4294967295
0.0053914287 0.0029952384 0.62900001 4294967295
0.006579048 0.0029904763 0.62800002 4294967295
0.0077752387 0.0029904763 0.62800002 4294967295
0.0089714294 0.0029904763 0.62800002 4294967295
0.010151429 0.0029857145 0.62700003 4294967295
0.011345715 0.0029857145 0.62700003 4294967295
0.01254 0.0029857145 0.62700003 4294967295
0.013734287 0.0029857145 0.62700003 4294967295
0.014928573 0.0029857145 0.62700003 4294967295
0.016122859 0.0029857145 0.62700003 4294967295
0.017317144 0.0029857145 0.62700003 4294967295
0.018481907 0.0029809526 0.62600005 4294967295
0.019674286 0.0029809526 0.62600005 4294967295
0.020833334 0.0029761908 0.625 4294967295
0.02202381 0.0029761908 0.625 4294967295
0.023214288 0.0029761908 0.625 4294967295
0.024404764 0.0029761908 0.625 4294967295
0.02559524 0.0029761908 0.625 4294967295
0.026785716 0.0029761908 0.625 4294967295
0.028065717 0.0029857145 0.62700003 4294967295
0.029306669 0.0029904763 0.62800002 4294967295
0.03050286 0.0029904763 0.62800002 4294967295
0.03169905 0.0029904763 0.62800002 4294967295
0.032895241 0.0029904763 0.62800002 4294967295
0.034091432 0.0029904763 0.62800002 4294967295
0.035343811 0.0029952384 0.62900001 4294967295
0.036541909 0.0029952384 0.62900001 4294967295
0.037920002 0.003009524 0.63200003 4294967295
0.039123811 0.003009524 0.63200003 4294967295
0.04039143 0.0030142858 0.63300002 4294967295
0.041597147 0.0030142858 0.63300002 4294967295
0.042802859 0.0030142858 0.63300002 4294967295
0.044008575 0.0030142858 0.63300002 4294967295
0.045214288 0.0030142858 0.63300002 4294967295
0.046493337 0.0030190479 0.634 4294967295
0.047700956 0.0030190479 0.634 4294967295
-0.010345715 0.0042600003 0.63900006 4294967295
-0.0091285724 0.0042600003 0.63900006 4294967295
-0.0079114288 0.0042600003 0.63900006 4294967295
-0.0066838101 0.0042533334 0.63800001 4294967295
-0.0054685716 0.0042533334 0.63800001 4294967295
-0.0042400002 0.0042400002 0.63600004 4294967295
-0.0030190479 0.0042266669 0.634 4294967295
-0.0018085715 0.0042200005 0.63300002 4294967295
-0.00060190482 0.0042133336 0.63200003 4294967295
0.00060095242 0.0042066667 0.63100004 4294967295
0.0018028573 0.0042066667 0.63100004 4294967295
0.0029952384 0.0041933334 0.62900001 4294967295
0.0041933334 0.0041933334 0.62900001 4294967295
0.0053914287 0.0041933334 0.62900001 4294967295
0.006579048 0.004186667 0.62800002 4294967295
0.0077752387 0.004186667 0.62800002 4294967295
0.0089571439 0.0041800002 0.62700003 4294967295
0.010151429 0.0041800002 0.62700003 4294967295
0.011345715 0.0041800002 0.62700003 4294967295
0.012520001 0.0041733338 0.62600005 4294967295
0.013712382 0.0041733338 0.62600005 4294967295
0.014904763 0.0041733338 0.62600005 4294967295
0.016097143 0.0041733338 0.62600005 4294967295
0.017289525 0.0041733338 0.62600005 4294967295
0.018481907 0.0041733338 0.62600005 4294967295
0.019642858 0.0041666669 0.625 4294967295
0.020833334 0.0041666669 0.625 4294967295
0.02202381 0.0041666669 0.625 4294967295
0.023214288 0.0041666669 0.625 4294967295
0.024404764 0.0041666669 0.625 4294967295
0.02559524 0.0041666669 0.625 4294967295
0.026785716 0.0041666669 0.625 4294967295
0.027976193 0.0041666669 0.625 4294967295
0.029166669 0.0041666669 0.625 4294967295
0.030357145 0.0041666669 0.625 4294967295
0.031648573 0.0041800002 0.62700003 4294967295
0.032895241 0.004186667 0.62800002 4294967295
0.034091432 0.004186667 0.62800002 4294967295
0.035287622 0.004186667 0.62800002 4294967295
0.036541909 0.0041933334 0.62900001 4294967295
0.037860002 0.0042066667 0.63100004 4294967295
0.039061908 0.0042066667 0.63100004 4294967295
0.040327623 0.0042133336 0.63200003 4294967295
0.041597147 0.0042200005 0.63300002 4294967295
0.042802859 0.0042200005 0.63300002 4294967295
0.044008575 0.0042200005 0.63300002 4294967295
0.045214288 0.0042200005 0.63300002 4294967295
0.046493337 0.0042266669 0.634 4294967295
0.047776192 0.0042333337 0.63500005 4294967295
-0.011562858 0.005477143 0.63900006 4294967295
-0.010345715 0.005477143 0.63900006 4294967295
-0.0091285724 0.005477143 0.63900006 4294967295
-0.0078990478 0.0054685716 0.63800001 4294967295
-0.0066838101 0.0054685716 0.63800001 4294967295
-0.0054514287 0.0054514287 0.63600004 4294967295
-0.0042400002 0.0054514287 0.63600004 4294967295
-0.0030142858 0.0054257144 0.63300002 4294967295
-0.0018057144 0.005417143 0.63200003 4294967295
-0.00060190482 0.005417143 0.63200003 4294967295
0.00059904763 0.0053914287 0.62900001 4294967295
0.001797143 0.0053914287 0.62900001 4294967295
0.0029952384 0.0053914287 0.62900001 4294967295
0.0041933334 0.0053914287 0.62900001 4294967295
0.0053828573 0.0053828573 0.62800002 4294967295
0.006579048 0.0053828573 0.62800002 4294967295
0.0077628577 0.0053742859 0.62700003 4294967295
0.0089571439 0.0053742859 0.62700003 4294967295
0.010135239 0.0053657144 0.62600005 4294967295
0.01132762 0.0053657144 0.62600005 4294967295
0.012520001 0.0053657144 0.62600005 4294967295
0.013712382 0.0053657144 0.62600005 4294967295
0.014904763 0.0053657144 0.62600005 4294967295
0.016097143 0.0053657144 0.62600005 4294967295
0.017289525 0.0053657144 0.62600005 4294967295
0.018452382 0.005357143 0.625 4294967295
0.019611429 0.0053485716 0.62400001 4294967295
0.020800002 0.0053485716 0.62400001 4294967295
0.021988573 0.0053485716 0.62400001 4294967295
0.023214288 0.005357143 0.625 4294967295
0.024404764 0.005357143 0.625 4294967295
0.025554288 0.0053485716 0.62400001 4294967295
0.026742859 0.0053485716 0.62400001 4294967295
0.027931431 0.0053485716 0.62400001 4294967295
0.029166669 0.005357143 0.625 4294967295
0.030357145 0.005357143 0.625 4294967295
0.031547621 0.005357143 0.625 4294967295
0.03284286 0.0053742859 0.62700003 4294967295
0.034037147 0.0053742859 0.62700003 4294967295
0.03523143 0.0053742859 0.62700003 4294967295
0.036483813 0.0053828573 0.62800002 4294967295
0.037740003 0.0053914287 0.62900001 4294967295
0.038938098 0.0053914287 0.62900001 4294967295
0.040263813 0.0054085716 0.63100004 4294967295
0.041531432 0.005417143 0.63200003 4294967295
0.042735241 0.005417143 0.63200003 4294967295
0.04393905 0.005417143 0.63200003 4294967295
0.045214288 0.0054257144 0.63300002 4294967295
0.046493337 0.0054342858 0.634 4294967295
0.047776192 0.0054428573 0.63500005 4294967295
0.048985716 0.0054428573 0.63500005 4294967295
-0.011562858 0.0066942861 0.63900006 4294967295
-0.010345715 0.0066942861 0.63900006 4294967295
-0.0091142859 0.0066838101 0.63800001 4294967295
-0.0078742858 0.0066628577 0.63600004 4294967295
-0.0066628577 0.0066628577 0.63600004 4294967295
-0.0054428573 0.0066523813 0.63500005 4294967295
-0.0042266669 0.0066419053 0.634 4294967295
-0.003009524 0.0066209529 0.63200003 4294967295
-0.0018028573 0.0066104764 0.63100004 4294967295
-0.00060095242 0.0066104764 0.63100004 4294967295
0.00059904763 0.0065895244 0.62900001 4294967295
0.001797143 0.0065895244 0.62900001 4294967295
0.0029904763 0.006579048 0.62800002 4294967295
0.004186667 0.006579048 0.62800002 4294967295
0.0053828573 0.006579048 0.62800002 4294967295
0.006568572 0.006568572 0.62700003 4294967295
0.0077504767 0.0065580956 0.62600005 4294967295
0.0089428574 0.0065580956 0.62600005 4294967295
0.010135239 0.0065580956 0.62600005 4294967295
0.01132762 0.0065580956 0.62600005 4294967295
0.012500001 0.0065476196 0.625 4294967295
0.013690477 0.0065476196 0.625 4294967295
0.014880953 0.0065476196 0.625 4294967295
0.016071429 0.0065476196 0.625 4294967295
0.017261906 0.0065476196 0.625 4294967295
0.018422859 0.0065371431 0.62400001 4294967295
0.019611429 0.0065371431 0.62400001 4294967295
0.020800002 0.0065371431 0.62400001 4294967295
0.021953335 0.0065266672 0.62300003 4294967295
0.023177145 0.0065371431 0.62400001 4294967295
0.024326669 0.0065266672 0.62300003 4294967295
0.025472382 0.0065161907 0.62200004 4294967295
0.026700001 0.0065266672 0.62300003 4294967295
0.027931431 0.0065371431 0.62400001 4294967295
0.029120002 0.0065371431 0.62400001 4294967295
0.030308573 0.0065371431 0.62400001 4294967295
0.031547621 0.0065476196 0.625 4294967295
0.032790478 0.0065580956 0.62600005 4294967295
0.034037147 0.006568572 0.62700003 4294967295
0.03523143 0.006568572 0.62700003 4294967295
0.036425717 0.006568572 0.62700003 4294967295
0.037680004 0.006579048 0.62800002 4294967295
0.038938098 0.0065895244 0.62900001 4294967295
0.040136192 0.0065895244 0.62900001 4294967295
0.041531432 0.0066209529 0.63200003 4294967295
0.042735241 0.0066209529 0.63200003 4294967295
0.04393905 0.0066209529 0.63200003 4294967295
0.045214288 0.0066314288 0.63300002 4294967295
0.046420004 0.0066314288 0.63300002 4294967295
0.047700956 0.0066419053 0.634 4294967295
0.048908576 0.0066419053 0.634 4294967295
0.050116193 0.0066419053 0.634 4294967295
0.051242862 0.0066314288 0.63300002 4294967295
-0.011562858 0.0079114288 0.63900006 4294967295
-0.010345715 0.0079114288 0.63900006 4294967295
-0.0091142859 0.0078990478 0.63800001 4294967295
-0.0078990478 0.0078990478 0.63800001 4294967295
-0.0066628577 0.0078742858 0.63600004 4294967295
-0.0054428573 0.0078619057 0.63500005 4294967295
-0.0042266669 0.0078495247 0.634 4294967295
-0.003009524 0.0078247627 0.63200003 4294967295
-0.0018028573 0.0078123813 0.63100004 4294967295
-0.00059904763 0.0077876197 0.62900001 4294967295
0.00059904763 0.0077876197 0.62900001 4294967295
0.0017942858 0.0077752387 0.62800002 4294967295
0.0029904763 0.0077752387 0.62800002 4294967295
0.004186667 0.0077752387 0.62800002 4294967295
0.0053742859 0.0077628577 0.62700003 4294967295
0.0065580956 0.0077504767 0.62600005 4294967295
0.0077504767 0.0077504767 0.62600005 4294967295
0.0089285718 0.0077380957 0.625 4294967295
0.010119048 0.0077380957 0.625 4294967295
0.011309525 0.0077380957 0.625 4294967295
0.012500001 0.0077380957 0.625 4294967295
0.013690477 0.0077380957 0.625 4294967295
0.014880953 0.0077380957 0.625 4294967295
0.016071429 0.0077380957 0.625 4294967295
0.017234286 0.0077257147 0.62400001 4294967295
0.018422859 0.0077257147 0.62400001 4294967295
0.019580001 0.0077133337 0.62300003 4294967295
0.020766668 0.0077133337 0.62300003 4294967295
0.021918098 0.0077009527 0.62200004 4294967295
0.023102859 0.0077009527 0.62200004 4294967295
0.024287621 0.0077009527 0.62200004 4294967295
0.025472382 0.0077009527 0.62200004 4294967295
0.026657145 0.0077009527 0.62200004 4294967295
0.027841907 0.0077009527 0.62200004 4294967295
0.029073335 0.0077133337 0.62300003 4294967295
0.030357145 0.0077380957 0.625 4294967295
0.031497143 0.0077257147 0.62400001 4294967295
0.032738097 0.0077380957 0.625 4294967295
0.033928573 0.0077380957 0.625 4294967295
0.035119049 0.0077380957 0.625 4294967295
0.036425717 0.0077628577 0.62700003 4294967295
0.037680004 0.0077752387 0.62800002 4294967295
0.038876195 0.0077752387 0.62800002 4294967295
0.040136192 0.0077876197 0.62900001 4294967295
0.041465718 0.0078123813 0.63100004 4294967295
0.042667624 0.0078123813 0.63100004 4294967295
0.04393905 0.0078247627 0.63200003 4294967295
0.045214288 0.0078371437 0.63300002 4294967295
0.046420004 0.0078371437 0.63300002 4294967295
0.047700956 0.0078495247 0.634 4294967295
0.048908576 0.0078495247 0.634 4294967295
0.050037146 0.0078371437 0.63300002 4294967295
0.051242862 0.0078371437 0.63300002 4294967295
-0.011562858 0.0091285724 0.63900006 4294967295
-0.010345715 0.0091285724 0.63900006 4294967295
-0.0091142859 0.0091142859 0.63800001 4294967295
-0.0078990478 0.0091142859 0.63800001 4294967295
-0.0066628577 0.0090857148 0.63600004 4294967295
-0.0054428573 0.0090714293 0.63500005 4294967295
-0.0042266669 0.0090571437 0.634 4294967295
-0.003009524 0.0090285717 0.63200003 4294967295
-0.0018028573 0.0090142861 0.63100004 4294967295
-0.00059904763 0.008985715 0.62900001 4294967295
0.0005980953 0.0089714294 0.62800002 4294967295
0.0017942858 0.0089714294 0.62800002 4294967295
0.0029904763 0.0089714294 0.62800002 4294967295
0.0041800002 0.0089571439 0.62700003 4294967295
0.0053742859 0.0089571439 0.62700003 4294967295
0.0065580956 0.0089428574 0.62600005 4294967295
0.0077380957 0.0089285718 0.625 4294967295
0.0089285718 0.0089285718 0.625 4294967295
0.010119048 0.0089285718 0.625 4294967295
0.011309525 0.0089285718 0.625 4294967295
0.012500001 0.0089285718 0.625 4294967295
0.013668573 0.0089142863 0.62400001 4294967295
0.014857144 0.0089142863 0.62400001 4294967295
0.016045716 0.0089142863 0.62400001 4294967295
0.017234286 0.0089142863 0.62400001 4294967295
0.018422859 0.0089142863 0.62400001 4294967295
0.019580001 0.0089000007 0.62300003 4294967295
0.020766668 0.0089000007 0.62300003 4294967295
0.021918098 0.0088857152 0.62200004 4294967295
0.023102859 0.0088857152 0.62200004 4294967295
0.024287621 0.0088857152 0.62200004 4294967295
0.025472382 0.0088857152 0.62200004 4294967295
0.026657145 0.0088857152 0.62200004 4294967295
0.027841907 0.0088857152 0.62200004 4294967295
0.029073335 0.0089000007 0.62300003 4294967295
0.030308573 0.0089142863 0.62400001 4294967295
0.031547621 0.0089285718 0.625 4294967295
0.032738097 0.0089285718 0.625 4294967295
0.033982858 0.0089428574 0.62600005 4294967295
0.035119049 0.0089285718 0.625 4294967295
0.036425717 0.0089571439 0.62700003 4294967295
0.037620004 0.0089571439 0.62700003 4294967295
0.038876195 0.0089714294 0.62800002 4294967295
0.040072385 0.0089714294 0.62800002 4294967295
0.04133429 0.008985715 0.62900001 4294967295
0.042667624 0.0090142861 0.63100004 4294967295
0.04393905 0.0090285717 0.63200003 4294967295
0.045142859 0.0090285717 0.63200003 4294967295
0.046420004 0.0090428581 0.63300002 4294967295
0.047700956 0.0090571437 0.634 4294967295
0.048908576 0.0090571437 0.634 4294967295
0.050116193 0.0090571437 0.634 4294967295
0.051242862 0.0090428581 0.63300002 4294967295
-0.011562858 0.010345715 0.63900006 4294967295
-0.010345715 0.010345715 0.63900006 4294967295
-0.0091142859 0.010329524 0.63800001 4294967295
-0.0078990478 0.010329524 0.63800001 4294967295
-0.0066628577 0.010297144 0.63600004 4294967295
-0.0054428573 0.010280953 0.63500005 4294967295
-0.0042266669 0.010264763 0.634 4294967295
-0.0030047621 0.010216191 0.63100004 4294967295
-0.001797143 0.01018381 0.62900001 4294967295
-0.00059904763 0.01018381 0.62900001 4294967295
0.0005980953 0.01016762 0.62800002 4294967295
0.0017942858 0.01016762 0.62800002 4294967295
0.0029857145 0.010151429 0.62700003 4294967295
0.0041800002 0.010151429 0.62700003 4294967295
0.005357143 0.010119048 0.625 4294967295
0.0065476196 0.010119048 0.625 4294967295
0.0077380957 0.010119048 0.625 4294967295
0.0089285718 0.010119048 0.625 4294967295
0.010119048 0.010119048 0.625 4294967295
0.011309525 0.010119048 0.625 4294967295
0.012480001 0.010102858 0.62400001 4294967295
0.013668573 0.010102858 0.62400001 4294967295
0.014857144 0.010102858 0.62400001 4294967295
0.016045716 0.010102858 0.62400001 4294967295
0.017234286 0.010102858 0.62400001 4294967295
0.018393334 0.010086668 0.62300003 4294967295
0.019580001 0.010086668 0.62300003 4294967295
0.020766668 0.010086668 0.62300003 4294967295
0.021918098 0.010070477 0.62200004 4294967295
0.023102859 0.010070477 0.62200004 4294967295
0.024287621 0.010070477 0.62200004 4294967295
0.025472382 0.010070477 0.62200004 4294967295
0.026657145 0.010070477 0.62200004 4294967295
0.027841907 0.010070477 0.62200004 4294967295
0.029073335 0.010086668 0.62300003 4294967295
0.030308573 0.010102858 0.62400001 4294967295
0.031497143 0.010102858 0.62400001 4294967295
0.032738097 0.010119048 0.625 4294967295
0.033928573 0.010119048 0.625 4294967295
0.035175242 0.010135239 0.62600005 4294967295
0.036367621 0.010135239 0.62600005 4294967295
0.037620004 0.010151429 0.62700003 4294967295
0.038876195 0.01016762 0.62800002 4294967295
0.040072385 0.01016762 0.62800002 4294967295
0.04133429 0.01018381 0.62900001 4294967295
0.042532384 0.01018381 0.62900001 4294967295
0.043869525 0.010216191 0.63100004 4294967295
0.045142859 0.010232382 0.63200003 4294967295
0.046420004 0.010248573 0.63300002 4294967295
0.047700956 0.010264763 0.634 4294967295
0.048908576 0.010264763 0.634 4294967295
0.050037146 0.010248573 0.63300002 4294967295
0.051242862 0.010248573 0.63300002 4294967295
0.052448574 0.010248573 0.63300002 4294967295
-0.011580953 0.011580953 0.64000005 4294967295
-0.010345715 0.011562858 0.63900006 4294967295
-0.0091142859 0.011544763 0.63800001 4294967295
-0.0078990478 0.011544763 0.63800001 4294967295
-0.0066628577 0.011508572 0.63600004 4294967295
-0.0054428573 0.011490477 0.63500005 4294967295
-0.0042200005 0.011454286 0.63300002 4294967295
-0.0030047621 0.011418096 0.63100004 4294967295
-0.001797143 0.011381906 0.62900001 4294967295
-0.00059904763 0.011381906 0.62900001 4294967295
0.0005980953 0.01136381 0.62800002 4294967295
0.0017914287 0.011345715 0.62700003 4294967295
0.0029857145 0.011345715 0.62700003 4294967295
0.0041800002 0.011345715 0.62700003 4294967295
0.005357143 0.011309525 0.625 4294967295
0.0065476196 0.011309525 0.625 4294967295
0.0077380957 0.011309525 0.625 4294967295
0.0089285718 0.011309525 0.625 4294967295
0.010119048 0.011309525 0.625 4294967295
0.011291429 0.011291429 0.62400001 4294967295
0.012480001 0.011291429 0.62400001 4294967295
0.013668573 0.011291429 0.62400001 4294967295
0.014857144 0.011291429 0.62400001 4294967295
0.016045716 0.011291429 0.62400001 4294967295
0.017234286 0.011291429 0.62400001 4294967295
0.018393334 0.011273334 0.62300003 4294967295
0.019580001 0.011273334 0.62300003 4294967295
0.020733334 0.011255239 0.62200004 4294967295
0.021918098 0.011255239 0.62200004 4294967295
0.023102859 0.011255239 0.62200004 4294967295
0.024287621 0.011255239 0.62200004 4294967295
0.025472382 0.011255239 0.62200004 4294967295
0.026657145 0.011255239 0.62200004 4294967295
0.027841907 0.011255239 0.62200004 4294967295
0.029073335 0.011273334 0.62300003 4294967295
0.030308573 0.011291429 0.62400001 4294967295
0.031497143 0.011291429 0.62400001 4294967295
0.032738097 0.011309525 0.625 4294967295
0.033928573 0.011309525 0.625 4294967295
0.035175242 0.01132762 0.62600005 4294967295
0.036367621 0.01132762 0.62600005 4294967295
0.037620004 0.011345715 0.62700003 4294967295
0.038814288 0.011345715 0.62700003 4294967295
0.040072385 0.01136381 0.62800002 4294967295
0.041268576 0.01136381 0.62800002 4294967295
0.042532384 0.011381906 0.62900001 4294967295
0.043869525 0.011418096 0.63100004 4294967295
0.045071431 0.011418096 0.63100004 4294967295
0.046346668 0.011436191 0.63200003 4294967295
0.047700956 0.011472382 0.634 4294967295
0.048908576 0.011472382 0.634 4294967295
0.049879052 0.011418096 0.63100004 4294967295
0.051485717 0.011508572 0.63600004 4294967295
0.052697148 0.011508572 0.63600004 4294967295
-0.011580953 0.012800001 0.64000005 4294967295
-0.010361905 0.012800001 0.64000005 4294967295
-0.0091285724 0.01278 0.63900006 4294967295
-0.0078990478 0.012760001 0.63800001 4294967295
-0.0066838101 0.012760001 0.63800001 4294967295
-0.0054514287 0.012720001 0.63600004 4294967295
-0.0042266669 0.012680001 0.634 4294967295
-0.0030047621 0.012620001 0.63100004 4294967295
-0.001797143 0.012580001 0.62900001 4294967295
-0.0005980953 0.012560001 0.62800002 4294967295
0.00059714291 0.01254 0.62700003 4294967295
0.0017914287 0.01254 0.62700003 4294967295
0.0029809526 0.012520001 0.62600005 4294967295
0.0041733338 0.012520001 0.62600005 4294967295
0.005357143 0.012500001 0.625 4294967295
0.0065476196 0.012500001 0.625 4294967295
0.0077257147 0.012480001 0.62400001 4294967295
0.0089142863 0.012480001 0.62400001 4294967295
0.010102858 0.012480001 0.62400001 4294967295
0.011291429 0.012480001 0.62400001 4294967295
0.012480001 0.012480001 0.62400001 4294967295
0.013668573 0.012480001 0.62400001 4294967295
0.014857144 0.012480001 0.62400001 4294967295
0.016045716 0.012480001 0.62400001 4294967295
0.017234286 0.012480001 0.62400001 4294967295
0.018393334 0.012460001 0.62300003 4294967295
0.019580001 0.012460001 0.62300003 4294967295
0.020733334 0.012440001 0.62200004 4294967295
0.021918098 0.012440001 0.62200004 4294967295
0.023102859 0.012440001 0.62200004 4294967295
0.024287621 0.012440001 0.62200004 4294967295
0.025472382 0.012440001 0.62200004 4294967295
0.02657143 0.0124 0.62 4294967295
0.027841907 0.012440001 0.62200004 4294967295
0.029026669 0.012440001 0.62200004 4294967295
0.030308573 0.012480001 0.62400001 4294967295
0.031497143 0.012480001 0.62400001 4294967295
0.032738097 0.012500001 0.625 4294967295
0.033928573 0.012500001 0.625 4294967295
0.035119049 0.012500001 0.625 4294967295
0.036367621 0.012520001 0.62600005 4294967295
0.037560001 0.012520001 0.62600005 4294967295
0.038814288 0.01254 0.62700003 4294967295
0.040008575 0.01254 0.62700003 4294967295
0.041268576 0.012560001 0.62800002 4294967295
0.042532384 0.012580001 0.62900001 4294967295
0.043730479 0.012580001 0.62900001 4294967295
0.045071431 0.012620001 0.63100004 4294967295
0.046346668 0.012640001 0.63200003 4294967295
0.047625717 0.01266 0.63300002 4294967295
0.048831433 0.01266 0.63300002 4294967295
0.049879052 0.012620001 0.63100004 4294967295
0.051404767 0.012700001 0.63500005 4294967295
-0.010361905 0.014019049 0.64000005 4294967295
-0.0091285724 0.013997144 0.63900006 4294967295
-0.0078990478 0.013975239 0.63800001 4294967295
-0.0066628577 0.01393143 0.63600004 4294967295
-0.0054428573 0.013909524 0.63500005 4294967295
-0.0042266669 0.01388762 0.634 4294967295
-0.003009524 0.01384381 0.63200003 4294967295
-0.0018028573 0.013821905 0.63100004 4294967295
-0.00059904763 0.013778096 0.62900001 4294967295
0.0005980953 0.013756191 0.62800002 4294967295
0.0017914287 0.013734287 0.62700003 4294967295
0.0029809526 0.013712382 0.62600005 4294967295
0.0041733338 0.013712382 0.62600005 4294967295
0.005357143 0.013690477 0.625 4294967295
0.0065476196 0.013690477 0.625 4294967295
0.0077257147 0.013668573 0.62400001 4294967295
0.0089142863 0.013668573 0.62400001 4294967295
0.010102858 0.013668573 0.62400001 4294967295
0.011291429 0.013668573 0.62400001 4294967295
0.012480001 0.013668573 0.62400001 4294967295
0.013668573 0.013668573 0.62400001 4294967295
0.014857144 0.013668573 0.62400001 4294967295
0.016045716 0.013668573 0.62400001 4294967295
0.017206667 0.013646668 0.62300003 4294967295
0.018393334 0.013646668 0.62300003 4294967295
0.019580001 0.013646668 0.62300003 4294967295
0.020733334 0.013624763 0.62200004 4294967295
0.021847621 0.013580954 0.62 4294967295
0.023102859 0.013624763 0.62200004 4294967295
0.024287621 0.013624763 0.62200004 4294967295
0.025472382 0.013624763 0.62200004 4294967295
0.026657145 0.013624763 0.62200004 4294967295
0.027841907 0.013624763 0.62200004 4294967295
0.029026669 0.013624763 0.62200004 4294967295
0.030308573 0.013668573 0.62400001 4294967295
0.031497143 0.013668573 0.62400001 4294967295
0.032685716 0.013668573 0.62400001 4294967295
0.033928573 0.013690477 0.625 4294967295
0.035119049 0.013690477 0.625 4294967295
0.036367621 0.013712382 0.62600005 4294967295
0.037560001 0.013712382 0.62600005 4294967295
0.038814288 0.013734287 0.62700003 4294967295
0.040072385 0.013756191 0.62800002 4294967295
0.041268576 0.013756191 0.62800002 4294967295
0.042532384 0.013778096 0.62900001 4294967295
0.043869525 0.013821905 0.63100004 4294967295
