# .PCD v0.7 - Point Cloud Data file format
VERSION 0.7
FIELDS x y z rgb
SIZE 4 4 4 4
TYPE F F F U
COUNT 1 1 1 1
WIDTH 1039
HEIGHT 1
VIEWPOINT 0 0 0 1 0 0 0
POINTS 1039
DATA ascii
-0.39672002 -0.16200002 0.75600004 4294901760
-0.39632574 -0.16242859 0.75800002 4294901760
-0.39488193 -0.16242859 0.75800002 4294901760
-0.39664859 -0.16435716 0.76700002 4294901760
-0.39570287 -0.16457143 0.76800001 4294901760
-0.39526668 -0.16500001 0.77000004 4294901760
-0.39635718 -0.16607144 0.77500004 4294901760
-0.39801431 -0.15992287 0.75300002 4294901760
-0.39763337 -0.16034763 0.75500005 4294901760
-0.39672002 -0.16056001 0.75600004 4294901760
-0.39528003 -0.16056001 0.75600004 4294901760
-0.39592382 -0.16140953 0.76000005 4294901760
-0.39561433 -0.16247144 0.76500005 4294901760
-0.39518765 -0.1628962 0.76700002 4294901760
-0.39801431 -0.15848859 0.75300002 4294901760
-0.39763337 -0.15890953 0.75500005 4294901760
-0.39672002 -0.15912001 0.75600004 4294901760
-0.39528003 -0.15912001 0.75600004 4294901760
-0.39592382 -0.15996191 0.76000005 4294901760
-0.39561433 -0.1610143 0.76500005 4294901760
-0.39518765 -0.16143525 0.76700002 4294901760
-0.39801431 -0.15705429 0.75300002 4294901760
-0.39763337 -0.15747143 0.75500005 4294901760
-0.39776954 -0.15809715 0.75800002 4294901760
-0.39632574 -0.15809715 0.75800002 4294901760
-0.39488193 -0.15809715 0.75800002 4294901760
-0.39561433 -0.15955715 0.76500005 4294901760
-0.39518765 -0.15997429 0.76700002 4294901760
-0.39424002 -0.16018286 0.76800001 4294901760
-0.39748573 -0.15541334 0.75200003 4294901760
-0.39763337 -0.15603334 0.75500005 4294901760
-0.39776954 -0.15665334 0.75800002 4294901760
-0.39528003 -0.15624002 0.75600004 4294901760
-0.39488193 -0.15665334 0.75800002 4294901760
-0.39447621 -0.15706667 0.76000005 4294901760
-0.39354575 -0.15727334 0.76100004 4294901760
-0.3931267 -0.15768668 0.76300001 4294901760
-0.39372671 -0.15851334 0.76700002 4294901760
-0.39658004 -0.15418573 0.75300002 4294901760
-0.39776954 -0.15520954 0.75800002 4294901760
-0.39528003 -0.15480001 0.75600004 4294901760
-0.39488193 -0.15520954 0.75800002 4294901760
-0.39447621 -0.15561906 0.76000005 4294901760
-0.39302859 -0.15561906 0.76000005 4294901760
-0.39209622 -0.15582383 0.76100004 4294901760
-0.39270002 -0.15664287 0.76500005 4294901760
-0.39776954 -0.15376572 0.75800002 4294901760
-0.39528003 -0.15336001 0.75600004 4294901760
-0.39592382 -0.15417144 0.76000005 4294901760
-0.39447621 -0.15417144 0.76000005 4294901760
-0.39302859 -0.15417144 0.76000005 4294901760
-0.39209622 -0.1543743 0.76100004 4294901760
-0.39167336 -0.15478002 0.76300001 4294901760
-0.39380002 -0.15620001 0.77000004 4294901760
-0.39233336 -0.15620001 0.77000004 4294901760
-0.39543527 -0.15802573 0.77900004 4294901760
-0.39776954 -0.15232192 0.75800002 4294901760
-0.39737144 -0.15272382 0.76000005 4294901760
-0.39488193 -0.15232192 0.75800002 4294901760
-0.39499527 -0.15292478 0.76100004 4294901760
-0.39354575 -0.15292478 0.76100004 4294901760
-0.3931267 -0.15332668 0.76300001 4294901760
-0.39270002 -0.15372857 0.76500005 4294901760
-0.39380002 -0.15473334 0.77000004 4294901760
-0.39335242 -0.15513524 0.77200001 4294901760
-0.39543527 -0.15654191 0.77900004 4294901760
-0.39445716 -0.15674287 0.78000003 4294901760
-0.39672002 -0.15048002 0.75600004 4294901760
-0.39632574 -0.1508781 0.75800002 4294901760
-0.39488193 -0.1508781 0.75800002 4294901760
-0.39447621 -0.1512762 0.76000005 4294901760
-0.39354575 -0.15147525 0.76100004 4294901760
-0.3931267 -0.15187335 0.76300001 4294901760
-0.39270002 -0.15227143 0.76500005 4294901760
-0.3948229 -0.15366477 0.77200001 4294901760
-0.39335242 -0.15366477 0.77200001 4294901760
-0.39442003 -0.15466002 0.77700001 4294901760
-0.39395145 -0.1550581 0.77900004 4294901760
-0.39528003 -0.14904001 0.75600004 4294901760
-0.39488193 -0.1494343 0.75800002 4294901760
-0.39447621 -0.14982858 0.76000005 4294901760
-0.39302859 -0.14982858 0.76000005 4294901760
-0.39209622 -0.15002573 0.76100004 4294901760
-0.39167336 -0.15042001 0.76300001 4294901760
-0.39380002 -0.15180001 0.77000004 4294901760
-0.39335242 -0.15219429 0.77200001 4294901760
-0.3959429 -0.15377145 0.78000003 4294901760
-0.39546859 -0.15416573 0.78200006 4294901760
-0.39498669 -0.15456001 0.78400004 4294901760
-0.39349335 -0.15456001 0.78400004 4294901760
-0.39528003 -0.14760001 0.75600004 4294901760
-0.39488193 -0.14799048 0.75800002 4294901760
-0.39447621 -0.14838096 0.76000005 4294901760
-0.39302859 -0.14838096 0.76000005 4294901760
-0.39158097 -0.14838096 0.76000005 4294901760
-0.39167336 -0.14896667 0.76300001 4294901760
-0.39380002 -0.15033334 0.77000004 4294901760
-0.39590004 -0.1517 0.77700001 4294901760
-0.3959429 -0.15228572 0.78000003 4294901760
-0.39546859 -0.15267619 0.78200006 4294901760
-0.39498669 -0.15306668 0.78400004 4294901760
-0.39349335 -0.15306668 0.78400004 4294901760
-0.39100003 -0.15267619 0.78200006 4294901760
-0.38951051 -0.15267619 0.78200006 4294901760
-0.39528003 -0.14616001 0.75600004 4294901760
-0.39488193 -0.14654668 0.75800002 4294901760
-0.39447621 -0.14693335 0.76000005 4294901760
-0.39302859 -0.14693335 0.76000005 4294901760
-0.39209622 -0.14712667 0.76100004 4294901760
-0.39270002 -0.14790002 0.76500005 4294901760
-0.39380002 -0.14886668 0.77000004 4294901760
-0.39488098 -0.14983334 0.77500004 4294901760
-0.39695811 -0.15118667 0.78200006 4294901760
-0.39546859 -0.15118667 0.78200006 4294901760
-0.39498669 -0.15157335 0.78400004 4294901760
-0.39349335 -0.15157335 0.78400004 4294901760
-0.39200002 -0.15157335 0.78400004 4294901760
-0.38951051 -0.15118667 0.78200006 4294901760
-0.39528003 -0.14472 0.75600004 4294901760
-0.39488193 -0.14510287 0.75800002 4294901760
-0.39499527 -0.14567715 0.76100004 4294901760
-0.39354575 -0.14567715 0.76100004 4294901760
-0.39209622 -0.14567715 0.76100004 4294901760
-0.39270002 -0.14644286 0.76500005 4294901760
-0.39380002 -0.14740001 0.77000004 4294901760
-0.39488098 -0.14835715 0.77500004 4294901760
-0.39695811 -0.14969715 0.78200006 4294901760
-0.39546859 -0.14969715 0.78200006 4294901760
-0.39498669 -0.15008001 0.78400004 4294901760
-0.39248955 -0.14969715 0.78200006 4294901760
-0.39100003 -0.14969715 0.78200006 4294901760
-0.39528003 -0.14328001 0.75600004 4294901760
-0.39592382 -0.14403811 0.76000005 4294901760
-0.39499527 -0.14422762 0.76100004 4294901760
-0.39458004 -0.14460668 0.76300001 4294901760
-0.3931267 -0.14460668 0.76300001 4294901760
-0.39372671 -0.14536478 0.76700002 4294901760
-0.3948229 -0.14631239 0.77200001 4294901760
-0.39488098 -0.14688097 0.77500004 4294901760
-0.3959429 -0.14782858 0.78000003 4294901760
-0.39445716 -0.14782858 0.78000003 4294901760
-0.39397907 -0.14820763 0.78200006 4294901760
-0.39248955 -0.14820763 0.78200006 4294901760
-0.39200002 -0.14858668 0.78400004 4294901760
-0.39475718 -0.14165239 0.75500005 4294901760
-0.39488193 -0.14221525 0.75800002 4294901760
-0.39603335 -0.14315334 0.76300001 4294901760
-0.39561433 -0.14352858 0.76500005 4294901760
-0.39415717 -0.14352858 0.76500005 4294901760
-0.39424002 -0.14409144 0.76800001 4294901760
-0.3948229 -0.14484191 0.77200001 4294901760
-0.39488098 -0.14540477 0.77500004 4294901760
-0.39543527 -0.14615525 0.77900004 4294901760
-0.39445716 -0.14634287 0.78000003 4294901760
-0.39397907 -0.1467181 0.78200006 4294901760
-0.39248955 -0.1467181 0.78200006 4294901760
-0.39200002 -0.14709334 0.78400004 4294901760
-0.39518765 -0.14244287 0.76700002 4294901760
-0.39526668 -0.14300001 0.77000004 4294901760
-0.3953343 -0.14355715 0.77300006 4294901760
-0.39590004 -0.14430001 0.77700001 4294901760
-0.39543527 -0.14467144 0.77900004 4294901760
-0.39445716 -0.14485715 0.78000003 4294901760
-0.39397907 -0.14522858 0.78200006 4294901760
-0.39248955 -0.14522858 0.78200006 4294901760
-0.39100003 -0.14522858 0.78200006 4294901760
-0.38851431 -0.14485715 0.78000003 4294901760
-0.39664859 -0.14098191 0.76700002 4294901760
-0.39518765 -0.14098191 0.76700002 4294901760
-0.39424002 -0.14116572 0.76800001 4294901760
-0.3953343 -0.14208478 0.77300006 4294901760
-0.39488098 -0.14245239 0.77500004 4294901760
-0.39442003 -0.14282002 0.77700001 4294901760
-0.39395145 -0.14318763 0.77900004 4294901760
-0.39297146 -0.14337143 0.78000003 4294901760
-0.39148575 -0.14337143 0.78000003 4294901760
-0.39000002 -0.14337143 0.78000003 4294901760
-0.39664859 -0.13952096 0.76700002 4294901760
-0.39518765 -0.13952096 0.76700002 4294901760
-0.39424002 -0.13970287 0.76800001 4294901760
-0.3953343 -0.14061239 0.77300006 4294901760
-0.39488098 -0.14097621 0.77500004 4294901760
-0.39340478 -0.14097621 0.77500004 4294901760
-0.39294001 -0.14134 0.77700001 4294901760
-0.39246765 -0.14170381 0.77900004 4294901760
-0.39148575 -0.14188573 0.78000003 4294901760
-0.39650002 -0.14425048 0.79300004 4294901760
-0.39698192 -0.14497811 0.79700005 4294901760
-0.39664859 -0.13806 0.76700002 4294901760
-0.39570287 -0.13824001 0.76800001 4294901760
-0.39526668 -0.13860001 0.77000004 4294901760
-0.3953343 -0.13914001 0.77300006 4294901760
-0.39488098 -0.13950001 0.77500004 4294901760
-0.39442003 -0.13986 0.77700001 4294901760
-0.39294001 -0.13986 0.77700001 4294901760
-0.39246765 -0.14022002 0.77900004 4294901760
-0.39148575 -0.14040001 0.78000003 4294901760
-0.39650002 -0.14274001 0.79300004 4294901760
-0.39748004 -0.14364001 0.79800004 4294901760
-0.39716575 -0.13677715 0.76800001 4294901760
-0.39570287 -0.13677715 0.76800001 4294901760
-0.39526668 -0.13713335 0.77000004 4294901760
-0.39635718 -0.13802382 0.77500004 4294901760
-0.39590004 -0.13838001 0.77700001 4294901760
-0.39442003 -0.13838001 0.77700001 4294901760
-0.39294001 -0.13838001 0.77700001 4294901760
-0.39246765 -0.1387362 0.77900004 4294901760
-0.39148575 -0.1389143 0.78000003 4294901760
-0.39650002 -0.14122954 0.79300004 4294901760
-0.39598575 -0.14158572 0.79500002 4294901760
-0.39447147 -0.14158572 0.79500002 4294901760
-0.39707145 -0.13478573 0.76500005 4294901760
-0.39561433 -0.13478573 0.76500005 4294901760
-0.39518765 -0.13513811 0.76700002 4294901760
-0.39424002 -0.1353143 0.76800001 4294901760
-0.39635718 -0.13654763 0.77500004 4294901760
-0.39590004 -0.13690001 0.77700001 4294901760
-0.39442003 -0.13690001 0.77700001 4294901760
-0.39395145 -0.13725239 0.77900004 4294901760
-0.39297146 -0.13742858 0.78000003 4294901760
-0.39700669 -0.13936667 0.79100001 4294901760
-0.39650002 -0.13971905 0.79300004 4294901760
-0.39498955 -0.13971905 0.79300004 4294901760
-0.39347908 -0.13971905 0.79300004 4294901760
-0.39603335 -0.13298 0.76300001 4294901760
-0.39458004 -0.13298 0.76300001 4294901760
-0.39415717 -0.13332859 0.76500005 4294901760
-0.39270002 -0.13332859 0.76500005 4294901760
-0.39738002 -0.13542001 0.77700001 4294901760
-0.39590004 -0.13542001 0.77700001 4294901760
-0.39543527 -0.13576858 0.77900004 4294901760
-0.39445716 -0.13594286 0.78000003 4294901760
-0.39952099 -0.13820858 0.79300004 4294901760
-0.39700669 -0.13786002 0.79100001 4294901760
-0.39650002 -0.13820858 0.79300004 4294901760
-0.39498955 -0.13820858 0.79300004 4294901760
-0.39347908 -0.13820858 0.79300004 4294901760
-0.39196861 -0.13820858 0.79300004 4294901760
-0.39603335 -0.13152668 0.76300001 4294901760
-0.3931267 -0.13152668 0.76300001 4294901760
-0.39013335 -0.13100953 0.76000005 4294901760
-0.39840287 -0.13428476 0.77900004 4294901760
-0.39691907 -0.13428476 0.77900004 4294901760
-0.39543527 -0.13428476 0.77900004 4294901760
-0.40103146 -0.1366981 0.79300004 4294901760
-0.39851335 -0.13635334 0.79100001 4294901760
-0.39801049 -0.1366981 0.79300004 4294901760
-0.39750004 -0.13704287 0.79500002 4294901760
-0.39598575 -0.13704287 0.79500002 4294901760
-0.39347908 -0.1366981 0.79300004 4294901760
-0.39196861 -0.1366981 0.79300004 4294901760
-0.39590004 -0.13246001 0.77700001 4294901760
-0.39695811 -0.13331239 0.78200006 4294901760
-0.40002003 -0.13484667 0.79100001 4294901760
-0.39851335 -0.13484667 0.79100001 4294901760
-0.39700669 -0.13484667 0.79100001 4294901760
-0.39650002 -0.13518763 0.79300004 4294901760
-0.39498955 -0.13518763 0.79300004 4294901760
-0.39347908 -0.13518763 0.79300004 4294901760
-0.39196861 -0.13518763 0.79300004 4294901760
-0.39045811 -0.13518763 0.79300004 4294901760
-0.39635718 -0.13064286 0.77500004 4294901760
-0.39488098 -0.13064286 0.77500004 4294901760
-0.3959429 -0.13148572 0.78000003 4294901760
-0.3990086 -0.13300286 0.78900003 4294901760
-0.39851335 -0.13334002 0.79100001 4294901760
-0.39700669 -0.13334002 0.79100001 4294901760
-0.39650002 -0.13367715 0.79300004 4294901760
-0.39399335 -0.13334002 0.79100001 4294901760
-0.39248669 -0.13334002 0.79100001 4294901760
-0.39196861 -0.13367715 0.79300004 4294901760
-0.39045811 -0.13367715 0.79300004 4294901760
-0.39635718 -0.12916668 0.77500004 4294901760
-0.39488098 -0.12916668 0.77500004 4294901760
-0.39340478 -0.12916668 0.77500004 4294901760
-0.39192858 -0.12916668 0.77500004 4294901760
-0.39750573 -0.13150001 0.78900003 4294901760
-0.39700669 -0.13183334 0.79100001 4294901760
-0.39550003 -0.13183334 0.79100001 4294901760
-0.39399335 -0.13183334 0.79100001 4294901760
-0.39248669 -0.13183334 0.79100001 4294901760
-0.39098004 -0.13183334 0.79100001 4294901760
-0.38947335 -0.13183334 0.79100001 4294901760
-0.39238954 -0.12736095 0.77300006 4294901760
-0.39851335 -0.13032667 0.79100001 4294901760
-0.39700669 -0.13032667 0.79100001 4294901760
-0.39550003 -0.13032667 0.79100001 4294901760
-0.39399335 -0.13032667 0.79100001 4294901760
-0.39248669 -0.13032667 0.79100001 4294901760
-0.39098004 -0.13032667 0.79100001 4294901760
-0.39045811 -0.1306562 0.79300004 4294901760
-0.3953343 -0.12588859 0.77300006 4294901760
-0.39386192 -0.12588859 0.77300006 4294901760
-0.39238954 -0.12588859 0.77300006 4294901760
-0.39041147 -0.12572572 0.77200001 4294901760
-0.38894099 -0.12572572 0.77200001 4294901760
-0.39801049 -0.12914573 0.79300004 4294901760
-0.39650002 -0.12914573 0.79300004 4294901760
-0.39498955 -0.12914573 0.79300004 4294901760
-0.39347908 -0.12914573 0.79300004 4294901760
-0.39196861 -0.12914573 0.79300004 4294901760
-0.39045811 -0.12914573 0.79300004 4294901760
-0.39629337 -0.12425525 0.77200001 4294901760
-0.3948229 -0.12425525 0.77200001 4294901760
-0.39335242 -0.12425525 0.77200001 4294901760
-0.39238954 -0.1244162 0.77300006 4294901760
-0.39041147 -0.12425525 0.77200001 4294901760
-0.38894099 -0.12425525 0.77200001 4294901760
-0.39700669 -0.12731335 0.79100001 4294901760
-0.39550003 -0.12731335 0.79100001 4294901760
-0.39399335 -0.12731335 0.79100001 4294901760
-0.39347908 -0.12763524 0.79300004 4294901760
-0.3954286 -0.12876192 0.80000001 4294901760
-0.39390478 -0.12876192 0.80000001 4294901760
-0.39238098 -0.12876192 0.80000001 4294901760
-0.39570287 -0.12214858 0.76800001 4294901760
-0.39629337 -0.12278477 0.77200001 4294901760
-0.3948229 -0.12278477 0.77200001 4294901760
-0.39335242 -0.12278477 0.77200001 4294901760
-0.39238954 -0.12294382 0.77300006 4294901760
-0.39041147 -0.12278477 0.77200001 4294901760
-0.38894099 -0.12278477 0.77200001 4294901760
-0.38747051 -0.12278477 0.77200001 4294901760
-0.38600004 -0.12278477 0.77200001 4294901760
-0.39748004 -0.12692001 0.79800004 4294901760
-0.39596003 -0.12692001 0.79800004 4294901760
-0.39641717 -0.1275562 0.80200005 4294901760
-0.39390478 -0.12723811 0.80000001 4294901760
-0.39518765 -0.12052858 0.76700002 4294901760
-0.39526668 -0.12100001 0.77000004 4294901760
-0.39277717 -0.12068572 0.76800001 4294901760
-0.39335242 -0.12131429 0.77200001 4294901760
-0.39188194 -0.12131429 0.77200001 4294901760
-0.39041147 -0.12131429 0.77200001 4294901760
-0.38894099 -0.12131429 0.77200001 4294901760
-0.38747051 -0.12131429 0.77200001 4294901760
-0.39947242 -0.12602858 0.80200005 4294901760
-0.39794478 -0.12602858 0.80200005 4294901760
-0.39641717 -0.12602858 0.80200005 4294901760
-0.39390478 -0.12571429 0.80000001 4294901760
-0.39336193 -0.12602858 0.80200005 4294901760
-0.39183432 -0.12602858 0.80200005 4294901760
-0.39518765 -0.11906762 0.76700002 4294901760
-0.39526668 -0.11953334 0.77000004 4294901760
-0.39277717 -0.11922286 0.76800001 4294901760
-0.39233336 -0.11953334 0.77000004 4294901760
-0.3908667 -0.11953334 0.77000004 4294901760
-0.39041147 -0.11984382 0.77200001 4294901760
-0.38793337 -0.11953334 0.77000004 4294901760
-0.38646668 -0.11953334 0.77000004 4294901760
-0.38500002 -0.11953334 0.77000004 4294901760
-0.40046859 -0.12481143 0.80400002 4294901760
-0.39794478 -0.12450096 0.80200005 4294901760
-0.39641717 -0.12450096 0.80200005 4294901760
-0.39488956 -0.12450096 0.80200005 4294901760
-0.39336193 -0.12450096 0.80200005 4294901760
-0.39183432 -0.12450096 0.80200005 4294901760
-0.39424002 -0.11776001 0.76800001 4294901760
-0.39277717 -0.11776001 0.76800001 4294901760
-0.3913143 -0.11776001 0.76800001 4294901760
-0.3908667 -0.11806668 0.77000004 4294901760
-0.39041147 -0.11837334 0.77200001 4294901760
-0.38793337 -0.11806668 0.77000004 4294901760
-0.38646668 -0.11806668 0.77000004 4294901760
-0.38500002 -0.11806668 0.77000004 4294901760
-0.40046859 -0.12328001 0.80400002 4294901760
-0.39893717 -0.12328001 0.80400002 4294901760
-0.39740574 -0.12328001 0.80400002 4294901760
-0.39587432 -0.12328001 0.80400002 4294901760
-0.39336193 -0.12297334 0.80200005 4294901760
-0.39183432 -0.12297334 0.80200005 4294901760
-0.39424002 -0.11629715 0.76800001 4294901760
-0.39277717 -0.11629715 0.76800001 4294901760
-0.39233336 -0.11660001 0.77000004 4294901760
-0.39188194 -0.11690287 0.77200001 4294901760
-0.39091718 -0.11705429 0.77300006 4294901760
-0.3894448 -0.11705429 0.77300006 4294901760
-0.38797241 -0.11705429 0.77300006 4294901760
-0.38650003 -0.11705429 0.77300006 4294901760
-0.39992955 -0.12205144 0.80600005 4294901760
-0.39839432 -0.12205144 0.80600005 4294901760
-0.39587432 -0.12174858 0.80400002 4294901760
-0.39434287 -0.12174858 0.80400002 4294901760
-0.39183432 -0.12144572 0.80200005 4294901760
-0.39380002 -0.11513334 0.77000004 4294901760
-0.39335242 -0.11543239 0.77200001 4294901760
-0.39340478 -0.11588096 0.77500004 4294901760
-0.39192858 -0.11588096 0.77500004 4294901760
-0.39045241 -0.11588096 0.77500004 4294901760
-0.38897622 -0.11588096 0.77500004 4294901760
-0.38750002 -0.11588096 0.77500004 4294901760
-0.38602385 -0.11588096 0.77500004 4294901760
-0.39740574 -0.12021715 0.80400002 4294901760
-0.39587432 -0.12021715 0.80400002 4294901760
-0.39434287 -0.12021715 0.80400002 4294901760
-0.39183432 -0.1199181 0.80200005 4294901760
-0.3948229 -0.11396191 0.77200001 4294901760
-0.39386192 -0.11410953 0.77300006 4294901760
-0.39340478 -0.11440477 0.77500004 4294901760
-0.39294001 -0.1147 0.77700001 4294901760
-0.39146003 -0.1147 0.77700001 4294901760
-0.38998002 -0.1147 0.77700001 4294901760
-0.38850003 -0.1147 0.77700001 4294901760
-0.38702002 -0.1147 0.77700001 4294901760
-0.3954286 -0.11809525 0.80000001 4294901760
-0.39390478 -0.11809525 0.80000001 4294901760
-0.39336193 -0.11839049 0.80200005 4294901760
-0.39183432 -0.11839049 0.80200005 4294901760
-0.38933337 -0.11809525 0.80000001 4294901760
-0.39738002 -0.11322001 0.77700001 4294901760
-0.39488098 -0.11292858 0.77500004 4294901760
-0.39442003 -0.11322001 0.77700001 4294901760
-0.39294001 -0.11322001 0.77700001 4294901760
-0.39146003 -0.11322001 0.77700001 4294901760
-0.38998002 -0.11322001 0.77700001 4294901760
-0.38850003 -0.11322001 0.77700001 4294901760
-0.38702002 -0.11322001 0.77700001 4294901760
-0.39738002 -0.11174001 0.77700001 4294901760
-0.39590004 -0.11174001 0.77700001 4294901760
-0.39442003 -0.11174001 0.77700001 4294901760
-0.39395145 -0.11202762 0.77900004 4294901760
-0.39246765 -0.11202762 0.77900004 4294901760
-0.39098385 -0.11202762 0.77900004 4294901760
-0.38950002 -0.11202762 0.77900004 4294901760
-0.38702002 -0.11174001 0.77700001 4294901760
-0.39590004 -0.11026001 0.77700001 4294901760
-0.39543527 -0.11054382 0.77900004 4294901760
-0.39395145 -0.11054382 0.77900004 4294901760
-0.39246765 -0.11054382 0.77900004 4294901760
-0.39098385 -0.11054382 0.77900004 4294901760
-0.39000002 -0.11068572 0.78000003 4294901760
-0.38851431 -0.11068572 0.78000003 4294901760
-0.3870286 -0.11068572 0.78000003 4294901760
-0.38752002 -0.11125334 0.78400004 4294901760
-0.39590004 -0.10878 0.77700001 4294901760
-0.39543527 -0.10906 0.77900004 4294901760
-0.39395145 -0.10906 0.77900004 4294901760
-0.39297146 -0.10920001 0.78000003 4294901760
-0.39148575 -0.10920001 0.78000003 4294901760
-0.39100003 -0.10948001 0.78200006 4294901760
-0.38951051 -0.10948001 0.78200006 4294901760
-0.38901335 -0.10976001 0.78400004 4294901760
-0.38752002 -0.10976001 0.78400004 4294901760
-0.39738002 -0.10730001 0.77700001 4294901760
-0.39691907 -0.1075762 0.77900004 4294901760
-0.39543527 -0.1075762 0.77900004 4294901760
-0.39445716 -0.1077143 0.78000003 4294901760
-0.39297146 -0.1077143 0.78000003 4294901760
-0.39248955 -0.10799048 0.78200006 4294901760
-0.39200002 -0.10826667 0.78400004 4294901760
-0.39050668 -0.10826667 0.78400004 4294901760
-0.39000574 -0.10854287 0.78600001 4294901760
-0.38850859 -0.10854287 0.78600001 4294901760
-0.39691907 -0.10609239 0.77900004 4294901760
-0.3959429 -0.10622858 0.78000003 4294901760
-0.39546859 -0.10650096 0.78200006 4294901760
-0.39397907 -0.10650096 0.78200006 4294901760
-0.39248955 -0.10650096 0.78200006 4294901760
-0.39200002 -0.10677334 0.78400004 4294901760
-0.39050668 -0.10677334 0.78400004 4294901760
-0.39000574 -0.10704572 0.78600001 4294901760
-0.38850859 -0.10704572 0.78600001 4294901760
-0.38701147 -0.10704572 0.78600001 4294901760
-0.39695811 -0.10501143 0.78200006 4294901760
-0.39546859 -0.10501143 0.78200006 4294901760
-0.39498669 -0.10528 0.78400004 4294901760
-0.39349335 -0.10528 0.78400004 4294901760
-0.39300004 -0.10554858 0.78600001 4294901760
-0.39150289 -0.10554858 0.78600001 4294901760
-0.39000574 -0.10554858 0.78600001 4294901760
-0.38850859 -0.10554858 0.78600001 4294901760
-0.38701147 -0.10554858 0.78600001 4294901760
-0.39797336 -0.10378668 0.78400004 4294901760
-0.39648002 -0.10378668 0.78400004 4294901760
-0.39498669 -0.10378668 0.78400004 4294901760
-0.39349335 -0.10378668 0.78400004 4294901760
-0.39300004 -0.10405143 0.78600001 4294901760
-0.39150289 -0.10405143 0.78600001 4294901760
-0.39000574 -0.10405143 0.78600001 4294901760
-0.38850859 -0.10405143 0.78600001 4294901760
-0.38799623 -0.1043162 0.78800005 4294901760
-0.38649526 -0.1043162 0.78800005 4294901760
-0.39797336 -0.10229334 0.78400004 4294901760
-0.39648002 -0.10229334 0.78400004 4294901760
-0.39498669 -0.10229334 0.78400004 4294901760
-0.39449716 -0.10255429 0.78600001 4294901760
-0.39300004 -0.10255429 0.78600001 4294901760
-0.39150289 -0.10255429 0.78600001 4294901760
-0.39000574 -0.10255429 0.78600001 4294901760
-0.38850859 -0.10255429 0.78600001 4294901760
-0.38799623 -0.10281525 0.78800005 4294901760
-0.38698575 -0.10294572 0.78900003 4294901760
-0.38548288 -0.10294572 0.78900003 4294901760
-0.39797336 -0.10080001 0.78400004 4294901760
-0.39648002 -0.10080001 0.78400004 4294901760
-0.39498669 -0.10080001 0.78400004 4294901760
-0.39449716 -0.10105715 0.78600001 4294901760
-0.39300004 -0.10105715 0.78600001 4294901760
-0.39249906 -0.10131429 0.78800005 4294901760
-0.39099813 -0.10131429 0.78800005 4294901760
-0.38949716 -0.10131429 0.78800005 4294901760
-0.38799623 -0.10131429 0.78800005 4294901760
-0.38698575 -0.10144287 0.78900003 4294901760
-0.38548288 -0.10144287 0.78900003 4294901760
-0.38690004 -0.10221429 0.79500002 4294901760
-0.39599431 -0.099560007 0.78600001 4294901760
-0.39550099 -0.099813342 0.78800005 4294901760
-0.39450002 -0.099940009 0.78900003 4294901760
-0.39299718 -0.099940009 0.78900003 4294901760
-0.3914943 -0.099940009 0.78900003 4294901760
-0.39098004 -0.10019334 0.79100001 4294901760
-0.38947335 -0.10019334 0.79100001 4294901760
-0.38894764 -0.10044667 0.79300004 4294901760
-0.38743716 -0.10044667 0.79300004 4294901760
-0.38787335 -0.10095334 0.79700005 4294901760
-0.39550099 -0.098312385 0.78800005 4294901760
-0.39450002 -0.098437153 0.78900003 4294901760
-0.39299718 -0.098437153 0.78900003 4294901760
-0.39248669 -0.098686673 0.79100001 4294901760
-0.39098004 -0.098686673 0.79100001 4294901760
-0.39045811 -0.0989362 0.79300004 4294901760
-0.38894764 -0.0989362 0.79300004 4294901760
-0.38841432 -0.09918572 0.79500002 4294901760
-0.38836002 -0.099560007 0.79800004 4294901760
-0.39600289 -0.096934289 0.78900003 4294901760
-0.39450002 -0.096934289 0.78900003 4294901760
-0.39399335 -0.097180009 0.79100001 4294901760
-0.39347908 -0.097425722 0.79300004 4294901760
-0.39196861 -0.097425722 0.79300004 4294901760
-0.39144289 -0.097671434 0.79500002 4294901760
-0.38992861 -0.097671434 0.79500002 4294901760
-0.38988003 -0.098040007 0.79800004 4294901760
-0.38933337 -0.09828572 0.80000001 4294901760
-0.39550003 -0.095673338 0.79100001 4294901760
-0.39399335 -0.095673338 0.79100001 4294901760
-0.39347908 -0.095915243 0.79300004 4294901760
-0.39196861 -0.095915243 0.79300004 4294901760
-0.39144289 -0.096157148 0.79500002 4294901760
-0.38992861 -0.096157148 0.79500002 4294901760
-0.38988003 -0.096520007 0.79800004 4294901760
-0.38933337 -0.096761912 0.80000001 4294901760
-0.38877907 -0.097003818 0.80200005 4294901760
-0.39014861 -0.097729534 0.80800003 4294901760
-0.39550003 -0.094166674 0.79100001 4294901760
-0.39498955 -0.094404764 0.79300004 4294901760
-0.39347908 -0.094404764 0.79300004 4294901760
-0.39196861 -0.094404764 0.79300004 4294901760
-0.39144289 -0.094642863 0.79500002 4294901760
-0.39090955 -0.094880961 0.79700005 4294901760
-0.38988003 -0.095000006 0.79800004 4294901760
-0.39030668 -0.095476195 0.80200005 4294901760
-0.3897486 -0.095714293 0.80400002 4294901760
-0.39014861 -0.096190482 0.80800003 4294901760
-0.39053336 -0.096666671 0.81200004 4294901760
-0.38898671 -0.096666671 0.81200004 4294901760
-0.38887146 -0.097023815 0.81500006 4294901760
-0.39550003 -0.092660002 0.79100001 4294901760
-0.39498955 -0.092894293 0.79300004 4294901760
-0.39447147 -0.093128577 0.79500002 4294901760
-0.39295718 -0.093128577 0.79500002 4294901760
-0.39242765 -0.09336286 0.79700005 4294901760
-0.39090955 -0.09336286 0.79700005 4294901760
-0.38988003 -0.093480006 0.79800004 4294901760
-0.39030668 -0.09394858 0.80200005 4294901760
-0.38877907 -0.09394858 0.80200005 4294901760
-0.39111432 -0.094885722 0.81000006 4294901760
-0.39053336 -0.095120005 0.81200004 4294901760
-0.38898671 -0.095120005 0.81200004 4294901760
-0.38839433 -0.095354289 0.81400001 4294901760
-0.38731906 -0.095471434 0.81500006 4294901760
-0.39550003 -0.091153339 0.79100001 4294901760
-0.39498955 -0.091383815 0.79300004 4294901760
-0.39447147 -0.091614291 0.79500002 4294901760
-0.39295718 -0.091614291 0.79500002 4294901760
-0.39242765 -0.091844767 0.79700005 4294901760
-0.39140004 -0.091960005 0.79800004 4294901760
-0.39085716 -0.092190482 0.80000001 4294901760
-0.39030668 -0.092420958 0.80200005 4294901760
-0.3897486 -0.092651434 0.80400002 4294901760
-0.39111432 -0.093342863 0.81000006 4294901760
-0.39053336 -0.093573339 0.81200004 4294901760
-0.38994479 -0.093803816 0.81400001 4294901760
-0.38839433 -0.093803816 0.81400001 4294901760
-0.38731906 -0.093919054 0.81500006 4294901760
-0.39450002 -0.089420006 0.78900003 4294901760
-0.39498955 -0.089873336 0.79300004 4294901760
-0.39447147 -0.090100005 0.79500002 4294901760
-0.39196861 -0.089873336 0.79300004 4294901760
-0.39242765 -0.090326674 0.79700005 4294901760
-0.39090955 -0.090326674 0.79700005 4294901760
-0.39085716 -0.090666674 0.80000001 4294901760
-0.39128003 -0.091120005 0.80400002 4294901760
-0.39168763 -0.091573343 0.80800003 4294901760
-0.39208004 -0.092026673 0.81200004 4294901760
-0.39053336 -0.092026673 0.81200004 4294901760
-0.38994479 -0.092253342 0.81400001 4294901760
-0.38887146 -0.092366673 0.81500006 4294901760
-0.38826954 -0.092593342 0.81700003 4294901760
-0.39399335 -0.088140003 0.79100001 4294901760
-0.39347908 -0.088362865 0.79300004 4294901760
-0.39196861 -0.088362865 0.79300004 4294901760
-0.39144289 -0.088585719 0.79500002 4294901760
-0.39090955 -0.088808574 0.79700005 4294901760
-0.39085716 -0.089142866 0.80000001 4294901760
-0.39225337 -0.089811437 0.80600005 4294901760
-0.39265716 -0.090257145 0.81000006 4294901760
-0.39208004 -0.090480007 0.81200004 4294901760
-0.39149526 -0.090702862 0.81400001 4294901760
-0.38994479 -0.090702862 0.81400001 4294901760
-0.38887146 -0.090814292 0.81500006 4294901760
-0.38826954 -0.091037147 0.81700003 4294901760
-0.38766003 -0.091260009 0.81900007 4294901760
-0.38829622 -0.092151433 0.82700002 4294901760
-0.39399335 -0.08663334 0.79100001 4294901760
-0.39347908 -0.086852387 0.79300004 4294901760
-0.39196861 -0.086852387 0.79300004 4294901760
-0.39045811 -0.086852387 0.79300004 4294901760
-0.38992861 -0.087071434 0.79500002 4294901760
-0.38988003 -0.087400004 0.79800004 4294901760
-0.39128003 -0.088057145 0.80400002 4294901760
-0.39362669 -0.088933341 0.81200004 4294901760
-0.39304575 -0.089152388 0.81400001 4294901760
-0.39149526 -0.089152388 0.81400001 4294901760
-0.38994479 -0.089152388 0.81400001 4294901760
-0.38887146 -0.089261912 0.81500006 4294901760
-0.38826954 -0.089480959 0.81700003 4294901760
-0.38671336 -0.089480959 0.81700003 4294901760
-0.38829622 -0.090576194 0.82700002 4294901760
-0.39399335 -0.085126676 0.79100001 4294901760
-0.39248669 -0.085126676 0.79100001 4294901760
-0.39098004 -0.085126676 0.79100001 4294901760
-0.39045811 -0.085341908 0.79300004 4294901760
-0.38894764 -0.085341908 0.79300004 4294901760
-0.38841432 -0.085557148 0.79500002 4294901760
-0.38836002 -0.085880004 0.79800004 4294901760
-0.39071813 -0.086740956 0.80600005 4294901760
-0.39208004 -0.087386675 0.81200004 4294901760
-0.39149526 -0.087601908 0.81400001 4294901760
-0.38994479 -0.087601908 0.81400001 4294901760
-0.38887146 -0.087709531 0.81500006 4294901760
-0.38922003 -0.088140003 0.81900007 4294901760
-0.3886067 -0.088355243 0.82100004 4294901760
-0.38798574 -0.088570483 0.82300001 4294901760
-0.38829622 -0.089000955 0.82700002 4294901760
-0.39399335 -0.083620004 0.79100001 4294901760
-0.39248669 -0.083620004 0.79100001 4294901760
-0.39098004 -0.083620004 0.79100001 4294901760
-0.39045811 -0.083831437 0.79300004 4294901760
-0.38992861 -0.084042862 0.79500002 4294901760
-0.38939145 -0.084254295 0.79700005 4294901760
-0.38836002 -0.084360003 0.79800004 4294901760
-0.3897486 -0.084994294 0.80400002 4294901760
-0.39111432 -0.085628577 0.81000006 4294901760
-0.39149526 -0.086051434 0.81400001 4294901760
-0.39042383 -0.086157151 0.81500006 4294901760
-0.38982573 -0.086368576 0.81700003 4294901760
-0.39017051 -0.086791433 0.82100004 4294901760
-0.38955337 -0.087002866 0.82300001 4294901760
-0.38798574 -0.087002866 0.82300001 4294901760
-0.39399335 -0.08211334 0.79100001 4294901760
-0.39347908 -0.082320958 0.79300004 4294901760
-0.39196861 -0.082320958 0.79300004 4294901760
-0.39045811 -0.082320958 0.79300004 4294901760
-0.38992861 -0.082528576 0.79500002 4294901760
-0.38988003 -0.082840003 0.79800004 4294901760
-0.38933337 -0.083047621 0.80000001 4294901760
-0.39071813 -0.083670482 0.80600005 4294901760
-0.39111432 -0.084085718 0.81000006 4294901760
-0.39149526 -0.084500961 0.81400001 4294901760
-0.39042383 -0.08460477 0.81500006 4294901760
-0.38982573 -0.084812388 0.81700003 4294901760
-0.39017051 -0.085227624 0.82100004 4294901760
-0.38955337 -0.085435241 0.82300001 4294901760
-0.38798574 -0.085435241 0.82300001 4294901760
-0.39399335 -0.080606669 0.79100001 4294901760
-0.39347908 -0.08081048 0.79300004 4294901760
-0.39196861 -0.08081048 0.79300004 4294901760
-0.39045811 -0.08081048 0.79300004 4294901760
-0.39090955 -0.081218101 0.79700005 4294901760
-0.38988003 -0.081320003 0.79800004 4294901760
-0.38933337 -0.081523813 0.80000001 4294901760
-0.39071813 -0.082135245 0.80600005 4294901760
-0.39111432 -0.082542859 0.81000006 4294901760
-0.39197621 -0.083052389 0.81500006 4294901760
-0.39042383 -0.083052389 0.81500006 4294901760
-0.38982573 -0.083256193 0.81700003 4294901760
-0.39017051 -0.083663814 0.82100004 4294901760
-0.38955337 -0.083867624 0.82300001 4294901760
-0.38892859 -0.084071435 0.82500005 4294901760
-0.39399335 -0.079100005 0.79100001 4294901760
-0.39347908 -0.079300009 0.79300004 4294901760
-0.39196861 -0.079300009 0.79300004 4294901760
-0.39045811 -0.079300009 0.79300004 4294901760
-0.38992861 -0.079500005 0.79500002 4294901760
-0.38988003 -0.079800002 0.79800004 4294901760
-0.38933337 -0.080000006 0.80000001 4294901760
-0.39071813 -0.080600008 0.80600005 4294901760
-0.39111432 -0.081000008 0.81000006 4294901760
-0.39197621 -0.081500009 0.81500006 4294901760
-0.39042383 -0.081500009 0.81500006 4294901760
-0.38887146 -0.081500009 0.81500006 4294901760
-0.38826954 -0.081700005 0.81700003 4294901760
-0.38955337 -0.082300007 0.82300001 4294901760
-0.39447147 -0.077985719 0.79500002 4294901760
-0.39196861 -0.07778953 0.79300004 4294901760
-0.39144289 -0.077985719 0.79500002 4294901760
-0.39090955 -0.078181908 0.79700005 4294901760
-0.38988003 -0.078280002 0.79800004 4294901760
-0.38933337 -0.078476198 0.80000001 4294901760
-0.3897486 -0.078868575 0.80400002 4294901760
-0.39111432 -0.079457149 0.81000006 4294901760
-0.39149526 -0.079849526 0.81400001 4294901760
-0.38994479 -0.079849526 0.81400001 4294901760
-0.38887146 -0.079947621 0.81500006 4294901760
-0.38826954 -0.080143817 0.81700003 4294901760
-0.39546382 -0.076663814 0.79700005 4294901760
-0.39295718 -0.076471433 0.79500002 4294901760
-0.39144289 -0.076471433 0.79500002 4294901760
-0.39090955 -0.076663814 0.79700005 4294901760
-0.38988003 -0.076760001 0.79800004 4294901760
-0.38933337 -0.076952383 0.80000001 4294901760
-0.3897486 -0.077337146 0.80400002 4294901760
-0.39208004 -0.078106672 0.81200004 4294901760
-0.39149526 -0.078299053 0.81400001 4294901760
-0.38994479 -0.078299053 0.81400001 4294901760
-0.38839433 -0.078299053 0.81400001 4294901760
-0.38731906 -0.07839524 0.81500006 4294901760
-0.39596003 -0.075240009 0.79800004 4294901760
-0.39444003 -0.075240009 0.79800004 4294901760
-0.39242765 -0.075145721 0.79700005 4294901760
-0.39140004 -0.075240009 0.79800004 4294901760
-0.39085716 -0.075428575 0.80000001 4294901760
-0.38933337 -0.075428575 0.80000001 4294901760
-0.38877907 -0.075617149 0.80200005 4294901760
-0.39014861 -0.076182865 0.80800003 4294901760
-0.39053336 -0.076560006 0.81200004 4294901760
-0.38994479 -0.07674858 0.81400001 4294901760
-0.38744003 -0.076560006 0.81200004 4294901760
-0.39444003 -0.073720008 0.79800004 4294901760
-0.39242765 -0.073627621 0.79700005 4294901760
-0.39140004 -0.073720008 0.79800004 4294901760
-0.39085716 -0.073904768 0.80000001 4294901760
-0.38933337 -0.073904768 0.80000001 4294901760
-0.39071813 -0.074459054 0.80600005 4294901760
-0.39208004 -0.07501334 0.81200004 4294901760
-0.39149526 -0.075198099 0.81400001 4294901760
-0.38994479 -0.075198099 0.81400001 4294901760
-0.38839433 -0.075198099 0.81400001 4294901760
-0.38731906 -0.075290479 0.81500006 4294901760
-0.39292002 -0.072200008 0.79800004 4294901760
-0.39140004 -0.072200008 0.79800004 4294901760
-0.39085716 -0.07238096 0.80000001 4294901760
-0.39030668 -0.072561912 0.80200005 4294901760
-0.39362669 -0.073466673 0.81200004 4294901760
-0.39304575 -0.073647626 0.81400001 4294901760
-0.39149526 -0.073647626 0.81400001 4294901760
-0.39042383 -0.073738098 0.81500006 4294901760
-0.38839433 -0.073647626 0.81400001 4294901760
-0.38826954 -0.07391905 0.81700003 4294901760
-0.38766003 -0.074100003 0.81900007 4294901760
-0.39090955 -0.070591435 0.79700005 4294901760
-0.38988003 -0.070680007 0.79800004 4294901760
-0.38836002 -0.070680007 0.79800004 4294901760
-0.39459622 -0.072097145 0.81400001 4294901760
-0.39304575 -0.072097145 0.81400001 4294901760
-0.39149526 -0.072097145 0.81400001 4294901760
-0.39042383 -0.072185718 0.81500006 4294901760
-0.38887146 -0.072185718 0.81500006 4294901760
-0.38826954 -0.072362863 0.81700003 4294901760
-0.38766003 -0.072540008 0.81900007 4294901760
-0.38988003 -0.069160007 0.79800004 4294901760
-0.38836002 -0.069160007 0.79800004 4294901760
-0.39362669 -0.070373341 0.81200004 4294901760
-0.39208004 -0.070373341 0.81200004 4294901760
-0.39053336 -0.070373341 0.81200004 4294901760
-0.38994479 -0.070546672 0.81400001 4294901760
-0.38887146 -0.070633337 0.81500006 4294901760
-0.38922003 -0.070980005 0.81900007 4294901760
-0.38766003 -0.070980005 0.81900007 4294901760
-0.39265716 -0.068657145 0.81000006 4294901760
-0.39111432 -0.068657145 0.81000006 4294901760
-0.39053336 -0.068826668 0.81200004 4294901760
-0.38994479 -0.068996198 0.81400001 4294901760
-0.38887146 -0.069080956 0.81500006 4294901760
-0.38922003 -0.069420002 0.81900007 4294901760
-0.3886067 -0.069589525 0.82100004 4294901760
-0.39225337 -0.066782862 0.80600005 4294901760
-0.39168763 -0.066948578 0.80800003 4294901760
-0.39111432 -0.067114294 0.81000006 4294901760
-0.38957146 -0.067114294 0.81000006 4294901760
-0.38898671 -0.067280002 0.81200004 4294901760
-0.38887146 -0.067528576 0.81500006 4294901760
-0.38922003 -0.067860007 0.81900007 4294901760
-0.3886067 -0.068025716 0.82100004 4294901760
-0.38798574 -0.068191431 0.82300001 4294901760
-0.39265716 -0.065571435 0.81000006 4294901760
-0.39111432 -0.065571435 0.81000006 4294901760
-0.38957146 -0.065571435 0.81000006 4294901760
-0.38994479 -0.065895244 0.81400001 4294901760
-0.38887146 -0.065976195 0.81500006 4294901760
-0.38922003 -0.066300005 0.81900007 4294901760
-0.3886067 -0.066461906 0.82100004 4294901760
-0.38892859 -0.066785716 0.82500005 4294901760
-0.39322668 -0.063870482 0.80800003 4294901760
-0.39265716 -0.064028576 0.81000006 4294901760
-0.39111432 -0.064028576 0.81000006 4294901760
-0.38957146 -0.064028576 0.81000006 4294901760
-0.38994479 -0.064344764 0.81400001 4294901760
-0.38887146 -0.064423814 0.81500006 4294901760
-0.38922003 -0.064740002 0.81900007 4294901760
-0.3886067 -0.064898096 0.82100004 4294901760
-0.38798574 -0.065056197 0.82300001 4294901760
-0.39378861 -0.062177148 0.80600005 4294901760
-0.39225337 -0.062177148 0.80600005 4294901760
-0.39071813 -0.062177148 0.80600005 4294901760
-0.39014861 -0.062331434 0.80800003 4294901760
-0.38957146 -0.062485717 0.81000006 4294901760
-0.38802859 -0.062485717 0.81000006 4294901760
-0.38839433 -0.06279429 0.81400001 4294901760
-0.38922003 -0.063180007 0.81900007 4294901760
-0.3886067 -0.063334286 0.82100004 4294901760
-0.38798574 -0.063488573 0.82300001 4294901760
-0.38923526 -0.063951433 0.82900006 4294901760
-0.39378861 -0.060641907 0.80600005 4294901760
-0.39225337 -0.060641907 0.80600005 4294901760
-0.39071813 -0.060641907 0.80600005 4294901760
-0.39014861 -0.060792387 0.80800003 4294901760
-0.38860956 -0.060792387 0.80800003 4294901760
-0.38802859 -0.060942862 0.81000006 4294901760
-0.38744003 -0.061093338 0.81200004 4294901760
-0.38922003 -0.061620004 0.81900007 4294901760
-0.38955337 -0.061920956 0.82300001 4294901760
-0.38798574 -0.061920956 0.82300001 4294901760
-0.39378861 -0.05910667 0.80600005 4294901760
-0.39225337 -0.05910667 0.80600005 4294901760
-0.39168763 -0.059253339 0.80800003 4294901760
-0.39014861 -0.059253339 0.80800003 4294901760
-0.38957146 -0.059400003 0.81000006 4294901760
-0.38898671 -0.059546672 0.81200004 4294901760
-0.38839433 -0.059693336 0.81400001 4294901760
-0.38922003 -0.060060006 0.81900007 4294901760
-0.38955337 -0.060353339 0.82300001 4294901760
-0.38798574 -0.060353339 0.82300001 4294901760
-0.39476573 -0.057714291 0.80800003 4294901760
-0.39225337 -0.057571433 0.80600005 4294901760
-0.39168763 -0.057714291 0.80800003 4294901760
-0.39111432 -0.057857148 0.81000006 4294901760
-0.39053336 -0.058000002 0.81200004 4294901760
-0.38898671 -0.058000002 0.81200004 4294901760
-0.38839433 -0.058142859 0.81400001 4294901760
-0.39017051 -0.058642861 0.82100004 4294901760
-0.3886067 -0.058642861 0.82100004 4294901760
-0.38798574 -0.058785718 0.82300001 4294901760
-0.39476573 -0.056175243 0.80800003 4294901760
-0.39322668 -0.056175243 0.80800003 4294901760
-0.39168763 -0.056175243 0.80800003 4294901760
-0.39111432 -0.05631429 0.81000006 4294901760
-0.39053336 -0.056453336 0.81200004 4294901760
-0.38898671 -0.056453336 0.81200004 4294901760
-0.38744003 -0.056453336 0.81200004 4294901760
-0.39017051 -0.057079051 0.82100004 4294901760
-0.3886067 -0.057079051 0.82100004 4294901760
-0.38798574 -0.057218097 0.82300001 4294901760
-0.38829622 -0.057496194 0.82700002 4294901760
-0.39420003 -0.054771431 0.81000006 4294901760
-0.39362669 -0.05490667 0.81200004 4294901760
-0.39208004 -0.05490667 0.81200004 4294901760
-0.39149526 -0.055041909 0.81400001 4294901760
-0.39042383 -0.055109527 0.81500006 4294901760
-0.38982573 -0.055244766 0.81700003 4294901760
-0.39017051 -0.055515241 0.82100004 4294901760
-0.3886067 -0.055515241 0.82100004 4294901760
-0.38798574 -0.05565048 0.82300001 4294901760
-0.39362669 -0.053360004 0.81200004 4294901760
-0.39304575 -0.053491432 0.81400001 4294901760
-0.39149526 -0.053491432 0.81400001 4294901760
-0.39042383 -0.053557146 0.81500006 4294901760
-0.38982573 -0.053688575 0.81700003 4294901760
-0.38922003 -0.053820003 0.81900007 4294901760
-0.38766003 -0.053820003 0.81900007 4294901760
-0.38704288 -0.053951431 0.82100004 4294901760
-0.39508098 -0.052004766 0.81500006 4294901760
-0.39352861 -0.052004766 0.81500006 4294901760
-0.39197621 -0.052004766 0.81500006 4294901760
-0.39042383 -0.052004766 0.81500006 4294901760
-0.38887146 -0.052004766 0.81500006 4294901760
-0.38922003 -0.052260004 0.81900007 4294901760
-0.38766003 -0.052260004 0.81900007 4294901760
-0.38704288 -0.052387621 0.82100004 4294901760
-0.39508098 -0.050452385 0.81500006 4294901760
-0.39352861 -0.050452385 0.81500006 4294901760
-0.39197621 -0.050452385 0.81500006 4294901760
-0.39138192 -0.050576195 0.81700003 4294901760
-0.38982573 -0.050576195 0.81700003 4294901760
-0.38922003 -0.050700005 0.81900007 4294901760
-0.38766003 -0.050700005 0.81900007 4294901760
-0.38610002 -0.050700005 0.81900007 4294901760
-0.38547906 -0.050823811 0.82100004 4294901760
-0.39605051 -0.049020004 0.81700003 4294901760
-0.39352861 -0.048900004 0.81500006 4294901760
-0.39197621 -0.048900004 0.81500006 4294901760
-0.39138192 -0.049020004 0.81700003 4294901760
-0.38982573 -0.049020004 0.81700003 4294901760
-0.38922003 -0.049140003 0.81900007 4294901760
-0.38766003 -0.049140003 0.81900007 4294901760
-0.38610002 -0.049140003 0.81900007 4294901760
-0.38454002 -0.049140003 0.81900007 4294901760
-0.39605051 -0.047463812 0.81700003 4294901760
-0.39352861 -0.047347624 0.81500006 4294901760
-0.39293811 -0.047463812 0.81700003 4294901760
-0.39234003 -0.047580004 0.81900007 4294901760
-0.38982573 -0.047463812 0.81700003 4294901760
-0.38922003 -0.047580004 0.81900007 4294901760
-0.38766003 -0.047580004 0.81900007 4294901760
-0.38610002 -0.047580004 0.81900007 4294901760
-0.38454002 -0.047580004 0.81900007 4294901760
-0.39508098 -0.04579524 0.81500006 4294901760
-0.39352861 -0.04579524 0.81500006 4294901760
-0.39293811 -0.04590762 0.81700003 4294901760
-0.39138192 -0.04590762 0.81700003 4294901760
-0.38982573 -0.04590762 0.81700003 4294901760
-0.38922003 -0.046020001 0.81900007 4294901760
-0.38766003 -0.046020001 0.81900007 4294901760
-0.38610002 -0.046020001 0.81900007 4294901760
-0.38454002 -0.046020001 0.81900007 4294901760
-0.38204479 -0.04590762 0.81700003 4294901760
0.19714287 -0.05619048 1 4294901760
-0.39508098 -0.044242859 0.81500006 4294901760
-0.39352861 -0.044242859 0.81500006 4294901760
-0.39197621 -0.044242859 0.81500006 4294901760
-0.39042383 -0.044242859 0.81500006 4294901760
-0.39078003 -0.044460002 0.81900007 4294901760
-0.39017051 -0.044568576 0.82100004 4294901760
-0.3886067 -0.044568576 0.82100004 4294901760
-0.38704288 -0.044568576 0.82100004 4294901760
-0.38547906 -0.044568576 0.82100004 4294901760
-0.38298002 -0.044460002 0.81900007 4294901760
-0.42571431 -0.054285716 1 4294901760
-0.42253813 -0.054122861 0.99700004 4294901760
-0.42000002 -0.054285716 1 4294901760
0.19523811 -0.054285716 1 4294901760
0.19655144 -0.054122861 0.99700004 4294901760
-0.39459622 -0.042638097 0.81400001 4294901760
-0.39304575 -0.042638097 0.81400001 4294901760
-0.39197621 -0.042690478 0.81500006 4294901760
-0.39042383 -0.042690478 0.81500006 4294901760
-0.38887146 -0.042690478 0.81500006 4294901760
-0.38922003 -0.042900003 0.81900007 4294901760
-0.3886067 -0.043004766 0.82100004 4294901760
-0.38704288 -0.043004766 0.82100004 4294901760
-0.38547906 -0.043004766 0.82100004 4294901760
-0.38298002 -0.042900003 0.81900007 4294901760
-0.43714288 -0.052380957 1 4294901760
-0.43333337 -0.052380957 1 4294901760
-0.43142861 -0.052380957 1 4294901760
-0.42952383 -0.052380957 1 4294901760
-0.42761907 -0.052380957 1 4294901760
-0.42571431 -0.052380957 1 4294901760
-0.42253813 -0.052223813 0.99700004 4294901760
-0.42063907 -0.052223813 0.99700004 4294901760
-0.42000002 -0.052380957 1 4294901760
-0.41809526 -0.052380957 1 4294901760
-0.41619051 -0.052380957 1 4294901760
0.1832581 -0.052223813 0.99700004 4294901760
0.19596002 -0.052066669 0.99400002 4294901760
-0.39265716 -0.040885717 0.81000006 4294901760
-0.39208004 -0.040986668 0.81200004 4294901760
-0.39149526 -0.04108762 0.81400001 4294901760
-0.39042383 -0.041138098 0.81500006 4294901760
-0.38887146 -0.041138098 0.81500006 4294901760
-0.38922003 -0.041340001 0.81900007 4294901760
-0.3886067 -0.041440956 0.82100004 4294901760
-0.38704288 -0.041440956 0.82100004 4294901760
-0.38454002 -0.041340001 0.81900007 4294901760
-0.38204479 -0.041239049 0.81700003 4294901760
-0.3804886 -0.041239049 0.81700003 4294901760
-0.43714288 -0.050476193 1 4294901760
-0.43523812 -0.050476193 1 4294901760
-0.43333337 -0.050476193 1 4294901760
-0.43142861 -0.050476193 1 4294901760
-0.42952383 -0.050476193 1 4294901760
-0.42761907 -0.050476193 1 4294901760
-0.42571431 -0.050476193 1 4294901760
-0.42380956 -0.050476193 1 4294901760
-0.42063907 -0.050324764 0.99700004 4294901760
-0.42000002 -0.050476193 1 4294901760
-0.41809526 -0.050476193 1 4294901760
-0.41619051 -0.050476193 1 4294901760
-0.41428575 -0.050476193 1 4294901760
0.19536859 -0.050021909 0.99100006 4294901760
0.19665906 -0.04987048 0.98800004 4294901760
-0.39532384 -0.039148573 0.80600005 4294901760
-0.39378861 -0.039148573 0.80600005 4294901760
-0.39225337 -0.039148573 0.80600005 4294901760
-0.39071813 -0.039148573 0.80600005 4294901760
-0.39014861 -0.039245717 0.80800003 4294901760
-0.39053336 -0.039440002 0.81200004 4294901760
-0.38994479 -0.039537147 0.81400001 4294901760
-0.38887146 -0.039585717 0.81500006 4294901760
-0.38922003 -0.039780002 0.81900007 4294901760
-0.3886067 -0.039877146 0.82100004 4294901760
-0.38704288 -0.039877146 0.82100004 4294901760
-0.38547906 -0.039877146 0.82100004 4294901760
-0.38391528 -0.039877146 0.82100004 4294901760
-0.38142002 -0.039780002 0.81900007 4294901760
-0.37260002 -0.039342858 0.81000006 4294901760
-0.43714288 -0.04857143 1 4294901760
-0.43523812 -0.04857143 1 4294901760
-0.43333337 -0.04857143 1 4294901760
-0.43142861 -0.04857143 1 4294901760
-0.42952383 -0.04857143 1 4294901760
-0.42761907 -0.04857143 1 4294901760
-0.42571431 -0.04857143 1 4294901760
-0.42253813 -0.048425719 0.99700004 4294901760
-0.42063907 -0.048425719 0.99700004 4294901760
-0.42000002 -0.04857143 1 4294901760
-0.41684097 -0.048425719 0.99700004 4294901760
-0.41619051 -0.04857143 1 4294901760
-0.41304287 -0.048425719 0.99700004 4294901760
-0.41114384 -0.048425719 0.99700004 4294901760
-0.40857145 -0.04857143 1 4294901760
-0.38952383 -0.04857143 1 4294901760
-0.38761908 -0.04857143 1 4294901760
0.18160382 -0.047988575 0.98800004 4294901760
0.18536763 -0.047988575 0.98800004 4294901760
0.19289525 -0.047988575 0.98800004 4294901760
0.19477716 -0.047988575 0.98800004 4294901760
0.19606192 -0.04784286 0.98500007 4294901760
0.19793811 -0.04784286 0.98500007 4294901760
0.19940859 -0.047745716 0.98300004 4294901760
-0.39434287 -0.037520003 0.80400002 4294901760
-0.39281145 -0.037520003 0.80400002 4294901760
-0.39030668 -0.037426669 0.80200005 4294901760
-0.38877907 -0.037426669 0.80200005 4294901760
-0.38725147 -0.037426669 0.80200005 4294901760
-0.38764766 -0.037613336 0.80600005 4294901760
-0.38898671 -0.037893336 0.81200004 4294901760
-0.38839433 -0.03798667 0.81400001 4294901760
-0.38826954 -0.03812667 0.81700003 4294901760
