# .PCD v0.7 - Point Cloud Data file format
VERSION 0.7
FIELDS x y z rgb
SIZE 4 4 4 4
TYPE F F F U
COUNT 1 1 1 1
WIDTH 1029
HEIGHT 1
VIEWPOINT 0 0 0 1 0 0 0
POINTS 1029
DATA ascii
0.039600004 -0.039600004 0.66000003 4294967295
0.040733337 -0.039480001 0.65800005 4294967295
0.04192286 -0.039420001 0.65700001 4294967295
0.043174289 -0.039420001 0.65700001 4294967295
0.044425718 -0.039420001 0.65700001 4294967295
0.045677144 -0.039420001 0.65700001 4294967295
0.046928573 -0.039420001 0.65700001 4294967295
0.021600001 -0.037645716 0.648 4294967295
0.022799049 -0.03758762 0.64700001 4294967295
0.023957144 -0.037471432 0.64500004 4294967295
0.025185715 -0.037471432 0.64500004 4294967295
0.026373334 -0.037413336 0.64400005 4294967295
0.027514288 -0.037297145 0.64200002 4294967295
0.028737145 -0.037297145 0.64200002 4294967295
0.029913336 -0.037239049 0.64100003 4294967295
0.031134287 -0.037239049 0.64100003 4294967295
0.032355241 -0.037239049 0.64100003 4294967295
0.033576194 -0.037239049 0.64100003 4294967295
0.034851432 -0.037297145 0.64200002 4294967295
0.036074288 -0.037297145 0.64200002 4294967295
0.038226668 -0.038226668 0.65800005 4294967295
0.039480001 -0.038226668 0.65800005 4294967295
0.040671431 -0.038168576 0.65700001 4294967295
0.041859049 -0.03811048 0.65600002 4294967295
0.043108575 -0.03811048 0.65600002 4294967295
0.044358097 -0.03811048 0.65600002 4294967295
0.045607623 -0.03811048 0.65600002 4294967295
0.046642859 -0.037936192 0.65300006 4294967295
0.021600001 -0.036411431 0.648 4294967295
0.022799049 -0.036355242 0.64700001 4294967295
0.023957144 -0.036242861 0.64500004 4294967295
0.025185715 -0.036242861 0.64500004 4294967295
0.026373334 -0.036186669 0.64400005 4294967295
0.027600002 -0.036186669 0.64400005 4294967295
0.028737145 -0.036074288 0.64200002 4294967295
0.029960003 -0.036074288 0.64200002 4294967295
0.031182859 -0.036074288 0.64200002 4294967295
0.032405715 -0.036074288 0.64200002 4294967295
0.033628572 -0.036074288 0.64200002 4294967295
0.034851432 -0.036074288 0.64200002 4294967295
0.036074288 -0.036074288 0.64200002 4294967295
0.037297145 -0.036074288 0.64200002 4294967295
0.039180003 -0.036692385 0.65300006 4294967295
0.04042381 -0.036692385 0.65300006 4294967295
0.041667622 -0.036692385 0.65300006 4294967295
0.043042861 -0.036804765 0.65500003 4294967295
0.044290479 -0.036804765 0.65500003 4294967295
0.045329526 -0.036636192 0.65200001 4294967295
0.046642859 -0.036692385 0.65300006 4294967295
0.047666669 -0.036523812 0.65000004 4294967295
0.021600001 -0.035177145 0.648 4294967295
0.022799049 -0.03512286 0.64700001 4294967295
0.023994287 -0.035068575 0.64600003 4294967295
0.025185715 -0.035014287 0.64500004 4294967295
0.026414288 -0.035014287 0.64500004 4294967295
0.027600002 -0.034960002 0.64400005 4294967295
0.028737145 -0.034851432 0.64200002 4294967295
0.029960003 -0.034851432 0.64200002 4294967295
0.031182859 -0.034851432 0.64200002 4294967295
0.032405715 -0.034851432 0.64200002 4294967295
0.033628572 -0.034851432 0.64200002 4294967295
0.034797147 -0.034797147 0.64100003 4294967295
0.036074288 -0.034851432 0.64200002 4294967295
0.037297145 -0.034851432 0.64200002 4294967295
0.038640004 -0.034960002 0.64400005 4294967295
0.040361907 -0.035394289 0.65200001 4294967295
0.041667622 -0.035448574 0.65300006 4294967295
0.042911433 -0.035448574 0.65300006 4294967295
0.04415524 -0.035448574 0.65300006 4294967295
0.045399051 -0.035448574 0.65300006 4294967295
0.04657143 -0.035394289 0.65200001 4294967295
0.047813337 -0.035394289 0.65200001 4294967295
0.049055241 -0.035394289 0.65200001 4294967295
0.020428572 -0.034047622 0.65000004 4294967295
0.021600001 -0.03394286 0.648 4294967295
0.022799049 -0.033890478 0.64700001 4294967295
0.023994287 -0.033838097 0.64600003 4294967295
0.025185715 -0.033785716 0.64500004 4294967295
0.026414288 -0.033785716 0.64500004 4294967295
0.027600002 -0.033733334 0.64400005 4294967295
0.028737145 -0.033628572 0.64200002 4294967295
0.029960003 -0.033628572 0.64200002 4294967295
0.031182859 -0.033628572 0.64200002 4294967295
0.032405715 -0.033628572 0.64200002 4294967295
0.033628572 -0.033628572 0.64200002 4294967295
0.034851432 -0.033628572 0.64200002 4294967295
0.036074288 -0.033628572 0.64200002 4294967295
0.037297145 -0.033628572 0.64200002 4294967295
0.038640004 -0.033733334 0.64400005 4294967295
0.040238097 -0.034047622 0.65000004 4294967295
0.041540004 -0.034100004 0.65100002 4294967295
0.042845719 -0.034152385 0.65200001 4294967295
0.044020005 -0.034100004 0.65100002 4294967295
0.045329526 -0.034152385 0.65200001 4294967295
0.04657143 -0.034152385 0.65200001 4294967295
0.047813337 -0.034152385 0.65200001 4294967295
0.049055241 -0.034152385 0.65200001 4294967295
0.018007619 -0.032910477 0.65200001 4294967295
0.019249525 -0.032910477 0.65200001 4294967295
0.020428572 -0.032809526 0.65000004 4294967295
0.021600001 -0.032708574 0.648 4294967295
0.022799049 -0.032658096 0.64700001 4294967295
0.023994287 -0.032607622 0.64600003 4294967295
0.025185715 -0.032557145 0.64500004 4294967295
0.026414288 -0.032557145 0.64500004 4294967295
0.027600002 -0.032506667 0.64400005 4294967295
0.028737145 -0.032405715 0.64200002 4294967295
0.029960003 -0.032405715 0.64200002 4294967295
0.031182859 -0.032405715 0.64200002 4294967295
0.032405715 -0.032405715 0.64200002 4294967295
0.033628572 -0.032405715 0.64200002 4294967295
0.034851432 -0.032405715 0.64200002 4294967295
0.036074288 -0.032405715 0.64200002 4294967295
0.037413336 -0.032506667 0.64400005 4294967295
0.038640004 -0.032506667 0.64400005 4294967295
0.040114287 -0.032708574 0.648 4294967295
0.041476194 -0.032809526 0.65000004 4294967295
0.042780004 -0.032860003 0.65100002 4294967295
0.044020005 -0.032860003 0.65100002 4294967295
0.045260005 -0.032860003 0.65100002 4294967295
0.046642859 -0.032960955 0.65300006 4294967295
0.04788667 -0.032960955 0.65300006 4294967295
0.049130481 -0.032960955 0.65300006 4294967295
-0.010319049 -0.04784286 0.98500007 4294967295
0.015595239 -0.031814288 0.65500003 4294967295
0.016791429 -0.031717144 0.65300006 4294967295
0.018007619 -0.031668574 0.65200001 4294967295
0.019249525 -0.031668574 0.65200001 4294967295
0.020428572 -0.031571429 0.65000004 4294967295
0.021600001 -0.031474289 0.648 4294967295
0.022799049 -0.031425714 0.64700001 4294967295
0.023994287 -0.031377144 0.64600003 4294967295
0.025224764 -0.031377144 0.64600003 4294967295
0.02645524 -0.031377144 0.64600003 4294967295
0.027600002 -0.031280003 0.64400005 4294967295
0.028826669 -0.031280003 0.64400005 4294967295
0.030053336 -0.031280003 0.64400005 4294967295
0.031280003 -0.031280003 0.64400005 4294967295
0.032506667 -0.031280003 0.64400005 4294967295
0.033733334 -0.031280003 0.64400005 4294967295
0.034851432 -0.031182859 0.64200002 4294967295
0.036074288 -0.031182859 0.64200002 4294967295
0.037413336 -0.031280003 0.64400005 4294967295
0.038700003 -0.031328574 0.64500004 4294967295
0.039990477 -0.031377144 0.64600003 4294967295
0.041284766 -0.031425714 0.64700001 4294967295
0.04271429 -0.031571429 0.65000004 4294967295
0.043952383 -0.031571429 0.65000004 4294967295
0.045260005 -0.031620003 0.65100002 4294967295
0.046642859 -0.031717144 0.65300006 4294967295
0.047813337 -0.031668574 0.65200001 4294967295
0.049130481 -0.031717144 0.65300006 4294967295
0.050374288 -0.031717144 0.65300006 4294967295
-0.0065333336 -0.045733336 0.98000002 4294967295
0.015595239 -0.030566668 0.65500003 4294967295
0.016791429 -0.030473335 0.65300006 4294967295
0.018035239 -0.030473335 0.65300006 4294967295
0.01927905 -0.030473335 0.65300006 4294967295
0.020491431 -0.030426668 0.65200001 4294967295
0.021700002 -0.030380001 0.65100002 4294967295
0.022834288 -0.030240001 0.648 4294967295
0.02403143 -0.030193334 0.64700001 4294967295
0.025224764 -0.030146668 0.64600003 4294967295
0.02645524 -0.030146668 0.64600003 4294967295
0.027642859 -0.030100003 0.64500004 4294967295
0.028826669 -0.030053336 0.64400005 4294967295
0.030053336 -0.030053336 0.64400005 4294967295
0.031280003 -0.030053336 0.64400005 4294967295
0.032506667 -0.030053336 0.64400005 4294967295
0.033733334 -0.030053336 0.64400005 4294967295
0.034960002 -0.030053336 0.64400005 4294967295
0.036186669 -0.030053336 0.64400005 4294967295
0.037413336 -0.030053336 0.64400005 4294967295
0.038640004 -0.030053336 0.64400005 4294967295
0.039928574 -0.030100003 0.64500004 4294967295
0.041220956 -0.030146668 0.64600003 4294967295
0.042517144 -0.030193334 0.64700001 4294967295
0.043952383 -0.030333335 0.65000004 4294967295
0.045260005 -0.030380001 0.65100002 4294967295
0.046642859 -0.030473335 0.65300006 4294967295
0.047813337 -0.030426668 0.65200001 4294967295
0.049130481 -0.030473335 0.65300006 4294967295
0.050374288 -0.030473335 0.65300006 4294967295
-0.00093047624 -0.043732382 0.97700006 4294967295
0.015595239 -0.02931905 0.65500003 4294967295
0.016791429 -0.029229525 0.65300006 4294967295
0.018007619 -0.029184764 0.65200001 4294967295
0.01927905 -0.029229525 0.65300006 4294967295
0.020491431 -0.029184764 0.65200001 4294967295
0.021733334 -0.029184764 0.65200001 4294967295
0.022904763 -0.02909524 0.65000004 4294967295
0.024068573 -0.029005716 0.648 4294967295
0.025302859 -0.029005716 0.648 4294967295
0.026537145 -0.029005716 0.648 4294967295
0.027685717 -0.028916193 0.64600003 4294967295
0.02887143 -0.02887143 0.64500004 4294967295
0.030100003 -0.02887143 0.64500004 4294967295
0.031328574 -0.02887143 0.64500004 4294967295
0.032557145 -0.02887143 0.64500004 4294967295
0.033733334 -0.028826669 0.64400005 4294967295
0.034960002 -0.028826669 0.64400005 4294967295
0.036186669 -0.028826669 0.64400005 4294967295
0.037413336 -0.028826669 0.64400005 4294967295
0.038700003 -0.02887143 0.64500004 4294967295
0.039928574 -0.02887143 0.64500004 4294967295
0.041220956 -0.028916193 0.64600003 4294967295
0.042517144 -0.028960954 0.64700001 4294967295
0.043952383 -0.02909524 0.65000004 4294967295
0.04519048 -0.02909524 0.65000004 4294967295
0.04657143 -0.029184764 0.65200001 4294967295
0.047813337 -0.029184764 0.65200001 4294967295
0.049055241 -0.029184764 0.65200001 4294967295
0.015595239 -0.02807143 0.65500003 4294967295
0.016791429 -0.027985716 0.65300006 4294967295
0.018007619 -0.027942859 0.65200001 4294967295
0.01927905 -0.027985716 0.65300006 4294967295
0.020491431 -0.027942859 0.65200001 4294967295
0.021700002 -0.027900001 0.65100002 4294967295
0.022904763 -0.027857145 0.65000004 4294967295
0.024068573 -0.02777143 0.648 4294967295
0.025302859 -0.02777143 0.648 4294967295
0.026537145 -0.02777143 0.648 4294967295
0.027685717 -0.027685717 0.64600003 4294967295
0.028916193 -0.027685717 0.64600003 4294967295
0.030146668 -0.027685717 0.64600003 4294967295
0.031328574 -0.027642859 0.64500004 4294967295
0.032557145 -0.027642859 0.64500004 4294967295
0.033785716 -0.027642859 0.64500004 4294967295
0.034960002 -0.027600002 0.64400005 4294967295
0.036186669 -0.027600002 0.64400005 4294967295
0.037471432 -0.027642859 0.64500004 4294967295
0.038760003 -0.027685717 0.64600003 4294967295
0.039990477 -0.027685717 0.64600003 4294967295
0.041284766 -0.027728572 0.64700001 4294967295
0.042582858 -0.02777143 0.648 4294967295
0.043952383 -0.027857145 0.65000004 4294967295
0.04519048 -0.027857145 0.65000004 4294967295
0.04657143 -0.027942859 0.65200001 4294967295
0.047813337 -0.027942859 0.65200001 4294967295
0.049055241 -0.027942859 0.65200001 4294967295
0.015595239 -0.026823811 0.65500003 4294967295
0.016791429 -0.026741907 0.65300006 4294967295
0.018007619 -0.026700955 0.65200001 4294967295
0.01927905 -0.026741907 0.65300006 4294967295
0.020491431 -0.026700955 0.65200001 4294967295
0.021733334 -0.026700955 0.65200001 4294967295
0.022940002 -0.026660001 0.65100002 4294967295
0.02414286 -0.026619049 0.65000004 4294967295
0.025302859 -0.026537145 0.648 4294967295
0.026537145 -0.026537145 0.648 4294967295
0.027728572 -0.026496192 0.64700001 4294967295
0.028960954 -0.026496192 0.64700001 4294967295
0.030146668 -0.02645524 0.64600003 4294967295
0.031377144 -0.02645524 0.64600003 4294967295
0.032607622 -0.02645524 0.64600003 4294967295
0.033785716 -0.026414288 0.64500004 4294967295
0.035014287 -0.026414288 0.64500004 4294967295
0.036242861 -0.026414288 0.64500004 4294967295
0.037471432 -0.026414288 0.64500004 4294967295
0.038760003 -0.02645524 0.64600003 4294967295
0.040052384 -0.026496192 0.64700001 4294967295
0.041348573 -0.026537145 0.648 4294967295
0.042582858 -0.026537145 0.648 4294967295
0.043952383 -0.026619049 0.65000004 4294967295
0.045260005 -0.026660001 0.65100002 4294967295
0.046642859 -0.026741907 0.65300006 4294967295
0.04788667 -0.026741907 0.65300006 4294967295
0.01439143 -0.025654288 0.65700001 4294967295
0.015619049 -0.02561524 0.65600002 4294967295
0.016868573 -0.02561524 0.65600002 4294967295
0.018035239 -0.025498098 0.65300006 4294967295
0.01927905 -0.025498098 0.65300006 4294967295
0.020522859 -0.025498098 0.65300006 4294967295
0.021733334 -0.025459049 0.65200001 4294967295
0.022940002 -0.025420001 0.65100002 4294967295
0.02414286 -0.025380954 0.65000004 4294967295
0.025302859 -0.025302859 0.648 4294967295
0.026537145 -0.025302859 0.648 4294967295
0.02777143 -0.025302859 0.648 4294967295
0.028960954 -0.025263811 0.64700001 4294967295
0.030193334 -0.025263811 0.64700001 4294967295
0.031425714 -0.025263811 0.64700001 4294967295
0.032607622 -0.025224764 0.64600003 4294967295
0.033785716 -0.025185715 0.64500004 4294967295
0.035014287 -0.025185715 0.64500004 4294967295
0.036186669 -0.025146669 0.64400005 4294967295
0.037471432 -0.025185715 0.64500004 4294967295
0.038760003 -0.025224764 0.64600003 4294967295
0.039990477 -0.025224764 0.64600003 4294967295
0.041284766 -0.025263811 0.64700001 4294967295
0.042582858 -0.025302859 0.648 4294967295
0.044020005 -0.025420001 0.65100002 4294967295
0.045329526 -0.025459049 0.65200001 4294967295
0.046857145 -0.02561524 0.65600002 4294967295
0.048033338 -0.025576193 0.65500003 4294967295
0.014413334 -0.024440002 0.65800005 4294967295
0.015642859 -0.024402859 0.65700001 4294967295
0.016868573 -0.024365716 0.65600002 4294967295
0.018090477 -0.024328573 0.65500003 4294967295
0.01927905 -0.024254287 0.65300006 4294967295
0.020522859 -0.024254287 0.65300006 4294967295
0.021733334 -0.024217144 0.65200001 4294967295
0.022940002 -0.024180003 0.65100002 4294967295
0.02414286 -0.02414286 0.65000004 4294967295
0.025380954 -0.02414286 0.65000004 4294967295
0.026619049 -0.02414286 0.65000004 4294967295
0.02777143 -0.024068573 0.648 4294967295
0.028960954 -0.02403143 0.64700001 4294967295
0.030193334 -0.02403143 0.64700001 4294967295
0.031425714 -0.02403143 0.64700001 4294967295
0.032658096 -0.02403143 0.64700001 4294967295
0.033890478 -0.02403143 0.64700001 4294967295
0.035068575 -0.023994287 0.64600003 4294967295
0.03629905 -0.023994287 0.64600003 4294967295
0.03758762 -0.02403143 0.64700001 4294967295
0.038820002 -0.02403143 0.64700001 4294967295
0.040052384 -0.02403143 0.64700001 4294967295
0.041348573 -0.024068573 0.648 4294967295
0.04271429 -0.02414286 0.65000004 4294967295
0.044087622 -0.024217144 0.65200001 4294967295
0.045399051 -0.024254287 0.65300006 4294967295
0.046857145 -0.024365716 0.65600002 4294967295
0.04810667 -0.024365716 0.65600002 4294967295
0.049506672 -0.024440002 0.65800005 4294967295
0.013260001 -0.023362858 0.66300005 4294967295
0.014457144 -0.023257144 0.66000003 4294967295
0.015666667 -0.023186669 0.65800005 4294967295
0.016894286 -0.023151429 0.65700001 4294967295
0.018118097 -0.023116192 0.65600002 4294967295
0.019338097 -0.023080954 0.65500003 4294967295
0.020522859 -0.023010477 0.65300006 4294967295
0.021733334 -0.02297524 0.65200001 4294967295
0.02297524 -0.02297524 0.65200001 4294967295
0.024180003 -0.022940002 0.65100002 4294967295
0.025380954 -0.022904763 0.65000004 4294967295
0.026619049 -0.022904763 0.65000004 4294967295
0.02777143 -0.022834288 0.648 4294967295
0.028960954 -0.022799049 0.64700001 4294967295
0.030193334 -0.022799049 0.64700001 4294967295
0.031425714 -0.022799049 0.64700001 4294967295
0.032658096 -0.022799049 0.64700001 4294967295
0.033890478 -0.022799049 0.64700001 4294967295
0.035068575 -0.022763811 0.64600003 4294967295
0.03629905 -0.022763811 0.64600003 4294967295
0.037529524 -0.022763811 0.64600003 4294967295
0.038760003 -0.022763811 0.64600003 4294967295
0.039990477 -0.022763811 0.64600003 4294967295
0.041476194 -0.022904763 0.65000004 4294967295
0.04271429 -0.022904763 0.65000004 4294967295
0.04415524 -0.023010477 0.65300006 4294967295
0.045538098 -0.023080954 0.65500003 4294967295
0.046857145 -0.023116192 0.65600002 4294967295
0.04810667 -0.023116192 0.65600002 4294967295
0.049506672 -0.023186669 0.65800005 4294967295
0.050760005 -0.023186669 0.65800005 4294967295
0.013260001 -0.022100002 0.66300005 4294967295
0.014479049 -0.022033336 0.66100001 4294967295
0.015714286 -0.022000002 0.66000003 4294967295
0.01692 -0.021933334 0.65800005 4294967295
0.018145716 -0.021900002 0.65700001 4294967295
0.01936762 -0.021866668 0.65600002 4294967295
0.020585716 -0.021833334 0.65500003 4294967295
0.021733334 -0.021733334 0.65200001 4294967295
0.02297524 -0.021733334 0.65200001 4294967295
0.024180003 -0.021700002 0.65100002 4294967295
0.025380954 -0.021666668 0.65000004 4294967295
0.026619049 -0.021666668 0.65000004 4294967295
0.02777143 -0.021600001 0.648 4294967295
0.029005716 -0.021600001 0.648 4294967295
0.030193334 -0.021566669 0.64700001 4294967295
0.031425714 -0.021566669 0.64700001 4294967295
0.032658096 -0.021566669 0.64700001 4294967295
0.033890478 -0.021566669 0.64700001 4294967295
0.03512286 -0.021566669 0.64700001 4294967295
0.036355242 -0.021566669 0.64700001 4294967295
0.03758762 -0.021566669 0.64700001 4294967295
0.038760003 -0.021533335 0.64600003 4294967295
0.040052384 -0.021566669 0.64700001 4294967295
0.041348573 -0.021600001 0.648 4294967295
0.042845719 -0.021733334 0.65200001 4294967295
0.044087622 -0.021733334 0.65200001 4294967295
0.045538098 -0.021833334 0.65500003 4294967295
0.046857145 -0.021866668 0.65600002 4294967295
0.048180003 -0.021900002 0.65700001 4294967295
0.049506672 -0.021933334 0.65800005 4294967295
0.050760005 -0.021933334 0.65800005 4294967295
0.013260001 -0.020837145 0.66300005 4294967295
0.014479049 -0.020774286 0.66100001 4294967295
0.015714286 -0.020742858 0.66000003 4294967295
0.01692 -0.020680001 0.65800005 4294967295
0.018173335 -0.020680001 0.65800005 4294967295
0.019338097 -0.020585716 0.65500003 4294967295
0.020522859 -0.020522859 0.65300006 4294967295
0.021766668 -0.020522859 0.65300006 4294967295
0.02297524 -0.020491431 0.65200001 4294967295
0.024180003 -0.020460002 0.65100002 4294967295
0.025380954 -0.020428572 0.65000004 4294967295
0.026619049 -0.020428572 0.65000004 4294967295
0.027857145 -0.020428572 0.65000004 4294967295
0.029005716 -0.020365715 0.648 4294967295
0.030240001 -0.020365715 0.648 4294967295
0.031425714 -0.020334287 0.64700001 4294967295
0.032658096 -0.020334287 0.64700001 4294967295
0.033890478 -0.020334287 0.64700001 4294967295
0.03512286 -0.020334287 0.64700001 4294967295
0.036355242 -0.020334287 0.64700001 4294967295
0.03758762 -0.020334287 0.64700001 4294967295
0.038820002 -0.020334287 0.64700001 4294967295
0.040238097 -0.020428572 0.65000004 4294967295
0.041540004 -0.020460002 0.65100002 4294967295
0.042845719 -0.020491431 0.65200001 4294967295
0.04415524 -0.020522859 0.65300006 4294967295
0.045538098 -0.020585716 0.65500003 4294967295
0.046928573 -0.020648573 0.65700001 4294967295
0.048180003 -0.020648573 0.65700001 4294967295
0.049506672 -0.020680001 0.65800005 4294967295
0.050760005 -0.020680001 0.65800005 4294967295
0.052013338 -0.020680001 0.65800005 4294967295
0.053671431 -0.020837145 0.66300005 4294967295
0.055100005 -0.020900002 0.66500002 4294967295
0.0044800001 -0.019840002 0.67200005 4294967295
0.0057600006 -0.019840002 0.67200005 4294967295
0.0070190481 -0.019780954 0.67000002 4294967295
0.0082828579 -0.01975143 0.66900003 4294967295
0.0095285717 -0.019692382 0.66700006 4294967295
0.010766667 -0.019633334 0.66500002 4294967295
0.011997144 -0.019574286 0.66300005 4294967295
0.013240001 -0.019544763 0.66200006 4294967295
0.014479049 -0.019515239 0.66100001 4294967295
0.015714286 -0.019485716 0.66000003 4294967295
0.01692 -0.019426668 0.65800005 4294967295
0.018173335 -0.019426668 0.65800005 4294967295
0.019338097 -0.019338097 0.65500003 4294967295
0.020585716 -0.019338097 0.65500003 4294967295
0.021766668 -0.01927905 0.65300006 4294967295
0.02297524 -0.019249525 0.65200001 4294967295
0.024217144 -0.019249525 0.65200001 4294967295
0.025420001 -0.019220002 0.65100002 4294967295
0.026660001 -0.019220002 0.65100002 4294967295
0.027900001 -0.019220002 0.65100002 4294967295
0.029005716 -0.019131429 0.648 4294967295
0.030240001 -0.019131429 0.648 4294967295
0.031425714 -0.019101907 0.64700001 4294967295
0.032658096 -0.019101907 0.64700001 4294967295
0.033890478 -0.019101907 0.64700001 4294967295
0.03512286 -0.019101907 0.64700001 4294967295
0.036355242 -0.019101907 0.64700001 4294967295
0.037645716 -0.019131429 0.648 4294967295
0.038880002 -0.019131429 0.648 4294967295
0.040114287 -0.019131429 0.648 4294967295
0.041603811 -0.019249525 0.65200001 4294967295
0.042911433 -0.01927905 0.65300006 4294967295
0.04415524 -0.01927905 0.65300006 4294967295
0.045538098 -0.019338097 0.65500003 4294967295
0.046928573 -0.019397143 0.65700001 4294967295
0.048180003 -0.019397143 0.65700001 4294967295
0.049506672 -0.019426668 0.65800005 4294967295
0.050760005 -0.019426668 0.65800005 4294967295
0.052171431 -0.019485716 0.66000003 4294967295
0.053509526 -0.019515239 0.66100001 4294967295
0.054851431 -0.019544763 0.66200006 4294967295
0.056197148 -0.019574286 0.66300005 4294967295
0.057460003 -0.019574286 0.66300005 4294967295
0.058722861 -0.019574286 0.66300005 4294967295
0.0031904764 -0.018504763 0.67000002 4294967295
0.0044666668 -0.018504763 0.67000002 4294967295
0.0057428577 -0.018504763 0.67000002 4294967295
0.0070085721 -0.018477144 0.66900003 4294967295
0.0082580959 -0.018421905 0.66700006 4294967295
0.0095142862 -0.018394288 0.66600001 4294967295
0.010734286 -0.01831143 0.66300005 4294967295
0.011979048 -0.01828381 0.66200006 4294967295
0.013220001 -0.018256191 0.66100001 4294967295
0.014457144 -0.018228572 0.66000003 4294967295
0.015666667 -0.018173335 0.65800005 4294967295
0.01692 -0.018173335 0.65800005 4294967295
0.018145716 -0.018145716 0.65700001 4294967295
0.019397143 -0.018145716 0.65700001 4294967295
0.020585716 -0.018090477 0.65500003 4294967295
0.021766668 -0.018035239 0.65300006 4294967295
0.023010477 -0.018035239 0.65300006 4294967295
0.024217144 -0.018007619 0.65200001 4294967295
0.025420001 -0.017980002 0.65100002 4294967295
0.026660001 -0.017980002 0.65100002 4294967295
0.027900001 -0.017980002 0.65100002 4294967295
0.029005716 -0.017897144 0.648 4294967295
0.030240001 -0.017897144 0.648 4294967295
0.031474289 -0.017897144 0.648 4294967295
0.032708574 -0.017897144 0.648 4294967295
0.03394286 -0.017897144 0.648 4294967295
0.03512286 -0.017869525 0.64700001 4294967295
0.036411431 -0.017897144 0.648 4294967295
0.037820004 -0.017980002 0.65100002 4294967295
0.039000001 -0.017952383 0.65000004 4294967295
0.040361907 -0.018007619 0.65200001 4294967295
0.041667622 -0.018035239 0.65300006 4294967295
0.043042861 -0.018090477 0.65500003 4294967295
0.044290479 -0.018090477 0.65500003 4294967295
0.045607623 -0.018118097 0.65600002 4294967295
0.046928573 -0.018145716 0.65700001 4294967295
0.048180003 -0.018145716 0.65700001 4294967295
0.049506672 -0.018173335 0.65800005 4294967295
0.050760005 -0.018173335 0.65800005 4294967295
0.052171431 -0.018228572 0.66000003 4294967295
0.053428575 -0.018228572 0.66000003 4294967295
0.054851431 -0.01828381 0.66200006 4294967295
0.056112386 -0.01828381 0.66200006 4294967295
0.057373337 -0.01828381 0.66200006 4294967295
0.058722861 -0.01831143 0.66300005 4294967295
0.0044600004 -0.017202858 0.66900003 4294967295
0.0057342863 -0.017202858 0.66900003 4294967295
0.0070085721 -0.017202858 0.66900003 4294967295
0.0082580959 -0.01715143 0.66700006 4294967295
0.0095142862 -0.017125715 0.66600001 4294967295
0.010734286 -0.017048573 0.66300005 4294967295
0.011979048 -0.017022857 0.66200006 4294967295
0.013220001 -0.016997144 0.66100001 4294967295
0.014457144 -0.01697143 0.66000003 4294967295
0.015666667 -0.01692 0.65800005 4294967295
0.01692 -0.01692 0.65800005 4294967295
0.018145716 -0.016894286 0.65700001 4294967295
0.01936762 -0.016868573 0.65600002 4294967295
0.020585716 -0.016842859 0.65500003 4294967295
0.021766668 -0.016791429 0.65300006 4294967295
0.023010477 -0.016791429 0.65300006 4294967295
0.024217144 -0.016765716 0.65200001 4294967295
0.025420001 -0.016740002 0.65100002 4294967295
0.026660001 -0.016740002 0.65100002 4294967295
0.027900001 -0.016740002 0.65100002 4294967295
0.029005716 -0.016662858 0.648 4294967295
0.030240001 -0.016662858 0.648 4294967295
0.031474289 -0.016662858 0.648 4294967295
0.032708574 -0.016662858 0.648 4294967295
0.03394286 -0.016662858 0.648 4294967295
0.035177145 -0.016662858 0.648 4294967295
0.036523812 -0.016714286 0.65000004 4294967295
0.037820004 -0.016740002 0.65100002 4294967295
0.039120004 -0.016765716 0.65200001 4294967295
0.040361907 -0.016765716 0.65200001 4294967295
0.041667622 -0.016791429 0.65300006 4294967295
0.042911433 -0.016791429 0.65300006 4294967295
0.044290479 -0.016842859 0.65500003 4294967295
0.045607623 -0.016868573 0.65600002 4294967295
0.046928573 -0.016894286 0.65700001 4294967295
0.048180003 -0.016894286 0.65700001 4294967295
0.049506672 -0.01692 0.65800005 4294967295
0.050760005 -0.01692 0.65800005 4294967295
0.052013338 -0.01692 0.65800005 4294967295
0.053428575 -0.01697143 0.66000003 4294967295
0.054768573 -0.016997144 0.66100001 4294967295
0.056027621 -0.016997144 0.66100001 4294967295
0.057373337 -0.017022857 0.66200006 4294967295
0.058634289 -0.017022857 0.66200006 4294967295
0.059895243 -0.017022857 0.66200006 4294967295
0.0031857146 -0.015928572 0.66900003 4294967295
0.0044600004 -0.015928572 0.66900003 4294967295
0.0057171434 -0.015880954 0.66700006 4294967295
0.0069876197 -0.015880954 0.66700006 4294967295
0.0082457149 -0.015857143 0.66600001 4294967295
0.0095000006 -0.015833335 0.66500002 4294967295
0.010718096 -0.015761906 0.66200006 4294967295
0.011960953 -0.015738096 0.66100001 4294967295
0.013200001 -0.015714286 0.66000003 4294967295
0.014413334 -0.015666667 0.65800005 4294967295
0.015666667 -0.015666667 0.65800005 4294967295
0.016894286 -0.015642859 0.65700001 4294967295
0.018145716 -0.015642859 0.65700001 4294967295
0.019338097 -0.015595239 0.65500003 4294967295
0.020522859 -0.01554762 0.65300006 4294967295
0.021733334 -0.015523811 0.65200001 4294967295
0.02297524 -0.015523811 0.65200001 4294967295
0.024180003 -0.015500001 0.65100002 4294967295
0.025420001 -0.015500001 0.65100002 4294967295
0.026619049 -0.015476191 0.65000004 4294967295
0.027857145 -0.015476191 0.65000004 4294967295
0.029005716 -0.015428573 0.648 4294967295
0.030240001 -0.015428573 0.648 4294967295
0.031474289 -0.015428573 0.648 4294967295
0.032708574 -0.015428573 0.648 4294967295
0.03394286 -0.015428573 0.648 4294967295
0.035285715 -0.015476191 0.65000004 4294967295
0.036523812 -0.015476191 0.65000004 4294967295
0.037820004 -0.015500001 0.65100002 4294967295
0.039120004 -0.015523811 0.65200001 4294967295
0.040361907 -0.015523811 0.65200001 4294967295
0.041603811 -0.015523811 0.65200001 4294967295
0.042911433 -0.01554762 0.65300006 4294967295
0.044290479 -0.015595239 0.65500003 4294967295
0.045538098 -0.015595239 0.65500003 4294967295
0.046928573 -0.015642859 0.65700001 4294967295
0.048180003 -0.015642859 0.65700001 4294967295
0.049431432 -0.015642859 0.65700001 4294967295
0.050760005 -0.015666667 0.65800005 4294967295
0.052013338 -0.015666667 0.65800005 4294967295
0.053266671 -0.015666667 0.65800005 4294967295
0.054685719 -0.015714286 0.66000003 4294967295
0.056027621 -0.015738096 0.66100001 4294967295
0.057373337 -0.015761906 0.66200006 4294967295
0.058722861 -0.015785715 0.66300005 4294967295
0.05998572 -0.015785715 0.66300005 4294967295
0.061156195 -0.015761906 0.66200006 4294967295
0.062417146 -0.015761906 0.66200006 4294967295
0.0031714288 -0.014588572 0.66600001 4294967295
0.0044466672 -0.014610477 0.66700006 4294967295
0.0057171434 -0.014610477 0.66700006 4294967295
0.0069771432 -0.014588572 0.66600001 4294967295
0.0082333339 -0.014566667 0.66500002 4294967295
0.009457143 -0.014500953 0.66200006 4294967295
0.010701905 -0.014479049 0.66100001 4294967295
0.011942858 -0.014457144 0.66000003 4294967295
0.013160001 -0.014413334 0.65800005 4294967295
0.01439143 -0.01439143 0.65700001 4294967295
0.015642859 -0.01439143 0.65700001 4294967295
0.016868573 -0.014369525 0.65600002 4294967295
0.018118097 -0.014369525 0.65600002 4294967295
0.01927905 -0.014303811 0.65300006 4294967295
0.020522859 -0.014303811 0.65300006 4294967295
0.021733334 -0.014281905 0.65200001 4294967295
0.02297524 -0.014281905 0.65200001 4294967295
0.024180003 -0.014260001 0.65100002 4294967295
0.025420001 -0.014260001 0.65100002 4294967295
0.026619049 -0.014238096 0.65000004 4294967295
0.027857145 -0.014238096 0.65000004 4294967295
0.02909524 -0.014238096 0.65000004 4294967295
0.030333335 -0.014238096 0.65000004 4294967295
0.031474289 -0.014194286 0.648 4294967295
0.032708574 -0.014194286 0.648 4294967295
0.03394286 -0.014194286 0.648 4294967295
0.035285715 -0.014238096 0.65000004 4294967295
0.036523812 -0.014238096 0.65000004 4294967295
0.037820004 -0.014260001 0.65100002 4294967295
0.039060004 -0.014260001 0.65100002 4294967295
0.040361907 -0.014281905 0.65200001 4294967295
0.041603811 -0.014281905 0.65200001 4294967295
0.042911433 -0.014303811 0.65300006 4294967295
0.04415524 -0.014303811 0.65300006 4294967295
0.045538098 -0.01434762 0.65500003 4294967295
0.046857145 -0.014369525 0.65600002 4294967295
0.04810667 -0.014369525 0.65600002 4294967295
0.049431432 -0.01439143 0.65700001 4294967295
0.050682861 -0.01439143 0.65700001 4294967295
0.051934291 -0.01439143 0.65700001 4294967295
0.053266671 -0.014413334 0.65800005 4294967295
0.054685719 -0.014457144 0.66000003 4294967295
0.056027621 -0.014479049 0.66100001 4294967295
0.057373337 -0.014500953 0.66200006 4294967295
0.058722861 -0.014522858 0.66300005 4294967295
0.05998572 -0.014522858 0.66300005 4294967295
0.061248574 -0.014522858 0.66300005 4294967295
0.062417146 -0.014500953 0.66200006 4294967295
0.10256096 -0.02087524 0.95300007 4294967295
0.003166667 -0.013300001 0.66500002 4294967295
0.0044333334 -0.013300001 0.66500002 4294967295
0.0057000006 -0.013300001 0.66500002 4294967295
0.0069457148 -0.013260001 0.66300005 4294967295
0.0081961909 -0.013240001 0.66200006 4294967295
0.0094428575 -0.013220001 0.66100001 4294967295
0.010685715 -0.013200001 0.66000003 4294967295
0.011906668 -0.013160001 0.65800005 4294967295
0.01314 -0.01314 0.65700001 4294967295
0.01439143 -0.01314 0.65700001 4294967295
0.015619049 -0.013120001 0.65600002 4294967295
0.016868573 -0.013120001 0.65600002 4294967295
0.018090477 -0.013100001 0.65500003 4294967295
0.01927905 -0.013060001 0.65300006 4294967295
0.020491431 -0.013040001 0.65200001 4294967295
0.021733334 -0.013040001 0.65200001 4294967295
0.022940002 -0.01302 0.65100002 4294967295
0.024180003 -0.01302 0.65100002 4294967295
0.025380954 -0.013000001 0.65000004 4294967295
0.026619049 -0.013000001 0.65000004 4294967295
0.027857145 -0.013000001 0.65000004 4294967295
0.02909524 -0.013000001 0.65000004 4294967295
0.030240001 -0.012960001 0.648 4294967295
0.031474289 -0.012960001 0.648 4294967295
0.032708574 -0.012960001 0.648 4294967295
0.03394286 -0.012960001 0.648 4294967295
0.035285715 -0.013000001 0.65000004 4294967295
0.036523812 -0.013000001 0.65000004 4294967295
0.037820004 -0.01302 0.65100002 4294967295
0.039000001 -0.013000001 0.65000004 4294967295
0.040300004 -0.01302 0.65100002 4294967295
0.041603811 -0.013040001 0.65200001 4294967295
0.042845719 -0.013040001 0.65200001 4294967295
0.04415524 -0.013060001 0.65300006 4294967295
0.045538098 -0.013100001 0.65500003 4294967295
0.046857145 -0.013120001 0.65600002 4294967295
0.04810667 -0.013120001 0.65600002 4294967295
0.049356192 -0.013120001 0.65600002 4294967295
0.050682861 -0.01314 0.65700001 4294967295
0.051934291 -0.01314 0.65700001 4294967295
0.053185716 -0.01314 0.65700001 4294967295
0.054520003 -0.013160001 0.65800005 4294967295
0.05594286 -0.013200001 0.66000003 4294967295
0.057286669 -0.013220001 0.66100001 4294967295
0.058722861 -0.013260001 0.66300005 4294967295
0.05998572 -0.013260001 0.66300005 4294967295
0.061248574 -0.013260001 0.66300005 4294967295
0.062417146 -0.013240001 0.66200006 4294967295
0.063581906 -0.013220001 0.66100001 4294967295
0.0018942858 -0.011997144 0.66300005 4294967295
0.003157143 -0.011997144 0.66300005 4294967295
0.0044200001 -0.011997144 0.66300005 4294967295
0.0056828577 -0.011997144 0.66300005 4294967295
0.0069352384 -0.011979048 0.66200006 4294967295
0.0081838099 -0.011960953 0.66100001 4294967295
0.0094285719 -0.011942858 0.66000003 4294967295
0.010653334 -0.011906668 0.65800005 4294967295
0.011888572 -0.011888572 0.65700001 4294967295
0.01314 -0.011888572 0.65700001 4294967295
0.014369525 -0.011870477 0.65600002 4294967295
0.015619049 -0.011870477 0.65600002 4294967295
0.016842859 -0.011852382 0.65500003 4294967295
0.018090477 -0.011852382 0.65500003 4294967295
0.019249525 -0.011798096 0.65200001 4294967295
0.020491431 -0.011798096 0.65200001 4294967295
0.021700002 -0.011780001 0.65100002 4294967295
0.022940002 -0.011780001 0.65100002 4294967295
0.02414286 -0.011761906 0.65000004 4294967295
0.025380954 -0.011761906 0.65000004 4294967295
0.026619049 -0.011761906 0.65000004 4294967295
0.027857145 -0.011761906 0.65000004 4294967295
0.02909524 -0.011761906 0.65000004 4294967295
0.030240001 -0.011725715 0.648 4294967295
0.031474289 -0.011725715 0.648 4294967295
0.032708574 -0.011725715 0.648 4294967295
0.03394286 -0.011725715 0.648 4294967295
0.035177145 -0.011725715 0.648 4294967295
0.036523812 -0.011761906 0.65000004 4294967295
0.037761908 -0.011761906 0.65000004 4294967295
0.039000001 -0.011761906 0.65000004 4294967295
0.040300004 -0.011780001 0.65100002 4294967295
0.041540004 -0.011780001 0.65100002 4294967295
0.042845719 -0.011798096 0.65200001 4294967295
0.044087622 -0.011798096 0.65200001 4294967295
0.045399051 -0.011816191 0.65300006 4294967295
0.046785716 -0.011852382 0.65500003 4294967295
0.048033338 -0.011852382 0.65500003 4294967295
0.049356192 -0.011870477 0.65600002 4294967295
0.050605718 -0.011870477 0.65600002 4294967295
0.05185524 -0.011870477 0.65600002 4294967295
0.053185716 -0.011888572 0.65700001 4294967295
0.054520003 -0.011906668 0.65800005 4294967295
0.055773336 -0.011906668 0.65800005 4294967295
0.057200003 -0.011942858 0.66000003 4294967295
0.058634289 -0.011979048 0.66200006 4294967295
0.05998572 -0.011997144 0.66300005 4294967295
0.061156195 -0.011979048 0.66200006 4294967295
0.062417146 -0.011979048 0.66200006 4294967295
0.063678101 -0.011979048 0.66200006 4294967295
0.0018914287 -0.010718096 0.66200006 4294967295
0.0031523812 -0.010718096 0.66200006 4294967295
0.0044133337 -0.010718096 0.66200006 4294967295
0.0056742863 -0.010718096 0.66200006 4294967295
0.0069247624 -0.010701905 0.66100001 4294967295
0.0081714289 -0.010685715 0.66000003 4294967295
0.0094000008 -0.010653334 0.65800005 4294967295
0.010637144 -0.010637144 0.65700001 4294967295
0.011888572 -0.010637144 0.65700001 4294967295
0.013120001 -0.010620954 0.65600002 4294967295
0.014369525 -0.010620954 0.65600002 4294967295
0.015595239 -0.010604762 0.65500003 4294967295
0.016791429 -0.010572381 0.65300006 4294967295
0.018007619 -0.010556191 0.65200001 4294967295
0.019249525 -0.010556191 0.65200001 4294967295
0.020460002 -0.010540001 0.65100002 4294967295
0.021666668 -0.01052381 0.65000004 4294967295
0.022904763 -0.01052381 0.65000004 4294967295
0.02414286 -0.01052381 0.65000004 4294967295
0.025380954 -0.01052381 0.65000004 4294967295
0.026619049 -0.01052381 0.65000004 4294967295
0.027857145 -0.01052381 0.65000004 4294967295
0.029005716 -0.010491429 0.648 4294967295
0.030240001 -0.010491429 0.648 4294967295
0.031474289 -0.010491429 0.648 4294967295
0.032708574 -0.010491429 0.648 4294967295
0.03394286 -0.010491429 0.648 4294967295
0.035177145 -0.010491429 0.648 4294967295
0.036411431 -0.010491429 0.648 4294967295
0.037761908 -0.01052381 0.65000004 4294967295
0.039000001 -0.01052381 0.65000004 4294967295
0.040238097 -0.01052381 0.65000004 4294967295
0.041540004 -0.010540001 0.65100002 4294967295
0.042780004 -0.010540001 0.65100002 4294967295
0.044087622 -0.010556191 0.65200001 4294967295
0.045399051 -0.010572381 0.65300006 4294967295
0.046642859 -0.010572381 0.65300006 4294967295
0.048033338 -0.010604762 0.65500003 4294967295
0.049280956 -0.010604762 0.65500003 4294967295
0.050528575 -0.010604762 0.65500003 4294967295
0.05185524 -0.010620954 0.65600002 4294967295
0.053104766 -0.010620954 0.65600002 4294967295
0.054437146 -0.010637144 0.65700001 4294967295
0.055773336 -0.010653334 0.65800005 4294967295
0.056940004 -0.010637144 0.65700001 4294967295
0.05854572 -0.010701905 0.66100001 4294967295
0.059895243 -0.010718096 0.66200006 4294967295
0.061156195 -0.010718096 0.66200006 4294967295
0.062417146 -0.010718096 0.66200006 4294967295
0.063581906 -0.010701905 0.66100001 4294967295
0.00063047622 -0.009457143 0.66200006 4294967295
0.0018914287 -0.009457143 0.66200006 4294967295
0.0031523812 -0.009457143 0.66200006 4294967295
0.0044133337 -0.009457143 0.66200006 4294967295
0.0056742863 -0.009457143 0.66200006 4294967295
0.0069247624 -0.0094428575 0.66100001 4294967295
0.0081466669 -0.0094000008 0.65800005 4294967295
0.0093857152 -0.0093857152 0.65700001 4294967295
0.010637144 -0.0093857152 0.65700001 4294967295
0.011870477 -0.0093714288 0.65600002 4294967295
0.013120001 -0.0093714288 0.65600002 4294967295
0.01434762 -0.0093571432 0.65500003 4294967295
0.01554762 -0.0093285721 0.65300006 4294967295
0.016765716 -0.0093142865 0.65200001 4294967295
0.017980002 -0.009300001 0.65100002 4294967295
0.019220002 -0.009300001 0.65100002 4294967295
0.020428572 -0.0092857145 0.65000004 4294967295
0.021666668 -0.0092857145 0.65000004 4294967295
0.022834288 -0.0092571434 0.648 4294967295
0.024068573 -0.0092571434 0.648 4294967295
0.025380954 -0.0092857145 0.65000004 4294967295
0.026537145 -0.0092571434 0.648 4294967295
0.027857145 -0.0092857145 0.65000004 4294967295
0.029005716 -0.0092571434 0.648 4294967295
0.030240001 -0.0092571434 0.648 4294967295
0.031474289 -0.0092571434 0.648 4294967295
0.032708574 -0.0092571434 0.648 4294967295
0.03394286 -0.0092571434 0.648 4294967295
0.035177145 -0.0092571434 0.648 4294967295
0.036411431 -0.0092571434 0.648 4294967295
0.037645716 -0.0092571434 0.648 4294967295
0.038880002 -0.0092571434 0.648 4294967295
0.040114287 -0.0092571434 0.648 4294967295
0.041476194 -0.0092857145 0.65000004 4294967295
0.04271429 -0.0092857145 0.65000004 4294967295
0.044020005 -0.009300001 0.65100002 4294967295
0.045329526 -0.0093142865 0.65200001 4294967295
0.04657143 -0.0093142865 0.65200001 4294967295
0.04788667 -0.0093285721 0.65300006 4294967295
0.049130481 -0.0093285721 0.65300006 4294967295
0.050374288 -0.0093285721 0.65300006 4294967295
0.051776193 -0.0093571432 0.65500003 4294967295
0.052780956 -0.0093142865 0.65200001 4294967295
0.054437146 -0.0093857152 0.65700001 4294967295
0.055688575 -0.0093857152 0.65700001 4294967295
0.057026669 -0.0094000008 0.65800005 4294967295
0.058280002 -0.0094000008 0.65800005 4294967295
0.059714291 -0.0094285719 0.66000003 4294967295
0.061063815 -0.0094428575 0.66100001 4294967295
0.062322862 -0.0094428575 0.66100001 4294967295
0.063581906 -0.0094428575 0.66100001 4294967295
-0.016593335 -0.011353334 0.91700006 4294967295
-0.014814286 -0.011328572 0.91500002 4294967295
-0.013071429 -0.011328572 0.91500002 4294967295
0.00063047622 -0.0081961909 0.66200006 4294967295
0.0018914287 -0.0081961909 0.66200006 4294967295
0.0031476193 -0.0081838099 0.66100001 4294967295
0.0044066668 -0.0081838099 0.66100001 4294967295
0.0056657149 -0.0081838099 0.66100001 4294967295
0.0069142859 -0.0081714289 0.66000003 4294967295
0.0081466669 -0.0081466669 0.65800005 4294967295
0.0093857152 -0.0081342859 0.65700001 4294967295
0.010620954 -0.0081219049 0.65600002 4294967295
0.011852382 -0.0081095239 0.65500003 4294967295
0.013100001 -0.0081095239 0.65500003 4294967295
0.014303811 -0.0080847628 0.65300006 4294967295
0.015523811 -0.0080723818 0.65200001 4294967295
0.016765716 -0.0080723818 0.65200001 4294967295
0.017952383 -0.0080476198 0.65000004 4294967295
0.019190477 -0.0080476198 0.65000004 4294967295
0.020428572 -0.0080476198 0.65000004 4294967295
0.021600001 -0.0080228578 0.648 4294967295
0.022834288 -0.0080228578 0.648 4294967295
0.024068573 -0.0080228578 0.648 4294967295
0.025302859 -0.0080228578 0.648 4294967295
0.026537145 -0.0080228578 0.648 4294967295
0.02777143 -0.0080228578 0.648 4294967295
0.029005716 -0.0080228578 0.648 4294967295
0.030240001 -0.0080228578 0.648 4294967295
0.031474289 -0.0080228578 0.648 4294967295
0.032708574 -0.0080228578 0.648 4294967295
0.033890478 -0.0080104768 0.64700001 4294967295
0.03512286 -0.0080104768 0.64700001 4294967295
0.036355242 -0.0080104768 0.64700001 4294967295
0.037645716 -0.0080228578 0.648 4294967295
0.038880002 -0.0080228578 0.648 4294967295
0.040114287 -0.0080228578 0.648 4294967295
0.041348573 -0.0080228578 0.648 4294967295
0.04271429 -0.0080476198 0.65000004 4294967295
0.044020005 -0.0080600008 0.65100002 4294967295
0.045260005 -0.0080600008 0.65100002 4294967295
0.04657143 -0.0080723818 0.65200001 4294967295
0.047813337 -0.0080723818 0.65200001 4294967295
0.049055241 -0.0080723818 0.65200001 4294967295
0.050374288 -0.0080847628 0.65300006 4294967295
0.051618099 -0.0080847628 0.65300006 4294967295
0.052861907 -0.0080847628 0.65300006 4294967295
0.054354288 -0.0081219049 0.65600002 4294967295
0.055603813 -0.0081219049 0.65600002 4294967295
0.056940004 -0.0081342859 0.65700001 4294967295
0.058191434 -0.0081342859 0.65700001 4294967295
0.059714291 -0.0081714289 0.66000003 4294967295
0.061063815 -0.0081838099 0.66100001 4294967295
0.062322862 -0.0081838099 0.66100001 4294967295
-0.014814286 -0.0095857149 0.91500002 4294967295
-0.013071429 -0.0095857149 0.91500002 4294967295
-0.011328572 -0.0095857149 0.91500002 4294967295
-0.00062952383 -0.0069247624 0.66100001 4294967295
0.00062952383 -0.0069247624 0.66100001 4294967295
0.0018885715 -0.0069247624 0.66100001 4294967295
0.0031428575 -0.0069142859 0.66000003 4294967295
0.0044000004 -0.0069142859 0.66000003 4294967295
0.0056400006 -0.006893334 0.65800005 4294967295
0.006893334 -0.006893334 0.65800005 4294967295
0.0081219049 -0.0068723815 0.65600002 4294967295
0.0093714288 -0.0068723815 0.65600002 4294967295
0.010572381 -0.0068409527 0.65300006 4294967295
0.011816191 -0.0068409527 0.65300006 4294967295
0.013040001 -0.0068304767 0.65200001 4294967295
0.014281905 -0.0068304767 0.65200001 4294967295
0.015500001 -0.0068200002 0.65100002 4294967295
0.016714286 -0.0068095243 0.65000004 4294967295
0.017897144 -0.0067885718 0.648 4294967295
0.019131429 -0.0067885718 0.648 4294967295
0.020365715 -0.0067885718 0.648 4294967295
0.021600001 -0.0067885718 0.648 4294967295
0.022834288 -0.0067885718 0.648 4294967295
0.024068573 -0.0067885718 0.648 4294967295
0.025302859 -0.0067885718 0.648 4294967295
0.026537145 -0.0067885718 0.648 4294967295
0.02777143 -0.0067885718 0.648 4294967295
0.029005716 -0.0067885718 0.648 4294967295
0.030193334 -0.0067780958 0.64700001 4294967295
0.031425714 -0.0067780958 0.64700001 4294967295
0.032658096 -0.0067780958 0.64700001 4294967295
0.033890478 -0.0067780958 0.64700001 4294967295
0.03512286 -0.0067780958 0.64700001 4294967295
0.036355242 -0.0067780958 0.64700001 4294967295
0.03758762 -0.0067780958 0.64700001 4294967295
0.038820002 -0.0067780958 0.64700001 4294967295
0.040052384 -0.0067780958 0.64700001 4294967295
0.041348573 -0.0067885718 0.648 4294967295
0.042582858 -0.0067885718 0.648 4294967295
0.043952383 -0.0068095243 0.65000004 4294967295
0.045260005 -0.0068200002 0.65100002 4294967295
0.046500005 -0.0068200002 0.65100002 4294967295
0.047740005 -0.0068200002 0.65100002 4294967295
0.049055241 -0.0068304767 0.65200001 4294967295
0.050297145 -0.0068304767 0.65200001 4294967295
0.051539052 -0.0068304767 0.65200001 4294967295
0.052619051 -0.0068095243 0.65000004 4294967295
0.053857148 -0.0068095243 0.65000004 4294967295
0.055349529 -0.0068409527 0.65300006 4294967295
0.056853335 -0.0068723815 0.65600002 4294967295
0.058191434 -0.0068828575 0.65700001 4294967295
0.059533339 -0.006893334 0.65800005 4294967295
0.060971431 -0.0069142859 0.66000003 4294967295
0.062322862 -0.0069247624 0.66100001 4294967295
0.00063047622 -0.0056742863 0.66200006 4294967295
0.0018885715 -0.0056657149 0.66100001 4294967295
0.0031428575 -0.0056571434 0.66000003 4294967295
0.0043866672 -0.0056400006 0.65800005 4294967295
0.0056400006 -0.0056400006 0.65800005 4294967295
0.0068828575 -0.0056314291 0.65700001 4294967295
0.0081219049 -0.0056228577 0.65600002 4294967295
0.0093571432 -0.0056142863 0.65500003 4294967295
0.010572381 -0.0055971434 0.65300006 4294967295
0.011798096 -0.005588572 0.65200001 4294967295
0.01302 -0.0055800006 0.65100002 4294967295
0.014260001 -0.0055800006 0.65100002 4294967295
0.015476191 -0.0055714292 0.65000004 4294967295
0.016662858 -0.0055542863 0.648 4294967295
0.017897144 -0.0055542863 0.648 4294967295
0.019131429 -0.0055542863 0.648 4294967295
0.020365715 -0.0055542863 0.648 4294967295
0.021600001 -0.0055542863 0.648 4294967295
0.022834288 -0.0055542863 0.648 4294967295
0.024068573 -0.0055542863 0.648 4294967295
0.025302859 -0.0055542863 0.648 4294967295
0.026537145 -0.0055542863 0.648 4294967295
0.02777143 -0.0055542863 0.648 4294967295
0.028960954 -0.0055457149 0.64700001 4294967295
0.030193334 -0.0055457149 0.64700001 4294967295
0.031425714 -0.0055457149 0.64700001 4294967295
0.032658096 -0.0055457149 0.64700001 4294967295
0.033838097 -0.0055371434 0.64600003 4294967295
0.035068575 -0.0055371434 0.64600003 4294967295
0.03629905 -0.0055371434 0.64600003 4294967295
0.03758762 -0.0055457149 0.64700001 4294967295
0.038820002 -0.0055457149 0.64700001 4294967295
0.040052384 -0.0055457149 0.64700001 4294967295
0.041284766 -0.0055457149 0.64700001 4294967295
0.042582858 -0.0055542863 0.648 4294967295
0.043817144 -0.0055542863 0.648 4294967295
0.04519048 -0.0055714292 0.65000004 4294967295
0.046428576 -0.0055714292 0.65000004 4294967295
0.047666669 -0.0055714292 0.65000004 4294967295
0.048980001 -0.0055800006 0.65100002 4294967295
0.050220001 -0.0055800006 0.65100002 4294967295
0.051380955 -0.0055714292 0.65000004 4294967295
0.052619051 -0.0055714292 0.65000004 4294967295
0.053857148 -0.0055714292 0.65000004 4294967295
0.055349529 -0.0055971434 0.65300006 4294967295
0.056853335 -0.0056228577 0.65600002 4294967295
0.058191434 -0.0056314291 0.65700001 4294967295
0.059442863 -0.0056314291 0.65700001 4294967295
0.060971431 -0.0056571434 0.66000003 4294967295
0.062322862 -0.0056657149 0.66100001 4294967295
0.00063047622 -0.0044133337 0.66200006 4294967295
0.0018885715 -0.0044066668 0.66100001 4294967295
0.0031428575 -0.0044000004 0.66000003 4294967295
0.0043866672 -0.0043866672 0.65800005 4294967295
0.0056400006 -0.0043866672 0.65800005 4294967295
0.0068723815 -0.0043733334 0.65600002 4294967295
0.0081095239 -0.004366667 0.65500003 4294967295
0.0093285721 -0.0043533337 0.65300006 4294967295
0.010556191 -0.0043466669 0.65200001 4294967295
0.011798096 -0.0043466669 0.65200001 4294967295
0.013000001 -0.0043333336 0.65000004 4294967295
0.014238096 -0.0043333336 0.65000004 4294967295
0.015476191 -0.0043333336 0.65000004 4294967295
0.016662858 -0.0043200003 0.648 4294967295
0.017897144 -0.0043200003 0.648 4294967295
0.019131429 -0.0043200003 0.648 4294967295
0.020334287 -0.0043133334 0.64700001 4294967295
0.021566669 -0.0043133334 0.64700001 4294967295
0.022799049 -0.0043133334 0.64700001 4294967295
0.02403143 -0.0043133334 0.64700001 4294967295
0.025302859 -0.0043200003 0.648 4294967295
