# .PCD v0.7 - Point Cloud Data file format
VERSION 0.7
FIELDS x y z rgb
SIZE 4 4 4 4
TYPE F F F U
COUNT 1 1 1 1
WIDTH 1022
HEIGHT 1
VIEWPOINT 0 0 0 1 0 0 0
POINTS 1022
DATA ascii
-0.025185715 0.016585715 0.64500004 4294967295
-0.023957144 0.016585715 0.64500004 4294967295
-0.022763811 0.016611429 0.64600003 4294967295
-0.021566669 0.016637145 0.64700001 4294967295
-0.020334287 0.016637145 0.64700001 4294967295
-0.019101907 0.016637145 0.64700001 4294967295
-0.017869525 0.016637145 0.64700001 4294967295
-0.016662858 0.016662858 0.648 4294967295
-0.015428573 0.016662858 0.648 4294967295
-0.014238096 0.016714286 0.65000004 4294967295
-0.013000001 0.016714286 0.65000004 4294967295
-0.011780001 0.016740002 0.65100002 4294967295
-0.010540001 0.016740002 0.65100002 4294967295
-0.0093142865 0.016765716 0.65200001 4294967295
-0.0080847628 0.016791429 0.65300006 4294967295
-0.0068619051 0.016842859 0.65500003 4294967295
-0.0056228577 0.016868573 0.65600002 4294967295
-0.0043866672 0.01692 0.65800005 4294967295
-0.0031428575 0.01697143 0.66000003 4294967295
-0.0018885715 0.016997144 0.66100001 4294967295
-0.00063142861 0.017048573 0.66300005 4294967295
0.0006333334 0.017100001 0.66500002 4294967295
0.0019057144 0.01715143 0.66700006 4294967295
0.003166667 0.017100001 0.66500002 4294967295
0.012200001 0.021960001 0.85400003 4294967295
-0.061987624 0.018532382 0.671 4294967295
-0.060619052 0.018504763 0.67000002 4294967295
-0.059077147 0.018421905 0.66700006 4294967295
-0.057633337 0.018366668 0.66500002 4294967295
-0.056366671 0.018366668 0.66500002 4294967295
-0.054934289 0.01831143 0.66300005 4294967295
-0.053509526 0.018256191 0.66100001 4294967295
-0.052171431 0.018228572 0.66000003 4294967295
-0.050682861 0.018145716 0.65700001 4294967295
-0.049356192 0.018118097 0.65600002 4294967295
-0.048033338 0.018090477 0.65500003 4294967295
-0.046785716 0.018090477 0.65500003 4294967295
-0.045399051 0.018035239 0.65300006 4294967295
-0.044087622 0.018007619 0.65200001 4294967295
-0.042780004 0.017980002 0.65100002 4294967295
-0.041540004 0.017980002 0.65100002 4294967295
-0.040238097 0.017952383 0.65000004 4294967295
-0.039000001 0.017952383 0.65000004 4294967295
-0.037645716 0.017897144 0.648 4294967295
-0.036411431 0.017897144 0.648 4294967295
-0.035177145 0.017897144 0.648 4294967295
-0.033890478 0.017869525 0.64700001 4294967295
-0.032607622 0.017841905 0.64600003 4294967295
-0.031377144 0.017841905 0.64600003 4294967295
-0.030100003 0.017814286 0.64500004 4294967295
-0.028916193 0.017841905 0.64600003 4294967295
-0.027685717 0.017841905 0.64600003 4294967295
-0.02645524 0.017841905 0.64600003 4294967295
-0.025224764 0.017841905 0.64600003 4294967295
-0.023994287 0.017841905 0.64600003 4294967295
-0.022763811 0.017841905 0.64600003 4294967295
-0.021566669 0.017869525 0.64700001 4294967295
-0.020334287 0.017869525 0.64700001 4294967295
-0.019131429 0.017897144 0.648 4294967295
-0.017897144 0.017897144 0.648 4294967295
-0.016662858 0.017897144 0.648 4294967295
-0.015476191 0.017952383 0.65000004 4294967295
-0.014260001 0.017980002 0.65100002 4294967295
-0.01302 0.017980002 0.65100002 4294967295
-0.011780001 0.017980002 0.65100002 4294967295
-0.010556191 0.018007619 0.65200001 4294967295
-0.0093285721 0.018035239 0.65300006 4294967295
-0.0080847628 0.018035239 0.65300006 4294967295
-0.0068723815 0.018118097 0.65600002 4294967295
-0.0056314291 0.018145716 0.65700001 4294967295
-0.0043866672 0.018173335 0.65800005 4294967295
-0.0031428575 0.018228572 0.66000003 4294967295
-0.0018885715 0.018256191 0.66100001 4294967295
-0.00063047622 0.01828381 0.66200006 4294967295
0.00063142861 0.01831143 0.66300005 4294967295
0.0019057144 0.018421905 0.66700006 4294967295
-0.061895244 0.019780954 0.67000002 4294967295
-0.060619052 0.019780954 0.67000002 4294967295
-0.059077147 0.019692382 0.66700006 4294967295
-0.057720006 0.019662859 0.66600001 4294967295
-0.056366671 0.019633334 0.66500002 4294967295
-0.054934289 0.019574286 0.66300005 4294967295
-0.05359048 0.019544763 0.66200006 4294967295
-0.052171431 0.019485716 0.66000003 4294967295
-0.050760005 0.019426668 0.65800005 4294967295
-0.049431432 0.019397143 0.65700001 4294967295
-0.04810667 0.01936762 0.65600002 4294967295
-0.046785716 0.019338097 0.65500003 4294967295
-0.045399051 0.01927905 0.65300006 4294967295
-0.044087622 0.019249525 0.65200001 4294967295
-0.042845719 0.019249525 0.65200001 4294967295
-0.041540004 0.019220002 0.65100002 4294967295
-0.040300004 0.019220002 0.65100002 4294967295
-0.039000001 0.019190477 0.65000004 4294967295
-0.037761908 0.019190477 0.65000004 4294967295
-0.036523812 0.019190477 0.65000004 4294967295
-0.035177145 0.019131429 0.648 4294967295
-0.03394286 0.019131429 0.648 4294967295
-0.032658096 0.019101907 0.64700001 4294967295
-0.031377144 0.019072382 0.64600003 4294967295
-0.030146668 0.019072382 0.64600003 4294967295
-0.028916193 0.019072382 0.64600003 4294967295
-0.027728572 0.019101907 0.64700001 4294967295
-0.02645524 0.019072382 0.64600003 4294967295
-0.025263811 0.019101907 0.64700001 4294967295
-0.023994287 0.019072382 0.64600003 4294967295
-0.022799049 0.019101907 0.64700001 4294967295
-0.021566669 0.019101907 0.64700001 4294967295
-0.020365715 0.019131429 0.648 4294967295
-0.019131429 0.019131429 0.648 4294967295
-0.017897144 0.019131429 0.648 4294967295
-0.016714286 0.019190477 0.65000004 4294967295
-0.015500001 0.019220002 0.65100002 4294967295
-0.014260001 0.019220002 0.65100002 4294967295
-0.01302 0.019220002 0.65100002 4294967295
-0.011798096 0.019249525 0.65200001 4294967295
-0.010556191 0.019249525 0.65200001 4294967295
-0.0093571432 0.019338097 0.65500003 4294967295
-0.0081095239 0.019338097 0.65500003 4294967295
-0.0068723815 0.01936762 0.65600002 4294967295
-0.0056314291 0.019397143 0.65700001 4294967295
-0.0043866672 0.019426668 0.65800005 4294967295
-0.0031428575 0.019485716 0.66000003 4294967295
-0.0018857144 0.019485716 0.66000003 4294967295
-0.00062952383 0.019515239 0.66100001 4294967295
0.00063142861 0.019574286 0.66300005 4294967295
0.0019028572 0.019662859 0.66600001 4294967295
-0.062264767 0.021182859 0.67400002 4294967295
-0.060800005 0.021120001 0.67200005 4294967295
-0.059431434 0.021088572 0.671 4294967295
-0.057980005 0.021025715 0.66900003 4294967295
-0.056536194 0.020962859 0.66700006 4294967295
-0.055182859 0.02093143 0.66600001 4294967295
-0.053671431 0.020837145 0.66300005 4294967295
-0.052329529 0.020805717 0.66200006 4294967295
-0.050991431 0.020774286 0.66100001 4294967295
-0.049506672 0.020680001 0.65800005 4294967295
-0.048180003 0.020648573 0.65700001 4294967295
-0.046857145 0.020617144 0.65600002 4294967295
-0.045538098 0.020585716 0.65500003 4294967295
-0.04415524 0.020522859 0.65300006 4294967295
-0.042845719 0.020491431 0.65200001 4294967295
-0.041603811 0.020491431 0.65200001 4294967295
-0.040300004 0.020460002 0.65100002 4294967295
-0.039060004 0.020460002 0.65100002 4294967295
-0.037820004 0.020460002 0.65100002 4294967295
-0.036580004 0.020460002 0.65100002 4294967295
-0.035285715 0.020428572 0.65000004 4294967295
-0.034047622 0.020428572 0.65000004 4294967295
-0.032708574 0.020365715 0.648 4294967295
-0.031474289 0.020365715 0.648 4294967295
-0.030240001 0.020365715 0.648 4294967295
-0.029005716 0.020365715 0.648 4294967295
-0.02777143 0.020365715 0.648 4294967295
-0.026496192 0.020334287 0.64700001 4294967295
-0.025263811 0.020334287 0.64700001 4294967295
-0.02403143 0.020334287 0.64700001 4294967295
-0.022834288 0.020365715 0.648 4294967295
-0.021666668 0.020428572 0.65000004 4294967295
-0.020428572 0.020428572 0.65000004 4294967295
-0.019190477 0.020428572 0.65000004 4294967295
-0.017952383 0.020428572 0.65000004 4294967295
-0.016740002 0.020460002 0.65100002 4294967295
-0.015523811 0.020491431 0.65200001 4294967295
-0.014281905 0.020491431 0.65200001 4294967295
-0.013040001 0.020491431 0.65200001 4294967295
-0.011816191 0.020522859 0.65300006 4294967295
-0.010604762 0.020585716 0.65500003 4294967295
-0.0093714288 0.020617144 0.65600002 4294967295
-0.0081219049 0.020617144 0.65600002 4294967295
-0.0068828575 0.020648573 0.65700001 4294967295
-0.0056400006 0.020680001 0.65800005 4294967295
-0.0043866672 0.020680001 0.65800005 4294967295
-0.0031428575 0.020742858 0.66000003 4294967295
-0.0018885715 0.020774286 0.66100001 4294967295
-0.00063047622 0.020805717 0.66200006 4294967295
0.00063142861 0.020837145 0.66300005 4294967295
0.0019028572 0.02093143 0.66600001 4294967295
-0.062264767 0.022466669 0.67400002 4294967295
-0.060800005 0.022400001 0.67200005 4294967295
-0.059431434 0.022366669 0.671 4294967295
-0.05806667 0.022333335 0.67000002 4294967295
-0.056705717 0.022300001 0.66900003 4294967295
-0.055265717 0.022233335 0.66700006 4294967295
-0.053671431 0.022100002 0.66300005 4294967295
-0.052329529 0.022066668 0.66200006 4294967295
-0.050991431 0.022033336 0.66100001 4294967295
-0.049657147 0.022000002 0.66000003 4294967295
-0.048253335 0.021933334 0.65800005 4294967295
-0.046928573 0.021900002 0.65700001 4294967295
-0.045607623 0.021866668 0.65600002 4294967295
-0.04415524 0.021766668 0.65300006 4294967295
-0.042911433 0.021766668 0.65300006 4294967295
-0.041603811 0.021733334 0.65200001 4294967295
-0.040361907 0.021733334 0.65200001 4294967295
-0.039120004 0.021733334 0.65200001 4294967295
-0.037878096 0.021733334 0.65200001 4294967295
-0.036580004 0.021700002 0.65100002 4294967295
-0.035340004 0.021700002 0.65100002 4294967295
-0.034100004 0.021700002 0.65100002 4294967295
-0.032809526 0.021666668 0.65000004 4294967295
-0.031474289 0.021600001 0.648 4294967295
-0.030240001 0.021600001 0.648 4294967295
-0.029005716 0.021600001 0.648 4294967295
-0.027857145 0.021666668 0.65000004 4294967295
-0.026537145 0.021600001 0.648 4294967295
-0.025302859 0.021600001 0.648 4294967295
-0.02414286 0.021666668 0.65000004 4294967295
-0.022904763 0.021666668 0.65000004 4294967295
-0.021666668 0.021666668 0.65000004 4294967295
-0.020460002 0.021700002 0.65100002 4294967295
-0.019220002 0.021700002 0.65100002 4294967295
-0.017980002 0.021700002 0.65100002 4294967295
-0.016765716 0.021733334 0.65200001 4294967295
-0.015523811 0.021733334 0.65200001 4294967295
-0.014281905 0.021733334 0.65200001 4294967295
-0.013060001 0.021766668 0.65300006 4294967295
-0.011816191 0.021766668 0.65300006 4294967295
-0.010604762 0.021833334 0.65500003 4294967295
-0.0093714288 0.021866668 0.65600002 4294967295
-0.0081342859 0.021900002 0.65700001 4294967295
-0.006893334 0.021933334 0.65800005 4294967295
-0.0056400006 0.021933334 0.65800005 4294967295
-0.0043866672 0.021933334 0.65800005 4294967295
-0.0031476193 0.022033336 0.66100001 4294967295
-0.0018885715 0.022033336 0.66100001 4294967295
-0.00063047622 0.022066668 0.66200006 4294967295
0.00063142861 0.022100002 0.66300005 4294967295
0.0019057144 0.022233335 0.66700006 4294967295
-0.060800005 0.023680001 0.67200005 4294967295
-0.059431434 0.023644764 0.671 4294967295
-0.05806667 0.023609525 0.67000002 4294967295
-0.056790479 0.023609525 0.67000002 4294967295
-0.055431433 0.023574287 0.66900003 4294967295
-0.053833336 0.023433335 0.66500002 4294967295
-0.052408576 0.023362858 0.66300005 4294967295
-0.051068574 0.023327621 0.66200006 4294967295
-0.049732383 0.023292383 0.66100001 4294967295
-0.048400003 0.023257144 0.66000003 4294967295
-0.047000002 0.023186669 0.65800005 4294967295
-0.045607623 0.023116192 0.65600002 4294967295
-0.044290479 0.023080954 0.65500003 4294967295
-0.042911433 0.023010477 0.65300006 4294967295
-0.041667622 0.023010477 0.65300006 4294967295
-0.04042381 0.023010477 0.65300006 4294967295
-0.039120004 0.02297524 0.65200001 4294967295
-0.037878096 0.02297524 0.65200001 4294967295
-0.036636192 0.02297524 0.65200001 4294967295
-0.035394289 0.02297524 0.65200001 4294967295
-0.034152385 0.02297524 0.65200001 4294967295
-0.032809526 0.022904763 0.65000004 4294967295
-0.031571429 0.022904763 0.65000004 4294967295
-0.030333335 0.022904763 0.65000004 4294967295
-0.02909524 0.022904763 0.65000004 4294967295
-0.027857145 0.022904763 0.65000004 4294967295
-0.026619049 0.022904763 0.65000004 4294967295
-0.025380954 0.022904763 0.65000004 4294967295
-0.02414286 0.022904763 0.65000004 4294967295
-0.022904763 0.022904763 0.65000004 4294967295
-0.021700002 0.022940002 0.65100002 4294967295
-0.020460002 0.022940002 0.65100002 4294967295
-0.019249525 0.02297524 0.65200001 4294967295
-0.018007619 0.02297524 0.65200001 4294967295
-0.016765716 0.02297524 0.65200001 4294967295
-0.01554762 0.023010477 0.65300006 4294967295
-0.014303811 0.023010477 0.65300006 4294967295
-0.013100001 0.023080954 0.65500003 4294967295
-0.011852382 0.023080954 0.65500003 4294967295
-0.010620954 0.023116192 0.65600002 4294967295
-0.0093857152 0.023151429 0.65700001 4294967295
-0.0081342859 0.023151429 0.65700001 4294967295
-0.006893334 0.023186669 0.65800005 4294967295
-0.0056400006 0.023186669 0.65800005 4294967295
-0.0044000004 0.023257144 0.66000003 4294967295
-0.0031476193 0.023292383 0.66100001 4294967295
-0.0018914287 0.023327621 0.66200006 4294967295
-0.0006333334 0.023433335 0.66500002 4294967295
0.00063523813 0.02350381 0.66700006 4294967295
0.0019114286 0.023574287 0.66900003 4294967295
-0.060800005 0.024960002 0.67200005 4294967295
-0.059431434 0.024922859 0.671 4294967295
-0.05806667 0.024885716 0.67000002 4294967295
-0.056790479 0.024885716 0.67000002 4294967295
-0.055431433 0.024848573 0.66900003 4294967295
-0.05391429 0.024737144 0.66600001 4294967295
-0.052408576 0.024625717 0.66300005 4294967295
-0.051145718 0.024625717 0.66300005 4294967295
-0.049732383 0.024551431 0.66100001 4294967295
-0.048473336 0.024551431 0.66100001 4294967295
-0.047000002 0.024440002 0.65800005 4294967295
-0.045677144 0.024402859 0.65700001 4294967295
-0.044290479 0.024328573 0.65500003 4294967295
-0.043042861 0.024328573 0.65500003 4294967295
-0.041795243 0.024328573 0.65500003 4294967295
-0.04042381 0.024254287 0.65300006 4294967295
-0.039180003 0.024254287 0.65300006 4294967295
-0.037936192 0.024254287 0.65300006 4294967295
-0.036692385 0.024254287 0.65300006 4294967295
-0.035448574 0.024254287 0.65300006 4294967295
-0.034204762 0.024254287 0.65300006 4294967295
-0.032860003 0.024180003 0.65100002 4294967295
-0.031620003 0.024180003 0.65100002 4294967295
-0.030380001 0.024180003 0.65100002 4294967295
-0.029140001 0.024180003 0.65100002 4294967295
-0.027900001 0.024180003 0.65100002 4294967295
-0.026660001 0.024180003 0.65100002 4294967295
-0.025420001 0.024180003 0.65100002 4294967295
-0.024180003 0.024180003 0.65100002 4294967295
-0.022940002 0.024180003 0.65100002 4294967295
-0.021700002 0.024180003 0.65100002 4294967295
-0.020491431 0.024217144 0.65200001 4294967295
-0.019249525 0.024217144 0.65200001 4294967295
-0.018007619 0.024217144 0.65200001 4294967295
-0.016791429 0.024254287 0.65300006 4294967295
-0.01554762 0.024254287 0.65300006 4294967295
-0.014303811 0.024254287 0.65300006 4294967295
-0.013100001 0.024328573 0.65500003 4294967295
-0.011870477 0.024365716 0.65600002 4294967295
-0.010620954 0.024365716 0.65600002 4294967295
-0.0093857152 0.024402859 0.65700001 4294967295
-0.0081342859 0.024402859 0.65700001 4294967295
-0.006893334 0.024440002 0.65800005 4294967295
-0.0056571434 0.024514288 0.66000003 4294967295
-0.0044000004 0.024514288 0.66000003 4294967295
-0.0031523812 0.024588574 0.66200006 4294967295
-0.0018942858 0.024625717 0.66300005 4294967295
-0.00063428574 0.024737144 0.66600001 4294967295
0.00063523813 0.024774287 0.66700006 4294967295
0.0019114286 0.024848573 0.66900003 4294967295
-0.059520002 0.026240002 0.67200005 4294967295
-0.058153339 0.026200954 0.671 4294967295
-0.056790479 0.026161907 0.67000002 4294967295
-0.055431433 0.026122859 0.66900003 4294967295
-0.05391429 0.026005715 0.66600001 4294967295
-0.05256667 0.025966669 0.66500002 4294967295
-0.051145718 0.025888573 0.66300005 4294967295
-0.049807623 0.025849525 0.66200006 4294967295
-0.048473336 0.025810478 0.66100001 4294967295
-0.04714286 0.02577143 0.66000003 4294967295
-0.045746669 0.025693335 0.65800005 4294967295
-0.044358097 0.02561524 0.65600002 4294967295
-0.043042861 0.025576193 0.65500003 4294967295
-0.041795243 0.025576193 0.65500003 4294967295
-0.040547621 0.025576193 0.65500003 4294967295
-0.039300002 0.025576193 0.65500003 4294967295
-0.038052384 0.025576193 0.65500003 4294967295
-0.036692385 0.025498098 0.65300006 4294967295
-0.035448574 0.025498098 0.65300006 4294967295
-0.034204762 0.025498098 0.65300006 4294967295
-0.032910477 0.025459049 0.65200001 4294967295
-0.031620003 0.025420001 0.65100002 4294967295
-0.030426668 0.025459049 0.65200001 4294967295
-0.029140001 0.025420001 0.65100002 4294967295
-0.027942859 0.025459049 0.65200001 4294967295
-0.026660001 0.025420001 0.65100002 4294967295
-0.025420001 0.025420001 0.65100002 4294967295
-0.024217144 0.025459049 0.65200001 4294967295
-0.02297524 0.025459049 0.65200001 4294967295
-0.021733334 0.025459049 0.65200001 4294967295
-0.020491431 0.025459049 0.65200001 4294967295
-0.01927905 0.025498098 0.65300006 4294967295
-0.018035239 0.025498098 0.65300006 4294967295
-0.016791429 0.025498098 0.65300006 4294967295
-0.01554762 0.025498098 0.65300006 4294967295
-0.01434762 0.025576193 0.65500003 4294967295
-0.013120001 0.02561524 0.65600002 4294967295
-0.011870477 0.02561524 0.65600002 4294967295
-0.010637144 0.025654288 0.65700001 4294967295
-0.0093857152 0.025654288 0.65700001 4294967295
-0.0081466669 0.025693335 0.65800005 4294967295
-0.006893334 0.025693335 0.65800005 4294967295
-0.0056571434 0.02577143 0.66000003 4294967295
-0.0044066668 0.025810478 0.66100001 4294967295
-0.003157143 0.025888573 0.66300005 4294967295
-0.0019000001 0.025966669 0.66500002 4294967295
-0.00063523813 0.026044764 0.66700006 4294967295
0.00063523813 0.026044764 0.66700006 4294967295
0.0019114286 0.026122859 0.66900003 4294967295
-0.059697147 0.027601907 0.67400002 4294967295
-0.058240004 0.027520001 0.67200005 4294967295
-0.05687524 0.027479049 0.671 4294967295
-0.055514291 0.027438097 0.67000002 4294967295
-0.05391429 0.027274288 0.66600001 4294967295
-0.05256667 0.027233334 0.66500002 4294967295
-0.051145718 0.02715143 0.66300005 4294967295
-0.049807623 0.027110478 0.66200006 4294967295
-0.048546668 0.027110478 0.66200006 4294967295
-0.047214288 0.027069526 0.66100001 4294967295
-0.045885716 0.027028574 0.66000003 4294967295
-0.044425718 0.026905715 0.65700001 4294967295
-0.043108575 0.026864763 0.65600002 4294967295
-0.041859049 0.026864763 0.65600002 4294967295
-0.040547621 0.026823811 0.65500003 4294967295
-0.039300002 0.026823811 0.65500003 4294967295
-0.038052384 0.026823811 0.65500003 4294967295
-0.036804765 0.026823811 0.65500003 4294967295
-0.035557143 0.026823811 0.65500003 4294967295
-0.034309525 0.026823811 0.65500003 4294967295
-0.032910477 0.026700955 0.65200001 4294967295
-0.031668574 0.026700955 0.65200001 4294967295
-0.030426668 0.026700955 0.65200001 4294967295
-0.029184764 0.026700955 0.65200001 4294967295
-0.027942859 0.026700955 0.65200001 4294967295
-0.026700955 0.026700955 0.65200001 4294967295
-0.025459049 0.026700955 0.65200001 4294967295
-0.024217144 0.026700955 0.65200001 4294967295
-0.02297524 0.026700955 0.65200001 4294967295
-0.021733334 0.026700955 0.65200001 4294967295
-0.020522859 0.026741907 0.65300006 4294967295
-0.01927905 0.026741907 0.65300006 4294967295
-0.018035239 0.026741907 0.65300006 4294967295
-0.016791429 0.026741907 0.65300006 4294967295
-0.015595239 0.026823811 0.65500003 4294967295
-0.014369525 0.026864763 0.65600002 4294967295
-0.013120001 0.026864763 0.65600002 4294967295
-0.011870477 0.026864763 0.65600002 4294967295
-0.010637144 0.026905715 0.65700001 4294967295
-0.0093857152 0.026905715 0.65700001 4294967295
-0.0081466669 0.026946668 0.65800005 4294967295
-0.0069142859 0.027028574 0.66000003 4294967295
-0.0056657149 0.027069526 0.66100001 4294967295
-0.0044133337 0.027110478 0.66200006 4294967295
-0.003166667 0.027233334 0.66500002 4294967295
-0.0019000001 0.027233334 0.66500002 4294967295
-0.00063523813 0.02731524 0.66700006 4294967295
0.00063523813 0.02731524 0.66700006 4294967295
0.0019114286 0.027397145 0.66900003 4294967295
-0.059697147 0.028885717 0.67400002 4294967295
-0.058413338 0.028885717 0.67400002 4294967295
-0.056960005 0.028800001 0.67200005 4294967295
-0.055597145 0.028757146 0.671 4294967295
-0.05399524 0.028585717 0.66700006 4294967295
-0.05256667 0.028500002 0.66500002 4294967295
-0.051300004 0.028500002 0.66500002 4294967295
-0.049882859 0.028414287 0.66300005 4294967295
-0.048546668 0.028371431 0.66200006 4294967295
-0.047214288 0.028328573 0.66100001 4294967295
-0.045885716 0.028285716 0.66000003 4294967295
-0.044628575 0.028285716 0.66000003 4294967295
-0.043174289 0.028157145 0.65700001 4294967295
-0.04192286 0.028157145 0.65700001 4294967295
-0.040609527 0.028114287 0.65600002 4294967295
-0.039360002 0.028114287 0.65600002 4294967295
-0.038052384 0.02807143 0.65500003 4294967295
-0.036804765 0.02807143 0.65500003 4294967295
-0.035557143 0.02807143 0.65500003 4294967295
-0.034309525 0.02807143 0.65500003 4294967295
-0.032960955 0.027985716 0.65300006 4294967295
-0.031668574 0.027942859 0.65200001 4294967295
-0.030426668 0.027942859 0.65200001 4294967295
-0.029184764 0.027942859 0.65200001 4294967295
-0.027942859 0.027942859 0.65200001 4294967295
-0.026700955 0.027942859 0.65200001 4294967295
-0.025459049 0.027942859 0.65200001 4294967295
-0.024217144 0.027942859 0.65200001 4294967295
-0.02297524 0.027942859 0.65200001 4294967295
-0.021733334 0.027942859 0.65200001 4294967295
-0.020522859 0.027985716 0.65300006 4294967295
-0.01927905 0.027985716 0.65300006 4294967295
-0.018090477 0.02807143 0.65500003 4294967295
-0.016842859 0.02807143 0.65500003 4294967295
-0.015595239 0.02807143 0.65500003 4294967295
-0.014369525 0.028114287 0.65600002 4294967295
-0.013120001 0.028114287 0.65600002 4294967295
-0.011870477 0.028114287 0.65600002 4294967295
-0.010637144 0.028157145 0.65700001 4294967295
-0.0093857152 0.028157145 0.65700001 4294967295
-0.0081466669 0.028200002 0.65800005 4294967295
-0.0069142859 0.028285716 0.66000003 4294967295
-0.0056742863 0.028371431 0.66200006 4294967295
-0.0044200001 0.028414287 0.66300005 4294967295
-0.003166667 0.028500002 0.66500002 4294967295
-0.0019000001 0.028500002 0.66500002 4294967295
-0.00063523813 0.028585717 0.66700006 4294967295
0.00063714292 0.02867143 0.66900003 4294967295
0.001917143 0.028757146 0.671 4294967295
0.0032142859 0.028928574 0.67500001 4294967295
0.0045066671 0.02897143 0.67600006 4294967295
-0.05978572 0.030214287 0.67500001 4294967295
-0.058413338 0.030169526 0.67400002 4294967295
-0.057129528 0.030169526 0.67400002 4294967295
-0.055680003 0.030080002 0.67200005 4294967295
-0.05431905 0.030035241 0.671 4294967295
-0.052724764 0.029856192 0.66700006 4294967295
-0.051300004 0.029766669 0.66500002 4294967295
-0.049882859 0.029677145 0.66300005 4294967295
-0.048620004 0.029677145 0.66300005 4294967295
-0.047285717 0.029632382 0.66200006 4294967295
-0.045955241 0.029587621 0.66100001 4294967295
-0.044628575 0.02954286 0.66000003 4294967295
-0.043240003 0.029453335 0.65800005 4294967295
-0.04198667 0.029453335 0.65800005 4294967295
-0.040671431 0.029408574 0.65700001 4294967295
-0.039420001 0.029408574 0.65700001 4294967295
-0.03811048 0.029363811 0.65600002 4294967295
-0.036860954 0.029363811 0.65600002 4294967295
-0.035557143 0.02931905 0.65500003 4294967295
-0.034309525 0.02931905 0.65500003 4294967295
-0.032960955 0.029229525 0.65300006 4294967295
-0.031717144 0.029229525 0.65300006 4294967295
-0.030473335 0.029229525 0.65300006 4294967295
-0.029184764 0.029184764 0.65200001 4294967295
-0.027942859 0.029184764 0.65200001 4294967295
-0.026700955 0.029184764 0.65200001 4294967295
-0.025459049 0.029184764 0.65200001 4294967295
-0.024217144 0.029184764 0.65200001 4294967295
-0.02297524 0.029184764 0.65200001 4294967295
-0.021766668 0.029229525 0.65300006 4294967295
-0.020522859 0.029229525 0.65300006 4294967295
-0.01927905 0.029229525 0.65300006 4294967295
-0.018090477 0.02931905 0.65500003 4294967295
-0.016842859 0.02931905 0.65500003 4294967295
-0.015595239 0.02931905 0.65500003 4294967295
-0.014369525 0.029363811 0.65600002 4294967295
-0.013120001 0.029363811 0.65600002 4294967295
-0.011870477 0.029363811 0.65600002 4294967295
-0.010637144 0.029408574 0.65700001 4294967295
-0.0093857152 0.029408574 0.65700001 4294967295
-0.0081466669 0.029453335 0.65800005 4294967295
-0.0069247624 0.029587621 0.66100001 4294967295
-0.0056828577 0.029677145 0.66300005 4294967295
-0.0044200001 0.029677145 0.66300005 4294967295
-0.003166667 0.029766669 0.66500002 4294967295
-0.0019028572 0.029811431 0.66600001 4294967295
-0.00063523813 0.029856192 0.66700006 4294967295
0.00063809525 0.029990477 0.67000002 4294967295
0.0019257144 0.030169526 0.67400002 4294967295
0.0032142859 0.030214287 0.67500001 4294967295
0.0045066671 0.03025905 0.67600006 4294967295
-0.058500003 0.031500001 0.67500001 4294967295
-0.057129528 0.031453334 0.67400002 4294967295
-0.055680003 0.03136 0.67200005 4294967295
-0.054400004 0.03136 0.67200005 4294967295
-0.052882861 0.031220002 0.66900003 4294967295
-0.051377147 0.031080002 0.66600001 4294967295
-0.049882859 0.030940002 0.66300005 4294967295
-0.048620004 0.030940002 0.66300005 4294967295
-0.047285717 0.030893335 0.66200006 4294967295
-0.045955241 0.030846668 0.66100001 4294967295
-0.044628575 0.030800002 0.66000003 4294967295
-0.043240003 0.030706668 0.65800005 4294967295
-0.04198667 0.030706668 0.65800005 4294967295
-0.040671431 0.030660002 0.65700001 4294967295
-0.039420001 0.030660002 0.65700001 4294967295
-0.038168576 0.030660002 0.65700001 4294967295
-0.036860954 0.030613335 0.65600002 4294967295
-0.035611432 0.030613335 0.65600002 4294967295
-0.034361906 0.030613335 0.65600002 4294967295
-0.032960955 0.030473335 0.65300006 4294967295
-0.031717144 0.030473335 0.65300006 4294967295
-0.030473335 0.030473335 0.65300006 4294967295
-0.029229525 0.030473335 0.65300006 4294967295
-0.027985716 0.030473335 0.65300006 4294967295
-0.026741907 0.030473335 0.65300006 4294967295
-0.025498098 0.030473335 0.65300006 4294967295
-0.024254287 0.030473335 0.65300006 4294967295
-0.023010477 0.030473335 0.65300006 4294967295
-0.021766668 0.030473335 0.65300006 4294967295
-0.020522859 0.030473335 0.65300006 4294967295
-0.019338097 0.030566668 0.65500003 4294967295
-0.018090477 0.030566668 0.65500003 4294967295
-0.016868573 0.030613335 0.65600002 4294967295
-0.015619049 0.030613335 0.65600002 4294967295
-0.01439143 0.030660002 0.65700001 4294967295
-0.01314 0.030660002 0.65700001 4294967295
-0.011888572 0.030660002 0.65700001 4294967295
-0.010637144 0.030660002 0.65700001 4294967295
-0.0094000008 0.030706668 0.65800005 4294967295
-0.0081838099 0.030846668 0.66100001 4294967295
-0.0069352384 0.030893335 0.66200006 4294967295
-0.0056828577 0.030940002 0.66300005 4294967295
-0.0044333334 0.031033335 0.66500002 4294967295
-0.0031714288 0.031080002 0.66600001 4294967295
-0.0019057144 0.031126669 0.66700006 4294967295
-0.00063714292 0.031220002 0.66900003 4294967295
0.00063809525 0.031266667 0.67000002 4294967295
0.0019257144 0.031453334 0.67400002 4294967295
0.0032190478 0.031546667 0.67600006 4294967295
0.0045066671 0.031546667 0.67600006 4294967295
-0.058500003 0.032785717 0.67500001 4294967295
-0.057129528 0.032737143 0.67400002 4294967295
-0.055680003 0.032640003 0.67200005 4294967295
-0.05431905 0.032591432 0.671 4294967295
-0.052882861 0.032494288 0.66900003 4294967295
-0.051377147 0.032348573 0.66600001 4294967295
-0.050033338 0.032300003 0.66500002 4294967295
-0.048620004 0.032202858 0.66300005 4294967295
-0.047357146 0.032202858 0.66300005 4294967295
-0.046024766 0.032154288 0.66200006 4294967295
-0.044696193 0.032105718 0.66100001 4294967295
-0.043371432 0.032057144 0.66000003 4294967295
-0.04198667 0.031960003 0.65800005 4294967295
-0.040733337 0.031960003 0.65800005 4294967295
-0.039480001 0.031960003 0.65800005 4294967295
-0.038168576 0.031911429 0.65700001 4294967295
-0.036917146 0.031911429 0.65700001 4294967295
-0.035611432 0.031862859 0.65600002 4294967295
-0.034361906 0.031862859 0.65600002 4294967295
-0.033112384 0.031862859 0.65600002 4294967295
-0.031814288 0.031814288 0.65500003 4294967295
-0.030473335 0.031717144 0.65300006 4294967295
-0.029229525 0.031717144 0.65300006 4294967295
-0.027985716 0.031717144 0.65300006 4294967295
-0.026741907 0.031717144 0.65300006 4294967295
-0.025498098 0.031717144 0.65300006 4294967295
-0.024254287 0.031717144 0.65300006 4294967295
-0.023010477 0.031717144 0.65300006 4294967295
-0.021766668 0.031717144 0.65300006 4294967295
-0.020585716 0.031814288 0.65500003 4294967295
-0.019338097 0.031814288 0.65500003 4294967295
-0.018118097 0.031862859 0.65600002 4294967295
-0.016868573 0.031862859 0.65600002 4294967295
-0.015642859 0.031911429 0.65700001 4294967295
-0.01439143 0.031911429 0.65700001 4294967295
-0.01314 0.031911429 0.65700001 4294967295
-0.011888572 0.031911429 0.65700001 4294967295
-0.010653334 0.031960003 0.65800005 4294967295
-0.0094428575 0.032105718 0.66100001 4294967295
-0.0081961909 0.032154288 0.66200006 4294967295
-0.0069352384 0.032154288 0.66200006 4294967295
-0.0056828577 0.032202858 0.66300005 4294967295
-0.0044333334 0.032300003 0.66500002 4294967295
-0.0031714288 0.032348573 0.66600001 4294967295
-0.0019057144 0.032397144 0.66700006 4294967295
-0.00063809525 0.032542858 0.67000002 4294967295
0.00063904765 0.032591432 0.671 4294967295
0.0019257144 0.032737143 0.67400002 4294967295
0.0032095241 0.032737143 0.67400002 4294967295
0.0044933334 0.032737143 0.67400002 4294967295
0.0057771434 0.032737143 0.67400002 4294967295
-0.058586672 0.034121908 0.67600006 4294967295
-0.05721429 0.034071431 0.67500001 4294967295
-0.055845719 0.034020953 0.67400002 4294967295
-0.054400004 0.033920001 0.67200005 4294967295
-0.052961908 0.03381905 0.67000002 4294967295
-0.051608574 0.033768572 0.66900003 4294967295
-0.050108574 0.033617146 0.66600001 4294967295
-0.048840005 0.033617146 0.66600001 4294967295
-0.047500003 0.033566669 0.66500002 4294967295
-0.046094287 0.033465717 0.66300005 4294967295
-0.044763811 0.033415239 0.66200006 4294967295
-0.043371432 0.033314288 0.66000003 4294967295
-0.042114288 0.033314288 0.66000003 4294967295
-0.040857144 0.033314288 0.66000003 4294967295
-0.039480001 0.033213336 0.65800005 4294967295
-0.038226668 0.033213336 0.65800005 4294967295
-0.036973335 0.033213336 0.65800005 4294967295
-0.035720002 0.033213336 0.65800005 4294967295
-0.034466669 0.033213336 0.65800005 4294967295
-0.033162858 0.033162858 0.65700001 4294967295
-0.031862859 0.033112384 0.65600002 4294967295
-0.030613335 0.033112384 0.65600002 4294967295
-0.02931905 0.033061907 0.65500003 4294967295
-0.028114287 0.033112384 0.65600002 4294967295
-0.026864763 0.033112384 0.65600002 4294967295
-0.02561524 0.033112384 0.65600002 4294967295
-0.024328573 0.033061907 0.65500003 4294967295
-0.023080954 0.033061907 0.65500003 4294967295
-0.021833334 0.033061907 0.65500003 4294967295
-0.020617144 0.033112384 0.65600002 4294967295
-0.01936762 0.033112384 0.65600002 4294967295
-0.018118097 0.033112384 0.65600002 4294967295
-0.016894286 0.033162858 0.65700001 4294967295
-0.015642859 0.033162858 0.65700001 4294967295
-0.014413334 0.033213336 0.65800005 4294967295
-0.013160001 0.033213336 0.65800005 4294967295
-0.011960953 0.033364765 0.66100001 4294967295
-0.010701905 0.033364765 0.66100001 4294967295
-0.009457143 0.033415239 0.66200006 4294967295
-0.0081961909 0.033415239 0.66200006 4294967295
-0.0069457148 0.033465717 0.66300005 4294967295
-0.0056828577 0.033465717 0.66300005 4294967295
-0.0044333334 0.033566669 0.66500002 4294967295
-0.0031714288 0.033617146 0.66600001 4294967295
-0.001917143 0.033869527 0.671 4294967295
-0.00064000004 0.033920001 0.67200005 4294967295
0.00064000004 0.033920001 0.67200005 4294967295
0.0019257144 0.034020953 0.67400002 4294967295
0.0032095241 0.034020953 0.67400002 4294967295
0.0044933334 0.034020953 0.67400002 4294967295
0.0057600006 0.033920001 0.67200005 4294967295
-0.060228575 0.03561905 0.68000001 4294967295
-0.058586672 0.035409525 0.67600006 4294967295
-0.05721429 0.035357144 0.67500001 4294967295
-0.055845719 0.035304762 0.67400002 4294967295
-0.054400004 0.035200004 0.67200005 4294967295
-0.053120002 0.035200004 0.67200005 4294967295
-0.051685717 0.035095241 0.67000002 4294967295
-0.050183814 0.034938097 0.66700006 4294967295
-0.048913337 0.034938097 0.66700006 4294967295
-0.047571432 0.034885716 0.66600001 4294967295
-0.046233337 0.034833334 0.66500002 4294967295
-0.044831432 0.034728575 0.66300005 4294967295
-0.04350286 0.034676194 0.66200006 4294967295
-0.042114288 0.034571432 0.66000003 4294967295
-0.040857144 0.034571432 0.66000003 4294967295
-0.039600004 0.034571432 0.66000003 4294967295
-0.03834286 0.034571432 0.66000003 4294967295
-0.036973335 0.034466669 0.65800005 4294967295
-0.035720002 0.034466669 0.65800005 4294967295
-0.034466669 0.034466669 0.65800005 4294967295
-0.033213336 0.034466669 0.65800005 4294967295
-0.031911429 0.034414288 0.65700001 4294967295
-0.030613335 0.034361906 0.65600002 4294967295
-0.029363811 0.034361906 0.65600002 4294967295
-0.028114287 0.034361906 0.65600002 4294967295
-0.026864763 0.034361906 0.65600002 4294967295
-0.02561524 0.034361906 0.65600002 4294967295
-0.024365716 0.034361906 0.65600002 4294967295
-0.023116192 0.034361906 0.65600002 4294967295
-0.021866668 0.034361906 0.65600002 4294967295
-0.020617144 0.034361906 0.65600002 4294967295
-0.019397143 0.034414288 0.65700001 4294967295
-0.018145716 0.034414288 0.65700001 4294967295
-0.016894286 0.034414288 0.65700001 4294967295
-0.015666667 0.034466669 0.65800005 4294967295
-0.014457144 0.034571432 0.66000003 4294967295
-0.013200001 0.034571432 0.66000003 4294967295
-0.011960953 0.034623813 0.66100001 4294967295
-0.010718096 0.034676194 0.66200006 4294967295
-0.009457143 0.034676194 0.66200006 4294967295
-0.0081961909 0.034676194 0.66200006 4294967295
-0.0069457148 0.034728575 0.66300005 4294967295
-0.0056828577 0.034728575 0.66300005 4294967295
-0.0044200001 0.034728575 0.66300005 4294967295
-0.003166667 0.034833334 0.66500002 4294967295
-0.0019200002 0.035200004 0.67200005 4294967295
-0.00064190483 0.035304762 0.67400002 4294967295
0.00064190483 0.035304762 0.67400002 4294967295
0.0019257144 0.035304762 0.67400002 4294967295
0.0032095241 0.035304762 0.67400002 4294967295
0.0044933334 0.035304762 0.67400002 4294967295
-0.061795242 0.037077144 0.68300003 4294967295
-0.06040572 0.037022859 0.68200004 4294967295
-0.058586672 0.036697146 0.67600006 4294967295
-0.05721429 0.036642861 0.67500001 4294967295
-0.055845719 0.036588576 0.67400002 4294967295
-0.054561909 0.036588576 0.67400002 4294967295
-0.053040955 0.036425717 0.671 4294967295
-0.051685717 0.036371432 0.67000002 4294967295
-0.05033429 0.036317144 0.66900003 4294967295
-0.049060002 0.036317144 0.66900003 4294967295
-0.047571432 0.036154289 0.66600001 4294967295
-0.046233337 0.036100004 0.66500002 4294967295
-0.044831432 0.03599143 0.66300005 4294967295
-0.043568574 0.03599143 0.66300005 4294967295
-0.042178098 0.03588286 0.66100001 4294967295
-0.040919051 0.03588286 0.66100001 4294967295
-0.039600004 0.035828575 0.66000003 4294967295
-0.03834286 0.035828575 0.66000003 4294967295
-0.037085716 0.035828575 0.66000003 4294967295
-0.035720002 0.035720002 0.65800005 4294967295
-0.034466669 0.035720002 0.65800005 4294967295
-0.033213336 0.035720002 0.65800005 4294967295
-0.031911429 0.035665717 0.65700001 4294967295
-0.030660002 0.035665717 0.65700001 4294967295
-0.029408574 0.035665717 0.65700001 4294967295
-0.028157145 0.035665717 0.65700001 4294967295
-0.026905715 0.035665717 0.65700001 4294967295
-0.025654288 0.035665717 0.65700001 4294967295
-0.024402859 0.035665717 0.65700001 4294967295
-0.023116192 0.035611432 0.65600002 4294967295
-0.021900002 0.035665717 0.65700001 4294967295
-0.020648573 0.035665717 0.65700001 4294967295
-0.019426668 0.035720002 0.65800005 4294967295
-0.018173335 0.035720002 0.65800005 4294967295
-0.01692 0.035720002 0.65800005 4294967295
-0.015714286 0.035828575 0.66000003 4294967295
-0.014479049 0.03588286 0.66100001 4294967295
-0.013220001 0.03588286 0.66100001 4294967295
-0.011979048 0.035937145 0.66200006 4294967295
-0.010718096 0.035937145 0.66200006 4294967295
-0.009457143 0.035937145 0.66200006 4294967295
-0.0081961909 0.035937145 0.66200006 4294967295
-0.0069457148 0.03599143 0.66300005 4294967295
-0.0056828577 0.03599143 0.66300005 4294967295
-0.0044200001 0.03599143 0.66300005 4294967295
-0.003166667 0.036100004 0.66500002 4294967295
-0.0019200002 0.036480002 0.67200005 4294967295
-0.00064190483 0.036588576 0.67400002 4294967295
0.00064190483 0.036588576 0.67400002 4294967295
0.0019257144 0.036588576 0.67400002 4294967295
0.0032095241 0.036588576 0.67400002 4294967295
0.0044800001 0.036480002 0.67200005 4294967295
0.0057600006 0.036480002 0.67200005 4294967295
-0.05721429 0.037928574 0.67500001 4294967295
-0.055845719 0.037872385 0.67400002 4294967295
-0.054561909 0.037872385 0.67400002 4294967295
-0.053040955 0.037703812 0.671 4294967295
-0.051685717 0.03764762 0.67000002 4294967295
-0.05033429 0.037591431 0.66900003 4294967295
-0.049060002 0.037591431 0.66900003 4294967295
-0.047642861 0.03747905 0.66700006 4294967295
-0.046302859 0.037422858 0.66600001 4294967295
-0.044966668 0.03736667 0.66500002 4294967295
-0.043568574 0.037254289 0.66300005 4294967295
-0.042241909 0.037198097 0.66200006 4294967295
-0.040980954 0.037198097 0.66200006 4294967295
-0.039660003 0.037141908 0.66100001 4294967295
-0.03834286 0.037085716 0.66000003 4294967295
-0.037085716 0.037085716 0.66000003 4294967295
-0.035828575 0.037085716 0.66000003 4294967295
-0.034571432 0.037085716 0.66000003 4294967295
-0.033314288 0.037085716 0.66000003 4294967295
-0.031960003 0.036973335 0.65800005 4294967295
-0.030660002 0.036917146 0.65700001 4294967295
-0.029408574 0.036917146 0.65700001 4294967295
-0.028157145 0.036917146 0.65700001 4294967295
-0.026905715 0.036917146 0.65700001 4294967295
-0.025654288 0.036917146 0.65700001 4294967295
-0.024402859 0.036917146 0.65700001 4294967295
-0.023151429 0.036917146 0.65700001 4294967295
-0.021933334 0.036973335 0.65800005 4294967295
-0.020680001 0.036973335 0.65800005 4294967295
-0.019426668 0.036973335 0.65800005 4294967295
-0.018173335 0.036973335 0.65800005 4294967295
-0.01697143 0.037085716 0.66000003 4294967295
-0.015738096 0.037141908 0.66100001 4294967295
-0.014479049 0.037141908 0.66100001 4294967295
-0.013240001 0.037198097 0.66200006 4294967295
-0.011979048 0.037198097 0.66200006 4294967295
-0.010718096 0.037198097 0.66200006 4294967295
-0.009457143 0.037198097 0.66200006 4294967295
-0.0082085719 0.037254289 0.66300005 4294967295
-0.0069457148 0.037254289 0.66300005 4294967295
-0.0056828577 0.037254289 0.66300005 4294967295
-0.0044333334 0.03736667 0.66500002 4294967295
-0.0031761907 0.03747905 0.66700006 4294967295
-0.0019200002 0.037760001 0.67200005 4294967295
-0.00064190483 0.037872385 0.67400002 4294967295
0.00064190483 0.037872385 0.67400002 4294967295
0.0019257144 0.037872385 0.67400002 4294967295
0.0032095241 0.037872385 0.67400002 4294967295
0.0044933334 0.037872385 0.67400002 4294967295
-0.05721429 0.039214287 0.67500001 4294967295
-0.055845719 0.039156195 0.67400002 4294967295
-0.054561909 0.039156195 0.67400002 4294967295
-0.053040955 0.038981907 0.671 4294967295
-0.051685717 0.038923811 0.67000002 4294967295
-0.050409526 0.038923811 0.67000002 4294967295
-0.049060002 0.038865715 0.66900003 4294967295
-0.047642861 0.038749527 0.66700006 4294967295
-0.046302859 0.038691431 0.66600001 4294967295
-0.044966668 0.038633335 0.66500002 4294967295
-0.043700002 0.038633335 0.66500002 4294967295
-0.042305715 0.038517144 0.66300005 4294967295
-0.040980954 0.038459051 0.66200006 4294967295
-0.039720003 0.038459051 0.66200006 4294967295
-0.038400955 0.038400955 0.66100001 4294967295
-0.037085716 0.03834286 0.66000003 4294967295
-0.035828575 0.03834286 0.66000003 4294967295
-0.034571432 0.03834286 0.66000003 4294967295
-0.033314288 0.03834286 0.66000003 4294967295
-0.031960003 0.038226668 0.65800005 4294967295
-0.030660002 0.038168576 0.65700001 4294967295
-0.029453335 0.038226668 0.65800005 4294967295
-0.028200002 0.038226668 0.65800005 4294967295
-0.026946668 0.038226668 0.65800005 4294967295
-0.025693335 0.038226668 0.65800005 4294967295
-0.024440002 0.038226668 0.65800005 4294967295
-0.023186669 0.038226668 0.65800005 4294967295
-0.021933334 0.038226668 0.65800005 4294967295
-0.020680001 0.038226668 0.65800005 4294967295
-0.019485716 0.03834286 0.66000003 4294967295
-0.018228572 0.03834286 0.66000003 4294967295
-0.01697143 0.03834286 0.66000003 4294967295
-0.015738096 0.038400955 0.66100001 4294967295
-0.014500953 0.038459051 0.66200006 4294967295
-0.013240001 0.038459051 0.66200006 4294967295
-0.011979048 0.038459051 0.66200006 4294967295
-0.010734286 0.038517144 0.66300005 4294967295
-0.0094714295 0.038517144 0.66300005 4294967295
-0.0082085719 0.038517144 0.66300005 4294967295
-0.0069457148 0.038517144 0.66300005 4294967295
-0.0056828577 0.038517144 0.66300005 4294967295
-0.0044333334 0.038633335 0.66500002 4294967295
-0.003166667 0.038633335 0.66500002 4294967295
-0.0019200002 0.039040003 0.67200005 4294967295
-0.00064190483 0.039156195 0.67400002 4294967295
0.00064190483 0.039156195 0.67400002 4294967295
0.0019257144 0.039156195 0.67400002 4294967295
0.0032095241 0.039156195 0.67400002 4294967295
0.0044933334 0.039156195 0.67400002 4294967295
-0.05721429 0.040500004 0.67500001 4294967295
-0.055928577 0.040500004 0.67500001 4294967295
-0.054561909 0.040440004 0.67400002 4294967295
-0.053040955 0.040260002 0.671 4294967295
-0.051685717 0.040200002 0.67000002 4294967295
-0.050409526 0.040200002 0.67000002 4294967295
-0.049133338 0.040200002 0.67000002 4294967295
-0.047785718 0.040140003 0.66900003 4294967295
-0.046372384 0.040020004 0.66700006 4294967295
-0.045034289 0.039960004 0.66600001 4294967295
-0.043700002 0.039900001 0.66500002 4294967295
-0.042305715 0.039780002 0.66300005 4294967295
-0.041042861 0.039780002 0.66300005 4294967295
-0.039780002 0.039780002 0.66300005 4294967295
-0.038459051 0.039720003 0.66200006 4294967295
-0.037141908 0.039660003 0.66100001 4294967295
-0.03588286 0.039660003 0.66100001 4294967295
-0.034623813 0.039660003 0.66100001 4294967295
-0.033364765 0.039660003 0.66100001 4294967295
-0.031960003 0.039480001 0.65800005 4294967295
-0.030706668 0.039480001 0.65800005 4294967295
-0.029453335 0.039480001 0.65800005 4294967295
-0.028200002 0.039480001 0.65800005 4294967295
-0.026946668 0.039480001 0.65800005 4294967295
-0.025693335 0.039480001 0.65800005 4294967295
-0.024440002 0.039480001 0.65800005 4294967295
-0.023186669 0.039480001 0.65800005 4294967295
-0.022000002 0.039600004 0.66000003 4294967295
-0.020742858 0.039600004 0.66000003 4294967295
-0.019515239 0.039660003 0.66100001 4294967295
-0.018256191 0.039660003 0.66100001 4294967295
-0.016997144 0.039660003 0.66100001 4294967295
-0.015761906 0.039720003 0.66200006 4294967295
-0.014500953 0.039720003 0.66200006 4294967295
-0.013240001 0.039720003 0.66200006 4294967295
-0.011997144 0.039780002 0.66300005 4294967295
-0.010734286 0.039780002 0.66300005 4294967295
-0.0094714295 0.039780002 0.66300005 4294967295
-0.0082085719 0.039780002 0.66300005 4294967295
-0.0069457148 0.039780002 0.66300005 4294967295
-0.0056828577 0.039780002 0.66300005 4294967295
-0.0044333334 0.039900001 0.66500002 4294967295
-0.0031714288 0.039960004 0.66600001 4294967295
-0.0019257144 0.040440004 0.67400002 4294967295
-0.00064285717 0.040500004 0.67500001 4294967295
0.00064190483 0.040440004 0.67400002 4294967295
0.0019257144 0.040440004 0.67400002 4294967295
0.0032095241 0.040440004 0.67400002 4294967295
0.0044933334 0.040440004 0.67400002 4294967295
-0.057468574 0.04197143 0.67800003 4294967295
-0.055928577 0.041785717 0.67500001 4294967295
-0.05464286 0.041785717 0.67500001 4294967295
-0.053120002 0.041600004 0.67200005 4294967295
-0.05176286 0.041538097 0.671 4294967295
-0.050409526 0.041476194 0.67000002 4294967295
-0.049133338 0.041476194 0.67000002 4294967295
-0.047785718 0.041414287 0.66900003 4294967295
-0.046372384 0.041290481 0.66700006 4294967295
-0.045034289 0.041228574 0.66600001 4294967295
-0.043700002 0.041166671 0.66500002 4294967295
-0.042433336 0.041166671 0.66500002 4294967295
-0.041042861 0.041042861 0.66300005 4294967295
-0.039780002 0.041042861 0.66300005 4294967295
-0.038459051 0.040980954 0.66200006 4294967295
-0.037198097 0.040980954 0.66200006 4294967295
-0.035937145 0.040980954 0.66200006 4294967295
-0.034676194 0.040980954 0.66200006 4294967295
-0.033415239 0.040980954 0.66200006 4294967295
-0.032057144 0.040857144 0.66000003 4294967295
-0.030800002 0.040857144 0.66000003 4294967295
-0.02954286 0.040857144 0.66000003 4294967295
-0.028285716 0.040857144 0.66000003 4294967295
-0.027028574 0.040857144 0.66000003 4294967295
-0.02577143 0.040857144 0.66000003 4294967295
-0.024514288 0.040857144 0.66000003 4294967295
-0.023257144 0.040857144 0.66000003 4294967295
-0.022033336 0.040919051 0.66100001 4294967295
-0.020774286 0.040919051 0.66100001 4294967295
-0.019515239 0.040919051 0.66100001 4294967295
-0.01828381 0.040980954 0.66200006 4294967295
-0.017022857 0.040980954 0.66200006 4294967295
-0.015761906 0.040980954 0.66200006 4294967295
-0.014522858 0.041042861 0.66300005 4294967295
-0.013260001 0.041042861 0.66300005 4294967295
-0.011997144 0.041042861 0.66300005 4294967295
-0.010734286 0.041042861 0.66300005 4294967295
-0.0094714295 0.041042861 0.66300005 4294967295
-0.0082085719 0.041042861 0.66300005 4294967295
-0.0069666672 0.041166671 0.66500002 4294967295
-0.0056828577 0.041042861 0.66300005 4294967295
-0.0044333334 0.041166671 0.66500002 4294967295
-0.0032095241 0.041723814 0.67400002 4294967295
-0.0019314287 0.04184762 0.67600006 4294967295
-0.00064571435 0.04197143 0.67800003 4294967295
0.00064380956 0.04184762 0.67600006 4294967295
0.0019314287 0.04184762 0.67600006 4294967295
0.0084228581 0.049771432 0.80400002 4294967295
0.0099790478 0.049895242 0.80600005 4294967295
-0.058933336 0.043390479 0.68000001 4294967295
-0.057468574 0.043262862 0.67800003 4294967295
-0.056011431 0.043135241 0.67600006 4294967295
-0.05464286 0.04307143 0.67500001 4294967295
-0.0532781 0.043007623 0.67400002 4294967295
-0.05176286 0.042816192 0.671 4294967295
-0.050409526 0.042752385 0.67000002 4294967295
-0.049133338 0.042752385 0.67000002 4294967295
-0.047785718 0.042688575 0.66900003 4294967295
-0.04651143 0.042688575 0.66900003 4294967295
-0.045101907 0.042560954 0.66700006 4294967295
-0.043765716 0.042497147 0.66600001 4294967295
-0.042433336 0.042433336 0.66500002 4294967295
-0.041166671 0.042433336 0.66500002 4294967295
-0.039780002 0.042305715 0.66300005 4294967295
-0.038517144 0.042305715 0.66300005 4294967295
-0.037254289 0.042305715 0.66300005 4294967295
-0.03599143 0.042305715 0.66300005 4294967295
-0.034728575 0.042305715 0.66300005 4294967295
-0.033415239 0.042241909 0.66200006 4294967295
-0.032105718 0.042178098 0.66100001 4294967295
-0.030846668 0.042178098 0.66100001 4294967295
-0.029587621 0.042178098 0.66100001 4294967295
-0.028328573 0.042178098 0.66100001 4294967295
-0.027069526 0.042178098 0.66100001 4294967295
-0.02577143 0.042114288 0.66000003 4294967295
-0.024514288 0.042114288 0.66000003 4294967295
-0.023292383 0.042178098 0.66100001 4294967295
-0.022033336 0.042178098 0.66100001 4294967295
-0.020774286 0.042178098 0.66100001 4294967295
-0.019544763 0.042241909 0.66200006 4294967295
-0.01828381 0.042241909 0.66200006 4294967295
-0.017022857 0.042241909 0.66200006 4294967295
-0.015761906 0.042241909 0.66200006 4294967295
-0.014522858 0.042305715 0.66300005 4294967295
-0.013260001 0.042305715 0.66300005 4294967295
-0.011997144 0.042305715 0.66300005 4294967295
-0.010766667 0.042433336 0.66500002 4294967295
-0.0095000006 0.042433336 0.66500002 4294967295
-0.0082333339 0.042433336 0.66500002 4294967295
-0.0069771432 0.042497147 0.66600001 4294967295
