# .PCD v0.7 - Point Cloud Data file format
VERSION 0.7
FIELDS x y z
SIZE 4 4 4
TYPE F F F
COUNT 1 1 1
WIDTH 1355
HEIGHT 1
VIEWPOINT 0 0 0 1 0 0 0
POINTS 1355
DATA ascii
-0.39090955 -0.078181908 0.79700005
-0.38988003 -0.078280002 0.79800004
-0.38933337 -0.078476198 0.80000001
-0.3897486 -0.078868575 0.80400002
-0.39111432 -0.079457149 0.81000006
-0.39149526 -0.079849526 0.81400001
-0.39042383 -0.079947621 0.81500006
-0.38887146 -0.079947621 0.81500006
-0.38826954 -0.080143817 0.81700003
-0.39447147 -0.076471433 0.79500002
-0.39295718 -0.076471433 0.79500002
-0.39144289 -0.076471433 0.79500002
-0.39090955 -0.076663814 0.79700005
-0.38988003 -0.076760001 0.79800004
-0.38933337 -0.076952383 0.80000001
-0.3897486 -0.077337146 0.80400002
-0.39111432 -0.07791429 0.81000006
-0.39149526 -0.078299053 0.81400001
-0.38994479 -0.078299053 0.81400001
-0.38839433 -0.078299053 0.81400001
-0.38731906 -0.07839524 0.81500006
-0.39394575 -0.075145721 0.79700005
-0.39242765 -0.075145721 0.79700005
-0.39140004 -0.075240009 0.79800004
-0.39085716 -0.075428575 0.80000001
-0.38933337 -0.075428575 0.80000001
-0.3897486 -0.075805716 0.80400002
-0.39111432 -0.076371431 0.81000006
-0.39053336 -0.076560006 0.81200004
-0.38994479 -0.07674858 0.81400001
-0.38839433 -0.07674858 0.81400001
-0.38731906 -0.076842859 0.81500006
-0.39295718 -0.073442861 0.79500002
-0.39144289 -0.073442861 0.79500002
-0.39140004 -0.073720008 0.79800004
-0.38988003 -0.073720008 0.79800004
-0.38933337 -0.073904768 0.80000001
-0.3897486 -0.074274294 0.80400002
-0.39111432 -0.07482858 0.81000006
-0.39053336 -0.07501334 0.81200004
-0.38994479 -0.075198099 0.81400001
-0.38839433 -0.075198099 0.81400001
-0.38731906 -0.075290479 0.81500006
-0.39045811 -0.071747623 0.79300004
-0.39238098 -0.07238096 0.80000001
-0.38988003 -0.072200008 0.79800004
-0.39128003 -0.072742864 0.80400002
-0.39071813 -0.072923817 0.80600005
-0.39208004 -0.073466673 0.81200004
-0.39149526 -0.073647626 0.81400001
-0.38994479 -0.073647626 0.81400001
-0.38887146 -0.073738098 0.81500006
-0.38826954 -0.07391905 0.81700003
-0.39098004 -0.070060007 0.79100001
-0.39045811 -0.070237145 0.79300004
-0.38894764 -0.070237145 0.79300004
-0.38841432 -0.07041429 0.79500002
-0.39128003 -0.071211435 0.80400002
-0.3897486 -0.071211435 0.80400002
-0.39208004 -0.071920007 0.81200004
-0.39149526 -0.072097145 0.81400001
-0.39042383 -0.072185718 0.81500006
-0.38887146 -0.072185718 0.81500006
-0.38731906 -0.072185718 0.81500006
-0.39098004 -0.068553336 0.79100001
-0.39045811 -0.068726674 0.79300004
-0.38992861 -0.068900004 0.79500002
-0.38939145 -0.069073334 0.79700005
-0.38787335 -0.069073334 0.79700005
-0.39362669 -0.070373341 0.81200004
-0.39208004 -0.070373341 0.81200004
-0.39053336 -0.070373341 0.81200004
-0.38994479 -0.070546672 0.81400001
-0.38949716 -0.066792384 0.78800005
-0.38799623 -0.066792384 0.78800005
-0.38649526 -0.066792384 0.78800005
-0.38988003 -0.067640007 0.79800004
-0.38836002 -0.067640007 0.79800004
-0.39168763 -0.068487622 0.80800003
-0.39111432 -0.068657145 0.81000006
-0.39053336 -0.068826668 0.81200004
-0.38994479 -0.068996198 0.81400001
-0.38887146 -0.069080956 0.81500006
-0.38826954 -0.069250479 0.81700003
-0.39281145 -0.066617146 0.80400002
-0.39225337 -0.066782862 0.80600005
-0.39168763 -0.066948578 0.80800003
-0.39111432 -0.067114294 0.81000006
-0.38957146 -0.067114294 0.81000006
-0.38898671 -0.067280002 0.81200004
-0.38887146 -0.067528576 0.81500006
-0.39017051 -0.068025716 0.82100004
-0.3886067 -0.068025716 0.82100004
-0.39225337 -0.065247625 0.80600005
-0.39168763 -0.065409526 0.80800003
-0.39111432 -0.065571435 0.81000006
-0.38957146 -0.065571435 0.81000006
-0.38802859 -0.065571435 0.81000006
-0.38887146 -0.065976195 0.81500006
-0.38922003 -0.066300005 0.81900007
-0.38955337 -0.066623814 0.82300001
-0.39281145 -0.063554287 0.80400002
-0.39225337 -0.063712388 0.80600005
-0.39168763 -0.063870482 0.80800003
-0.39111432 -0.064028576 0.81000006
-0.38957146 -0.064028576 0.81000006
-0.38994479 -0.064344764 0.81400001
-0.38982573 -0.064581908 0.81700003
-0.39017051 -0.064898096 0.82100004
-0.38955337 -0.065056197 0.82300001
-0.39281145 -0.062022861 0.80400002
-0.39225337 -0.062177148 0.80600005
-0.39071813 -0.062177148 0.80600005
-0.39111432 -0.062485717 0.81000006
-0.38957146 -0.062485717 0.81000006
-0.38994479 -0.06279429 0.81400001
-0.38887146 -0.062871434 0.81500006
-0.39017051 -0.063334286 0.82100004
-0.38955337 -0.063488573 0.82300001
-0.39225337 -0.060641907 0.80600005
-0.39071813 -0.060641907 0.80600005
-0.39014861 -0.060792387 0.80800003
-0.38957146 -0.060942862 0.81000006
-0.38802859 -0.060942862 0.81000006
-0.38744003 -0.061093338 0.81200004
-0.39017051 -0.06177048 0.82100004
-0.3886067 -0.06177048 0.82100004
-0.38798574 -0.061920956 0.82300001
-0.39225337 -0.05910667 0.80600005
-0.39168763 -0.059253339 0.80800003
-0.39111432 -0.059400003 0.81000006
-0.38957146 -0.059400003 0.81000006
-0.38898671 -0.059546672 0.81200004
-0.38839433 -0.059693336 0.81400001
-0.39017051 -0.06020667 0.82100004
-0.3886067 -0.06020667 0.82100004
-0.38798574 -0.060353339 0.82300001
-0.39322668 -0.057714291 0.80800003
-0.39265716 -0.057857148 0.81000006
-0.39111432 -0.057857148 0.81000006
-0.38957146 -0.057857148 0.81000006
-0.38898671 -0.058000002 0.81200004
-0.38887146 -0.058214288 0.81500006
-0.39112097 -0.058785718 0.82300001
-0.38955337 -0.058785718 0.82300001
-0.38892859 -0.058928575 0.82500005
-0.39420003 -0.05631429 0.81000006
-0.39265716 -0.05631429 0.81000006
-0.39111432 -0.05631429 0.81000006
-0.38957146 -0.05631429 0.81000006
-0.38802859 -0.05631429 0.81000006
-0.38744003 -0.056453336 0.81200004
-0.39112097 -0.057218097 0.82300001
-0.38955337 -0.057218097 0.82300001
-0.38892859 -0.057357147 0.82500005
-0.38829622 -0.057496194 0.82700002
-0.40268099 -0.055515241 0.82100004
-0.40014002 -0.055380005 0.81900007
-0.39858001 -0.055380005 0.81900007
-0.39508098 -0.055109527 0.81500006
-0.39304575 -0.055041909 0.81400001
-0.39149526 -0.055041909 0.81400001
-0.39042383 -0.055109527 0.81500006
-0.38887146 -0.055109527 0.81500006
-0.39017051 -0.055515241 0.82100004
-0.3886067 -0.055515241 0.82100004
-0.38987145 -0.055920955 0.82700002
-0.38829622 -0.055920955 0.82700002
-0.40268099 -0.053951431 0.82100004
-0.40014002 -0.053820003 0.81900007
-0.39858001 -0.053820003 0.81900007
-0.39508098 -0.053557146 0.81500006
-0.39304575 -0.053491432 0.81400001
-0.39197621 -0.053557146 0.81500006
-0.39042383 -0.053557146 0.81500006
-0.38887146 -0.053557146 0.81500006
-0.38922003 -0.053820003 0.81900007
-0.38766003 -0.053820003 0.81900007
-0.38892859 -0.054214288 0.82500005
-0.40014002 -0.052260004 0.81900007
-0.39858001 -0.052260004 0.81900007
-0.39508098 -0.052004766 0.81500006
-0.39304575 -0.051940955 0.81400001
-0.39197621 -0.052004766 0.81500006
-0.39042383 -0.052004766 0.81500006
-0.38887146 -0.052004766 0.81500006
-0.38922003 -0.052260004 0.81900007
-0.38766003 -0.052260004 0.81900007
-0.38798574 -0.052515242 0.82300001
-0.38735718 -0.05264286 0.82500005
-0.39663336 -0.050452385 0.81500006
-0.39459622 -0.050390478 0.81400001
-0.39304575 -0.050390478 0.81400001
-0.39197621 -0.050452385 0.81500006
-0.39042383 -0.050452385 0.81500006
-0.38982573 -0.050576195 0.81700003
-0.38922003 -0.050700005 0.81900007
-0.38766003 -0.050700005 0.81900007
-0.38798574 -0.050947621 0.82300001
-0.39614668 -0.048840005 0.81400001
-0.39362669 -0.048720002 0.81200004
-0.39304575 -0.048840005 0.81400001
-0.39197621 -0.048900004 0.81500006
-0.39042383 -0.048900004 0.81500006
-0.38982573 -0.049020004 0.81700003
-0.38922003 -0.049140003 0.81900007
-0.38766003 -0.049140003 0.81900007
-0.38704288 -0.049260002 0.82100004
-0.3901743 -0.049860004 0.83100003
-0.39508098 -0.047347624 0.81500006
-0.39352861 -0.047347624 0.81500006
-0.39197621 -0.047347624 0.81500006
-0.39042383 -0.047347624 0.81500006
-0.38982573 -0.047463812 0.81700003
-0.38922003 -0.047580004 0.81900007
-0.38766003 -0.047580004 0.81900007
-0.38610002 -0.047580004 0.81900007
-0.38454002 -0.047580004 0.81900007
-0.39265716 -0.045514289 0.81000006
-0.39304575 -0.045739051 0.81400001
-0.39197621 -0.04579524 0.81500006
-0.39042383 -0.04579524 0.81500006
-0.38982573 -0.04590762 0.81700003
-0.38922003 -0.046020001 0.81900007
-0.38766003 -0.046020001 0.81900007
-0.38610002 -0.046020001 0.81900007
-0.38547906 -0.046132386 0.82100004
-0.38672099 -0.046469528 0.82700002
-0.39140004 -0.043320004 0.79800004
-0.39183432 -0.043537147 0.80200005
-0.39225337 -0.043754287 0.80600005
-0.39168763 -0.043862861 0.80800003
-0.39304575 -0.044188574 0.81400001
-0.39197621 -0.044242859 0.81500006
-0.39042383 -0.044242859 0.81500006
-0.38982573 -0.044351432 0.81700003
-0.39017051 -0.044568576 0.82100004
-0.3886067 -0.044568576 0.82100004
-0.38704288 -0.044568576 0.82100004
-0.38547906 -0.044568576 0.82100004
-0.3848505 -0.044677146 0.82300001
-0.39140004 -0.041800003 0.79800004
-0.39085716 -0.041904766 0.80000001
-0.39128003 -0.042114288 0.80400002
-0.3897486 -0.042114288 0.80400002
-0.39208004 -0.042533334 0.81200004
-0.39149526 -0.042638097 0.81400001
-0.39042383 -0.042690478 0.81500006
-0.38887146 -0.042690478 0.81500006
-0.38826954 -0.042795241 0.81700003
-0.38766003 -0.042900003 0.81900007
-0.38515717 -0.042795241 0.81700003
-0.38360098 -0.042795241 0.81700003
-0.38672099 -0.04331905 0.82700002
-0.38607717 -0.043423813 0.82900006
-0.43714288 -0.052380957 1
-0.43523812 -0.052380957 1
-0.43333337 -0.052380957 1
-0.42952383 -0.052380957 1
-0.42505336 -0.052066669 0.99400002
-0.42443717 -0.052223813 0.99700004
-0.4212667 -0.052066669 0.99400002
-0.41937336 -0.052066669 0.99400002
-0.41748002 -0.052066669 0.99400002
-0.41558668 -0.052066669 0.99400002
-0.41369337 -0.052066669 0.99400002
-0.39140004 -0.040280003 0.79800004
-0.39085716 -0.040380955 0.80000001
-0.39030668 -0.040481906 0.80200005
-0.38877907 -0.040481906 0.80200005
-0.38821718 -0.040582858 0.80400002
-0.39149526 -0.04108762 0.81400001
-0.38994479 -0.04108762 0.81400001
-0.38839433 -0.04108762 0.81400001
-0.38826954 -0.041239049 0.81700003
-0.38766003 -0.041340001 0.81900007
-0.38515717 -0.041239049 0.81700003
-0.38266194 -0.041138098 0.81500006
-0.38765621 -0.041844763 0.82900006
-0.43714288 -0.050476193 1
-0.43523812 -0.050476193 1
-0.43333337 -0.050476193 1
-0.42952383 -0.050476193 1
-0.42761907 -0.050476193 1
-0.42571431 -0.050476193 1
-0.4212667 -0.050173335 0.99400002
-0.41937336 -0.050173335 0.99400002
-0.41874003 -0.050324764 0.99700004
-0.41684097 -0.050324764 0.99700004
-0.41494194 -0.050324764 0.99700004
-0.41304287 -0.050324764 0.99700004
-0.40354764 -0.050324764 0.99700004
-0.39974955 -0.050324764 0.99700004
-0.39714289 -0.050476193 1
-0.39523813 -0.050476193 1
-0.39238098 -0.038857147 0.80000001
-0.39085716 -0.038857147 0.80000001
-0.39030668 -0.038954288 0.80200005
-0.38877907 -0.038954288 0.80200005
-0.38725147 -0.038954288 0.80200005
-0.38764766 -0.039148573 0.80600005
-0.38898671 -0.039440002 0.81200004
-0.38839433 -0.039537147 0.81400001
-0.38731906 -0.039585717 0.81500006
-0.38766003 -0.039780002 0.81900007
-0.38610002 -0.039780002 0.81900007
-0.38641813 -0.039974287 0.82300001
-0.38672099 -0.040168572 0.82700002
-0.38514575 -0.040168572 0.82700002
-0.44095242 -0.04857143 1
-0.43904763 -0.04857143 1
-0.43714288 -0.04857143 1
-0.43523812 -0.04857143 1
-0.43333337 -0.04857143 1
-0.43142861 -0.04857143 1
-0.4269467 -0.048280004 0.99400002
-0.42505336 -0.048280004 0.99400002
-0.42316002 -0.048280004 0.99400002
-0.4212667 -0.048280004 0.99400002
-0.41937336 -0.048280004 0.99400002
-0.41748002 -0.048280004 0.99400002
-0.41558668 -0.048280004 0.99400002
-0.41494194 -0.048425719 0.99700004
-0.41180003 -0.048280004 0.99400002
-0.40990669 -0.048280004 0.99400002
-0.40734574 -0.048425719 0.99700004
-0.40544668 -0.048425719 0.99700004
-0.40354764 -0.048425719 0.99700004
-0.40044004 -0.048280004 0.99400002
-0.39974955 -0.048425719 0.99700004
-0.39785051 -0.048425719 0.99700004
-0.39714289 -0.04857143 1
-0.39523813 -0.04857143 1
-0.39333335 -0.04857143 1
-0.39142859 -0.04857143 1
-0.38835526 -0.048425719 0.99700004
-0.38645622 -0.048425719 0.99700004
-0.38571432 -0.04857143 1
-0.38380954 -0.04857143 1
-0.39238098 -0.037333336 0.80000001
-0.39183432 -0.037426669 0.80200005
-0.39030668 -0.037426669 0.80200005
-0.38877907 -0.037426669 0.80200005
-0.38725147 -0.037426669 0.80200005
-0.38764766 -0.037613336 0.80600005
-0.38802859 -0.037800003 0.81000006
-0.38744003 -0.037893336 0.81200004
-0.38731906 -0.038033336 0.81500006
-0.3886067 -0.038313337 0.82100004
-0.38704288 -0.038313337 0.82100004
-0.38641813 -0.03840667 0.82300001
-0.38672099 -0.038593337 0.82700002
-0.38514575 -0.038593337 0.82700002
-0.38264289 -0.038500004 0.82500005
-0.44285718 -0.046666671 1
-0.44095242 -0.046666671 1
-0.43904763 -0.046666671 1
-0.43583146 -0.04652667 0.99700004
-0.43393242 -0.04652667 0.99700004
-0.43203336 -0.04652667 0.99700004
-0.43013433 -0.04652667 0.99700004
-0.4269467 -0.04638667 0.99400002
-0.42505336 -0.04638667 0.99400002
-0.42316002 -0.04638667 0.99400002
-0.4212667 -0.04638667 0.99400002
-0.41937336 -0.04638667 0.99400002
-0.41748002 -0.04638667 0.99400002
-0.41558668 -0.04638667 0.99400002
-0.41494194 -0.04652667 0.99700004
-0.41304287 -0.04652667 0.99700004
-0.40990669 -0.04638667 0.99400002
-0.40924478 -0.04652667 0.99700004
-0.40734574 -0.04652667 0.99700004
-0.4066667 -0.046666671 1
-0.40354764 -0.04652667 0.99700004
-0.40164861 -0.04652667 0.99700004
-0.39974955 -0.04652667 0.99700004
-0.39904764 -0.046666671 1
-0.39714289 -0.046666671 1
-0.39523813 -0.046666671 1
-0.38992861 -0.035585716 0.79500002
-0.38988003 -0.035720002 0.79800004
-0.38933337 -0.035809524 0.80000001
-0.38780954 -0.035809524 0.80000001
-0.38725147 -0.035899051 0.80200005
-0.38668573 -0.035988573 0.80400002
-0.38802859 -0.036257144 0.81000006
-0.38744003 -0.03634667 0.81200004
-0.38684383 -0.036436193 0.81400001
-0.38671336 -0.036570478 0.81700003
-0.38704288 -0.036749527 0.82100004
-0.38641813 -0.036839049 0.82300001
-0.38672099 -0.037018098 0.82700002
-0.38514575 -0.037018098 0.82700002
-0.38357049 -0.037018098 0.82700002
-0.43583146 -0.044627622 0.99700004
-0.43393242 -0.044627622 0.99700004
-0.43073335 -0.044493336 0.99400002
-0.42884004 -0.044493336 0.99400002
-0.4269467 -0.044493336 0.99400002
-0.42633623 -0.044627622 0.99700004
-0.42316002 -0.044493336 0.99400002
-0.4212667 -0.044493336 0.99400002
-0.41937336 -0.044493336 0.99400002
-0.41748002 -0.044493336 0.99400002
-0.41558668 -0.044493336 0.99400002
-0.41304287 -0.044627622 0.99700004
-0.41114384 -0.044627622 0.99700004
-0.40164861 -0.044627622 0.99700004
-0.38894764 -0.033985715 0.79300004
-0.38841432 -0.034071431 0.79500002
-0.38836002 -0.034200002 0.79800004
-0.38684002 -0.034200002 0.79800004
-0.38628575 -0.034285717 0.80000001
-0.38572383 -0.034371432 0.80200005
-0.38802859 -0.034714289 0.81000006
-0.38744003 -0.0348 0.81200004
-0.38684383 -0.034885716 0.81400001
-0.38671336 -0.035014287 0.81700003
-0.38704288 -0.035185717 0.82100004
-0.38547906 -0.035185717 0.82100004
-0.38672099 -0.035442859 0.82700002
-0.38514575 -0.035442859 0.82700002
-0.38357049 -0.035442859 0.82700002
-0.43073335 -0.042600002 0.99400002
-0.42884004 -0.042600002 0.99400002
-0.4269467 -0.042600002 0.99400002
-0.4212667 -0.042600002 0.99400002
-0.38796669 -0.032393336 0.79100001
-0.38841432 -0.032557145 0.79500002
-0.38787335 -0.032639049 0.79700005
-0.38635525 -0.032639049 0.79700005
-0.38532004 -0.032680001 0.79800004
-0.38572383 -0.032843813 0.80200005
-0.38802859 -0.03317143 0.81000006
-0.38744003 -0.033253334 0.81200004
-0.38684383 -0.033335239 0.81400001
-0.38576669 -0.033376191 0.81500006
-0.38515717 -0.033458099 0.81700003
-0.38641813 -0.033703811 0.82300001
-0.38672099 -0.03386762 0.82700002
-0.38607717 -0.033949528 0.82900006
-0.38698575 -0.030808574 0.78900003
-0.38743716 -0.030964764 0.79300004
-0.38690004 -0.031042859 0.79500002
-0.38635525 -0.031120954 0.79700005
-0.38532004 -0.031160003 0.79800004
-0.38611239 -0.031472381 0.80600005
-0.38839433 -0.031784765 0.81400001
-0.38731906 -0.03182381 0.81500006
-0.38766003 -0.03198 0.81900007
-0.38798574 -0.032136194 0.82300001
-0.38641813 -0.032136194 0.82300001
-0.38578573 -0.032214288 0.82500005
-0.38701147 -0.029194288 0.78600001
-0.38551432 -0.029194288 0.78600001
-0.38548288 -0.029305717 0.78900003
-0.38592669 -0.029454287 0.79300004
-0.38538575 -0.029528573 0.79500002
-0.38483718 -0.029602859 0.79700005
-0.38668573 -0.029862858 0.80400002
-0.38744003 -0.030160002 0.81200004
-0.38731906 -0.030271431 0.81500006
-0.38766003 -0.030420002 0.81900007
-0.38892859 -0.03064286 0.82500005
-0.38641813 -0.030568574 0.82300001
-0.38653144 -0.027556192 0.78200006
-0.38602668 -0.027626669 0.78400004
-0.38453335 -0.027626669 0.78400004
-0.38401717 -0.027697144 0.78600001
-0.38398004 -0.027802859 0.78900003
-0.38441622 -0.02794381 0.79300004
-0.38387147 -0.028014287 0.79500002
-0.38611239 -0.028401908 0.80600005
-0.38839433 -0.028683811 0.81400001
-0.38731906 -0.028719049 0.81500006
-0.3886067 -0.028930478 0.82100004
-0.38735718 -0.02907143 0.82500005
-0.38702002 -0.025900003 0.77700001
-0.38554004 -0.025900003 0.77700001
-0.3850486 -0.025966669 0.77900004
-0.38504192 -0.026066668 0.78200006
-0.3835524 -0.026066668 0.78200006
-0.38349336 -0.026266668 0.78800005
-0.38344669 -0.026366668 0.79100001
-0.38290575 -0.026433336 0.79300004
-0.38572383 -0.026733335 0.80200005
-0.38611239 -0.026866669 0.80600005
-0.38553146 -0.026933335 0.80800003
-0.3839924 -0.026933335 0.80800003
-0.38245335 -0.026933335 0.80800003
-0.38602385 -0.024357144 0.77500004
-0.38454765 -0.024357144 0.77500004
-0.38406003 -0.024420002 0.77700001
-0.38405716 -0.024514288 0.78000003
-0.3835524 -0.024577145 0.78200006
-0.38401717 -0.024702858 0.78600001
-0.38349336 -0.024765715 0.78800005
-0.38344669 -0.024860002 0.79100001
-0.38194004 -0.024860002 0.79100001
-0.38380003 -0.025080001 0.79800004
-0.38228002 -0.025080001 0.79800004
-0.38076001 -0.025080001 0.79800004
-0.3854143 -0.022585716 0.76500005
-0.38295335 -0.022526668 0.76300001
-0.38350004 -0.022644764 0.76700002
-0.38353336 -0.022733334 0.77000004
-0.38355526 -0.022821907 0.77300006
-0.38307145 -0.022880955 0.77500004
-0.3835648 -0.022999048 0.77900004
-0.38257146 -0.023028573 0.78000003
-0.38401717 -0.023205716 0.78600001
-0.38349336 -0.023264764 0.78800005
-0.38344669 -0.023353335 0.79100001
-0.38194004 -0.023353335 0.79100001
-0.38235718 -0.02347143 0.79500002
-0.38084289 -0.02347143 0.79500002
-0.38076001 -0.023560002 0.79800004
-0.3854143 -0.021128573 0.76500005
-0.38295335 -0.021073334 0.76300001
-0.38350004 -0.021183811 0.76700002
-0.38353336 -0.021266667 0.77000004
-0.38355526 -0.021349525 0.77300006
-0.38208288 -0.021349525 0.77300006
-0.38258001 -0.021460002 0.77700001
-0.38257146 -0.021542858 0.78000003
-0.38304001 -0.021653336 0.78400004
-0.38349336 -0.021763811 0.78800005
-0.38344669 -0.021846669 0.79100001
-0.38290575 -0.021901906 0.79300004
-0.38235718 -0.021957144 0.79500002
-0.38180098 -0.022012383 0.79700005
-0.38076001 -0.022040002 0.79800004
-0.3854143 -0.019671429 0.76500005
-0.38395718 -0.019671429 0.76500005
-0.38250002 -0.019671429 0.76500005
-0.38253716 -0.019748572 0.76800001
-0.38305908 -0.019851429 0.77200001
-0.38208288 -0.019877145 0.77300006
-0.38258001 -0.019980002 0.77700001
-0.38257146 -0.020057144 0.78000003
-0.38304001 -0.020160001 0.78400004
-0.38349336 -0.020262858 0.78800005
-0.38344669 -0.020340001 0.79100001
-0.38290575 -0.020391431 0.79300004
-0.38331908 -0.020494288 0.79700005
-0.38228002 -0.020520002 0.79800004
-0.38076001 -0.020520002 0.79800004
-0.38434288 -0.01809524 0.76000005
-0.38339907 -0.018119048 0.76100004
-0.38295335 -0.018166669 0.76300001
-0.38150004 -0.018166669 0.76300001
-0.38203907 -0.018261906 0.76700002
-0.3820667 -0.018333334 0.77000004
-0.38208288 -0.018404763 0.77300006
-0.38258001 -0.018500002 0.77700001
-0.3835524 -0.018619049 0.78200006
-0.38401717 -0.018714286 0.78600001
-0.38349336 -0.018761907 0.78800005
-0.38344669 -0.018833335 0.79100001
-0.38290575 -0.018880954 0.79300004
-0.38235718 -0.018928573 0.79500002
-0.38180098 -0.018976191 0.79700005
-0.38076001 -0.019000001 0.79800004
-0.38434288 -0.01664762 0.76000005
-0.38339907 -0.016669525 0.76100004
-0.38194954 -0.016669525 0.76100004
-0.38150004 -0.016713334 0.76300001
-0.38104287 -0.016757144 0.76500005
-0.3820667 -0.016866667 0.77000004
-0.38208288 -0.016932381 0.77300006
-0.38258001 -0.017020002 0.77700001
-0.3835524 -0.017129526 0.78200006
-0.38304001 -0.017173335 0.78400004
-0.38349336 -0.017260954 0.78800005
-0.38247716 -0.017282858 0.78900003
-0.38290575 -0.017370477 0.79300004
-0.38139525 -0.017370477 0.79300004
-0.38084289 -0.017414287 0.79500002
-0.37932861 -0.017414287 0.79500002
-0.38477525 -0.015160001 0.75800002
-0.38333145 -0.015160001 0.75800002
-0.38289526 -0.015200001 0.76000005
-0.38194954 -0.015220001 0.76100004
-0.38050002 -0.015220001 0.76100004
-0.38203907 -0.015340001 0.76700002
-0.38158861 -0.015440001 0.77200001
-0.38258001 -0.015540001 0.77700001
-0.38453335 -0.01568 0.78400004
-0.38304001 -0.01568 0.78400004
-0.38349336 -0.015760001 0.78800005
-0.38247716 -0.015780002 0.78900003
-0.38194004 -0.01582 0.79100001
-0.38139525 -0.015860001 0.79300004
-0.38084289 -0.015900001 0.79500002
-0.37932861 -0.015900001 0.79500002
0.20070001 -0.018900001 0.94500005
-0.38621908 -0.013716191 0.75800002
-0.38477525 -0.013716191 0.75800002
-0.38333145 -0.013716191 0.75800002
-0.38289526 -0.013752382 0.76000005
-0.38144764 -0.013752382 0.76000005
-0.38050002 -0.013770477 0.76100004
-0.38203907 -0.013879049 0.76700002
-0.38158861 -0.013969525 0.77200001
-0.38258001 -0.014060001 0.77700001
-0.38453335 -0.014186667 0.78400004
-0.38304001 -0.014186667 0.78400004
-0.38349336 -0.014259049 0.78800005
-0.38247716 -0.014277143 0.78900003
-0.38194004 -0.014313335 0.79100001
-0.38043335 -0.014313335 0.79100001
-0.37892669 -0.014313335 0.79100001
-0.38621908 -0.012272382 0.75800002
-0.3857905 -0.012304762 0.76000005
-0.38333145 -0.012272382 0.75800002
-0.38289526 -0.012304762 0.76000005
-0.38144764 -0.012304762 0.76000005
-0.38000003 -0.012304762 0.76000005
-0.38104287 -0.012385715 0.76500005
-0.38107431 -0.012434287 0.76800001
-0.38158861 -0.012499048 0.77200001
-0.3835524 -0.012660953 0.78200006
-0.38304001 -0.012693334 0.78400004
-0.38349336 -0.012758096 0.78800005
-0.3819924 -0.012758096 0.78800005
-0.38049147 -0.012758096 0.78800005
-0.3789905 -0.012758096 0.78800005
-0.3857905 -0.010857143 0.76000005
-0.38333145 -0.010828572 0.75800002
-0.38188764 -0.010828572 0.75800002
-0.38144764 -0.010857143 0.76000005
-0.38000003 -0.010857143 0.76000005
-0.38203907 -0.010957143 0.76700002
-0.38158861 -0.011028572 0.77200001
-0.3835524 -0.011171429 0.78200006
-0.38401717 -0.011228573 0.78600001
-0.38349336 -0.011257144 0.78800005
-0.38102287 -0.011228573 0.78600001
-0.3857905 -0.0094095245 0.76000005
-0.38333145 -0.0093847625 0.75800002
-0.38188764 -0.0093847625 0.75800002
-0.38144764 -0.0094095245 0.76000005
-0.38000003 -0.0094095245 0.76000005
-0.38104287 -0.0094714295 0.76500005
-0.3820667 -0.0095333336 0.77000004
-0.38258001 -0.0096200006 0.77700001
-0.38257146 -0.0096571436 0.78000003
-0.38206288 -0.0096819056 0.78200006
-0.37999144 -0.0077838101 0.74300003
-0.37959525 -0.0078047626 0.74500006
-0.37817621 -0.0078047626 0.74500006
-0.38232002 -0.0079200007 0.75600004
-0.38188764 -0.0079409527 0.75800002
-0.38044384 -0.0079409527 0.75800002
-0.38000003 -0.0079619056 0.76000005
-0.3800467 -0.007993334 0.76300001
-0.38107431 -0.0080457143 0.76800001
-0.38258001 -0.0081400005 0.77700001
-0.38208097 -0.0081609525 0.77900004
-0.38127622 -0.0063428576 0.74000001
-0.38089335 -0.0063600005 0.74200004
-0.37999144 -0.0063685719 0.74300003
-0.37959525 -0.0063857147 0.74500006
-0.37817621 -0.0063857147 0.74500006
-0.37928575 -0.0064285719 0.75000006
-0.38088003 -0.0064800004 0.75600004
-0.38044384 -0.0064971433 0.75800002
-0.38000003 -0.0065142862 0.76000005
-0.3800467 -0.0065400004 0.76300001
-0.38258001 -0.0066600004 0.77700001
-0.45123813 -0.007885715 0.92000002
-0.45046288 -0.0079028578 0.92200005
-0.38409525 -0.0049333335 0.74000001
-0.3811343 -0.0049133338 0.73700005
-0.38076097 -0.0049266671 0.73900002
-0.37986669 -0.0049333335 0.74000001
-0.37999144 -0.0049533336 0.74300003
-0.37959525 -0.0049666669 0.74500006
-0.37817621 -0.0049666669 0.74500006
-0.3793686 -0.0050200005 0.75300002
-0.38044384 -0.0050533335 0.75800002
-0.38000003 -0.0050666672 0.76000005
-0.3800467 -0.0050866669 0.76300001
-0.3835648 -0.0051933336 0.77900004
-0.45221907 -0.0061466671 0.92200005
-0.3811343 -0.003509524 0.73700005
-0.38076097 -0.0035190478 0.73900002
-0.37986669 -0.0035238098 0.74000001
-0.37948003 -0.0035333335 0.74200004
-0.37857622 -0.0035380954 0.74300003
-0.37817621 -0.0035476193 0.74500006
-0.37928575 -0.0035714288 0.75000006
-0.38044384 -0.0036095241 0.75800002
-0.38000003 -0.0036190478 0.76000005
-0.3800467 -0.0036333336 0.76300001
-0.45221907 -0.0043904763 0.92200005
-0.45046288 -0.0043904763 0.92200005
-0.38216859 -0.0021114287 0.73900002
-0.38076097 -0.0021114287 0.73900002
-0.37986669 -0.0021142859 0.74000001
-0.37999144 -0.0021228574 0.74300003
-0.37959525 -0.0021285715 0.74500006
-0.37817621 -0.0021285715 0.74500006
-0.37827432 -0.0021371429 0.74800003
-0.38037622 -0.0021571431 0.75500005
-0.37900004 -0.0021657145 0.75800002
-0.37905049 -0.0021742859 0.76100004
-0.38216859 -0.00070380955 0.73900002
-0.38127622 -0.00070476194 0.74000001
-0.38089335 -0.00070666673 0.74200004
-0.37999144 -0.00070761907 0.74300003
-0.37857622 -0.00070761907 0.74300003
-0.37817621 -0.00070952385 0.74500006
-0.37827432 -0.00071238098 0.74800003
-0.37886479 -0.00071619055 0.75200003
-0.38000003 -0.00072380959 0.76000005
-0.37905049 -0.00072476198 0.76100004
-0.3107762 -0.00089047622 0.93500006
-0.30899525 -0.00089047622 0.93500006
-0.30721432 -0.00089047622 0.93500006
0.1782524 -0.00086952385 0.91300005
0.17999144 -0.00086952385 0.91300005
0.18173049 -0.00086952385 0.91300005
0.18346953 -0.00086952385 0.91300005
0.18520859 -0.00086952385 0.91300005
-0.38216859 0.00070380955 0.73900002
-0.38127622 0.00070476194 0.74000001
-0.37986669 0.00070476194 0.74000001
-0.37845716 0.00070476194 0.74000001
-0.37857622 0.00070761907 0.74300003
-0.37817621 0.00070952385 0.74500006
-0.37827432 0.00071238098 0.74800003
-0.3793686 0.00071714289 0.75300002
-0.37944004 0.00072000007 0.75600004
-0.37900004 0.0007219048 0.75800002
-0.37905049 0.00072476198 0.76100004
-0.31155431 0.0008876191 0.93200004
0.17940001 0.00086666673 0.91000003
0.18113334 0.00086666673 0.91000003
0.18460001 0.00086666673 0.91000003
-0.37994289 0.0020914287 0.73200005
-0.38061717 0.0021028572 0.73600006
-0.38076097 0.0021114287 0.73900002
-0.37935334 0.0021114287 0.73900002
-0.37794575 0.0021114287 0.73900002
-0.37857622 0.0021228574 0.74300003
-0.37817621 0.0021285715 0.74500006
-0.37827432 0.0021371429 0.74800003
-0.3793686 0.0021514287 0.75300002
-0.37893811 0.0021571431 0.75500005
-0.37750003 0.0021571431 0.75500005
-0.37905049 0.0021742859 0.76100004
-0.38133717 0.0034857146 0.73200005
-0.37994289 0.0034857146 0.73200005
-0.38061717 0.0035047622 0.73600006
-0.37973049 0.003509524 0.73700005
-0.37832668 0.003509524 0.73700005
-0.37794575 0.0035190478 0.73900002
-0.37817621 0.0035476193 0.74500006
-0.37827432 0.0035619049 0.74800003
-0.37886479 0.0035809525 0.75200003
-0.37793431 0.0035857146 0.75300002
-0.37650001 0.0035857146 0.75300002
-0.3800467 0.0036333336 0.76300001
-0.38148004 0.0047600004 0.71400005
-0.37876001 0.0047600004 0.71400005
-0.37687147 0.0047533335 0.71300006
-0.37551335 0.0047533335 0.71300006
-0.37468001 0.0047600004 0.71400005
-0.38081622 0.0048733335 0.73100001
-0.37994289 0.0048800004 0.73200005
-0.37958288 0.0048933337 0.73400003
-0.37921527 0.0049066669 0.73600006
-0.37832668 0.0049133338 0.73700005
-0.37692288 0.0049133338 0.73700005
-0.37857622 0.0049533336 0.74300003
-0.37817621 0.0049666669 0.74500006
-0.37776861 0.0049800002 0.74700004
-0.37886479 0.0050133336 0.75200003
-0.37793431 0.0050200005 0.75300002
-0.37650001 0.0050200005 0.75300002
-0.38107431 0.0051200003 0.76800001
-0.37961146 0.0051200003 0.76800001
-0.38366193 0.0061114291 0.71300006
-0.38230383 0.0061114291 0.71300006
-0.38094574 0.0061114291 0.71300006
-0.37958765 0.0061114291 0.71300006
-0.37822956 0.0061114291 0.71300006
-0.37687147 0.0061114291 0.71300006
-0.37551335 0.0061114291 0.71300006
-0.37468001 0.0061200005 0.71400005
-0.37436575 0.0061371434 0.71600002
-0.37942383 0.0062657148 0.73100001
-0.37958288 0.006291429 0.73400003
-0.37921527 0.0063085719 0.73600006
-0.37832668 0.0063171433 0.73700005
-0.37692288 0.0063171433 0.73700005
-0.37857622 0.0063685719 0.74300003
-0.37817621 0.0063857147 0.74500006
-0.37776861 0.0064028576 0.74700004
-0.37886479 0.0064457147 0.75200003
-0.37793431 0.0064542862 0.75300002
-0.37800002 0.0064800004 0.75600004
-0.38104287 0.0065571433 0.76500005
-0.37958574 0.0065571433 0.76500005
-0.37987718 0.0074485717 0.71100003
-0.37958765 0.0074695242 0.71300006
-0.37822956 0.0074695242 0.71300006
-0.37687147 0.0074695242 0.71300006
-0.37604001 0.0074800006 0.71400005
-0.37572956 0.007500953 0.71600002
-0.3748886 0.007511429 0.71700001
-0.37508574 0.0075428574 0.72000003
-0.37838575 0.0076371431 0.72900003
-0.37854859 0.007668572 0.73200005
-0.37921527 0.0077104769 0.73600006
-0.37832668 0.0077209529 0.73700005
-0.37794575 0.0077419053 0.73900002
-0.37806669 0.0077733337 0.74200004
-0.37716097 0.0077838101 0.74300003
-0.37675717 0.0078047626 0.74500006
-0.37785718 0.0078571429 0.75000006
-0.37793431 0.0078885723 0.75300002
-0.38150004 0.007993334 0.76300001
-0.3800467 0.007993334 0.76300001
-0.37859336 0.007993334 0.76300001
-0.44020289 0.0094390484 0.90100002
-0.37852287 0.0088028582 0.71100003
-0.37822956 0.0088276193 0.71300006
-0.37687147 0.0088276193 0.71300006
-0.37709334 0.0088647623 0.71600002
-0.37572956 0.0088647623 0.71600002
-0.3748886 0.0088771433 0.71700001
-0.37612763 0.0089390483 0.72200006
-0.37786669 0.0090133343 0.72800004
-0.37854859 0.0090628574 0.73200005
-0.37921527 0.0091123814 0.73600006
-0.37832668 0.0091247624 0.73700005
-0.37794575 0.0091495244 0.73900002
-0.37806669 0.0091866674 0.74200004
-0.37716097 0.0091990484 0.74300003
-0.37574574 0.0091990484 0.74300003
-0.44181052 0.010981905 0.88700002
-0.44210574 0.011031429 0.89100003
-0.44189146 0.011068572 0.89400005
-0.44117337 0.011093334 0.89600003
-0.43946669 0.011093334 0.89600003
-0.43873718 0.011118096 0.89800006
-0.37934288 0.010142858 0.71000004
-0.37852287 0.010157144 0.71100003
-0.3771686 0.010157144 0.71100003
-0.37687147 0.010185715 0.71300006
-0.37762001 0.010242858 0.71700001
-0.37625432 0.010242858 0.71700001
-0.3759343 0.010271429 0.71900004
-0.37508574 0.010285715 0.72000003
-0.37786669 0.010400001 0.72800004
-0.37803146 0.010442858 0.73100001
-0.3781848 0.010485715 0.73400003
-0.37832668 0.010528572 0.73700005
-0.37794575 0.010557144 0.73900002
-0.37806669 0.010600001 0.74200004
-0.37716097 0.010614286 0.74300003
-0.44450003 0.012700001 0.88900006
-0.44181052 0.01267143 0.88700002
-0.44111335 0.012700001 0.88900006
-0.44040859 0.012728572 0.89100003
-0.44018859 0.012771429 0.89400005
-0.43848574 0.012771429 0.89400005
-0.37828097 0.011381906 0.70300001
-0.37694192 0.011381906 0.70300001
-0.37827432 0.011462858 0.708
-0.37799051 0.011495239 0.71000004
-0.3771686 0.011511429 0.71100003
-0.37687147 0.01154381 0.71300006
-0.37762001 0.011608572 0.71700001
-0.37730384 0.011640953 0.71900004
-0.3759343 0.011640953 0.71900004
-0.3766486 0.011705715 0.72300005
-0.37630954 0.011738096 0.72500002
-0.37699717 0.011802858 0.72900003
-0.3781848 0.01188381 0.73400003
-0.37781337 0.011916191 0.73600006
-0.37794575 0.011964763 0.73900002
-0.37857622 0.012029525 0.74300003
-0.44518957 0.014360953 0.88700002
-0.44350004 0.014360953 0.88700002
-0.44181052 0.014360953 0.88700002
-0.44210574 0.014425715 0.89100003
-0.44040859 0.014425715 0.89100003
-0.37854004 0.012684762 0.70100003
-0.37828097 0.012720954 0.70300001
-0.37694192 0.012720954 0.70300001
-0.37667146 0.012757144 0.70500004
-0.37692574 0.01281143 0.708
-0.37663811 0.01284762 0.71000004
-0.37740001 0.012920001 0.71400005
-0.37762001 0.012974286 0.71700001
-0.37730384 0.013010477 0.71900004
-0.3759343 0.013010477 0.71900004
-0.37612763 0.013064763 0.72200006
-0.37630954 0.013119048 0.72500002
-0.37648001 0.013173334 0.72800004
-0.37715432 0.013245715 0.73200005
-0.37781337 0.013318096 0.73600006
-0.37794575 0.013372382 0.73900002
-0.37806669 0.013426668 0.74200004
-0.44536763 0.015996192 0.88400006
-0.44518957 0.016050477 0.88700002
-0.44350004 0.016050477 0.88700002
-0.44181052 0.016050477 0.88700002
-0.44111335 0.016086668 0.88900006
-0.37854004 0.014020001 0.70100003
-0.37881908 0.014080001 0.70400006
-0.37747812 0.014080001 0.70400006
-0.37774003 0.014140001 0.70700002
-0.37639335 0.014140001 0.70700002
-0.37557718 0.014160001 0.708
-0.37581432 0.014220001 0.71100003
-0.37709334 0.014320001 0.71600002
-0.37625432 0.014340001 0.71700001
-0.3759343 0.014380001 0.71900004
-0.3766486 0.014460001 0.72300005
-0.37630954 0.014500001 0.72500002
-0.37648001 0.014560001 0.72800004
-0.37715432 0.014640001 0.73200005
-0.37832668 0.014740001 0.73700005
-0.37794575 0.014780001 0.73900002
-0.44604003 0.017640002 0.88200003
-0.44536763 0.017680001 0.88400006
-0.37638003 0.01526762 0.69700003
-0.37828097 0.015399049 0.70300001
-0.37747812 0.015420954 0.70400006
-0.37667146 0.015442858 0.70500004
-0.3753286 0.015442858 0.70500004
-0.3750467 0.015486668 0.70700002
-0.3742286 0.015508573 0.708
-0.37709334 0.015683811 0.71600002
-0.37625432 0.015705716 0.71700001
-0.3759343 0.015749525 0.71900004
-0.37612763 0.015815239 0.72200006
-0.3737143 0.01577143 0.72000003
-0.37234288 0.01577143 0.72000003
-0.37832668 0.01614381 0.73700005
-0.44772002 0.019320002 0.88200003
-0.44604003 0.019320002 0.88200003
-0.37800002 0.016666668 0.70000005
-0.37720478 0.016690478 0.70100003
-0.37586954 0.016690478 0.70100003
-0.37560287 0.016738096 0.70300001
-0.37479621 0.016761906 0.70400006
-0.37398574 0.016785715 0.70500004
-0.37370002 0.016833335 0.70700002
-0.37604001 0.017000001 0.71400005
-0.37625432 0.01707143 0.71700001
-0.3748886 0.01707143 0.71700001
-0.37508574 0.017142858 0.72000003
-0.37319526 0.017119048 0.71900004
-0.37182572 0.017119048 0.71900004
-0.44838098 0.020952383 0.88000005
-0.4467048 0.020952383 0.88000005
-0.37720478 0.018025715 0.70100003
-0.37586954 0.018025715 0.70100003
-0.37560287 0.018077144 0.70300001
-0.37479621 0.018102858 0.70400006
-0.37398574 0.018128572 0.70500004
-0.37370002 0.018180002 0.70700002
-0.37604001 0.018360002 0.71400005
-0.37572956 0.01841143 0.71600002
-0.37436575 0.01841143 0.71600002
-0.3745648 0.018488573 0.71900004
-0.37319526 0.018488573 0.71900004
-0.37182572 0.018488573 0.71900004
-0.37800002 0.019333335 0.70000005
-0.37666669 0.019333335 0.70000005
-0.37586954 0.019360954 0.70100003
-0.37453431 0.019360954 0.70100003
-0.37426382 0.019416193 0.70300001
-0.37345526 0.01944381 0.70400006
-0.37370002 0.019526668 0.70700002
-0.37604001 0.019720001 0.71400005
-0.37572956 0.01977524 0.71600002
-0.37436575 0.01977524 0.71600002
-0.37300193 0.01977524 0.71600002
-0.37215716 0.019802859 0.71700001
-0.37079147 0.019802859 0.71700001
-0.37638003 0.020578096 0.69700003
-0.3755905 0.02060762 0.69800001
-0.37533337 0.020666668 0.70000005
-0.37453431 0.020696191 0.70100003
-0.37426382 0.020755239 0.70300001
-0.37292477 0.020755239 0.70300001
-0.37370002 0.020873334 0.70700002
-0.37551335 0.021050477 0.71300006
-0.37468001 0.021080002 0.71400005
-0.37436575 0.02113905 0.71600002
-0.37143907 0.021050477 0.71300006
-0.36904287 0.02099143 0.71100003
-0.44545433 0.025715239 0.87100005
-0.44379526 0.025715239 0.87100005
-0.44213623 0.025715239 0.87100005
-0.44047716 0.025715239 0.87100005
-0.37530002 0.021842858 0.69500005
-0.37505239 0.021905717 0.69700003
-0.37426099 0.021937145 0.69800001
-0.37453431 0.02203143 0.70100003
-0.37426382 0.022094287 0.70300001
-0.37345526 0.022125715 0.70400006
-0.37370002 0.022220001 0.70700002
-0.37551335 0.022408573 0.71300006
-0.37468001 0.022440001 0.71400005
-0.3759343 0.022597143 0.71900004
-0.37196001 0.022440001 0.71400005
-0.36748573 0.022251431 0.708
-0.44175717 0.027248573 0.86700004
-0.37522858 0.023000002 0.69000006
-0.37445623 0.023033334 0.69100004
-0.37530002 0.023166668 0.69500005
-0.37505239 0.023233335 0.69700003
-0.37426099 0.023266668 0.69800001
-0.37400001 0.023333335 0.70000005
-0.37426382 0.023433335 0.70300001
-0.37292477 0.023433335 0.70300001
-0.37551335 0.023766669 0.71300006
-0.37415525 0.023766669 0.71300006
-0.37332001 0.023800002 0.71400005
-0.37196001 0.023800002 0.71400005
-0.44073811 0.028833335 0.86500007
-0.3765429 0.024314288 0.69000006
-0.37522858 0.024314288 0.69000006
-0.37445623 0.024349526 0.69100004
-0.37638003 0.024560954 0.69700003
-0.3755905 0.024596192 0.69800001
-0.37533337 0.024666669 0.70000005
-0.37453431 0.024701906 0.70100003
-0.37426382 0.024772383 0.70300001
-0.37345526 0.024807621 0.70400006
-0.37446001 0.025054287 0.71100003
-0.37468001 0.025160002 0.71400005
-0.37332001 0.025160002 0.71400005
-0.37196001 0.025160002 0.71400005
-0.44249335 0.03037524 0.86200005
-0.43920955 0.03037524 0.86200005
-0.37566668 0.025480002 0.68600005
-0.37599716 0.025591429 0.68900001
-0.37522858 0.025628572 0.69000006
-0.37445623 0.025665715 0.69100004
-0.37638003 0.025888573 0.69700003
-0.3755905 0.025925716 0.69800001
-0.37533337 0.026000002 0.70000005
-0.37453431 0.026037145 0.70100003
-0.37479621 0.026148573 0.70400006
-0.37345526 0.026148573 0.70400006
-0.37528574 0.026371431 0.71000004
-0.37551335 0.02648286 0.71300006
-0.37468001 0.026520003 0.71400005
-0.37662575 0.026669526 0.68300003
-0.37532479 0.026669526 0.68300003
-0.37566668 0.026786668 0.68600005
-0.37490574 0.026825717 0.68700004
-0.37522858 0.026942858 0.69000006
-0.37445623 0.026981907 0.69100004
-0.37638003 0.027216192 0.69700003
-0.3755905 0.027255239 0.69800001
-0.37533337 0.027333336 0.70000005
-0.37453431 0.027372383 0.70100003
-0.37426382 0.027450478 0.70300001
-0.37345526 0.027489526 0.70400006
-0.37370002 0.027606668 0.70700002
-0.37446001 0.027762858 0.71100003
-0.37415525 0.027840953 0.71300006
-0.37662575 0.027970478 0.68300003
-0.37532479 0.027970478 0.68300003
-0.37566668 0.028093334 0.68600005
-0.37490574 0.028134288 0.68700004
-0.37522858 0.028257145 0.69000006
-0.37445623 0.028298097 0.69100004
-0.37530002 0.028461907 0.69500005
-0.37666669 0.028666668 0.70000005
-0.37533337 0.028666668 0.70000005
-0.37453431 0.028707622 0.70100003
-0.37426382 0.028789526 0.70300001
-0.37345526 0.028830478 0.70400006
-0.3742286 0.028994288 0.708
-0.37446001 0.029117145 0.71100003
-0.37737337 0.029228574 0.68200004
-0.37662575 0.029271431 0.68300003
-0.37587431 0.029314287 0.68400002
-0.37457144 0.029314287 0.68400002
-0.37436002 0.029400002 0.68600005
-0.37468478 0.029528573 0.68900001
-0.37554002 0.029700002 0.69300002
-0.37530002 0.029785717 0.69500005
-0.37666669 0.030000001 0.70000005
-0.37533337 0.030000001 0.70000005
-0.37453431 0.030042859 0.70100003
-0.37426382 0.030128574 0.70300001
-0.37345526 0.03017143 0.70400006
-0.3721143 0.03017143 0.70400006
-0.37288001 0.030342858 0.708
-0.37756193 0.030438097 0.68000001
-0.37737337 0.030527622 0.68200004
-0.37717718 0.030617144 0.68400002
-0.37587431 0.030617144 0.68400002
-0.37457144 0.030617144 0.68400002
-0.3732686 0.030617144 0.68400002
-0.37359717 0.030751431 0.68700004
-0.37554002 0.031020002 0.69300002
-0.37530002 0.031109527 0.69500005
-0.37666669 0.031333335 0.70000005
-0.37586954 0.031378098 0.70100003
-0.37453431 0.031378098 0.70100003
-0.37426382 0.03146762 0.70300001
-0.37292477 0.03146762 0.70300001
-0.3721143 0.031512383 0.70400006
-0.37077335 0.031512383 0.70400006
-0.37626669 0.031733334 0.68000001
-0.37662575 0.031873334 0.68300003
-0.37587431 0.031920001 0.68400002
-0.37457144 0.031920001 0.68400002
-0.3732686 0.031920001 0.68400002
-0.37305337 0.032013334 0.68600005
-0.3739143 0.032200001 0.69000006
-0.37422001 0.032340001 0.69300002
-0.37666669 0.032666668 0.70000005
-0.37586954 0.032713335 0.70100003
-0.37400001 0.032666668 0.70000005
-0.37426382 0.032806668 0.70300001
-0.37292477 0.032806668 0.70300001
-0.3721143 0.032853335 0.70400006
-0.37571335 0.032980002 0.67900002
-0.37442002 0.032980002 0.67900002
-0.37532479 0.033174288 0.68300003
-0.37402382 0.033174288 0.68300003
-0.3732686 0.033222858 0.68400002
-0.37305337 0.033320002 0.68600005
-0.37337241 0.033465717 0.68900001
-0.37314004 0.033562858 0.69100004
-0.37343812 0.033708572 0.69400001
-0.37372479 0.033854287 0.69700003
-0.37239715 0.033854287 0.69700003
-0.37266669 0.034000002 0.70000005
-0.37292477 0.034145717 0.70300001
-0.3721143 0.034194287 0.70400006
-0.43274003 0.040945716 0.84300005
-0.43113431 0.040945716 0.84300005
-0.42952859 0.040945716 0.84300005
-0.42792287 0.040945716 0.84300005
-0.42631719 0.040945716 0.84300005
-0.37587431 0.034525715 0.68400002
-0.37457144 0.034525715 0.68400002
-0.3732686 0.034525715 0.68400002
-0.37305337 0.03462667 0.68600005
-0.37337241 0.034778096 0.68900001
-0.37260002 0.034828573 0.69000006
-0.37290004 0.034980003 0.69300002
-0.37265241 0.035080954 0.69500005
-0.37239715 0.035181906 0.69700003
-0.37266669 0.035333335 0.70000005
-0.37292477 0.035484765 0.70300001
-0.42908859 0.042349525 0.83900005
-0.37587431 0.035828575 0.68400002
-0.37457144 0.035828575 0.68400002
-0.37436002 0.035933334 0.68600005
-0.37305337 0.035933334 0.68600005
-0.37337241 0.036090478 0.68900001
-0.37260002 0.03614286 0.69000006
-0.37182385 0.036195241 0.69100004
-0.37211621 0.036352385 0.69400001
-0.37239715 0.036509525 0.69700003
-0.37266669 0.036666669 0.70000005
-0.37186384 0.03671905 0.70100003
-0.37158573 0.036823813 0.70300001
-0.37405336 0.036697146 0.67600006
-0.37276575 0.036697146 0.67600006
-0.37587431 0.037131432 0.68400002
-0.37457144 0.037131432 0.68400002
-0.3732686 0.037131432 0.68400002
-0.37305337 0.037240002 0.68600005
-0.37228858 0.037294287 0.68700004
-0.37098002 0.037294287 0.68700004
-0.37128574 0.037457146 0.69000006
-0.37211621 0.037674289 0.69400001
-0.37132859 0.037728574 0.69500005
-0.37319908 0.038054287 0.70100003
-0.37186384 0.038054287 0.70100003
-0.37052861 0.038054287 0.70100003
-0.37350002 0.037928574 0.67500001
-0.37166288 0.037872385 0.67400002
-0.37477526 0.038321909 0.68200004
-0.37402382 0.038378097 0.68300003
-0.3732686 0.038434289 0.68400002
-0.37196574 0.038434289 0.68400002
-0.37174669 0.03854667 0.68600005
-0.37098002 0.038602859 0.68700004
-0.37026003 0.038940001 0.69300002
-0.37319908 0.039389525 0.70100003
-0.37133336 0.039333336 0.70000005
-0.37052861 0.039389525 0.70100003
-0.36866668 0.039333336 0.70000005
-0.37312001 0.039040003 0.67200005
-0.37294668 0.039156195 0.67400002
-0.37166288 0.039156195 0.67400002
-0.37092859 0.039214287 0.67500001
-0.37402382 0.03967905 0.68300003
-0.3732686 0.039737146 0.68400002
-0.37196574 0.039737146 0.68400002
-0.37174669 0.039853334 0.68600005
-0.37044004 0.039853334 0.68600005
-0.37239715 0.040492382 0.69700003
-0.37106955 0.040492382 0.69700003
-0.36974192 0.040492382 0.69700003
-0.36894289 0.040550478 0.69800001
-0.36761335 0.040550478 0.69800001
-0.3742305 0.040440004 0.67400002
-0.37350002 0.040500004 0.67500001
-0.37166288 0.040440004 0.67400002
-0.37092859 0.040500004 0.67500001
-0.37347621 0.040920004 0.68200004
-0.37272289 0.040980004 0.68300003
-0.37142193 0.040980004 0.68300003
-0.37174669 0.041160002 0.68600005
-0.37044004 0.041160002 0.68600005
-0.3707943 0.041640002 0.69400001
-0.37000477 0.041700002 0.69500005
-0.36974192 0.041820005 0.69700003
-0.36841431 0.041820005 0.69700003
-0.36708668 0.041820005 0.69700003
-0.3742305 0.041723814 0.67400002
-0.37350002 0.041785717 0.67500001
-0.37221432 0.041785717 0.67500001
-0.37312669 0.042033337 0.67900002
-0.37347621 0.04221905 0.68200004
-0.37217715 0.04221905 0.68200004
-0.37142193 0.042280953 0.68300003
-0.37066287 0.04234286 0.68400002
-0.37044004 0.04246667 0.68600005
-0.3707943 0.042961907 0.69400001
-0.36974192 0.043147624 0.69700003
-0.36894289 0.043209527 0.69800001
-0.36708668 0.043147624 0.69700003
-0.3742305 0.043007623 0.67400002
-0.37350002 0.04307143 0.67500001
-0.37221432 0.04307143 0.67500001
-0.37257716 0.043262862 0.67800003
-0.37238097 0.043390479 0.68000001
-0.37108573 0.043390479 0.68000001
-0.37087813 0.0435181 0.68200004
-0.37012097 0.043581907 0.68300003
-0.36882001 0.043581907 0.68300003
-0.37026003 0.044220004 0.69300002
-0.36974192 0.044475242 0.69700003
-0.36708668 0.044475242 0.69700003
-0.42926574 0.052387621 0.82100004
-0.37478575 0.044357147 0.67500001
-0.37350002 0.044357147 0.67500001
-0.37276575 0.044422861 0.67600006
-0.37312669 0.044620004 0.67900002
-0.37238097 0.044685718 0.68000001
-0.37108573 0.044685718 0.68000001
-0.37087813 0.044817146 0.68200004
-0.37012097 0.04488286 0.68300003
-0.36882001 0.04488286 0.68300003
-0.36751908 0.04488286 0.68300003
-0.37211621 0.045605719 0.69400001
-0.3707943 0.045605719 0.69400001
-0.37186384 0.046065718 0.70100003
-0.4271743 0.053688575 0.81700003
-0.42510003 0.053820003 0.81900007
-0.3742305 0.045575242 0.67400002
-0.37294668 0.045575242 0.67400002
-0.37221432 0.04564286 0.67500001
-0.37147811 0.045710478 0.67600006
-0.37128574 0.045845717 0.67800003
-0.37108573 0.045980956 0.68000001
-0.37142193 0.046183813 0.68300003
-0.37012097 0.046183813 0.68300003
-0.36936003 0.046251431 0.68400002
-0.37158003 0.046860002 0.69300002
-0.37026003 0.046860002 0.69300002
-0.36894003 0.046860002 0.69300002
-0.42873052 0.055244766 0.81700003
-0.4261286 0.055109527 0.81500006
-0.42457622 0.055109527 0.81500006
-0.42406192 0.055244766 0.81700003
-0.37294668 0.046859052 0.67400002
-0.37166288 0.046859052 0.67400002
-0.37147811 0.046998098 0.67600006
-0.3701905 0.046998098 0.67600006
-0.37108573 0.047276195 0.68000001
-0.37142193 0.047484767 0.68300003
-0.37066287 0.047554288 0.68400002
-0.36936003 0.047554288 0.68400002
-0.37196574 0.048857145 0.68400002
-0.37174669 0.049000002 0.68600005
-0.37044004 0.049000002 0.68600005
-0.33910289 0.060634289 0.78600001
-0.3457067 0.061973337 0.78400004
-0.34421337 0.061973337 0.78400004
-0.34272003 0.061973337 0.78400004
-0.3412267 0.061973337 0.78400004
-0.34060001 0.062131431 0.78600001
-0.33910289 0.062131431 0.78600001
-0.37986001 0.066300005 0.81900007
-0.37737623 0.066138096 0.81700003
-0.37674004 0.066300005 0.81900007
-0.35502383 0.062738098 0.77500004
-0.35446003 0.062900007 0.77700001
-0.35298002 0.062900007 0.77700001
-0.35150003 0.062900007 0.77700001
-0.35002002 0.062900007 0.77700001
-0.34854001 0.062900007 0.77700001
-0.34272003 0.063466668 0.78400004
-0.3412267 0.063466668 0.78400004
-0.34060001 0.063628577 0.78600001
-0.33910289 0.063628577 0.78600001
-0.33760574 0.063628577 0.78600001
-0.3361086 0.063628577 0.78600001
-0.35354763 0.064214289 0.77500004
-0.35298002 0.064380005 0.77700001
-0.35150003 0.064380005 0.77700001
-0.35002002 0.064380005 0.77700001
-0.34854001 0.064380005 0.77700001
-0.34706002 0.064380005 0.77700001
-0.3403562 0.064794287 0.78200006
-0.33973336 0.064960003 0.78400004
-0.33910289 0.065125719 0.78600001
-0.33760574 0.065125719 0.78600001
-0.3361086 0.065125719 0.78600001
-0.33461145 0.065125719 0.78600001
-0.39459622 0.068996198 0.81400001
-0.39304575 0.068996198 0.81400001
-0.35594001 0.065860003 0.77700001
-0.35446003 0.065860003 0.77700001
-0.35298002 0.065860003 0.77700001
-0.35240477 0.066029526 0.77900004
-0.35002002 0.065860003 0.77700001
-0.34854001 0.065860003 0.77700001
-0.34706002 0.065860003 0.77700001
-0.34558001 0.065860003 0.77700001
-0.34410003 0.065860003 0.77700001
-0.34262002 0.065860003 0.77700001
-0.34114003 0.065860003 0.77700001
-0.34097144 0.066114292 0.78000003
-0.33948573 0.066114292 0.78000003
-0.33973336 0.066453338 0.78400004
-0.33824003 0.066453338 0.78400004
-0.33760574 0.066622861 0.78600001
-0.3361086 0.066622861 0.78600001
-0.33461145 0.066622861 0.78600001
-0.39508098 0.070633337 0.81500006
-0.39352861 0.070633337 0.81500006
-0.35594001 0.067340001 0.77700001
-0.35446003 0.067340001 0.77700001
