# .PCD v0.7 - Point Cloud Data file format
VERSION 0.7
FIELDS x y z
SIZE 4 4 4
TYPE F F F
COUNT 1 1 1
WIDTH 1417
HEIGHT 1
VIEWPOINT 0 0 0 1 0 0 0
POINTS 1417
DATA ascii
-0.34281239 0.074650481 0.76100004
-0.34226003 0.07484667 0.76300001
-0.34080669 0.07484667 0.76300001
-0.33935335 0.07484667 0.76300001
-0.33790001 0.07484667 0.76300001
-0.33732858 0.075042859 0.76500005
-0.33587146 0.075042859 0.76500005
-0.3344143 0.075042859 0.76500005
-0.33295718 0.075042859 0.76500005
-0.34868002 0.075800002 0.75800002
-0.34723622 0.075800002 0.75800002
-0.34670478 0.076000005 0.76000005
-0.34434858 0.075800002 0.75800002
-0.34290478 0.075800002 0.75800002
-0.34236193 0.076000005 0.76000005
-0.34091431 0.076000005 0.76000005
-0.33991337 0.076100007 0.76100004
-0.33846384 0.076100007 0.76100004
-0.33701432 0.076100007 0.76100004
-0.33556479 0.076100007 0.76100004
-0.33499336 0.076300003 0.76300001
-0.33354002 0.076300003 0.76300001
-0.33208668 0.076300003 0.76300001
-0.32933336 0.076000005 0.76000005
-0.35017622 0.0769381 0.75500005
-0.3487381 0.0769381 0.75500005
-0.34776002 0.077040002 0.75600004
-0.34723622 0.077243812 0.75800002
-0.34579241 0.077243812 0.75800002
-0.34434858 0.077243812 0.75800002
-0.34290478 0.077243812 0.75800002
-0.34236193 0.077447623 0.76000005
-0.34091431 0.077447623 0.76000005
-0.33946669 0.077447623 0.76000005
-0.33801907 0.077447623 0.76000005
-0.33657146 0.077447623 0.76000005
-0.33512384 0.077447623 0.76000005
-0.33411527 0.077549532 0.76100004
-0.33266574 0.077549532 0.76100004
-0.33208668 0.077753335 0.76300001
-0.33063334 0.077753335 0.76300001
-0.32918003 0.077753335 0.76300001
-0.32858574 0.077957146 0.76500005
-0.32712859 0.077957146 0.76500005
-0.34924859 0.078168578 0.75300002
-0.3487381 0.078376196 0.75500005
-0.34730002 0.078376196 0.75500005
-0.34632003 0.078480005 0.75600004
-0.34488001 0.078480005 0.75600004
-0.34344003 0.078480005 0.75600004
-0.34200001 0.078480005 0.75600004
-0.34146097 0.078687623 0.75800002
-0.34001717 0.078687623 0.75800002
-0.33857337 0.078687623 0.75800002
-0.33712953 0.078687623 0.75800002
-0.33568573 0.078687623 0.75800002
-0.33424193 0.078687623 0.75800002
-0.33367622 0.078895241 0.76000005
-0.33266574 0.07899905 0.76100004
-0.33121622 0.07899905 0.76100004
-0.32976669 0.07899905 0.76100004
-0.32918003 0.079206675 0.76300001
-0.32858574 0.079414293 0.76500005
-0.32712859 0.079414293 0.76500005
-0.34632003 0.079920009 0.75600004
-0.34442383 0.079814292 0.75500005
-0.34344003 0.079920009 0.75600004
-0.34200001 0.079920009 0.75600004
-0.34056002 0.079920009 0.75600004
-0.33912003 0.079920009 0.75600004
-0.33768001 0.079920009 0.75600004
-0.33624002 0.079920009 0.75600004
-0.33480003 0.079920009 0.75600004
-0.33424193 0.080131434 0.75800002
-0.33367622 0.080342859 0.76000005
-0.33266574 0.080448575 0.76100004
-0.33208668 0.080660008 0.76300001
-0.33063334 0.080660008 0.76300001
-0.32918003 0.080660008 0.76300001
-0.32858574 0.080871433 0.76500005
-0.32712859 0.080871433 0.76500005
-0.34207717 0.081037149 0.75300002
-0.34064287 0.081037149 0.75300002
-0.3392086 0.081037149 0.75300002
-0.33777431 0.081037149 0.75300002
-0.33634001 0.081037149 0.75300002
-0.33490574 0.081037149 0.75300002
-0.33435717 0.081252389 0.75500005
-0.3401905 0.082361907 0.75200003
-0.33875811 0.082361907 0.75200003
-0.33732572 0.082361907 0.75200003
-0.33589336 0.082361907 0.75200003
-0.33446097 0.082361907 0.75200003
-0.33347145 0.08247143 0.75300002
-0.33928573 0.083571434 0.75000006
-0.33785716 0.083571434 0.75000006
-0.33642858 0.083571434 0.75000006
-0.33410668 0.08334858 0.74800003
-0.33357146 0.083571434 0.75000006
-0.37994289 0.082960002 0.73200005
-0.37854859 0.082960002 0.73200005
-0.37715432 0.082960002 0.73200005
-0.3369562 0.084773339 0.74800003
-0.33553144 0.084773339 0.74800003
-0.33366004 0.084660009 0.74700004
-0.33268192 0.084773339 0.74800003
-0.38081622 0.084239051 0.73100001
-0.37942383 0.084239051 0.73100001
-0.37803146 0.084239051 0.73100001
-0.37663907 0.084239051 0.73100001
-0.3752467 0.084239051 0.73100001
-0.37246192 0.084239051 0.73100001
-0.33785716 0.086428575 0.75000006
-0.33553144 0.086198099 0.74800003
-0.33410668 0.086198099 0.74800003
-0.33268192 0.086198099 0.74800003
-0.38081622 0.085631438 0.73100001
-0.37942383 0.085631438 0.73100001
-0.37699717 0.085397147 0.72900003
-0.37663907 0.085631438 0.73100001
-0.3752467 0.085631438 0.73100001
-0.37283146 0.085397147 0.72900003
-0.37144288 0.085397147 0.72900003
-0.33508289 0.087505721 0.74700004
-0.33366004 0.087505721 0.74700004
-0.38097715 0.086428575 0.72600001
-0.3795943 0.086428575 0.72600001
-0.37925336 0.086666673 0.72800004
-0.37838575 0.086785719 0.72900003
-0.37699717 0.086785719 0.72900003
-0.37560859 0.086785719 0.72900003
-0.37422001 0.086785719 0.72900003
-0.37283146 0.086785719 0.72900003
-0.37144288 0.086785719 0.72900003
-0.33418575 0.088690482 0.74500006
-0.33187336 0.088452384 0.74300003
-0.33134764 0.088690482 0.74500006
-0.32904288 0.088452384 0.74300003
-0.32850954 0.088690482 0.74500006
-0.32577336 0.088333338 0.74200004
-0.32479715 0.088452384 0.74300003
-0.38215718 0.087448575 0.72300005
-0.38183334 0.08769048 0.72500002
-0.38045239 0.08769048 0.72500002
-0.3795943 0.087811433 0.72600001
-0.37925336 0.088053338 0.72800004
-0.37838575 0.088174291 0.72900003
-0.37648001 0.088053338 0.72800004
-0.37560859 0.088174291 0.72900003
-0.3737067 0.088053338 0.72800004
-0.37232003 0.088053338 0.72800004
-0.33328858 0.089867622 0.74300003
-0.33187336 0.089867622 0.74300003
-0.3304581 0.089867622 0.74300003
-0.32904288 0.089867622 0.74300003
-0.32630479 0.089504771 0.74000001
-0.32489526 0.089504771 0.74000001
-0.32436001 0.089746669 0.74200004
-0.38712955 0.088702865 0.72200006
-0.38575432 0.088702865 0.72200006
-0.38331431 0.088457152 0.72000003
-0.38194287 0.088457152 0.72000003
-0.3816286 0.088702865 0.72200006
-0.38078001 0.088825718 0.72300005
-0.37940288 0.088825718 0.72300005
-0.3795943 0.08919429 0.72600001
-0.37925336 0.089440003 0.72800004
-0.37838575 0.089562863 0.72900003
-0.37648001 0.089440003 0.72800004
-0.37560859 0.089562863 0.72900003
-0.3737067 0.089440003 0.72800004
-0.37283146 0.089562863 0.72900003
-0.37144288 0.089562863 0.72900003
-0.35152003 0.089440003 0.72800004
-0.33053336 0.090914294 0.74000001
-0.32912382 0.090914294 0.74000001
-0.32638574 0.090545721 0.73700005
-0.32586384 0.090791434 0.73900002
-0.32445621 0.090791434 0.73900002
-0.32348573 0.090914294 0.74000001
-0.3220762 0.090914294 0.74000001
-0.38581431 0.089454293 0.71700001
-0.38444859 0.089454293 0.71700001
-0.3830829 0.089454293 0.71700001
-0.38331431 0.089828581 0.72000003
-0.38194287 0.089828581 0.72000003
-0.38057145 0.089828581 0.72000003
-0.38025334 0.090078101 0.72200006
-0.37940288 0.090202861 0.72300005
-0.37907144 0.090452388 0.72500002
-0.37821144 0.090577148 0.72600001
-0.37838575 0.090951435 0.72900003
-0.37648001 0.090826675 0.72800004
-0.3529067 0.090826675 0.72800004
-0.35152003 0.090826675 0.72800004
-0.33008668 0.092199057 0.73900002
-0.32778955 0.09194953 0.73700005
-0.32638574 0.09194953 0.73700005
-0.32586384 0.092199057 0.73900002
-0.32445621 0.092199057 0.73900002
-0.32304859 0.092199057 0.73900002
-0.32164097 0.092199057 0.73900002
-0.3206667 0.092323817 0.74000001
-0.38800383 0.09069334 0.71600002
-0.38664001 0.09069334 0.71600002
-0.38527623 0.09069334 0.71600002
-0.38391241 0.09069334 0.71600002
-0.3825486 0.09069334 0.71600002
-0.38331431 0.091200009 0.72000003
-0.38194287 0.091200009 0.72000003
-0.38057145 0.091200009 0.72000003
-0.38025334 0.091453336 0.72200006
-0.37887812 0.091453336 0.72200006
-0.35421431 0.091833338 0.72500002
-0.35283336 0.091833338 0.72500002
-0.35145241 0.091833338 0.72500002
-0.35007146 0.091833338 0.72500002
-0.34043717 0.092593342 0.73100001
-0.33904478 0.092593342 0.73100001
-0.33765242 0.092593342 0.73100001
-0.33626002 0.092593342 0.73100001
-0.33395144 0.092340007 0.72900003
-0.33347526 0.092593342 0.73100001
-0.32638574 0.093353339 0.73700005
-0.32586384 0.093606673 0.73900002
-0.32445621 0.093606673 0.73900002
-0.32304859 0.093606673 0.73900002
-0.32164097 0.093606673 0.73900002
-0.3206667 0.093733341 0.74000001
-0.39236003 0.091800004 0.71400005
-0.39100003 0.091800004 0.71400005
-0.38964003 0.091800004 0.71400005
-0.38828003 0.091800004 0.71400005
-0.38692003 0.091800004 0.71400005
-0.38664001 0.092057146 0.71600002
-0.38527623 0.092057146 0.71600002
-0.38391241 0.092057146 0.71600002
-0.3825486 0.092057146 0.71600002
-0.38171718 0.092185721 0.71700001
-0.38035145 0.092185721 0.71700001
-0.37898573 0.092185721 0.71700001
-0.37709334 0.092057146 0.71600002
-0.37572956 0.092057146 0.71600002
-0.37645715 0.092571437 0.72000003
-0.35461432 0.092957146 0.72300005
-0.3527486 0.092828579 0.72200006
-0.35137334 0.092828579 0.72200006
-0.34902859 0.092571437 0.72000003
-0.34765717 0.092571437 0.72000003
-0.34724763 0.092828579 0.72200006
-0.33949146 0.093342863 0.72600001
-0.33950573 0.09372858 0.72900003
-0.33811715 0.09372858 0.72900003
-0.3367286 0.09372858 0.72900003
-0.33534002 0.09372858 0.72900003
-0.33395144 0.09372858 0.72900003
-0.33347526 0.093985721 0.73100001
-0.32145432 0.09372858 0.72900003
-0.31962669 0.093600005 0.72800004
-0.32173717 0.09462858 0.73600006
-0.32033527 0.09462858 0.73600006
-0.31936669 0.094757147 0.73700005
-0.3915143 0.092638098 0.71000004
-0.39071146 0.09276858 0.71100003
-0.38935718 0.09276858 0.71100003
-0.38636574 0.092377149 0.708
-0.38828003 0.093160003 0.71400005
-0.38692003 0.093160003 0.71400005
-0.38664001 0.09342096 0.71600002
-0.38527623 0.09342096 0.71600002
-0.38391241 0.09342096 0.71600002
-0.3825486 0.09342096 0.71600002
-0.38118479 0.09342096 0.71600002
-0.37982097 0.09342096 0.71600002
-0.37898573 0.093551435 0.71700001
-0.37709334 0.09342096 0.71600002
-0.37572956 0.09342096 0.71600002
-0.37436575 0.09342096 0.71600002
-0.35177144 0.093942866 0.72000003
-0.35040003 0.093942866 0.72000003
-0.34902859 0.093942866 0.72000003
-0.34717432 0.093812384 0.71900004
-0.34628573 0.093942866 0.72000003
-0.33946574 0.094334289 0.72300005
-0.33902383 0.094595246 0.72500002
-0.3381086 0.094725721 0.72600001
-0.33672574 0.094725721 0.72600001
-0.3362667 0.09498667 0.72800004
-0.33488002 0.09498667 0.72800004
-0.33395144 0.095117152 0.72900003
-0.32512099 0.095378101 0.73100001
-0.32417145 0.095508575 0.73200005
-0.32145432 0.095117152 0.72900003
-0.31962669 0.09498667 0.72800004
-0.31998858 0.095508575 0.73200005
-0.31859431 0.095508575 0.73200005
-0.39724287 0.094387628 0.71300006
-0.39588478 0.094387628 0.71300006
-0.39342004 0.094122864 0.71100003
-0.39041147 0.093725719 0.708
-0.38906288 0.093725719 0.708
-0.3877143 0.093725719 0.708
-0.38636574 0.093725719 0.708
-0.38447335 0.093593337 0.70700002
-0.38312671 0.093593337 0.70700002
-0.38232002 0.093725719 0.708
-0.38420004 0.094520003 0.71400005
-0.38284004 0.094520003 0.71400005
-0.38148004 0.094520003 0.71400005
-0.38012004 0.094520003 0.71400005
-0.37876001 0.094520003 0.71400005
-0.37740001 0.094520003 0.71400005
-0.37604001 0.094520003 0.71400005
-0.37468001 0.094520003 0.71400005
-0.34991336 0.095181912 0.71900004
-0.34757432 0.094917148 0.71700001
-0.34572574 0.094784766 0.71600002
-0.34436193 0.094784766 0.71600002
-0.34299812 0.094784766 0.71600002
-0.3416343 0.094784766 0.71600002
-0.34027049 0.094784766 0.71600002
-0.33890668 0.094784766 0.71600002
-0.3394286 0.095314294 0.72000003
-0.3389962 0.09557905 0.72200006
-0.3380886 0.095711432 0.72300005
-0.3353143 0.095314294 0.72000003
-0.33394289 0.095314294 0.72000003
-0.32423145 0.096505724 0.72900003
-0.32372859 0.09677048 0.73100001
-0.32101336 0.096373342 0.72800004
-0.31962669 0.096373342 0.72800004
-0.31867716 0.096505724 0.72900003
-0.31815907 0.09677048 0.73100001
-0.39612859 0.095477149 0.71100003
-0.39477432 0.095477149 0.71100003
-0.3928667 0.095342867 0.71000004
-0.39041147 0.095074289 0.708
-0.38906288 0.095074289 0.708
-0.38716668 0.094940007 0.70700002
-0.38582003 0.094940007 0.70700002
-0.38447335 0.094940007 0.70700002
-0.3836686 0.095074289 0.708
-0.38232002 0.095074289 0.708
-0.38420004 0.095880009 0.71400005
-0.38123146 0.095477149 0.71100003
-0.38094574 0.09574572 0.71300006
-0.37958765 0.09574572 0.71300006
-0.37822956 0.09574572 0.71300006
-0.37687147 0.09574572 0.71300006
-0.37551335 0.09574572 0.71300006
-0.37415525 0.09574572 0.71300006
-0.37279716 0.09574572 0.71300006
-0.37039718 0.095477149 0.71100003
-0.36852384 0.095342867 0.71000004
-0.36717147 0.095342867 0.71000004
-0.34981716 0.09614858 0.71600002
-0.34894001 0.096282862 0.71700001
-0.34708956 0.09614858 0.71600002
-0.34572574 0.09614858 0.71600002
-0.34436193 0.09614858 0.71600002
-0.34299812 0.09614858 0.71600002
-0.3416343 0.09614858 0.71600002
-0.34027049 0.09614858 0.71600002
-0.33890668 0.09614858 0.71600002
-0.3380143 0.096282862 0.71700001
-0.33664858 0.096282862 0.71700001
-0.33668575 0.096685722 0.72000003
-0.33484858 0.096551433 0.71900004
-0.33347908 0.096551433 0.71900004
-0.32240003 0.097760007 0.72800004
-0.32013145 0.097491436 0.72600001
-0.31874859 0.097491436 0.72600001
-0.31955144 0.098162867 0.73100001
-0.31815907 0.098162867 0.73100001
-0.3971543 0.096422866 0.708
-0.39580575 0.096422866 0.708
-0.39612859 0.096831433 0.71100003
-0.39477432 0.096831433 0.71100003
-0.39176002 0.096422866 0.708
-0.39041147 0.096422866 0.708
-0.38906288 0.096422866 0.708
-0.38716668 0.096286669 0.70700002
-0.38472861 0.096014291 0.70500004
-0.38338575 0.096014291 0.70500004
-0.38312671 0.096286669 0.70700002
-0.38178003 0.096286669 0.70700002
-0.38043335 0.096286669 0.70700002
-0.37962288 0.096422866 0.708
-0.37987718 0.096831433 0.71100003
-0.37852287 0.096831433 0.71100003
-0.3771686 0.096831433 0.71100003
-0.37687147 0.097103819 0.71300006
-0.37446001 0.096831433 0.71100003
-0.37310573 0.096831433 0.71100003
-0.37175146 0.096831433 0.71100003
-0.37039718 0.096831433 0.71100003
-0.36748573 0.096422866 0.708
-0.36613718 0.096422866 0.708
-0.34884003 0.097240008 0.71400005
-0.34748003 0.097240008 0.71400005
-0.34612003 0.097240008 0.71400005
-0.34476003 0.097240008 0.71400005
-0.34340003 0.097240008 0.71400005
-0.34204003 0.097240008 0.71400005
-0.34068003 0.097240008 0.71400005
-0.33932003 0.097240008 0.71400005
-0.33796003 0.097240008 0.71400005
-0.33754289 0.097512387 0.71600002
-0.33617908 0.097512387 0.71600002
-0.32151431 0.098874293 0.72600001
-0.3196905 0.098738104 0.72500002
-0.31830955 0.098738104 0.72500002
-0.31736574 0.098874293 0.72600001
-0.3971543 0.097771436 0.708
-0.39580575 0.097771436 0.708
-0.39445716 0.097771436 0.708
-0.39310861 0.097771436 0.708
-0.39176002 0.097771436 0.708
-0.39041147 0.097771436 0.708
-0.38906288 0.097771436 0.708
-0.38716668 0.097633339 0.70700002
-0.38582003 0.097633339 0.70700002
-0.38338575 0.097357146 0.70500004
-0.38312671 0.097633339 0.70700002
-0.38070002 0.097357146 0.70500004
-0.37935716 0.097357146 0.70500004
-0.3780143 0.097357146 0.70500004
-0.37774003 0.097633339 0.70700002
-0.37852287 0.098185718 0.71100003
-0.3771686 0.098185718 0.71100003
-0.37581432 0.098185718 0.71100003
-0.37446001 0.098185718 0.71100003
-0.37310573 0.098185718 0.71100003
-0.37175146 0.098185718 0.71100003
-0.36987621 0.098047629 0.71000004
-0.36748573 0.097771436 0.708
-0.36562002 0.097633339 0.70700002
-0.36427337 0.097633339 0.70700002
-0.34835145 0.098461911 0.71300006
-0.34699336 0.098461911 0.71300006
-0.34612003 0.098600008 0.71400005
-0.34476003 0.098600008 0.71400005
-0.34340003 0.098600008 0.71400005
-0.34204003 0.098600008 0.71400005
-0.34068003 0.098600008 0.71400005
-0.33884478 0.098461911 0.71300006
-0.33796003 0.098600008 0.71400005
-0.33660004 0.098600008 0.71400005
-0.33524004 0.098600008 0.71400005
-0.31880859 0.099842861 0.72300005
-0.31830955 0.10011905 0.72500002
-0.31736574 0.10025715 0.72600001
-0.31598288 0.10025715 0.72600001
-0.3971543 0.099120006 0.708
-0.39580575 0.099120006 0.708
-0.39445716 0.099120006 0.708
-0.39421907 0.099400006 0.71000004
-0.39176002 0.099120006 0.708
-0.39041147 0.099120006 0.708
-0.38906288 0.099120006 0.708
-0.3877143 0.099120006 0.708
-0.38582003 0.09898001 0.70700002
-0.38447335 0.09898001 0.70700002
-0.38312671 0.09898001 0.70700002
-0.38070002 0.098700009 0.70500004
-0.37935716 0.098700009 0.70500004
-0.3780143 0.098700009 0.70500004
-0.37774003 0.09898001 0.70700002
-0.37799051 0.099400006 0.71000004
-0.37663811 0.099400006 0.71000004
-0.37581432 0.09954001 0.71100003
-0.37446001 0.09954001 0.71100003
-0.37310573 0.09954001 0.71100003
-0.37175146 0.09954001 0.71100003
-0.36883432 0.099120006 0.708
-0.36696669 0.09898001 0.70700002
-0.36562002 0.09898001 0.70700002
-0.34602001 0.09954001 0.71100003
-0.34563527 0.099820003 0.71300006
-0.34427717 0.099820003 0.71300006
-0.34291908 0.099820003 0.71300006
-0.34156099 0.099820003 0.71300006
-0.34020287 0.099820003 0.71300006
-0.33884478 0.099820003 0.71300006
-0.33748668 0.099820003 0.71300006
-0.39794004 0.10032667 0.70700002
-0.3971543 0.10046858 0.708
-0.39580575 0.10046858 0.708
-0.39445716 0.10046858 0.708
-0.39310861 0.10046858 0.708
-0.39120668 0.10032667 0.70700002
-0.38986003 0.10032667 0.70700002
-0.38851336 0.10032667 0.70700002
-0.38716668 0.10032667 0.70700002
-0.37694192 0.099759057 0.70300001
-0.37774003 0.10032667 0.70700002
-0.37692574 0.10046858 0.708
-0.3771686 0.10089429 0.71100003
-0.37581432 0.10089429 0.71100003
-0.37393335 0.10075239 0.71000004
-0.37310573 0.10089429 0.71100003
-0.37279716 0.1011781 0.71300006
-0.36592859 0.10004286 0.70500004
-0.36458573 0.10004286 0.70500004
-0.34331146 0.10089429 0.71100003
-0.34195715 0.10089429 0.71100003
-0.34060287 0.10089429 0.71100003
-0.3392486 0.10089429 0.71100003
-0.33789432 0.10089429 0.71100003
-0.33654001 0.10089429 0.71100003
-0.39659336 0.10167334 0.70700002
-0.38986003 0.10167334 0.70700002
-0.38851336 0.10167334 0.70700002
-0.37694192 0.10109811 0.70300001
-0.37613717 0.10124191 0.70400006
-0.3753286 0.10138572 0.70500004
-0.37345526 0.10124191 0.70400006
-0.37370002 0.10167334 0.70700002
-0.37288001 0.10181715 0.708
-0.37258098 0.10210477 0.71000004
-0.37122861 0.10210477 0.71000004
-0.36987621 0.10210477 0.71000004
-0.34195715 0.10224858 0.71100003
-0.34060287 0.10224858 0.71100003
-0.33877146 0.10210477 0.71000004
-0.33741906 0.10210477 0.71000004
-0.38986003 0.10302 0.70700002
-0.37694192 0.10243715 0.70300001
-0.37560287 0.10243715 0.70300001
-0.37426382 0.10243715 0.70300001
-0.37292477 0.10243715 0.70300001
-0.3721143 0.10258286 0.70400006
-0.37130001 0.10272858 0.70500004
-0.36995718 0.10272858 0.70500004
-0.3414762 0.10345715 0.71000004
-0.34012383 0.10345715 0.71000004
-0.33781716 0.10316572 0.708
-0.33646861 0.10316572 0.708
-0.33606669 0.10345715 0.71000004
-0.37533337 0.10333334 0.70000005
-0.37239715 0.10289048 0.69700003
-0.37160194 0.1030381 0.69800001
-0.3702724 0.1030381 0.69800001
-0.36894289 0.1030381 0.69800001
-0.36761335 0.1030381 0.69800001
-0.36628383 0.1030381 0.69800001
-0.3602486 0.10170953 0.68900001
-0.34003335 0.10436668 0.70700002
-0.33868667 0.10436668 0.70700002
-0.33638573 0.10407144 0.70500004
-0.33599335 0.10436668 0.70700002
-0.37132859 0.10391905 0.69500005
-0.37000477 0.10391905 0.69500005
-0.3681505 0.10376953 0.69400001
-0.36682859 0.10376953 0.69400001
-0.36156097 0.10302191 0.68900001
-0.3602486 0.10302191 0.68900001
-0.35997811 0.10332096 0.69100004
-0.35762385 0.10302191 0.68900001
-0.35889718 0.10376953 0.69400001
-0.35757527 0.10376953 0.69400001
-0.35625336 0.10376953 0.69400001
-0.35339716 0.10332096 0.69100004
-0.33543146 0.10511524 0.70300001
-0.33409241 0.10511524 0.70300001
-0.36947241 0.10509144 0.69400001
-0.3681505 0.10509144 0.69400001
-0.36630002 0.10494 0.69300002
-0.36208573 0.10448572 0.69000006
-0.36077145 0.10448572 0.69000006
-0.35945717 0.10448572 0.69000006
-0.35814288 0.10448572 0.69000006
-0.35734573 0.10463715 0.69100004
-0.35602954 0.10463715 0.69100004
-0.35471335 0.10463715 0.69100004
-0.35339716 0.10463715 0.69100004
-0.3367705 0.10645429 0.70300001
-0.33447716 0.10615144 0.70100003
-0.33314192 0.10615144 0.70100003
-0.33180669 0.10615144 0.70100003
-0.33047146 0.10615144 0.70100003
-0.36630002 0.10626001 0.69300002
-0.36208573 0.10580001 0.69000006
-0.36077145 0.10580001 0.69000006
-0.35945717 0.10580001 0.69000006
-0.35814288 0.10580001 0.69000006
-0.35734573 0.10595334 0.69100004
-0.35602954 0.10595334 0.69100004
-0.35471335 0.10595334 0.69100004
-0.35339716 0.10595334 0.69100004
-0.35208097 0.10595334 0.69100004
-0.33400002 0.10733334 0.70000005
-0.33171621 0.10702667 0.69800001
-0.3303867 0.10702667 0.69800001
-0.32905716 0.10702667 0.69800001
-0.32772765 0.10702667 0.69800001
-0.36261049 0.10726953 0.69100004
-0.36077145 0.10711429 0.69000006
-0.35997811 0.10726953 0.69100004
-0.35814288 0.10711429 0.69000006
-0.35734573 0.10726953 0.69100004
-0.35602954 0.10726953 0.69100004
-0.35471335 0.10726953 0.69100004
-0.35339716 0.10726953 0.69100004
-0.33124098 0.10820096 0.69700003
-0.32991335 0.10820096 0.69700003
-0.32858574 0.10820096 0.69700003
-0.32725811 0.10820096 0.69700003
-0.36077145 0.10842858 0.69000006
-0.35945717 0.10842858 0.69000006
-0.35814288 0.10842858 0.69000006
-0.35734573 0.10858572 0.69100004
-0.35706002 0.10890001 0.69300002
-0.35574001 0.10890001 0.69300002
-0.35339716 0.10858572 0.69100004
-0.33161432 0.10921429 0.69500005
-0.3302905 0.10921429 0.69500005
-0.32991335 0.10952858 0.69700003
-0.32858574 0.10952858 0.69700003
-0.32725811 0.10952858 0.69700003
-0.3263981 0.10968572 0.69800001
-0.32506859 0.10968572 0.69800001
-0.35762385 0.10958382 0.68900001
-0.35734573 0.10990191 0.69100004
-0.35757527 0.11037906 0.69400001
-0.35574001 0.11022001 0.69300002
-0.35339716 0.10990191 0.69100004
-0.33102193 0.10990191 0.69100004
-0.33066002 0.11022001 0.69300002
-0.32981527 0.11037906 0.69400001
-0.32896668 0.1105381 0.69500005
-0.32858574 0.1108562 0.69700003
-0.32725811 0.1108562 0.69700003
-0.32593051 0.1108562 0.69700003
-0.32460287 0.1108562 0.69700003
-0.32327527 0.1108562 0.69700003
-0.31975049 0.11101525 0.69800001
-0.35658574 0.11057429 0.68700004
-0.3568286 0.11105715 0.69000006
-0.35471335 0.1112181 0.69100004
-0.35339716 0.1112181 0.69100004
-0.35208097 0.1112181 0.69100004
-0.35025716 0.11105715 0.69000006
-0.34894288 0.11105715 0.69000006
-0.34762859 0.11105715 0.69000006
-0.34631431 0.11105715 0.69000006
-0.34500003 0.11105715 0.69000006
-0.34237146 0.11105715 0.69000006
-0.34155145 0.1112181 0.69100004
-0.33317146 0.11105715 0.69000006
-0.33185717 0.11105715 0.69000006
-0.33054289 0.11105715 0.69000006
-0.32970574 0.1112181 0.69100004
-0.32981527 0.11170096 0.69400001
-0.32896668 0.11186191 0.69500005
-0.32858574 0.11218382 0.69700003
-0.32725811 0.11218382 0.69700003
-0.32593051 0.11218382 0.69700003
-0.32460287 0.11218382 0.69700003
-0.32327527 0.11218382 0.69700003
-0.32194763 0.11218382 0.69700003
-0.32062003 0.11218382 0.69700003
-0.3192924 0.11218382 0.69700003
-0.31842098 0.11234477 0.69800001
-0.35208097 0.11253429 0.69100004
-0.35025716 0.11237144 0.69000006
-0.34894288 0.11237144 0.69000006
-0.34712479 0.11220858 0.68900001
-0.34581241 0.11220858 0.68900001
-0.34450004 0.11220858 0.68900001
-0.34318763 0.11220858 0.68900001
-0.34187526 0.11220858 0.68900001
-0.34155145 0.11253429 0.69100004
-0.3326886 0.11220858 0.68900001
-0.3304143 0.11188287 0.68700004
-0.33006382 0.11220858 0.68900001
-0.32970574 0.11253429 0.69100004
-0.32934001 0.11286001 0.69300002
-0.32802004 0.11286001 0.69300002
-0.32858574 0.11351144 0.69700003
-0.32725811 0.11351144 0.69700003
-0.32593051 0.11351144 0.69700003
-0.32367146 0.11318572 0.69500005
-0.32234764 0.11318572 0.69500005
-0.32102382 0.11318572 0.69500005
-0.31970003 0.11318572 0.69500005
-0.31837621 0.11318572 0.69500005
-0.34894288 0.11368572 0.69000006
-0.34712479 0.11352096 0.68900001
-0.34581241 0.11352096 0.68900001
-0.34450004 0.11352096 0.68900001
-0.34318763 0.11352096 0.68900001
-0.34237146 0.11368572 0.69000006
-0.34155145 0.11385048 0.69100004
-0.34023526 0.11385048 0.69100004
-0.33254668 0.11302667 0.68600005
-0.33124003 0.11302667 0.68600005
-0.32993335 0.11302667 0.68600005
-0.32862669 0.11302667 0.68600005
-0.32875144 0.11352096 0.68900001
-0.3279143 0.11368572 0.69000006
-0.32660002 0.11368572 0.69000006
-0.32320574 0.11434477 0.69400001
-0.32188383 0.11434477 0.69400001
-0.34692001 0.11433334 0.68600005
-0.34561336 0.11433334 0.68600005
-0.34430668 0.11433334 0.68600005
-0.34300002 0.11433334 0.68600005
-0.34169334 0.11433334 0.68600005
-0.34038669 0.11433334 0.68600005
-0.33908004 0.11433334 0.68600005
-0.33777335 0.11433334 0.68600005
-0.33450478 0.11366668 0.68200004
-0.33320573 0.11366668 0.68200004
-0.33157715 0.11400001 0.68400002
-0.33027431 0.11400001 0.68400002
-0.32897145 0.11400001 0.68400002
-0.32766861 0.11400001 0.68400002
-0.32636574 0.11400001 0.68400002
-0.32458764 0.11383334 0.68300003
-0.32328668 0.11383334 0.68300003
-0.34460574 0.11530287 0.68400002
-0.34330288 0.11530287 0.68400002
-0.34300002 0.11564001 0.68600005
-0.34069717 0.11530287 0.68400002
-0.3393943 0.11530287 0.68400002
-0.33413717 0.11395429 0.67600006
-0.33190668 0.11496572 0.68200004
-0.33060765 0.11496572 0.68200004
-0.32979146 0.11513429 0.68300003
-0.3284905 0.11513429 0.68300003
-0.32718953 0.11513429 0.68300003
-0.3258886 0.11513429 0.68300003
-0.32411242 0.11496572 0.68200004
-0.32186669 0.11462858 0.68000001
-0.32057145 0.11462858 0.68000001
-0.34388575 0.11592381 0.68000001
-0.34259051 0.11592381 0.68000001
-0.34129527 0.11592381 0.68000001
-0.33800003 0.11524191 0.67600006
-0.33671239 0.11524191 0.67600006
-0.33542478 0.11524191 0.67600006
-0.33413717 0.11524191 0.67600006
-0.33235717 0.11507144 0.67500001
-0.33156192 0.11524191 0.67600006
-0.33320573 0.11626477 0.68200004
-0.33190668 0.11626477 0.68200004
-0.33060765 0.11626477 0.68200004
-0.32979146 0.11643524 0.68300003
-0.32800955 0.11626477 0.68200004
-0.32671049 0.11626477 0.68200004
-0.32445717 0.11592381 0.68000001
-0.32316193 0.11592381 0.68000001
-0.32186669 0.11592381 0.68000001
-0.34777147 0.11721905 0.68000001
-0.34647623 0.11721905 0.68000001
-0.34518099 0.11721905 0.68000001
-0.34338003 0.11704668 0.67900002
-0.34158289 0.11687429 0.67800003
-0.33928764 0.11652953 0.67600006
-0.33800003 0.11652953 0.67600006
-0.33671239 0.11652953 0.67600006
-0.3349286 0.11635715 0.67500001
-0.33364287 0.11635715 0.67500001
-0.33235717 0.11635715 0.67500001
-0.33156192 0.11652953 0.67600006
-0.33027431 0.11652953 0.67600006
-0.33044669 0.11704668 0.67900002
-0.32963812 0.11721905 0.68000001
-0.3293086 0.11756381 0.68200004
-0.32704765 0.11721905 0.68000001
-0.32575241 0.11721905 0.68000001
-0.32445717 0.11721905 0.68000001
-0.32316193 0.11721905 0.68000001
-0.32139334 0.11704668 0.67900002
-0.32057145 0.11721905 0.68000001
-0.34518099 0.11851429 0.68000001
-0.34287432 0.11816572 0.67800003
-0.34057525 0.11781715 0.67600006
-0.33878574 0.11764286 0.67500001
-0.33750004 0.11764286 0.67500001
-0.3362143 0.11764286 0.67500001
-0.3349286 0.11764286 0.67500001
-0.33364287 0.11764286 0.67500001
-0.33235717 0.11764286 0.67500001
-0.33156192 0.11781715 0.67600006
-0.33027431 0.11781715 0.67600006
-0.33044669 0.11834001 0.67900002
-0.32915336 0.11834001 0.67900002
-0.32834288 0.11851429 0.68000001
-0.32704765 0.11851429 0.68000001
-0.32575241 0.11851429 0.68000001
-0.32398003 0.11834001 0.67900002
-0.3226867 0.11834001 0.67900002
-0.32139334 0.11834001 0.67900002
-0.32010001 0.11834001 0.67900002
-0.31880668 0.11834001 0.67900002
-0.34135717 0.11892858 0.67500001
-0.34007144 0.11892858 0.67500001
-0.33878574 0.11892858 0.67500001
-0.33700001 0.11875239 0.67400002
-0.33443239 0.11875239 0.67400002
-0.3331486 0.11875239 0.67400002
-0.33235717 0.11892858 0.67500001
-0.33107144 0.11892858 0.67500001
-0.32978573 0.11892858 0.67500001
-0.32996002 0.11945715 0.67800003
-0.32915336 0.11963334 0.67900002
-0.32834288 0.11980953 0.68000001
-0.32704765 0.11980953 0.68000001
-0.32527336 0.11963334 0.67900002
-0.32398003 0.11963334 0.67900002
-0.3226867 0.11963334 0.67900002
-0.32139334 0.11963334 0.67900002
-0.32010001 0.11963334 0.67900002
-0.31880668 0.11963334 0.67900002
-0.31751335 0.11963334 0.67900002
-0.31622002 0.11963334 0.67900002
-0.34186289 0.12039239 0.67600006
-0.33956763 0.1200362 0.67400002
-0.33216003 0.11968001 0.67200005
-0.33186477 0.1200362 0.67400002
-0.33058098 0.1200362 0.67400002
-0.32929716 0.1200362 0.67400002
-0.32850003 0.12021429 0.67500001
-0.32769907 0.12039239 0.67600006
-0.32786003 0.12092668 0.67900002
-0.32704765 0.12110477 0.68000001
-0.32527336 0.12092668 0.67900002
-0.32350287 0.12074858 0.67800003
-0.3226867 0.12092668 0.67900002
-0.32139334 0.12092668 0.67900002
-0.32010001 0.12092668 0.67900002
-0.31880668 0.12092668 0.67900002
-0.31751335 0.12092668 0.67900002
-0.31622002 0.12092668 0.67900002
-0.3153905 0.12110477 0.68000001
-0.32861906 0.12060001 0.67000002
-0.32734287 0.12060001 0.67000002
-0.3260667 0.12060001 0.67000002
-0.32786003 0.12222001 0.67900002
-0.3265667 0.12222001 0.67900002
-0.32479429 0.12204001 0.67800003
-0.3225486 0.12168001 0.67600006
-0.32221144 0.12204001 0.67800003
-0.32092002 0.12204001 0.67800003
-0.3196286 0.12204001 0.67800003
-0.31833717 0.12204001 0.67800003
-0.31751335 0.12222001 0.67900002
-0.31622002 0.12222001 0.67900002
-0.3153905 0.12240001 0.68000001
-0.31078574 0.12366001 0.68700004
-0.30947715 0.12366001 0.68700004
-0.32861906 0.1218762 0.67000002
-0.32734287 0.1218762 0.67000002
-0.3260667 0.1218762 0.67000002
-0.32479051 0.1218762 0.67000002
-0.32608575 0.12333144 0.67800003
-0.32383621 0.12296763 0.67600006
-0.3225486 0.12296763 0.67600006
-0.32126096 0.12296763 0.67600006
-0.31997335 0.12296763 0.67600006
-0.31868574 0.12296763 0.67600006
-0.31739813 0.12296763 0.67600006
-0.31704575 0.12333144 0.67800003
-0.31622002 0.12351334 0.67900002
-0.31492668 0.12351334 0.67900002
-0.31363335 0.12351334 0.67900002
-0.31280002 0.12369525 0.68000001
-0.31157812 0.12424096 0.68300003
-0.31073144 0.12442286 0.68400002
-0.32989526 0.12315239 0.67000002
-0.32861906 0.12315239 0.67000002
-0.32734287 0.12315239 0.67000002
-0.32383621 0.12425525 0.67600006
-0.32207146 0.12407143 0.67500001
-0.32126096 0.12425525 0.67600006
-0.31950003 0.12407143 0.67500001
-0.31868574 0.12425525 0.67600006
-0.31739813 0.12425525 0.67600006
-0.31704575 0.12462287 0.67800003
-0.31575429 0.12462287 0.67800003
-0.31492668 0.12480667 0.67900002
-0.31363335 0.12480667 0.67900002
-0.31280002 0.12499049 0.68000001
-0.31242096 0.1253581 0.68200004
-0.31157812 0.12554191 0.68300003
-0.31027716 0.12554191 0.68300003
-0.32989526 0.12442858 0.67000002
-0.32812861 0.12424286 0.66900003
-0.32685432 0.12424286 0.66900003
-0.32207146 0.12535715 0.67500001
-0.32078573 0.12535715 0.67500001
-0.31950003 0.12535715 0.67500001
-0.31868574 0.12554286 0.67600006
-0.31739813 0.12554286 0.67600006
-0.31611049 0.12554286 0.67600006
-0.31575429 0.12591429 0.67800003
-0.31492668 0.1261 0.67900002
-0.31363335 0.1261 0.67900002
-0.31280002 0.12628572 0.68000001
-0.31150478 0.12628572 0.68000001
-0.32644859 0.12439144 0.66300005
-0.32616669 0.12476668 0.66500002
-0.32538858 0.12495429 0.66600001
-0.31704575 0.12720573 0.67800003
-0.31482288 0.12683049 0.67600006
-0.31446287 0.12720573 0.67800003
-0.31363335 0.12739334 0.67900002
-0.31234002 0.12739334 0.67900002
-0.34613144 0.12546477 0.66200006
-0.32874289 0.12508573 0.66000003
-0.32748574 0.12508573 0.66000003
-0.32721716 0.12546477 0.66200006
-0.32595623 0.12546477 0.66200006
-0.32469526 0.12546477 0.66200006
-0.32392287 0.1256543 0.66300005
-0.31446287 0.12849715 0.67800003
-0.34938574 0.1265343 0.66100001
-0.34812668 0.1265343 0.66100001
-0.34686765 0.1265343 0.66100001
-0.34560859 0.1265343 0.66100001
-0.34434953 0.1265343 0.66100001
-0.33050004 0.1265343 0.66100001
-0.32874289 0.12634286 0.66000003
-0.32748574 0.12634286 0.66000003
-0.32672289 0.1265343 0.66100001
-0.32497144 0.12634286 0.66000003
-0.32420477 0.1265343 0.66100001
-0.34760001 0.12760001 0.66000003
-0.34686765 0.12779334 0.66100001
-0.34560859 0.12779334 0.66100001
-0.34434953 0.12779334 0.66100001
-0.33025336 0.12721334 0.65800005
-0.33000001 0.12760001 0.66000003
-0.32874289 0.12760001 0.66000003
-0.32798192 0.12779334 0.66100001
-0.32672289 0.12779334 0.66100001
-0.32546383 0.12779334 0.66100001
-0.32420477 0.12779334 0.66100001
-0.34760001 0.12885715 0.66000003
-0.34634289 0.12885715 0.66000003
-0.34560859 0.12905239 0.66100001
-0.34434953 0.12905239 0.66100001
-0.33025336 0.12846668 0.65800005
-0.32900003 0.12846668 0.65800005
-0.32874289 0.12885715 0.66000003
-0.32748574 0.12885715 0.66000003
-0.32672289 0.12905239 0.66100001
-0.32546383 0.12905239 0.66100001
-0.32371432 0.12885715 0.66000003
-0.34760001 0.13011429 0.66000003
-0.34529334 0.12972 0.65800005
-0.34404004 0.12972 0.65800005
-0.34382859 0.13011429 0.66000003
-0.3317486 0.12932572 0.65600002
-0.33049908 0.12932572 0.65600002
-0.32874763 0.12912858 0.65500003
-0.32800001 0.12932572 0.65600002
-0.32774669 0.12972 0.65800005
-0.32748574 0.13011429 0.66000003
-0.32672289 0.13031144 0.66100001
-0.32497144 0.13011429 0.66000003
-0.32371432 0.13011429 0.66000003
-0.32245716 0.13011429 0.66000003
-0.34654668 0.13097334 0.65800005
-0.34424382 0.13057524 0.65600002
-0.34351715 0.13077429 0.65700001
-0.34174478 0.13057524 0.65600002
-0.32774383 0.12997811 0.65300006
-0.32800001 0.13057524 0.65600002
-0.3272486 0.13077429 0.65700001
-0.32748574 0.13137144 0.66000003
-0.32622859 0.13137144 0.66000003
-0.32497144 0.13137144 0.66000003
-0.32273334 0.13097334 0.65800005
-0.34496668 0.13162382 0.65500003
-0.34371907 0.13162382 0.65500003
-0.3429943 0.13182478 0.65600002
-0.34122384 0.13162382 0.65500003
-0.33997622 0.13162382 0.65500003
-0.32774383 0.13122192 0.65300006
-0.32650003 0.13122192 0.65300006
-0.3252562 0.13122192 0.65300006
-0.32649335 0.13222668 0.65800005
-0.32524002 0.13222668 0.65800005
-0.32349432 0.13202572 0.65700001
-0.32224289 0.13202572 0.65700001
-0.34391335 0.13246572 0.65300006
-0.34371907 0.13287143 0.65500003
-0.34142575 0.13246572 0.65300006
-0.34018192 0.13246572 0.65300006
-0.33893812 0.13246572 0.65300006
-0.33769432 0.13246572 0.65300006
-0.33645049 0.13246572 0.65300006
-0.32600003 0.13226287 0.65200001
-0.3240124 0.13246572 0.65300006
-0.3222743 0.13226287 0.65200001
-0.32250956 0.13287143 0.65500003
-0.32126191 0.13287143 0.65500003
-0.34515718 0.13370954 0.65300006
-0.34391335 0.13370954 0.65300006
-0.34266955 0.13370954 0.65300006
-0.34142575 0.13370954 0.65300006
-0.33966097 0.13350476 0.65200001
-0.33893812 0.13370954 0.65300006
-0.33769432 0.13370954 0.65300006
-0.33593526 0.13350476 0.65200001
-0.33469334 0.13350476 0.65200001
-0.3240124 0.13370954 0.65300006
-0.3222743 0.13350476 0.65200001
-0.3210324 0.13350476 0.65200001
-0.31930003 0.13330001 0.65100002
-0.31854859 0.13350476 0.65200001
-0.34480953 0.13433334 0.65000004
-0.34357145 0.13433334 0.65000004
-0.34233335 0.13433334 0.65000004
-0.34162003 0.13454001 0.65100002
-0.34090286 0.13474667 0.65200001
-0.33966097 0.13474667 0.65200001
-0.33841908 0.13474667 0.65200001
-0.33717716 0.13474667 0.65200001
-0.33593526 0.13474667 0.65200001
-0.33469334 0.13474667 0.65200001
-0.32128572 0.13433334 0.65000004
-0.32004765 0.13433334 0.65000004
-0.31880954 0.13433334 0.65000004
-0.31806001 0.13454001 0.65100002
-0.31682003 0.13454001 0.65100002
-0.34480953 0.13557144 0.65000004
-0.34251431 0.13515429 0.648
-0.34233335 0.13557144 0.65000004
-0.34162003 0.13578001 0.65100002
-0.34090286 0.13598858 0.65200001
-0.33966097 0.13598858 0.65200001
-0.33841908 0.13598858 0.65200001
-0.33717716 0.13598858 0.65200001
-0.33593526 0.13598858 0.65200001
-0.32004765 0.13557144 0.65000004
-0.31880954 0.13557144 0.65000004
-0.31757146 0.13557144 0.65000004
-0.31682003 0.13578001 0.65100002
-0.34568289 0.13617811 0.64700001
-0.34391811 0.13596763 0.64600003
-0.34268764 0.13596763 0.64600003
-0.34145716 0.13596763 0.64600003
-0.34022668 0.13596763 0.64600003
-0.33847144 0.13575715 0.64500004
-0.33985716 0.13680953 0.65000004
-0.33914003 0.13702001 0.65100002
-0.33841908 0.13723049 0.65200001
-0.33614287 0.13680953 0.65000004
-0.33490479 0.13680953 0.65000004
-0.32956001 0.13512573 0.64200002
-0.3243686 0.13449429 0.63900006
-0.32029715 0.13638858 0.648
-0.31906289 0.13638858 0.648
-0.3178286 0.13638858 0.648
-0.31757146 0.13680953 0.65000004
-0.31633335 0.13680953 0.65000004
-0.31558001 0.13702001 0.65100002
-0.34215716 0.13698572 0.64500004
-0.34040001 0.13677335 0.64400005
-0.33917335 0.13677335 0.64400005
-0.33794668 0.13677335 0.64400005
-0.33515146 0.1361362 0.64100003
-0.33393049 0.1361362 0.64100003
-0.33270955 0.1361362 0.64100003
-0.33097145 0.13592382 0.64000005
-0.33026764 0.1361362 0.64100003
-0.32956001 0.13634858 0.64200002
-0.32833716 0.13634858 0.64200002
-0.32660478 0.1361362 0.64100003
-0.32487622 0.13592382 0.64000005
-0.31857049 0.13741049 0.64700001
-0.31733811 0.13741049 0.64700001
-0.3165943 0.13762286 0.648
-0.31536001 0.13762286 0.648
-0.31509525 0.13804764 0.65000004
-0.3416267 0.13800001 0.64400005
-0.33934289 0.13757144 0.64200002
-0.33812001 0.13757144 0.64200002
-0.33637241 0.13735715 0.64100003
-0.33515146 0.13735715 0.64100003
-0.33393049 0.13735715 0.64100003
-0.33219048 0.13714287 0.64000005
-0.33148858 0.13735715 0.64100003
-0.32975242 0.13714287 0.64000005
-0.3290467 0.13735715 0.64100003
-0.32782573 0.13735715 0.64100003
-0.32660478 0.13735715 0.64100003
-0.32487622 0.13714287 0.64000005
-0.32365716 0.13714287 0.64000005
-0.32193431 0.13692857 0.63900006
-0.31857049 0.13864286 0.64700001
-0.31684765 0.13842858 0.64600003
-0.31610572 0.13864286 0.64700001
-0.31536001 0.13885716 0.648
-0.30925715 0.14057145 0.65600002
-0.33950478 0.13836192 0.64000005
-0.33881432 0.1385781 0.64100003
-0.33759335 0.1385781 0.64100003
-0.33637241 0.1385781 0.64100003
-0.33515146 0.1385781 0.64100003
-0.33340955 0.13836192 0.64000005
-0.33219048 0.13836192 0.64000005
-0.33097145 0.13836192 0.64000005
-0.32975242 0.13836192 0.64000005
-0.3290467 0.1385781 0.64100003
-0.32782573 0.1385781 0.64100003
-0.32660478 0.1385781 0.64100003
-0.32487622 0.13836192 0.64000005
-0.32365716 0.13836192 0.64000005
-0.31635717 0.13944286 0.64500004
-0.31512859 0.13944286 0.64500004
-0.33859432 0.13870858 0.63600004
-0.33950478 0.13958097 0.64000005
-0.33828574 0.13958097 0.64000005
-0.33706668 0.13958097 0.64000005
-0.33637241 0.13979906 0.64100003
-0.33515146 0.13979906 0.64100003
-0.33340955 0.13958097 0.64000005
-0.33219048 0.13958097 0.64000005
-0.33097145 0.13958097 0.64000005
-0.32975242 0.13958097 0.64000005
-0.32853335 0.13958097 0.64000005
-0.32782573 0.13979906 0.64100003
-0.32609525 0.13958097 0.64000005
-0.32487622 0.13958097 0.64000005
-0.34048098 0.13970001 0.63500005
-0.33980572 0.13992001 0.63600004
-0.33859432 0.13992001 0.63600004
-0.33844385 0.14036001 0.63800001
-0.3372286 0.14036001 0.63800001
-0.33601335 0.14036001 0.63800001
-0.33532289 0.14058001 0.63900006
-0.33410573 0.14058001 0.63900006
-0.3328886 0.14058001 0.63900006
-0.33115241 0.14036001 0.63800001
-0.33045432 0.14058001 0.63900006
-0.32923716 0.14058001 0.63900006
-0.32782573 0.14102001 0.64100003
-0.3411524 0.14068763 0.634
-0.34048098 0.14090954 0.63500005
-0.33927146 0.14090954 0.63500005
-0.33806193 0.14090954 0.63500005
-0.33738288 0.14113143 0.63600004
-0.33617145 0.14113143 0.63600004
-0.33496001 0.14113143 0.63600004
-0.3321743 0.14046572 0.63300002
-0.34236002 0.14189525 0.634
-0.3411524 0.14189525 0.634
-0.33994478 0.14189525 0.634
-0.33927146 0.14211905 0.63500005
-0.33806193 0.14211905 0.63500005
-0.3368524 0.14211905 0.63500005
-0.33564287 0.14211905 0.63500005
-0.33338001 0.14167143 0.63300002
-0.3321743 0.14167143 0.63300002
-0.34236002 0.14310287 0.634
-0.3411524 0.14310287 0.634
-0.33994478 0.14310287 0.634
-0.33873716 0.14310287 0.634
-0.33752954 0.14310287 0.634
-0.33632192 0.14310287 0.634
-0.3351143 0.14310287 0.634
-0.33285335 0.14265144 0.63200003
-0.33112478 0.14242573 0.63100004
-0.32992288 0.14242573 0.63100004
-0.30775717 0.14558573 0.64500004
-0.34236002 0.14431049 0.634
-0.3411524 0.14431049 0.634
-0.33940861 0.14408286 0.63300002
-0.33873716 0.14431049 0.634
-0.33752954 0.14431049 0.634
-0.33579144 0.14408286 0.63300002
-0.33405715 0.14385524 0.63200003
-0.33285335 0.14385524 0.63200003
-0.33112478 0.14362763 0.63100004
-0.32992288 0.14362763 0.63100004
-0.32872099 0.14362763 0.63100004
-0.3411524 0.14551811 0.634
-0.33940861 0.14528859 0.63300002
-0.33820289 0.14528859 0.63300002
-0.33699715 0.14528859 0.63300002
-0.33526099 0.14505906 0.63200003
-0.33247146 0.14437048 0.62900001
-0.33127335 0.14437048 0.62900001
-0.33007526 0.14437048 0.62900001
-0.3283543 0.14414096 0.62800002
-0.32767907 0.14437048 0.62900001
-0.32596192 0.14414096 0.62800002
-0.31588858 0.14391144 0.62700003
-0.34061432 0.1464943 0.63300002
-0.3388724 0.14626287 0.63200003
-0.33820289 0.1464943 0.63300002
-0.33699715 0.1464943 0.63300002
-0.33526099 0.14626287 0.63200003
-0.33352861 0.14603144 0.63100004
-0.33127335 0.14556858 0.62900001
-0.33007526 0.14556858 0.62900001
-0.32887715 0.14556858 0.62900001
-0.32767907 0.14556858 0.62900001
-0.32544288 0.14510572 0.62700003
-0.32476574 0.14533715 0.62800002
-0.31538478 0.14487429 0.62600005
-0.3383362 0.14723334 0.63100004
-0.3376686 0.14746667 0.63200003
-0.33646479 0.14746667 0.63200003
-0.33473051 0.14723334 0.63100004
-0.33247146 0.14676668 0.62900001
-0.33074668 0.14653334 0.62800002
-0.33007526 0.14676668 0.62900001
-0.3283543 0.14653334 0.62800002
-0.32715812 0.14653334 0.62800002
-0.32544288 0.1463 0.62700003
-0.32476574 0.14653334 0.62800002
-0.31538478 0.14606668 0.62600005
-0.31419241 0.14606668 0.62600005
-0.3359324 0.14843525 0.63100004
-0.33022001 0.1474943 0.62700003
-0.32902575 0.1474943 0.62700003
-0.3283543 0.14772953 0.62800002
-0.32663718 0.1474943 0.62700003
-0.32492384 0.14725906 0.62600005
-0.32424858 0.1474943 0.62700003
-0.32305431 0.1474943 0.62700003
-0.32083336 0.14702381 0.625
-0.31657717 0.14725906 0.62600005
-0.31538478 0.14725906 0.62600005
-0.31419241 0.14725906 0.62600005
-0.31300002 0.14725906 0.62600005
-0.31180763 0.14725906 0.62600005
-0.31061527 0.14725906 0.62600005
-0.30942288 0.14725906 0.62600005
-0.33022001 0.14868858 0.62700003
-0.32902575 0.14868858 0.62700003
-0.3283543 0.14892572 0.62800002
-0.32663718 0.14868858 0.62700003
-0.32492384 0.14845143 0.62600005
-0.32373145 0.14845143 0.62600005
-0.32253906 0.14845143 0.62600005
-0.3213467 0.14845143 0.62600005
-0.32015431 0.14845143 0.62600005
-0.31896192 0.14845143 0.62600005
-0.31726193 0.1482143 0.625
-0.31607145 0.1482143 0.625
-0.31488097 0.1482143 0.625
-0.31369048 0.1482143 0.625
-0.31300002 0.14845143 0.62600005
-0.31130955 0.1482143 0.625
-0.31011906 0.1482143 0.625
-0.30942288 0.14845143 0.62600005
-0.30661431 0.15058573 0.63500005
-0.30588573 0.15082286 0.63600004
-0.3046743 0.15082286 0.63600004
-0.3261162 0.14964382 0.62600005
-0.32284763 0.14868763 0.62200004
-0.32166287 0.14868763 0.62200004
-0.32202384 0.14940478 0.625
-0.31980669 0.14892668 0.62300003
-0.32015431 0.14964382 0.62600005
-0.31896192 0.14964382 0.62600005
-0.31624669 0.14892668 0.62300003
-0.31607145 0.14940478 0.625
-0.31488097 0.14940478 0.625
-0.31369048 0.14940478 0.625
-0.31300002 0.14964382 0.62600005
-0.31180763 0.14964382 0.62600005
-0.31061527 0.14964382 0.62600005
-0.30942288 0.14964382 0.62600005
-0.30613145 0.15155619 0.634
-0.30540478 0.15179525 0.63500005
-0.30419526 0.15179525 0.63500005
-0.30298573 0.15179525 0.63500005
-0.32299051 0.14939049 0.62
-0.32180953 0.14939049 0.62
-0.32062858 0.14939049 0.62
-0.32099336 0.15011334 0.62300003
-0.31929335 0.14987239 0.62200004
-0.31862003 0.15011334 0.62300003
-0.31743336 0.15011334 0.62300003
-0.31624669 0.15011334 0.62300003
-0.31556574 0.1503543 0.62400001
-0.31437716 0.1503543 0.62400001
-0.31369048 0.15059525 0.625
-0.31250003 0.15059525 0.625
-0.31130955 0.15059525 0.625
-0.31011906 0.15059525 0.625
-0.30892858 0.15059525 0.625
-0.30685431 0.15252286 0.63300002
-0.32180953 0.15057144 0.62
-0.32166287 0.15105715 0.62200004
-0.32099336 0.15130001 0.62300003
-0.31929335 0.15105715 0.62200004
-0.31862003 0.15130001 0.62300003
-0.31743336 0.15130001 0.62300003
-0.31624669 0.15130001 0.62300003
-0.31556574 0.15154287 0.62400001
-0.31437716 0.15154287 0.62400001
-0.31369048 0.15178573 0.625
-0.30757335 0.15348573 0.63200003
-0.30636954 0.15348573 0.63200003
-0.32194859 0.15126286 0.61800003
-0.32180953 0.1517524 0.62
-0.32062858 0.1517524 0.62
-0.32099336 0.15248668 0.62300003
-0.31929335 0.15224192 0.62200004
-0.31862003 0.15248668 0.62300003
-0.31692383 0.15224192 0.62200004
-0.31624669 0.15248668 0.62300003
-0.31506002 0.15248668 0.62300003
-0.32260287 0.15219334 0.61700004
-0.32194859 0.15244001 0.61800003
-0.32129049 0.15268667 0.61900002
-0.32062858 0.15293334 0.62
-0.32047811 0.15342668 0.62200004
-0.31826669 0.15293334 0.62
-0.31708574 0.15293334 0.62
-0.3159048 0.15293334 0.62
-0.31472382 0.15293334 0.62
-0.3145543 0.15342668 0.62200004
-0.30850956 0.15515335 0.62900001
-0.30251905 0.15515335 0.62900001
-0.32062858 0.15411429 0.62
-0.31826669 0.15411429 0.62
-0.31708574 0.15411429 0.62
-0.31539527 0.15386572 0.61900002
-0.31657431 0.15504478 0.61900002
-0.31539527 0.15504478 0.61900002
-0.29582858 0.16001906 0.62
-0.2920467 0.16159526 0.61700004
-0.28969622 0.16159526 0.61700004
-0.3033067 0.16250668 0.61600006
-0.30115241 0.16314858 0.61400002
-0.28945717 0.16314858 0.61400002
-0.28828764 0.16314858 0.61400002
-0.28711811 0.16314858 0.61400002
-0.28548288 0.16288286 0.61300004
-0.28431526 0.16288286 0.61300004
-0.28360954 0.16314858 0.61400002
-0.28244001 0.16314858 0.61400002
-0.30416477 0.16405049 0.61300004
-0.30299717 0.16405049 0.61300004
-0.30182955 0.16405049 0.61300004
-0.3063162 0.16387048 0.60800004
-0.30550003 0.16467907 0.611
-0.32857144 0.16514286 0.60000002
-0.32742858 0.16514286 0.60000002
-0.31389335 0.16404192 0.59600002
-0.31214574 0.16431716 0.597
-0.33085716 0.16628572 0.60000002
-0.32916477 0.16600858 0.59900004
-0.32802382 0.16600858 0.59900004
-0.32688287 0.16600858 0.59900004
-0.3184343 0.16517715 0.59600002
-0.31729907 0.16517715 0.59600002
-0.31616384 0.16517715 0.59600002
-0.31502858 0.16517715 0.59600002
-0.31336668 0.1649 0.59500003
-0.31223336 0.1649 0.59500003
-0.31162289 0.16517715 0.59600002
-0.31048763 0.16517715 0.59600002
-0.3184343 0.1663124 0.59600002
-0.31729907 0.1663124 0.59600002
-0.31563336 0.16603334 0.59500003
-0.31450003 0.16603334 0.59500003
-0.31284001 0.1657543 0.59400004
-0.31223336 0.16603334 0.59500003
-0.31110001 0.16603334 0.59500003
-0.30996668 0.16603334 0.59500003
-0.30883336 0.16603334 0.59500003
-0.30666575 0.16547525 0.59300005
-0.30759716 0.16659144 0.597
-0.32692859 0.16772859 0.597
-0.32016668 0.16716668 0.59500003
-0.31849715 0.16688572 0.59400004
-0.31790003 0.16716668 0.59500003
-0.31676668 0.16716668 0.59500003
-0.31563336 0.16716668 0.59500003
-0.31397146 0.16688572 0.59400004
-0.31231335 0.16660477 0.59300005
-0.3117086 0.16688572 0.59400004
-0.31110001 0.16716668 0.59500003
-0.30944574 0.16688572 0.59400004
-0.30779526 0.16660477 0.59300005
-0.30666575 0.16660477 0.59300005
-0.30553621 0.16660477 0.59300005
-0.30440667 0.16660477 0.59300005
-0.32638097 0.16858287 0.59600002
-0.32519811 0.16914858 0.59800005
-0.32184002 0.16858287 0.59600002
-0.32016668 0.16830002 0.59500003
-0.31849715 0.16801715 0.59400004
-0.31736574 0.16801715 0.59400004
-0.31623432 0.16801715 0.59400004
-0.31457239 0.1677343 0.59300005
-0.31344289 0.1677343 0.59300005
-0.31178668 0.16745144 0.59200001
-0.31118384 0.1677343 0.59300005
-0.31057715 0.16801715 0.59400004
-0.30892479 0.1677343 0.59300005
-0.30779526 0.1677343 0.59300005
-0.30666575 0.1677343 0.59300005
-0.30553621 0.1677343 0.59300005
-0.30389336 0.16745144 0.59200001
-0.30276573 0.16745144 0.59200001
-0.32583335 0.16943334 0.59500003
-0.32360861 0.16886382 0.59300005
-0.32247907 0.16886382 0.59300005
-0.32134953 0.16886382 0.59300005
-0.32130003 0.16943334 0.59500003
-0.3196286 0.16914858 0.59400004
-0.31796098 0.16886382 0.59300005
-0.31736574 0.16914858 0.59400004
-0.31676668 0.16943334 0.59500003
-0.31563336 0.16943334 0.59500003
