# .PCD v0.7 - Point Cloud Data file format
VERSION 0.7
FIELDS x y z
SIZE 4 4 4
TYPE F F F
COUNT 1 1 1
WIDTH 1412
HEIGHT 1
VIEWPOINT 0 0 0 1 0 0 0
POINTS 1412
DATA ascii
-0.37147811 0.036697146 0.67600006
-0.37347621 0.037022859 0.68200004
-0.3732686 0.037131432 0.68400002
-0.37196574 0.037131432 0.68400002
-0.37228858 0.037294287 0.68700004
-0.37098002 0.037294287 0.68700004
-0.37128574 0.037457146 0.69000006
-0.37158003 0.037620004 0.69300002
-0.36919144 0.037511431 0.69100004
-0.37266669 0.038000003 0.70000005
-0.37133336 0.038000003 0.70000005
-0.37288478 0.03747905 0.66700006
-0.37161431 0.03747905 0.66700006
-0.3714543 0.037591431 0.66900003
-0.37184003 0.037760001 0.67200005
-0.37056002 0.037760001 0.67200005
-0.37037906 0.037872385 0.67400002
-0.36909527 0.037872385 0.67400002
-0.3732686 0.038434289 0.68400002
-0.37196574 0.038434289 0.68400002
-0.37228858 0.038602859 0.68700004
-0.37098002 0.038602859 0.68700004
-0.37128574 0.038771432 0.69000006
-0.36997145 0.038771432 0.69000006
-0.37288478 0.038749527 0.66700006
-0.37161431 0.038749527 0.66700006
-0.3714543 0.038865715 0.66900003
-0.37184003 0.039040003 0.67200005
-0.37056002 0.039040003 0.67200005
-0.37037906 0.039156195 0.67400002
-0.36964288 0.039214287 0.67500001
-0.37142193 0.03967905 0.68300003
-0.37174669 0.039853334 0.68600005
-0.37044004 0.039853334 0.68600005
-0.37128574 0.040085718 0.69000006
-0.36997145 0.040085718 0.69000006
-0.43607146 0.047928575 0.82500005
-0.27472669 0.048858099 0.84100002
-0.37359431 0.039960004 0.66600001
-0.37400287 0.040140003 0.66900003
-0.37272859 0.040140003 0.66900003
-0.37256479 0.040260002 0.671
-0.37184003 0.040320002 0.67200005
-0.37056002 0.040320002 0.67200005
-0.37037906 0.040440004 0.67400002
-0.36964288 0.040500004 0.67500001
-0.37087813 0.040920004 0.68200004
-0.36957908 0.040920004 0.68200004
-0.43814954 0.049380004 0.82300001
-0.43658194 0.049380004 0.82300001
-0.43607146 0.049500003 0.82500005
-0.43450004 0.049500003 0.82500005
-0.43187907 0.049380004 0.82300001
-0.43031147 0.049380004 0.82300001
-0.27886763 0.050340004 0.83900005
-0.27726954 0.050340004 0.83900005
-0.37556669 0.041166671 0.66500002
-0.37430003 0.041166671 0.66500002
-0.37359431 0.041228574 0.66600001
-0.37400287 0.041414287 0.66900003
-0.37272859 0.041414287 0.66900003
-0.37200955 0.041476194 0.67000002
-0.37184003 0.041600004 0.67200005
-0.37056002 0.041600004 0.67200005
-0.37037906 0.041723814 0.67400002
-0.36964288 0.041785717 0.67500001
-0.36979049 0.04209524 0.68000001
-0.43082955 0.050823811 0.82100004
-0.42926574 0.050823811 0.82100004
-0.30371144 0.051814288 0.83700001
-0.30211717 0.051814288 0.83700001
-0.30052286 0.051814288 0.83700001
-0.28298575 0.051814288 0.83700001
-0.27820286 0.051814288 0.83700001
-0.27660859 0.051814288 0.83700001
-0.37810004 0.042433336 0.66500002
-0.37683335 0.042433336 0.66500002
-0.37556669 0.042433336 0.66500002
-0.37430003 0.042433336 0.66500002
-0.37359431 0.042497147 0.66600001
-0.37400287 0.042688575 0.66900003
-0.37328574 0.042752385 0.67000002
-0.37256479 0.042816192 0.671
-0.37184003 0.042880002 0.67200005
-0.37166288 0.043007623 0.67400002
-0.37092859 0.04307143 0.67500001
-0.36964288 0.04307143 0.67500001
-0.36999431 0.043262862 0.67800003
-0.36979049 0.043390479 0.68000001
-0.30298573 0.053280957 0.83500004
-0.30139527 0.053280957 0.83500004
-0.29980478 0.053280957 0.83500004
-0.28230953 0.053280957 0.83500004
-0.37570003 0.043568574 0.66300005
-0.37443715 0.043568574 0.66300005
-0.37430003 0.043700002 0.66500002
-0.37303334 0.043700002 0.66500002
-0.37400287 0.043962859 0.66900003
-0.37328574 0.044028573 0.67000002
-0.37312001 0.044160005 0.67200005
-0.37184003 0.044160005 0.67200005
-0.37166288 0.044291433 0.67400002
-0.37092859 0.044357147 0.67500001
-0.36964288 0.044357147 0.67500001
-0.36890289 0.044422861 0.67600006
-0.37430003 0.044966668 0.66500002
-0.37359431 0.045034289 0.66600001
-0.37400287 0.045237146 0.66900003
-0.37328574 0.045304764 0.67000002
-0.37256479 0.045372386 0.671
-0.37184003 0.045440003 0.67200005
-0.37056002 0.045440003 0.67200005
-0.37037906 0.045575242 0.67400002
-0.36964288 0.04564286 0.67500001
-0.2433743 0.055920955 0.82700002
-0.24179906 0.055920955 0.82700002
-0.23864859 0.055920955 0.82700002
-0.37430003 0.046233337 0.66500002
-0.37191147 0.046094287 0.66300005
-0.37064859 0.046094287 0.66300005
-0.37272859 0.04651143 0.66900003
-0.37200955 0.046580955 0.67000002
-0.37184003 0.046720002 0.67200005
-0.37056002 0.046720002 0.67200005
-0.37092859 0.046928573 0.67500001
-0.36964288 0.046928573 0.67500001
-0.37317431 0.047357146 0.66300005
-0.37191147 0.047357146 0.66300005
-0.37232575 0.047571432 0.66600001
-0.37272859 0.047785718 0.66900003
-0.37200955 0.047857147 0.67000002
-0.37184003 0.048000004 0.67200005
-0.37056002 0.048000004 0.67200005
-0.37092859 0.04821429 0.67500001
-0.36964288 0.04821429 0.67500001
-0.37317431 0.048620004 0.66300005
-0.37191147 0.048620004 0.66300005
-0.37176669 0.048766669 0.66500002
-0.37161431 0.048913337 0.66700006
-0.37200955 0.049133338 0.67000002
-0.37073335 0.049133338 0.67000002
-0.37000859 0.04920667 0.671
-0.37092859 0.049500003 0.67500001
-0.36964288 0.049500003 0.67500001
-0.37054002 0.049793337 0.67900002
-0.37317431 0.049882859 0.66300005
-0.37191147 0.049882859 0.66300005
-0.37176669 0.050033338 0.66500002
-0.37272859 0.05033429 0.66900003
-0.37200955 0.050409526 0.67000002
-0.37128669 0.050484765 0.671
-0.37000859 0.050484765 0.671
-0.37092859 0.050785717 0.67500001
-0.36964288 0.050785717 0.67500001
-0.37317431 0.051145718 0.66300005
-0.37191147 0.051145718 0.66300005
-0.37064859 0.051145718 0.66300005
-0.37161431 0.051454291 0.66700006
-0.3714543 0.051608574 0.66900003
-0.37261146 0.052329529 0.66200006
-0.37191147 0.052408576 0.66300005
-0.37064859 0.052408576 0.66300005
-0.37161431 0.052724764 0.66700006
-0.37034383 0.052724764 0.66700006
-0.37018001 0.052882861 0.66900003
-0.41418004 0.064740002 0.81900007
-0.38235146 0.064898096 0.82100004
-0.38078764 0.064898096 0.82100004
-0.38014764 0.065056197 0.82300001
-0.37766004 0.064898096 0.82100004
-0.37426382 0.064581908 0.81700003
-0.37330765 0.053509526 0.66100001
-0.37261146 0.05359048 0.66200006
-0.3713505 0.05359048 0.66200006
-0.37064859 0.053671431 0.66300005
-0.37105715 0.05391429 0.66600001
-0.3714543 0.054157145 0.66900003
-0.37018001 0.054157145 0.66900003
-0.4100562 0.066138096 0.81700003
-0.37766004 0.066461906 0.82100004
-0.37609622 0.066461906 0.82100004
-0.37270764 0.066138096 0.81700003
-0.33973336 0.063466668 0.78400004
-0.33824003 0.063466668 0.78400004
-0.32778668 0.063466668 0.78400004
-0.37213716 0.053691432 0.648
-0.37173337 0.054354288 0.65600002
-0.37161335 0.054520003 0.65800005
-0.37204859 0.054768573 0.66100001
-0.37078956 0.054768573 0.66100001
-0.37064859 0.054934289 0.66300005
-0.37161431 0.055265717 0.66700006
-0.3714543 0.055431433 0.66900003
-0.37073335 0.055514291 0.67000002
-0.33886668 0.064794287 0.78200006
-0.33737716 0.064794287 0.78200006
-0.33674669 0.064960003 0.78400004
-0.33439812 0.064794287 0.78200006
-0.33226669 0.064960003 0.78400004
-0.33077335 0.064960003 0.78400004
-0.32928002 0.064960003 0.78400004
-0.32778668 0.064960003 0.78400004
-0.32629335 0.064960003 0.78400004
-0.32480001 0.064960003 0.78400004
-0.37337145 0.054925717 0.648
-0.37213716 0.054925717 0.648
-0.3709029 0.054925717 0.648
-0.37070858 0.055264767 0.65200001
-0.37116668 0.055519052 0.65500003
-0.3710486 0.055688575 0.65700001
-0.37148574 0.05594286 0.66000003
-0.37078956 0.056027621 0.66100001
-0.37064859 0.056197148 0.66300005
-0.37161431 0.056536194 0.66700006
-0.3714543 0.056705717 0.66900003
-0.37018001 0.056705717 0.66900003
-0.40210098 0.06424953 0.75800002
-0.33886668 0.066283815 0.78200006
-0.33737716 0.066283815 0.78200006
-0.33674669 0.066453338 0.78400004
-0.33439812 0.066283815 0.78200006
-0.33376002 0.066453338 0.78400004
-0.33226669 0.066453338 0.78400004
-0.33077335 0.066453338 0.78400004
-0.32928002 0.066453338 0.78400004
-0.32778668 0.066453338 0.78400004
-0.32629335 0.066453338 0.78400004
-0.32480001 0.066453338 0.78400004
-0.37337145 0.056160003 0.648
-0.37213716 0.056160003 0.648
-0.3709029 0.056160003 0.648
-0.3696686 0.056160003 0.648
-0.37127715 0.056593336 0.65300006
-0.37116668 0.05676667 0.65500003
-0.3710486 0.056940004 0.65700001
-0.37148574 0.057200003 0.66000003
-0.37078956 0.057286669 0.66100001
-0.37008956 0.057373337 0.66200006
-0.37105715 0.057720006 0.66600001
-0.37034383 0.057806671 0.66700006
-0.37018001 0.057980005 0.66900003
-0.40104002 0.065520003 0.75600004
-0.39960003 0.065520003 0.75600004
-0.3375667 0.067513339 0.77900004
-0.33737716 0.067773335 0.78200006
-0.33588764 0.067773335 0.78200006
-0.33439812 0.067773335 0.78200006
-0.3329086 0.067773335 0.78200006
-0.33141908 0.067773335 0.78200006
-0.33077335 0.067946672 0.78400004
-0.32928002 0.067946672 0.78400004
-0.32778668 0.067946672 0.78400004
-0.32629335 0.067946672 0.78400004
-0.32480001 0.067946672 0.78400004
-0.32413146 0.068120003 0.78600001
-0.29326859 0.069680005 0.80400002
-0.37337145 0.057394288 0.648
-0.37213716 0.057394288 0.648
-0.3709029 0.057394288 0.648
-0.37138003 0.057660002 0.65100002
-0.37127715 0.057837147 0.65300006
-0.37116668 0.058014289 0.65500003
-0.37048385 0.058102861 0.65600002
-0.37036002 0.058280002 0.65800005
-0.37022859 0.058457147 0.66000003
-0.40194765 0.066871434 0.75500005
-0.40050954 0.066871434 0.75500005
-0.39907146 0.066871434 0.75500005
-0.39763337 0.066871434 0.75500005
-0.33730954 0.068642862 0.77500004
-0.33670002 0.068820007 0.77700001
-0.33141908 0.069262862 0.78200006
-0.33077335 0.069440007 0.78400004
-0.32778668 0.069440007 0.78400004
-0.3709029 0.058628574 0.648
-0.37195051 0.058990479 0.65200001
-0.37127715 0.059080955 0.65300006
-0.37116668 0.059261907 0.65500003
-0.40194765 0.068309531 0.75500005
-0.40050954 0.068309531 0.75500005
-0.39907146 0.068309531 0.75500005
-0.39763337 0.068309531 0.75500005
-0.37195051 0.060232386 0.65200001
-0.37127715 0.060324766 0.65300006
-0.37116668 0.060509529 0.65500003
-0.40178287 0.06947048 0.75200003
-0.40194765 0.069747627 0.75500005
-0.40050954 0.069747627 0.75500005
-0.39907146 0.069747627 0.75500005
-0.37080956 0.061285719 0.65000004
-0.40178287 0.070902862 0.75200003
-0.40035051 0.070902862 0.75200003
-0.40050954 0.071185715 0.75500005
-0.39907146 0.071185715 0.75500005
-0.37080956 0.062523812 0.65000004
-0.40071431 0.072142862 0.75000006
-0.39928573 0.072142862 0.75000006
-0.39891812 0.072335243 0.75200003
-0.39748573 0.072335243 0.75200003
-0.37156287 0.063467622 0.64700001
-0.3709029 0.063565716 0.648
-0.3696686 0.063565716 0.648
-0.36786574 0.063467622 0.64700001
-0.39964575 0.07337524 0.74800003
-0.3976886 0.073277146 0.74700004
-0.39626575 0.073277146 0.74700004
-0.39484289 0.073277146 0.74700004
-0.36909813 0.064700007 0.64700001
-0.39662385 0.074500002 0.74500006
-0.39520478 0.074500002 0.74500006
-0.39378574 0.074500002 0.74500006
-0.39555907 0.075715244 0.74300003
-0.39414385 0.075715244 0.74300003
-0.39220002 0.075613335 0.74200004
-0.39131334 0.075715244 0.74300003
-0.38989812 0.075715244 0.74300003
-0.38848287 0.075715244 0.74300003
-0.39502668 0.077026673 0.74200004
-0.39361337 0.077026673 0.74200004
-0.39114287 0.076819055 0.74000001
-0.39131334 0.077130482 0.74300003
-0.38989812 0.077130482 0.74300003
-0.38848287 0.077130482 0.74300003
-0.39255241 0.078228578 0.74000001
-0.3906143 0.078122862 0.73900002
-0.39078668 0.078440003 0.74200004
-0.38937336 0.078440003 0.74200004
-0.38848287 0.078545719 0.74300003
-0.38706765 0.078545719 0.74300003
-0.39202192 0.079530485 0.73900002
-0.3906143 0.079530485 0.73900002
-0.38973334 0.079638101 0.74000001
-0.38937336 0.079853341 0.74200004
-0.38796002 0.079853341 0.74200004
-0.3865467 0.079853341 0.74200004
-0.38409525 0.079638101 0.74000001
-0.39202192 0.080938101 0.73900002
-0.38955718 0.080719054 0.73700005
-0.38920668 0.080938101 0.73900002
-0.38832384 0.081047624 0.74000001
-0.38691431 0.081047624 0.74000001
-0.38550478 0.081047624 0.74000001
-0.38357621 0.080938101 0.73900002
-0.38216859 0.080938101 0.73900002
-0.38076097 0.080938101 0.73900002
-0.38920668 0.082345717 0.73900002
-0.38779908 0.082345717 0.73900002
-0.38639146 0.082345717 0.73900002
-0.38498384 0.082345717 0.73900002
-0.38357621 0.082345717 0.73900002
-0.3811343 0.082122862 0.73700005
-0.38076097 0.082345717 0.73900002
-0.38691431 0.082960002 0.73200005
-0.38657334 0.083186671 0.73400003
-0.38622478 0.08341334 0.73600006
-0.38534573 0.083526671 0.73700005
-0.38342097 0.08341334 0.73600006
-0.38098097 0.083186671 0.73400003
-0.37958288 0.083186671 0.73400003
-0.37715432 0.082960002 0.73200005
-0.37246192 0.082846671 0.73100001
-0.38638574 0.084239051 0.73100001
-0.38552001 0.084354289 0.73200005
-0.38517526 0.084584765 0.73400003
-0.38273147 0.084354289 0.73200005
-0.38133717 0.084354289 0.73200005
-0.37942383 0.084239051 0.73100001
-0.37648001 0.083893336 0.72800004
-0.37509337 0.083893336 0.72800004
-0.37268004 0.08366286 0.72600001
-0.37129718 0.08366286 0.72600001
-0.36991432 0.08366286 0.72600001
-0.38552001 0.085748576 0.73200005
-0.38412574 0.085748576 0.73200005
-0.38273147 0.085748576 0.73200005
-0.38081622 0.085631438 0.73100001
-0.37838575 0.085397147 0.72900003
-0.37648001 0.085280009 0.72800004
-0.3740629 0.085045718 0.72600001
-0.37268004 0.085045718 0.72600001
-0.37129718 0.085045718 0.72600001
-0.36991432 0.085045718 0.72600001
-0.38499334 0.087023817 0.73100001
-0.38255146 0.086785719 0.72900003
-0.38116288 0.086785719 0.72900003
-0.37925336 0.086666673 0.72800004
-0.37682861 0.086428575 0.72600001
-0.37544575 0.086428575 0.72600001
-0.3740629 0.086428575 0.72600001
-0.37216669 0.08630953 0.72500002
-0.37078574 0.08630953 0.72500002
-0.36991432 0.086428575 0.72600001
-0.37750289 0.087327622 0.72200006
-0.3766486 0.087448575 0.72300005
-0.37527144 0.087448575 0.72300005
-0.37492859 0.08769048 0.72500002
-0.37354764 0.08769048 0.72500002
-0.37114003 0.087448575 0.72300005
-0.36976287 0.087448575 0.72300005
-0.36991432 0.087811433 0.72600001
-0.36853147 0.087811433 0.72600001
-0.3778286 0.088457152 0.72000003
-0.37645715 0.088457152 0.72000003
-0.37612763 0.088702865 0.72200006
-0.37527144 0.088825718 0.72300005
-0.3738943 0.088825718 0.72300005
-0.37251717 0.088825718 0.72300005
-0.37114003 0.088825718 0.72300005
-0.36976287 0.088825718 0.72300005
-0.36940479 0.089071438 0.72500002
-0.36853147 0.08919429 0.72600001
-0.32164097 0.090791434 0.73900002
-0.37887812 0.090078101 0.72200006
-0.37645715 0.089828581 0.72000003
-0.37508574 0.089828581 0.72000003
-0.3737143 0.089828581 0.72000003
-0.37234288 0.089828581 0.72000003
-0.37251717 0.090202861 0.72300005
-0.37062669 0.090078101 0.72200006
-0.36925146 0.090078101 0.72200006
-0.36838573 0.090202861 0.72300005
-0.36802384 0.090452388 0.72500002
-0.3207705 0.09194953 0.73700005
-0.3778286 0.091200009 0.72000003
-0.3759343 0.091073342 0.71900004
-0.37508574 0.091200009 0.72000003
-0.3737143 0.091200009 0.72000003
-0.37234288 0.091200009 0.72000003
-0.37097144 0.091200009 0.72000003
-0.36960003 0.091200009 0.72000003
-0.36822858 0.091200009 0.72000003
-0.36685717 0.091200009 0.72000003
-0.36548573 0.091200009 0.72000003
-0.36411431 0.091200009 0.72000003
-0.32226098 0.092973337 0.73400003
-0.32086289 0.092973337 0.73400003
-0.3207705 0.093353339 0.73700005
-0.31936669 0.093353339 0.73700005
-0.37625432 0.092185721 0.71700001
-0.3759343 0.092442863 0.71900004
-0.37143907 0.091671437 0.71300006
-0.37060001 0.091800004 0.71400005
-0.36872289 0.091671437 0.71300006
-0.36788002 0.091800004 0.71400005
-0.36754668 0.092057146 0.71600002
-0.3666943 0.092185721 0.71700001
-0.36532861 0.092185721 0.71700001
-0.36396289 0.092185721 0.71700001
-0.36259717 0.092185721 0.71700001
-0.36072764 0.092057146 0.71600002
-0.32226098 0.094371438 0.73400003
-0.32086289 0.094371438 0.73400003
-0.32033527 0.09462858 0.73600006
-0.31936669 0.094757147 0.73700005
-0.37572956 0.09342096 0.71600002
-0.37332001 0.093160003 0.71400005
-0.37143907 0.093029529 0.71300006
-0.37060001 0.093160003 0.71400005
-0.36872289 0.093029529 0.71300006
-0.36788002 0.093160003 0.71400005
-0.36754668 0.09342096 0.71600002
-0.36618289 0.09342096 0.71600002
-0.36481908 0.09342096 0.71600002
-0.36345527 0.09342096 0.71600002
-0.36209145 0.09342096 0.71600002
-0.36072764 0.09342096 0.71600002
-0.35936382 0.09342096 0.71600002
-0.35800001 0.09342096 0.71600002
-0.31998858 0.095508575 0.73200005
-0.32033527 0.096030481 0.73600006
-0.38415146 0.095181912 0.71900004
-0.37604001 0.094520003 0.71400005
-0.37468001 0.094520003 0.71400005
-0.37279716 0.094387628 0.71300006
-0.37039718 0.094122864 0.71100003
-0.37008098 0.094387628 0.71300006
-0.36872289 0.094387628 0.71300006
-0.36736479 0.094387628 0.71300006
-0.3660067 0.094387628 0.71300006
-0.36618289 0.094784766 0.71600002
-0.36481908 0.094784766 0.71600002
-0.36345527 0.094784766 0.71600002
-0.36209145 0.094784766 0.71600002
-0.36072764 0.094784766 0.71600002
-0.35836002 0.094520003 0.71400005
-0.35700002 0.094520003 0.71400005
-0.38148004 0.095880009 0.71400005
-0.38012004 0.095880009 0.71400005
-0.37822956 0.09574572 0.71300006
-0.37740001 0.095880009 0.71400005
-0.37551335 0.09574572 0.71300006
-0.37415525 0.09574572 0.71300006
-0.37279716 0.09574572 0.71300006
-0.37039718 0.095477149 0.71100003
-0.37008098 0.09574572 0.71300006
-0.36872289 0.09574572 0.71300006
-0.36736479 0.09574572 0.71300006
-0.3660067 0.09574572 0.71300006
-0.36516002 0.095880009 0.71400005
-0.36380002 0.095880009 0.71400005
-0.36244002 0.095880009 0.71400005
-0.36108002 0.095880009 0.71400005
-0.35972002 0.095880009 0.71400005
-0.35785812 0.09574572 0.71300006
-0.35650003 0.09574572 0.71300006
-0.37987718 0.096831433 0.71100003
-0.37852287 0.096831433 0.71100003
-0.3771686 0.096831433 0.71100003
-0.37581432 0.096831433 0.71100003
-0.37446001 0.096831433 0.71100003
-0.37310573 0.096831433 0.71100003
-0.37279716 0.097103819 0.71300006
-0.37039718 0.096831433 0.71100003
-0.36904287 0.096831433 0.71100003
-0.3676886 0.096831433 0.71100003
-0.36736479 0.097103819 0.71300006
-0.3660067 0.097103819 0.71300006
-0.36464858 0.097103819 0.71300006
-0.36329049 0.097103819 0.71300006
-0.3619324 0.097103819 0.71300006
-0.36057431 0.097103819 0.71300006
-0.35921621 0.097103819 0.71300006
-0.35685432 0.096831433 0.71100003
-0.35550001 0.096831433 0.71100003
-0.35514194 0.097103819 0.71300006
-0.38447335 0.097633339 0.70700002
-0.38312671 0.097633339 0.70700002
-0.37774003 0.097633339 0.70700002
-0.37692574 0.097771436 0.708
-0.37663811 0.098047629 0.71000004
-0.37528574 0.098047629 0.71000004
-0.37393335 0.098047629 0.71000004
-0.37310573 0.098185718 0.71100003
-0.37175146 0.098185718 0.71100003
-0.37039718 0.098185718 0.71100003
-0.36904287 0.098185718 0.71100003
-0.3676886 0.098185718 0.71100003
-0.36633432 0.098185718 0.71100003
-0.36498001 0.098185718 0.71100003
-0.3631143 0.098047629 0.71000004
-0.36176193 0.098047629 0.71000004
-0.36040956 0.098047629 0.71000004
-0.35905716 0.098047629 0.71000004
-0.35770479 0.098047629 0.71000004
-0.35635242 0.098047629 0.71000004
-0.35500002 0.098047629 0.71000004
-0.35414574 0.098185718 0.71100003
-0.38338575 0.098700009 0.70500004
-0.38204288 0.098700009 0.70500004
-0.38070002 0.098700009 0.70500004
-0.37881908 0.098560005 0.70400006
-0.37747812 0.098560005 0.70400006
-0.37667146 0.098700009 0.70500004
-0.37639335 0.09898001 0.70700002
-0.37557718 0.099120006 0.708
-0.3742286 0.099120006 0.708
-0.37393335 0.099400006 0.71000004
-0.37310573 0.09954001 0.71100003
-0.37175146 0.09954001 0.71100003
-0.37039718 0.09954001 0.71100003
-0.36904287 0.09954001 0.71100003
-0.36717147 0.099400006 0.71000004
-0.36633432 0.09954001 0.71100003
-0.36498001 0.09954001 0.71100003
-0.36209145 0.099120006 0.708
-0.36023337 0.09898001 0.70700002
-0.35939431 0.099120006 0.708
-0.35804573 0.099120006 0.708
-0.35669717 0.099120006 0.708
-0.35534859 0.099120006 0.708
-0.35400003 0.099120006 0.708
-0.35265145 0.099120006 0.708
-0.35130289 0.099120006 0.708
-0.38447335 0.10032667 0.70700002
-0.38204288 0.10004286 0.70500004
-0.38016003 0.099900961 0.70400006
-0.37881908 0.099900961 0.70400006
-0.37747812 0.099900961 0.70400006
-0.37667146 0.10004286 0.70500004
-0.37639335 0.10032667 0.70700002
-0.37557718 0.10046858 0.708
-0.3742286 0.10046858 0.708
-0.37393335 0.10075239 0.71000004
-0.37310573 0.10089429 0.71100003
-0.37175146 0.10089429 0.71100003
-0.37039718 0.10089429 0.71100003
-0.36904287 0.10089429 0.71100003
-0.36717147 0.10075239 0.71000004
-0.36581907 0.10075239 0.71000004
-0.36158001 0.10032667 0.70700002
-0.36023337 0.10032667 0.70700002
-0.35888669 0.10032667 0.70700002
-0.35804573 0.10046858 0.708
-0.35669717 0.10046858 0.708
-0.35534859 0.10046858 0.708
-0.35350001 0.10032667 0.70700002
-0.35265145 0.10046858 0.708
-0.35130289 0.10046858 0.708
-0.38204288 0.10138572 0.70500004
-0.38016003 0.10124191 0.70400006
-0.37881908 0.10124191 0.70400006
-0.37747812 0.10124191 0.70400006
-0.37667146 0.10138572 0.70500004
-0.3753286 0.10138572 0.70500004
-0.3750467 0.10167334 0.70700002
-0.37370002 0.10167334 0.70700002
-0.37393335 0.10210477 0.71000004
-0.37258098 0.10210477 0.71000004
-0.37175146 0.10224858 0.71100003
-0.37039718 0.10224858 0.71100003
-0.36904287 0.10224858 0.71100003
-0.36717147 0.10210477 0.71000004
-0.35921431 0.10138572 0.70500004
-0.35939431 0.10181715 0.708
-0.35804573 0.10181715 0.708
-0.38150099 0.10258286 0.70400006
-0.38016003 0.10258286 0.70400006
-0.37881908 0.10258286 0.70400006
-0.37694192 0.10243715 0.70300001
-0.37613717 0.10258286 0.70400006
-0.3753286 0.10272858 0.70500004
-0.37398574 0.10272858 0.70500004
-0.37370002 0.10302 0.70700002
-0.37393335 0.10345715 0.71000004
-0.37258098 0.10345715 0.71000004
-0.37694192 0.10377619 0.70300001
-0.37453431 0.10348096 0.70100003
-0.37319908 0.10348096 0.70100003
-0.37292477 0.10377619 0.70300001
-0.3721143 0.10392382 0.70400006
-0.37453431 0.1048162 0.70100003
-0.37319908 0.1048162 0.70100003
-0.31622574 0.10902001 0.71100003
-0.31164002 0.12348001 0.68600005
-0.3182143 0.12407143 0.67500001
-0.3169286 0.12407143 0.67500001
-0.31564286 0.12407143 0.67500001
-0.31389144 0.12388763 0.67400002
-0.31260765 0.12388763 0.67400002
-0.35403335 0.1235 0.66500002
-0.35276669 0.1235 0.66500002
-0.31680003 0.12480001 0.67200005
-0.31552002 0.12480001 0.67200005
-0.31517527 0.12517144 0.67400002
-0.31389144 0.12517144 0.67400002
-0.31260765 0.12517144 0.67400002
-0.31317145 0.12591429 0.67800003
-0.31234002 0.1261 0.67900002
-0.31150478 0.12628572 0.68000001
-0.35549432 0.12439144 0.66300005
-0.35423145 0.12439144 0.66300005
-0.3529686 0.12439144 0.66300005
-0.35117525 0.12420382 0.66200006
-0.34938574 0.1240162 0.66100001
-0.34812668 0.1240162 0.66100001
-0.34739241 0.12420382 0.66200006
-0.31920859 0.12551714 0.66900003
-0.3179343 0.12551714 0.66900003
-0.31666002 0.12551714 0.66900003
-0.31585717 0.12570477 0.67000002
-0.31411144 0.12551714 0.66900003
-0.31330478 0.12570477 0.67000002
-0.31202859 0.12570477 0.67000002
-0.31075239 0.12570477 0.67000002
-0.31317145 0.12720573 0.67800003
-0.31234002 0.12739334 0.67900002
-0.35549432 0.1256543 0.66300005
-0.35423145 0.1256543 0.66300005
-0.35243621 0.12546477 0.66200006
-0.3506448 0.12527524 0.66100001
-0.34885716 0.12508573 0.66000003
-0.34760001 0.12508573 0.66000003
-0.34686765 0.12527524 0.66100001
-0.34560859 0.12527524 0.66100001
-0.32721716 0.12546477 0.66200006
-0.32546383 0.12527524 0.66100001
-0.32294574 0.12527524 0.66100001
-0.31825429 0.12641239 0.66700006
-0.31698382 0.12641239 0.66700006
-0.31666002 0.12679143 0.66900003
-0.31538573 0.12679143 0.66900003
-0.31411144 0.12679143 0.66900003
-0.31283715 0.12679143 0.66900003
-0.31202859 0.12698096 0.67000002
-0.31075239 0.12698096 0.67000002
-0.35495812 0.12672572 0.66200006
-0.35369718 0.12672572 0.66200006
-0.35243621 0.12672572 0.66200006
-0.35011432 0.12634286 0.66000003
-0.34885716 0.12634286 0.66000003
-0.34760001 0.12634286 0.66000003
-0.34686765 0.1265343 0.66100001
-0.34508574 0.12634286 0.66000003
-0.34382859 0.12634286 0.66000003
-0.32798192 0.1265343 0.66100001
-0.32672289 0.1265343 0.66100001
-0.32497144 0.12634286 0.66000003
-0.32371432 0.12634286 0.66000003
-0.32245716 0.12634286 0.66000003
-0.32120001 0.12634286 0.66000003
-0.31994289 0.12634286 0.66000003
-0.31772003 0.12596001 0.65800005
-0.31825429 0.12768286 0.66700006
-0.31650859 0.12749144 0.66600001
-0.31571335 0.12768286 0.66700006
-0.31538573 0.12806572 0.66900003
-0.3131724 0.12768286 0.66700006
-0.31283715 0.12806572 0.66900003
-0.31156287 0.12806572 0.66900003
-0.35765716 0.12760001 0.66000003
-0.35640001 0.12760001 0.66000003
-0.35514289 0.12760001 0.66000003
-0.35442191 0.12779334 0.66100001
-0.35316288 0.12779334 0.66100001
-0.35190383 0.12779334 0.66100001
-0.35011432 0.12760001 0.66000003
-0.34885716 0.12760001 0.66000003
-0.34760001 0.12760001 0.66000003
-0.34634289 0.12760001 0.66000003
-0.34508574 0.12760001 0.66000003
-0.34382859 0.12760001 0.66000003
-0.32798192 0.12779334 0.66100001
-0.32622859 0.12760001 0.66000003
-0.32497144 0.12760001 0.66000003
-0.32371432 0.12760001 0.66000003
-0.32245716 0.12760001 0.66000003
-0.3202267 0.12721334 0.65800005
-0.31897336 0.12721334 0.65800005
-0.31868574 0.12760001 0.66000003
-0.31742859 0.12760001 0.66000003
-0.31825429 0.12895334 0.66700006
-0.31650859 0.12876001 0.66600001
-0.31571335 0.12895334 0.66700006
-0.31444287 0.12895334 0.66700006
-0.3131724 0.12895334 0.66700006
-0.31283715 0.12934001 0.66900003
-0.31296003 0.12992001 0.67200005
-0.35908002 0.12846668 0.65800005
-0.35657334 0.12846668 0.65800005
-0.35532004 0.12846668 0.65800005
-0.3540667 0.12846668 0.65800005
-0.35388574 0.12885715 0.66000003
-0.35262859 0.12885715 0.66000003
-0.35030669 0.12846668 0.65800005
-0.34905335 0.12846668 0.65800005
-0.34780002 0.12846668 0.65800005
-0.34760001 0.12885715 0.66000003
-0.34634289 0.12885715 0.66000003
-0.34508574 0.12885715 0.66000003
-0.34382859 0.12885715 0.66000003
-0.34257144 0.12885715 0.66000003
-0.32748574 0.12885715 0.66000003
-0.32622859 0.12885715 0.66000003
-0.32497144 0.12885715 0.66000003
-0.32371432 0.12885715 0.66000003
-0.32245716 0.12885715 0.66000003
-0.3202267 0.12846668 0.65800005
-0.31994289 0.12885715 0.66000003
-0.31868574 0.12885715 0.66000003
-0.31742859 0.12885715 0.66000003
-0.31698382 0.13022381 0.66700006
-0.31571335 0.13022381 0.66700006
-0.31538573 0.1306143 0.66900003
-0.31411144 0.1306143 0.66900003
-0.31424001 0.13120002 0.67200005
-0.36033335 0.12972 0.65800005
-0.35853431 0.12952286 0.65700001
-0.35728288 0.12952286 0.65700001
-0.35657334 0.12972 0.65800005
-0.35532004 0.12972 0.65800005
-0.3540667 0.12972 0.65800005
-0.35281336 0.12972 0.65800005
-0.35156003 0.12972 0.65800005
-0.34924194 0.12932572 0.65600002
-0.34852287 0.12952286 0.65700001
-0.34727144 0.12952286 0.65700001
-0.34602001 0.12952286 0.65700001
-0.34476858 0.12952286 0.65700001
-0.34351715 0.12952286 0.65700001
-0.34174478 0.12932572 0.65600002
-0.34131432 0.13011429 0.66000003
-0.32774669 0.12972 0.65800005
-0.32748574 0.13011429 0.66000003
-0.32524002 0.12972 0.65800005
-0.32398668 0.12972 0.65800005
-0.32273334 0.12972 0.65800005
-0.32148004 0.12972 0.65800005
-0.3202267 0.12972 0.65800005
-0.31897336 0.12972 0.65800005
-0.31772003 0.12972 0.65800005
-0.31646669 0.12972 0.65800005
-0.31666002 0.13188858 0.66900003
-0.31538573 0.13188858 0.66900003
-0.3131724 0.1314943 0.66700006
-0.31330478 0.13208573 0.67000002
-0.36103716 0.13077429 0.65700001
-0.35978574 0.13077429 0.65700001
-0.35853431 0.13077429 0.65700001
-0.35728288 0.13077429 0.65700001
-0.35603145 0.13077429 0.65700001
-0.35478002 0.13077429 0.65700001
-0.3540667 0.13097334 0.65800005
-0.35281336 0.13097334 0.65800005
-0.35156003 0.13097334 0.65800005
-0.34924194 0.13057524 0.65600002
-0.34799239 0.13057524 0.65600002
-0.34674287 0.13057524 0.65600002
-0.34549335 0.13057524 0.65600002
-0.34424382 0.13057524 0.65600002
-0.3429943 0.13057524 0.65600002
-0.34122384 0.1303762 0.65500003
-0.33997622 0.1303762 0.65500003
-0.33049908 0.13057524 0.65600002
-0.32924953 0.13057524 0.65600002
-0.32850003 0.13077429 0.65700001
-0.3272486 0.13077429 0.65700001
-0.32649335 0.13097334 0.65800005
-0.32524002 0.13097334 0.65800005
-0.32398668 0.13097334 0.65800005
-0.32273334 0.13097334 0.65800005
-0.32148004 0.13097334 0.65800005
-0.3202267 0.13097334 0.65800005
-0.31897336 0.13097334 0.65800005
-0.31772003 0.13097334 0.65800005
-0.31598574 0.13077429 0.65700001
-0.31190193 0.13276477 0.66700006
-0.36103716 0.13202572 0.65700001
-0.35978574 0.13202572 0.65700001
-0.3579886 0.13182478 0.65600002
-0.35673907 0.13182478 0.65600002
-0.35548955 0.13182478 0.65600002
-0.35424003 0.13182478 0.65600002
-0.35299051 0.13182478 0.65600002
-0.35174099 0.13182478 0.65600002
-0.34995717 0.13162382 0.65500003
-0.34870955 0.13162382 0.65500003
-0.34746194 0.13162382 0.65500003
-0.34621429 0.13162382 0.65500003
-0.34496668 0.13162382 0.65500003
-0.34371907 0.13162382 0.65500003
-0.34247145 0.13162382 0.65500003
-0.34122384 0.13162382 0.65500003
-0.33997622 0.13162382 0.65500003
-0.33872861 0.13162382 0.65500003
-0.32874763 0.13162382 0.65500003
-0.32599717 0.13202572 0.65700001
-0.32474574 0.13202572 0.65700001
-0.32349432 0.13202572 0.65700001
-0.32224289 0.13202572 0.65700001
-0.32099146 0.13202572 0.65700001
-0.31974003 0.13202572 0.65700001
-0.3184886 0.13202572 0.65700001
-0.31675431 0.13182478 0.65600002
-0.31550479 0.13182478 0.65600002
-0.36103716 0.13327715 0.65700001
-0.35923812 0.1330743 0.65600002
-0.3579886 0.1330743 0.65600002
-0.35673907 0.1330743 0.65600002
-0.35548955 0.1330743 0.65600002
-0.35370001 0.13287143 0.65500003
-0.3524524 0.13287143 0.65500003
-0.35013241 0.13246572 0.65300006
-0.34995717 0.13287143 0.65500003
-0.34764478 0.13246572 0.65300006
-0.34640098 0.13246572 0.65300006
-0.34621429 0.13287143 0.65500003
-0.34496668 0.13287143 0.65500003
-0.34371907 0.13287143 0.65500003
-0.34247145 0.13287143 0.65500003
-0.34018192 0.13246572 0.65300006
-0.33893812 0.13246572 0.65300006
-0.33769432 0.13246572 0.65300006
-0.33645049 0.13246572 0.65300006
-0.33520669 0.13246572 0.65300006
-0.33498573 0.13287143 0.65500003
-0.33373812 0.13287143 0.65500003
-0.32375717 0.13287143 0.65500003
-0.32300192 0.1330743 0.65600002
-0.3217524 0.1330743 0.65600002
-0.32050288 0.1330743 0.65600002
-0.31925336 0.1330743 0.65600002
-0.31800383 0.1330743 0.65600002
-0.31627145 0.13287143 0.65500003
-0.31502384 0.13287143 0.65500003
-0.36103716 0.13452858 0.65700001
-0.35923812 0.13432382 0.65600002
-0.3579886 0.13432382 0.65600002
-0.35619527 0.13411906 0.65500003
-0.35548955 0.13432382 0.65600002
-0.35370001 0.13411906 0.65500003
-0.3524524 0.13411906 0.65500003
-0.3495962 0.13350476 0.65200001
-0.34835431 0.13350476 0.65200001
-0.34711242 0.13350476 0.65200001
-0.34640098 0.13370954 0.65300006
-0.34515718 0.13370954 0.65300006
-0.34391335 0.13370954 0.65300006
-0.34266955 0.13370954 0.65300006
-0.34142575 0.13370954 0.65300006
-0.34018192 0.13370954 0.65300006
-0.33841908 0.13350476 0.65200001
-0.33717716 0.13350476 0.65200001
-0.33542001 0.13330001 0.65100002
-0.33469334 0.13350476 0.65200001
-0.33396289 0.13370954 0.65300006
-0.33373812 0.13411906 0.65500003
-0.3227686 0.13370954 0.65300006
-0.32250956 0.13411906 0.65500003
-0.32126191 0.13411906 0.65500003
-0.3200143 0.13411906 0.65500003
-0.31876668 0.13411906 0.65500003
-0.31751907 0.13411906 0.65500003
-0.31627145 0.13411906 0.65500003
-0.31502384 0.13411906 0.65500003
-0.36270002 0.13454001 0.65100002
-0.36090478 0.13433334 0.65000004
-0.35966671 0.13433334 0.65000004
-0.3584286 0.13433334 0.65000004
-0.35719049 0.13433334 0.65000004
-0.35595241 0.13433334 0.65000004
-0.35526001 0.13454001 0.65100002
-0.35402003 0.13454001 0.65100002
-0.3511543 0.13392001 0.648
-0.35100001 0.13433334 0.65000004
-0.34976193 0.13433334 0.65000004
-0.34852383 0.13433334 0.65000004
-0.34728575 0.13433334 0.65000004
-0.34604764 0.13433334 0.65000004
-0.34480953 0.13433334 0.65000004
-0.34410003 0.13454001 0.65100002
-0.34233335 0.13433334 0.65000004
-0.34162003 0.13454001 0.65100002
-0.34090286 0.13474667 0.65200001
-0.33914003 0.13454001 0.65100002
-0.33738098 0.13433334 0.65000004
-0.33614287 0.13433334 0.65000004
-0.33387432 0.13392001 0.648
-0.33366668 0.13433334 0.65000004
-0.3324286 0.13433334 0.65000004
-0.33220956 0.13474667 0.65200001
-0.32153144 0.13392001 0.648
-0.32029715 0.13392001 0.648
-0.32054001 0.13454001 0.65100002
-0.31930003 0.13454001 0.65100002
-0.31854859 0.13474667 0.65200001
-0.31779334 0.13495333 0.65300006
-0.31654954 0.13495333 0.65300006
-0.36270002 0.13578001 0.65100002
-0.36146003 0.13578001 0.65100002
-0.35966671 0.13557144 0.65000004
-0.3584286 0.13557144 0.65000004
-0.35719049 0.13557144 0.65000004
-0.35485718 0.13515429 0.648
-0.35362288 0.13515429 0.648
-0.35347623 0.13557144 0.65000004
-0.3511543 0.13515429 0.648
-0.34992003 0.13515429 0.648
-0.34868574 0.13515429 0.648
-0.34691527 0.13494572 0.64700001
-0.34568289 0.13494572 0.64700001
-0.3444505 0.13494572 0.64700001
-0.34321812 0.13494572 0.64700001
-0.34198573 0.13494572 0.64700001
-0.34075335 0.13494572 0.64700001
-0.33847144 0.13452858 0.64500004
-0.33985716 0.13557144 0.65000004
-0.33757716 0.13515429 0.648
-0.33582383 0.13494572 0.64700001
-0.33407432 0.13473715 0.64600003
-0.33284384 0.13473715 0.64600003
-0.33212668 0.13494572 0.64700001
-0.33089432 0.13494572 0.64700001
-0.32966194 0.13494572 0.64700001
-0.32792193 0.13473715 0.64600003
-0.31980288 0.13494572 0.64700001
-0.31906289 0.13515429 0.648
-0.31880954 0.13557144 0.65000004
-0.31757146 0.13557144 0.65000004
-0.31633335 0.13557144 0.65000004
-0.31509525 0.13557144 0.65000004
-0.36698288 0.13723049 0.65200001
-0.36574098 0.13723049 0.65200001
-0.36449906 0.13723049 0.65200001
-0.36270002 0.13702001 0.65100002
-0.36090478 0.13680953 0.65000004
-0.35966671 0.13680953 0.65000004
-0.35732573 0.13638858 0.648
-0.35609144 0.13638858 0.648
-0.35485718 0.13638858 0.648
-0.35034859 0.13512573 0.64200002
-0.34912574 0.13512573 0.64200002
-0.3506124 0.13617811 0.64700001
-0.34938002 0.13617811 0.64700001
-0.34814763 0.13617811 0.64700001
-0.34637907 0.13596763 0.64600003
-0.34514859 0.13596763 0.64600003
-0.34391811 0.13596763 0.64600003
-0.34268764 0.13596763 0.64600003
-0.34092858 0.13575715 0.64500004
-0.33970001 0.13575715 0.64500004
-0.33794668 0.13554667 0.64400005
-0.33567432 0.13512573 0.64200002
-0.33445144 0.13512573 0.64200002
-0.33426669 0.13554667 0.64400005
-0.33304003 0.13554667 0.64400005
-0.33232859 0.13575715 0.64500004
-0.33110002 0.13575715 0.64500004
-0.32987145 0.13575715 0.64500004
-0.32813334 0.13554667 0.64400005
-0.32690668 0.13554667 0.64400005
-0.32568002 0.13554667 0.64400005
-0.31980288 0.13617811 0.64700001
-0.31906289 0.13638858 0.648
-0.3178286 0.13638858 0.648
-0.3165943 0.13638858 0.648
-0.31536001 0.13638858 0.648
-0.36518002 0.13826001 0.65100002
-0.36449906 0.13847239 0.65200001
-0.36270002 0.13826001 0.65100002
-0.36090478 0.13804764 0.65000004
-0.35856003 0.13762286 0.648
-0.3567743 0.13741049 0.64700001
-0.35554191 0.13741049 0.64700001
-0.35376194 0.13719811 0.64600003
-0.35034859 0.13634858 0.64200002
-0.34912574 0.13634858 0.64200002
-0.34952858 0.13698572 0.64500004
-0.34884003 0.13719811 0.64600003
-0.34760955 0.13719811 0.64600003
-0.34584287 0.13698572 0.64500004
-0.3446143 0.13698572 0.64500004
-0.34338573 0.13698572 0.64500004
-0.34215716 0.13698572 0.64500004
-0.34092858 0.13698572 0.64500004
-0.33917335 0.13677335 0.64400005
-0.33689716 0.13634858 0.64200002
-0.33567432 0.13634858 0.64200002
-0.33393049 0.1361362 0.64100003
-0.33270955 0.1361362 0.64100003
-0.33200574 0.13634858 0.64200002
-0.33078289 0.13634858 0.64200002
-0.3305867 0.13677335 0.64400005
-0.32936001 0.13677335 0.64400005
-0.32813334 0.13677335 0.64400005
-0.32589144 0.13634858 0.64200002
-0.32466859 0.13634858 0.64200002
-0.32344574 0.13634858 0.64200002
-0.32222289 0.13634858 0.64200002
-0.32050002 0.1361362 0.64100003
-0.32077336 0.13677335 0.64400005
-0.32004288 0.13698572 0.64500004
-0.31930858 0.13719811 0.64600003
-0.31857049 0.13741049 0.64700001
-0.31733811 0.13741049 0.64700001
-0.31610572 0.13741049 0.64700001
-0.31487337 0.13741049 0.64700001
-0.31364098 0.13741049 0.64700001
-0.36449906 0.1397143 0.65200001
-0.36270002 0.13950001 0.65100002
-0.36090478 0.13928573 0.65000004
-0.35966671 0.13928573 0.65000004
-0.3567743 0.13864286 0.64700001
-0.35499239 0.13842858 0.64600003
-0.35321432 0.13821429 0.64500004
-0.34980288 0.13735715 0.64100003
-0.34858194 0.13735715 0.64100003
-0.34898669 0.13800001 0.64400005
-0.34776002 0.13800001 0.64400005
-0.34653336 0.13800001 0.64400005
-0.34423432 0.13757144 0.64200002
-0.34408003 0.13800001 0.64400005
-0.34285337 0.13800001 0.64400005
-0.3416267 0.13800001 0.64400005
-0.34040001 0.13800001 0.64400005
-0.33917335 0.13800001 0.64400005
-0.33689716 0.13757144 0.64200002
-0.33567432 0.13757144 0.64200002
-0.33393049 0.13735715 0.64100003
-0.33270955 0.13735715 0.64100003
-0.33148858 0.13735715 0.64100003
-0.33078289 0.13757144 0.64200002
-0.3305867 0.13800001 0.64400005
-0.32936001 0.13800001 0.64400005
-0.32711431 0.13757144 0.64200002
-0.32589144 0.13757144 0.64200002
-0.32466859 0.13757144 0.64200002
-0.32344574 0.13757144 0.64200002
-0.32222289 0.13757144 0.64200002
-0.32100001 0.13757144 0.64200002
-0.32077336 0.13800001 0.64400005
-0.3195467 0.13800001 0.64400005
-0.31881431 0.13821429 0.64500004
-0.31807813 0.13842858 0.64600003
-0.31684765 0.13842858 0.64600003
-0.31610572 0.13864286 0.64700001
-0.3143867 0.13842858 0.64600003
-0.31315622 0.13842858 0.64600003
-0.31096002 0.13800001 0.64400005
-0.35979432 0.14009143 0.648
-0.35279432 0.13879429 0.64200002
-0.35157144 0.13879429 0.64200002
-0.3470743 0.13749716 0.63600004
-0.3474943 0.13814573 0.63900006
-0.34627718 0.13814573 0.63900006
-0.34560001 0.13836192 0.64000005
-0.34438097 0.13836192 0.64000005
-0.34208953 0.13792953 0.63800001
-0.34301144 0.13879429 0.64200002
-0.34178859 0.13879429 0.64200002
-0.34056574 0.13879429 0.64200002
-0.33934289 0.13879429 0.64200002
-0.33812001 0.13879429 0.64200002
-0.33584765 0.13836192 0.64000005
-0.33462858 0.13836192 0.64000005
-0.33340955 0.13836192 0.64000005
-0.33167145 0.13814573 0.63900006
-0.33097145 0.13836192 0.64000005
-0.32975242 0.13836192 0.64000005
-0.32956001 0.13879429 0.64200002
-0.32833716 0.13879429 0.64200002
-0.32711431 0.13879429 0.64200002
-0.32538384 0.1385781 0.64100003
-0.32466859 0.13879429 0.64200002
-0.32294193 0.1385781 0.64100003
-0.32222289 0.13879429 0.64200002
-0.32050002 0.1385781 0.64100003
-0.31977716 0.13879429 0.64200002
-0.3195467 0.13922668 0.64400005
-0.31881431 0.13944286 0.64500004
-0.31807813 0.13965906 0.64600003
-0.31684765 0.13965906 0.64600003
-0.31561717 0.13965906 0.64600003
-0.31390002 0.13944286 0.64500004
-0.31218669 0.13922668 0.64400005
-0.31096002 0.13922668 0.64400005
-0.35279432 0.14001715 0.64200002
-0.35157144 0.14001715 0.64200002
-0.34925717 0.13958097 0.64000005
-0.34803811 0.13958097 0.64000005
-0.34681907 0.13958097 0.64000005
-0.34560001 0.13958097 0.64000005
-0.34222859 0.13870858 0.63600004
-0.34208953 0.13914478 0.63800001
-0.34087431 0.13914478 0.63800001
-0.34072384 0.13958097 0.64000005
-0.34003526 0.13979906 0.64100003
-0.33828574 0.13958097 0.64000005
-0.33706668 0.13958097 0.64000005
-0.33584765 0.13958097 0.64000005
-0.33462858 0.13958097 0.64000005
-0.3328886 0.13936287 0.63900006
-0.33167145 0.13936287 0.63900006
-0.33045432 0.13936287 0.63900006
-0.32975242 0.13958097 0.64000005
-0.3290467 0.13979906 0.64100003
-0.32833716 0.14001715 0.64200002
-0.32711431 0.14001715 0.64200002
-0.32538384 0.13979906 0.64100003
-0.32466859 0.14001715 0.64200002
-0.32294193 0.13979906 0.64100003
-0.32172099 0.13979906 0.64100003
-0.32050002 0.13979906 0.64100003
-0.31977716 0.14001715 0.64200002
-0.31855431 0.14001715 0.64200002
-0.31832001 0.14045334 0.64400005
-0.31758574 0.14067143 0.64500004
-0.31635717 0.14067143 0.64500004
-0.31561717 0.14088954 0.64600003
-0.31341335 0.14045334 0.64400005
-0.31121716 0.14001715 0.64200002
-0.30999431 0.14001715 0.64200002
-0.30829048 0.13979906 0.64100003
-0.35169527 0.14080001 0.64000005
-0.34938097 0.14036001 0.63800001
-0.34816575 0.14036001 0.63800001
-0.3469505 0.14036001 0.63800001
-0.34573525 0.14036001 0.63800001
-0.34344003 0.13992001 0.63600004
-0.34222859 0.13992001 0.63600004
-0.34101716 0.13992001 0.63600004
-0.33980572 0.13992001 0.63600004
-0.34019145 0.14058001 0.63900006
-0.33950478 0.14080001 0.64000005
-0.33828574 0.14080001 0.64000005
-0.33706668 0.14080001 0.64000005
-0.33584765 0.14080001 0.64000005
-0.33410573 0.14058001 0.63900006
-0.3328886 0.14058001 0.63900006
-0.33167145 0.14058001 0.63900006
-0.33045432 0.14058001 0.63900006
-0.32923716 0.14058001 0.63900006
-0.3290467 0.14102001 0.64100003
-0.32782573 0.14102001 0.64100003
-0.32660478 0.14102001 0.64100003
-0.32538384 0.14102001 0.64100003
-0.32416287 0.14102001 0.64100003
-0.32294193 0.14102001 0.64100003
-0.32121906 0.14080001 0.64000005
-0.32000002 0.14080001 0.64000005
-0.31927907 0.14102001 0.64100003
-0.3180581 0.14102001 0.64100003
-0.31733146 0.14124002 0.64200002
-0.31758574 0.1419 0.64500004
-0.31635717 0.1419 0.64500004
-0.31512859 0.1419 0.64500004
-0.35059622 0.14157525 0.63800001
-0.34773812 0.14090954 0.63500005
-0.3470743 0.14113143 0.63600004
-0.34531906 0.14090954 0.63500005
-0.34410954 0.14090954 0.63500005
-0.34290001 0.14090954 0.63500005
-0.3411524 0.14068763 0.634
-0.33994478 0.14068763 0.634
-0.33927146 0.14090954 0.63500005
-0.33859432 0.14113143 0.63600004
-0.33844385 0.14157525 0.63800001
-0.33775717 0.14179716 0.63900006
-0.33654001 0.14179716 0.63900006
-0.33532289 0.14179716 0.63900006
-0.33410573 0.14179716 0.63900006
-0.3328886 0.14179716 0.63900006
-0.33167145 0.14179716 0.63900006
-0.33045432 0.14179716 0.63900006
-0.32975242 0.14201906 0.64000005
-0.32833716 0.14246286 0.64200002
-0.32711431 0.14246286 0.64200002
-0.32538384 0.14224096 0.64100003
-0.32416287 0.14224096 0.64100003
-0.32294193 0.14224096 0.64100003
-0.32172099 0.14224096 0.64100003
-0.32000002 0.14201906 0.64000005
-0.31878096 0.14201906 0.64000005
-0.31756192 0.14201906 0.64000005
-0.31683716 0.14224096 0.64100003
-0.31709334 0.14290668 0.64400005
-0.31512859 0.14312857 0.64500004
-0.34729907 0.14144763 0.63200003
-0.3471905 0.14189525 0.634
-0.34652859 0.14211905 0.63500005
-0.34477526 0.14189525 0.634
-0.34356764 0.14189525 0.634
-0.34236002 0.14189525 0.634
-0.34061432 0.14167143 0.63300002
-0.33940861 0.14167143 0.63300002
-0.33873716 0.14189525 0.634
-0.33752954 0.14189525 0.634
-0.33738288 0.14234287 0.63600004
-0.33617145 0.14234287 0.63600004
-0.33601335 0.14279048 0.63800001
-0.33479813 0.14279048 0.63800001
-0.33358288 0.14279048 0.63800001
-0.32924193 0.14144763 0.63200003
-0.33115241 0.14279048 0.63800001
-0.32993716 0.14279048 0.63800001
-0.32872194 0.14279048 0.63800001
-0.32750669 0.14279048 0.63800001
-0.32731432 0.1432381 0.64000005
-0.32660478 0.14346191 0.64100003
-0.32487622 0.1432381 0.64000005
-0.32416287 0.14346191 0.64100003
-0.32243812 0.1432381 0.64000005
-0.34674954 0.14242573 0.63100004
-0.34182003 0.14287715 0.63300002
-0.34007621 0.14265144 0.63200003
-0.3388724 0.14265144 0.63200003
-0.3371343 0.14242573 0.63100004
-0.3359324 0.14242573 0.63100004
-0.33473051 0.14242573 0.63100004
-0.33352861 0.14242573 0.63100004
-0.33232668 0.14242573 0.63100004
-0.33112478 0.14242573 0.63100004
-0.33044574 0.14265144 0.63200003
-0.32924193 0.14265144 0.63200003
-0.32648098 0.1419743 0.62900001
-0.32609525 0.14445715 0.64000005
-0.32487622 0.14445715 0.64000005
-0.32365716 0.14445715 0.64000005
-0.33953813 0.14362763 0.63100004
-0.3388724 0.14385524 0.63200003
-0.3371343 0.14362763 0.63100004
-0.3359324 0.14362763 0.63100004
-0.33473051 0.14362763 0.63100004
-0.33352861 0.14362763 0.63100004
-0.33127335 0.14317238 0.62900001
-0.33007526 0.14317238 0.62900001
-0.32992288 0.14362763 0.63100004
-0.32767907 0.14317238 0.62900001
-0.32648098 0.14317238 0.62900001
-0.30605334 0.14658667 0.64400005
-0.30360001 0.14658667 0.64400005
-0.33953813 0.14482953 0.63100004
-0.3383362 0.14482953 0.63100004
-0.33606574 0.14437048 0.62900001
-0.33486763 0.14437048 0.62900001
-0.33366954 0.14437048 0.62900001
-0.33194289 0.14414096 0.62800002
-0.33074668 0.14414096 0.62800002
-0.3295505 0.14414096 0.62800002
-0.3283543 0.14414096 0.62800002
-0.32663718 0.14391144 0.62700003
-0.32492384 0.14368191 0.62600005
-0.33953813 0.14603144 0.63100004
-0.3383362 0.14603144 0.63100004
-0.33606574 0.14556858 0.62900001
-0.33486763 0.14556858 0.62900001
-0.33366954 0.14556858 0.62900001
-0.33194289 0.14533715 0.62800002
-0.33074668 0.14533715 0.62800002
-0.32902575 0.14510572 0.62700003
-0.32783145 0.14510572 0.62700003
-0.32663718 0.14510572 0.62700003
-0.32492384 0.14487429 0.62600005
-0.32373145 0.14487429 0.62600005
-0.32202384 0.14464286 0.625
-0.33953813 0.14723334 0.63100004
-0.3388724 0.14746667 0.63200003
-0.33606574 0.14676668 0.62900001
-0.33486763 0.14676668 0.62900001
-0.33366954 0.14676668 0.62900001
-0.33194289 0.14653334 0.62800002
-0.33074668 0.14653334 0.62800002
-0.3295505 0.14653334 0.62800002
-0.32783145 0.1463 0.62700003
-0.32663718 0.1463 0.62700003
-0.32492384 0.14606668 0.62600005
-0.32373145 0.14606668 0.62600005
-0.32202384 0.14583334 0.625
-0.3213467 0.14606668 0.62600005
-0.32066575 0.1463 0.62700003
-0.31947145 0.1463 0.62700003
-0.33486763 0.14796478 0.62900001
-0.33313906 0.14772953 0.62800002
-0.33194289 0.14772953 0.62800002
-0.33022001 0.1474943 0.62700003
-0.32902575 0.1474943 0.62700003
-0.3273086 0.14725906 0.62600005
-0.3261162 0.14725906 0.62600005
-0.32492384 0.14725906 0.62600005
-0.32373145 0.14725906 0.62600005
-0.32305431 0.1474943 0.62700003
-0.32186002 0.1474943 0.62700003
-0.32066575 0.1474943 0.62700003
-0.31998098 0.14772953 0.62800002
-0.31878477 0.14772953 0.62800002
-0.3175886 0.14772953 0.62800002
-0.31639239 0.14772953 0.62800002
-0.33433527 0.14892572 0.62800002
-0.33313906 0.14892572 0.62800002
-0.33194289 0.14892572 0.62800002
-0.33022001 0.14868858 0.62700003
-0.32850099 0.14845143 0.62600005
-0.3273086 0.14845143 0.62600005
-0.3261162 0.14845143 0.62600005
-0.32440478 0.1482143 0.625
-0.32321429 0.1482143 0.625
-0.32202384 0.1482143 0.625
-0.3213467 0.14845143 0.62600005
-0.32015431 0.14845143 0.62600005
-0.31998098 0.14892572 0.62800002
-0.31827715 0.14868858 0.62700003
-0.3175886 0.14892572 0.62800002
-0.31639239 0.14892572 0.62800002
-0.31419241 0.14845143 0.62600005
-0.31180763 0.14845143 0.62600005
-0.31061527 0.14845143 0.62600005
-0.3046743 0.15082286 0.63600004
-0.32850099 0.14964382 0.62600005
-0.32678574 0.14940478 0.625
-0.3261162 0.14964382 0.62600005
-0.32440478 0.14940478 0.625
-0.32202384 0.14940478 0.625
-0.32083336 0.14940478 0.625
-0.31964287 0.14940478 0.625
-0.31657717 0.14964382 0.62600005
-0.31538478 0.14964382 0.62600005
-0.31369048 0.14940478 0.625
-0.31300002 0.14964382 0.62600005
-0.31180763 0.14964382 0.62600005
-0.31061527 0.14964382 0.62600005
-0.30613145 0.15155619 0.634
-0.31387335 0.15011334 0.62300003
-0.31250003 0.15059525 0.625
-0.31130955 0.15059525 0.625
-0.31011906 0.15059525 0.625
-0.30892858 0.15059525 0.625
-0.30757335 0.15228191 0.63200003
-0.30685431 0.15252286 0.63300002
-0.3145543 0.15105715 0.62200004
-0.31336954 0.15105715 0.62200004
-0.31130955 0.15178573 0.625
-0.31011906 0.15178573 0.625
-0.30892858 0.15178573 0.625
-0.30752859 0.15227143 0.62700003
-0.30731145 0.15275715 0.62900001
-0.30708668 0.15324287 0.63100004
-0.31354287 0.1517524 0.62
-0.30962288 0.15273143 0.62400001
-0.30843431 0.15273143 0.62400001
-0.30801907 0.15371048 0.62800002
-0.30731145 0.15395525 0.62900001
-0.30872288 0.15466002 0.62700003
-0.30801907 0.15490668 0.62800002
-0.32051146 0.15587716 0.61300004
-0.31905526 0.15576382 0.60800004
-0.31789717 0.15576382 0.60800004
-0.31673908 0.15576382 0.60800004
-0.32021335 0.15692191 0.60800004
-0.31905526 0.15692191 0.60800004
-0.31789717 0.15692191 0.60800004
-0.31673908 0.15692191 0.60800004
-0.31558096 0.15692191 0.60800004
-0.31442288 0.15692191 0.60800004
