# .PCD v0.7 - Point Cloud Data file format
VERSION 0.7
FIELDS x y z rgb
SIZE 4 4 4 4
TYPE F F F U
COUNT 1 1 1 1
WIDTH 1004
HEIGHT 1
VIEWPOINT 0 0 0 1 0 0 0
POINTS 1004
DATA ascii
0.024840001 -0.035880003 0.96600002 4294967295
0.026680002 -0.035880003 0.96600002 4294967295
0.028520001 -0.035880003 0.96600002 4294967295
0.030360002 -0.035880003 0.96600002 4294967295
0.032100003 -0.035768572 0.96300006 4294967295
0.034145717 -0.03599143 0.96900004 4294967295
0.03599143 -0.03599143 0.96900004 4294967295
0.037837144 -0.03599143 0.96900004 4294967295
0.039682861 -0.03599143 0.96900004 4294967295
0.041528575 -0.03599143 0.96900004 4294967295
0.045220003 -0.03599143 0.96900004 4294967295
0.047065716 -0.03599143 0.96900004 4294967295
0.04891143 -0.03599143 0.96900004 4294967295
0.050757147 -0.03599143 0.96900004 4294967295
0.052602861 -0.03599143 0.96900004 4294967295
0.054448575 -0.03599143 0.96900004 4294967295
0.056120005 -0.035880003 0.96600002 4294967295
0.058140002 -0.03599143 0.96900004 4294967295
0.059800003 -0.035880003 0.96600002 4294967295
0.061640006 -0.035880003 0.96600002 4294967295
0.063480005 -0.035880003 0.96600002 4294967295
0.065320008 -0.035880003 0.96600002 4294967295
0.067160003 -0.035880003 0.96600002 4294967295
0.069000006 -0.035880003 0.96600002 4294967295
0.070840001 -0.035880003 0.96600002 4294967295
0.072680004 -0.035880003 0.96600002 4294967295
0.074520007 -0.035880003 0.96600002 4294967295
0.076360002 -0.035880003 0.96600002 4294967295
0.078200005 -0.035880003 0.96600002 4294967295
0.080040008 -0.035880003 0.96600002 4294967295
0.081880003 -0.035880003 0.96600002 4294967295
0.083720006 -0.035880003 0.96600002 4294967295
0.098440006 -0.035880003 0.96600002 4294967295
0.10028001 -0.035880003 0.96600002 4294967295
0.10212 -0.035880003 0.96600002 4294967295
0.11868001 -0.035880003 0.96600002 4294967295
-0.011960001 -0.034040004 0.96600002 4294967295
-0.010120001 -0.034040004 0.96600002 4294967295
-0.0082542859 -0.033934288 0.96300006 4294967295
-0.0064200005 -0.033934288 0.96300006 4294967295
-0.0045857145 -0.033934288 0.96300006 4294967295
-0.0027514289 -0.033934288 0.96300006 4294967295
-0.0009171429 -0.033934288 0.96300006 4294967295
0.0009171429 -0.033934288 0.96300006 4294967295
0.0027514289 -0.033934288 0.96300006 4294967295
0.0046000001 -0.034040004 0.96600002 4294967295
0.0064400006 -0.034040004 0.96600002 4294967295
0.0082800006 -0.034040004 0.96600002 4294967295
0.010120001 -0.034040004 0.96600002 4294967295
0.019320002 -0.034040004 0.96600002 4294967295
0.021160001 -0.034040004 0.96600002 4294967295
0.023000002 -0.034040004 0.96600002 4294967295
0.02476286 -0.033934288 0.96300006 4294967295
0.026597144 -0.033934288 0.96300006 4294967295
0.028372383 -0.033863813 0.96100003 4294967295
0.030265717 -0.033934288 0.96300006 4294967295
0.032033335 -0.033863813 0.96100003 4294967295
0.033863813 -0.033863813 0.96100003 4294967295
0.035768572 -0.033934288 0.96300006 4294967295
0.03760286 -0.033934288 0.96300006 4294967295
0.039437145 -0.033934288 0.96300006 4294967295
0.04127143 -0.033934288 0.96300006 4294967295
0.043240003 -0.034040004 0.96600002 4294967295
0.061448574 -0.033934288 0.96300006 4294967295
0.063282862 -0.033934288 0.96300006 4294967295
0.065117151 -0.033934288 0.96300006 4294967295
0.066812389 -0.033863813 0.96100003 4294967295
0.068642862 -0.033863813 0.96100003 4294967295
0.070473336 -0.033863813 0.96100003 4294967295
0.072303817 -0.033863813 0.96100003 4294967295
0.074288577 -0.033934288 0.96300006 4294967295
0.076122865 -0.033934288 0.96300006 4294967295
0.077957146 -0.033934288 0.96300006 4294967295
0.079791434 -0.033934288 0.96300006 4294967295
0.081625722 -0.033934288 0.96300006 4294967295
0.083460003 -0.033934288 0.96300006 4294967295
0.098134294 -0.033934288 0.96300006 4294967295
0.099968575 -0.033934288 0.96300006 4294967295
0.10180286 -0.033934288 0.96300006 4294967295
0.10363715 -0.033934288 0.96300006 4294967295
0.11464287 -0.033934288 0.96300006 4294967295
0.11831143 -0.033934288 0.96300006 4294967295
0.12014572 -0.033934288 0.96300006 4294967295
-0.035768572 -0.032100003 0.96300006 4294967295
-0.032100003 -0.032100003 0.96300006 4294967295
-0.011922858 -0.032100003 0.96300006 4294967295
-0.010088572 -0.032100003 0.96300006 4294967295
-0.008237143 -0.032033335 0.96100003 4294967295
-0.0064066672 -0.032033335 0.96100003 4294967295
-0.0045761908 -0.032033335 0.96100003 4294967295
-0.0027457145 -0.032033335 0.96100003 4294967295
-0.00091523817 -0.032033335 0.96100003 4294967295
0.00091523817 -0.032033335 0.96100003 4294967295
0.0027457145 -0.032033335 0.96100003 4294967295
0.0045761908 -0.032033335 0.96100003 4294967295
0.0064200005 -0.032100003 0.96300006 4294967295
0.0082542859 -0.032100003 0.96300006 4294967295
0.022928573 -0.032100003 0.96300006 4294967295
0.02476286 -0.032100003 0.96300006 4294967295
0.026541907 -0.032033335 0.96100003 4294967295
0.028372383 -0.032033335 0.96100003 4294967295
0.03020286 -0.032033335 0.96100003 4294967295
0.031933334 -0.031933334 0.95800006 4294967295
0.033758096 -0.031933334 0.95800006 4294967295
0.035694286 -0.032033335 0.96100003 4294967295
0.037524763 -0.032033335 0.96100003 4294967295
0.039355241 -0.032033335 0.96100003 4294967295
0.041057147 -0.031933334 0.95800006 4294967295
0.043016192 -0.032033335 0.96100003 4294967295
0.044846669 -0.032033335 0.96100003 4294967295
0.048507623 -0.032033335 0.96100003 4294967295
0.050338097 -0.032033335 0.96100003 4294967295
0.052168574 -0.032033335 0.96100003 4294967295
0.05949048 -0.032033335 0.96100003 4294967295
0.061320957 -0.032033335 0.96100003 4294967295
0.062954292 -0.031933334 0.95800006 4294967295
0.064981908 -0.032033335 0.96100003 4294967295
0.066603817 -0.031933334 0.95800006 4294967295
0.068428576 -0.031933334 0.95800006 4294967295
0.070253335 -0.031933334 0.95800006 4294967295
0.072078101 -0.031933334 0.95800006 4294967295
0.07413429 -0.032033335 0.96100003 4294967295
0.075964764 -0.032033335 0.96100003 4294967295
0.077795245 -0.032033335 0.96100003 4294967295
0.079625718 -0.032033335 0.96100003 4294967295
0.081456199 -0.032033335 0.96100003 4294967295
0.083286673 -0.032033335 0.96100003 4294967295
-0.035694286 -0.03020286 0.96100003 4294967295
-0.033863813 -0.03020286 0.96100003 4294967295
-0.032033335 -0.03020286 0.96100003 4294967295
-0.03020286 -0.03020286 0.96100003 4294967295
-0.028372383 -0.03020286 0.96100003 4294967295
-0.026541907 -0.03020286 0.96100003 4294967295
-0.02471143 -0.03020286 0.96100003 4294967295
-0.022880955 -0.03020286 0.96100003 4294967295
-0.0082114292 -0.030108573 0.95800006 4294967295
-0.006386667 -0.030108573 0.95800006 4294967295
-0.0045619053 -0.030108573 0.95800006 4294967295
-0.0027371431 -0.030108573 0.95800006 4294967295
-0.00091238099 -0.030108573 0.95800006 4294967295
0.00091238099 -0.030108573 0.95800006 4294967295
0.0027371431 -0.030108573 0.95800006 4294967295
0.0045619053 -0.030108573 0.95800006 4294967295
0.026459049 -0.030108573 0.95800006 4294967295
0.028283812 -0.030108573 0.95800006 4294967295
0.030108573 -0.030108573 0.95800006 4294967295
0.031833336 -0.030014288 0.95500004 4294967295
0.033758096 -0.030108573 0.95800006 4294967295
0.035582859 -0.030108573 0.95800006 4294967295
0.037407622 -0.030108573 0.95800006 4294967295
0.039232384 -0.030108573 0.95800006 4294967295
0.040928572 -0.030014288 0.95500004 4294967295
0.042881906 -0.030108573 0.95800006 4294967295
0.044706669 -0.030108573 0.95800006 4294967295
0.046531431 -0.030108573 0.95800006 4294967295
0.048356194 -0.030108573 0.95800006 4294967295
0.050180957 -0.030108573 0.95800006 4294967295
0.052005719 -0.030108573 0.95800006 4294967295
0.055655241 -0.030108573 0.95800006 4294967295
0.059304766 -0.030108573 0.95800006 4294967295
0.061129529 -0.030108573 0.95800006 4294967295
0.062954292 -0.030108573 0.95800006 4294967295
0.064779051 -0.030108573 0.95800006 4294967295
-0.18618001 -0.02843143 0.96300006 4294967295
-0.11404762 -0.028283812 0.95800006 4294967295
-0.055655241 -0.028283812 0.95800006 4294967295
-0.053830478 -0.028283812 0.95800006 4294967295
-0.052005719 -0.028283812 0.95800006 4294967295
-0.050180957 -0.028283812 0.95800006 4294967295
-0.048204765 -0.02819524 0.95500004 4294967295
-0.046531431 -0.028283812 0.95800006 4294967295
-0.044706669 -0.028283812 0.95800006 4294967295
-0.042881906 -0.028283812 0.95800006 4294967295
-0.039232384 -0.028283812 0.95800006 4294967295
-0.035471432 -0.02819524 0.95500004 4294967295
-0.031833336 -0.02819524 0.95500004 4294967295
-0.030014288 -0.02819524 0.95500004 4294967295
-0.02819524 -0.02819524 0.95500004 4294967295
-0.026376192 -0.02819524 0.95500004 4294967295
-0.024557145 -0.02819524 0.95500004 4294967295
-0.022738097 -0.02819524 0.95500004 4294967295
-0.020919049 -0.02819524 0.95500004 4294967295
-0.019100001 -0.02819524 0.95500004 4294967295
-0.017280953 -0.02819524 0.95500004 4294967295
-0.015461906 -0.02819524 0.95500004 4294967295
-0.013642858 -0.02819524 0.95500004 4294967295
-0.011823811 -0.02819524 0.95500004 4294967295
-0.010004763 -0.02819524 0.95500004 4294967295
-0.0081857145 -0.02819524 0.95500004 4294967295
-0.0063666669 -0.02819524 0.95500004 4294967295
-0.0045476193 -0.02819524 0.95500004 4294967295
-0.0027285716 -0.02819524 0.95500004 4294967295
-0.00090952386 -0.02819524 0.95500004 4294967295
0.00090761913 -0.028136192 0.95300007 4294967295
0.0027228573 -0.028136192 0.95300007 4294967295
0.0045380956 -0.028136192 0.95300007 4294967295
0.0063333339 -0.028047621 0.95000005 4294967295
0.0081428578 -0.028047621 0.95000005 4294967295
0.0099523813 -0.028047621 0.95000005 4294967295
0.011761906 -0.028047621 0.95000005 4294967295
0.013642858 -0.02819524 0.95500004 4294967295
0.015461906 -0.02819524 0.95500004 4294967295
0.017280953 -0.02819524 0.95500004 4294967295
0.019100001 -0.02819524 0.95500004 4294967295
0.020919049 -0.02819524 0.95500004 4294967295
0.022738097 -0.02819524 0.95500004 4294967295
0.024557145 -0.02819524 0.95500004 4294967295
0.026376192 -0.02819524 0.95500004 4294967295
0.02819524 -0.02819524 0.95500004 4294967295
0.030014288 -0.02819524 0.95500004 4294967295
0.031766668 -0.028136192 0.95300007 4294967295
0.033581909 -0.028136192 0.95300007 4294967295
0.035397146 -0.028136192 0.95300007 4294967295
0.037212383 -0.028136192 0.95300007 4294967295
0.03902762 -0.028136192 0.95300007 4294967295
0.04071429 -0.028047621 0.95000005 4294967295
0.042523813 -0.028047621 0.95000005 4294967295
0.044333335 -0.028047621 0.95000005 4294967295
0.046142861 -0.028047621 0.95000005 4294967295
0.047952384 -0.028047621 0.95000005 4294967295
0.049761906 -0.028047621 0.95000005 4294967295
0.051571433 -0.028047621 0.95000005 4294967295
0.053380955 -0.028047621 0.95000005 4294967295
0.055190481 -0.028047621 0.95000005 4294967295
0.057000004 -0.028047621 0.95000005 4294967295
0.058809526 -0.028047621 0.95000005 4294967295
0.06081048 -0.028136192 0.95300007 4294967295
0.062428575 -0.028047621 0.95000005 4294967295
0.064440958 -0.028136192 0.95300007 4294967295
0.066256195 -0.028136192 0.95300007 4294967295
0.068071432 -0.028136192 0.95300007 4294967295
0.06988667 -0.028136192 0.95300007 4294967295
0.071701907 -0.028136192 0.95300007 4294967295
0.073517151 -0.028136192 0.95300007 4294967295
0.075095244 -0.028047621 0.95000005 4294967295
0.076904766 -0.028047621 0.95000005 4294967295
0.078714289 -0.028047621 0.95000005 4294967295
0.080523811 -0.028047621 0.95000005 4294967295
0.082333341 -0.028047621 0.95000005 4294967295
0.084142864 -0.028047621 0.95000005 4294967295
0.086223818 -0.028136192 0.95300007 4294967295
0.088039055 -0.028136192 0.95300007 4294967295
0.089854293 -0.028136192 0.95300007 4294967295
0.09166953 -0.028136192 0.95300007 4294967295
0.093484767 -0.028136192 0.95300007 4294967295
-0.11369048 -0.026376192 0.95500004 4294967295
-0.066395245 -0.026376192 0.95500004 4294967295
-0.064576194 -0.026376192 0.95500004 4294967295
-0.062757149 -0.026376192 0.95500004 4294967295
-0.059119053 -0.026376192 0.95500004 4294967295
-0.057300005 -0.026376192 0.95500004 4294967295
-0.055364765 -0.026320955 0.95300007 4294967295
-0.04991905 -0.026320955 0.95300007 4294967295
-0.048103813 -0.026320955 0.95300007 4294967295
-0.046288576 -0.026320955 0.95300007 4294967295
-0.044473335 -0.026320955 0.95300007 4294967295
-0.035397146 -0.026320955 0.95300007 4294967295
-0.026320955 -0.026320955 0.95300007 4294967295
-0.022690477 -0.026320955 0.95300007 4294967295
-0.02087524 -0.026320955 0.95300007 4294967295
-0.019060001 -0.026320955 0.95300007 4294967295
-0.017244764 -0.026320955 0.95300007 4294967295
-0.015380953 -0.026238097 0.95000005 4294967295
-0.013571429 -0.026238097 0.95000005 4294967295
-0.011799049 -0.026320955 0.95300007 4294967295
-0.0099838106 -0.026320955 0.95300007 4294967295
-0.0081685716 -0.026320955 0.95300007 4294967295
-0.0063533336 -0.026320955 0.95300007 4294967295
-0.0045380956 -0.026320955 0.95300007 4294967295
-0.0027228573 -0.026320955 0.95300007 4294967295
-0.00090761913 -0.026320955 0.95300007 4294967295
0.00090476195 -0.026238097 0.95000005 4294967295
0.0027142859 -0.026238097 0.95000005 4294967295
0.00452381 -0.026238097 0.95000005 4294967295
0.0063333339 -0.026238097 0.95000005 4294967295
0.008125715 -0.026182858 0.94800007 4294967295
0.0099314293 -0.026182858 0.94800007 4294967295
0.011737144 -0.026182858 0.94800007 4294967295
0.013542858 -0.026182858 0.94800007 4294967295
0.015380953 -0.026238097 0.95000005 4294967295
0.017190477 -0.026238097 0.95000005 4294967295
0.019000001 -0.026238097 0.95000005 4294967295
0.020809526 -0.026238097 0.95000005 4294967295
0.03166667 -0.026238097 0.95000005 4294967295
0.033476193 -0.026238097 0.95000005 4294967295
0.035285715 -0.026238097 0.95000005 4294967295
0.037095241 -0.026238097 0.95000005 4294967295
0.038904764 -0.026238097 0.95000005 4294967295
0.040628575 -0.026182858 0.94800007 4294967295
0.04243429 -0.026182858 0.94800007 4294967295
0.044240002 -0.026182858 0.94800007 4294967295
0.046045717 -0.026182858 0.94800007 4294967295
0.047851432 -0.026182858 0.94800007 4294967295
0.049657147 -0.026182858 0.94800007 4294967295
0.051462859 -0.026182858 0.94800007 4294967295
0.053100005 -0.026100002 0.94500005 4294967295
0.054900005 -0.026100002 0.94500005 4294967295
0.056880005 -0.026182858 0.94800007 4294967295
0.058500003 -0.026100002 0.94500005 4294967295
0.060491432 -0.026182858 0.94800007 4294967295
0.062297147 -0.026182858 0.94800007 4294967295
0.064238101 -0.026238097 0.95000005 4294967295
0.066047624 -0.026238097 0.95000005 4294967295
0.073285721 -0.026238097 0.95000005 4294967295
0.075095244 -0.026238097 0.95000005 4294967295
0.076904766 -0.026238097 0.95000005 4294967295
0.078714289 -0.026238097 0.95000005 4294967295
0.080354288 -0.026182858 0.94800007 4294967295
0.082160003 -0.026182858 0.94800007 4294967295
0.083965719 -0.026182858 0.94800007 4294967295
0.085771434 -0.026182858 0.94800007 4294967295
0.087761909 -0.026238097 0.95000005 4294967295
0.089571431 -0.026238097 0.95000005 4294967295
-0.049761906 -0.024428573 0.95000005 4294967295
-0.047952384 -0.024428573 0.95000005 4294967295
-0.046142861 -0.024428573 0.95000005 4294967295
-0.044333335 -0.024428573 0.95000005 4294967295
-0.038904764 -0.024428573 0.95000005 4294967295
-0.037095241 -0.024428573 0.95000005 4294967295
-0.035285715 -0.024428573 0.95000005 4294967295
-0.033476193 -0.024428573 0.95000005 4294967295
-0.026238097 -0.024428573 0.95000005 4294967295
-0.020809526 -0.024428573 0.95000005 4294967295
-0.019000001 -0.024428573 0.95000005 4294967295
-0.017154288 -0.024377145 0.94800007 4294967295
-0.015348572 -0.024377145 0.94800007 4294967295
-0.013542858 -0.024377145 0.94800007 4294967295
-0.011737144 -0.024377145 0.94800007 4294967295
0.00090285722 -0.024377145 0.94800007 4294967295
0.0027085715 -0.024377145 0.94800007 4294967295
0.0045142858 -0.024377145 0.94800007 4294967295
0.0063200006 -0.024377145 0.94800007 4294967295
0.008125715 -0.024377145 0.94800007 4294967295
0.0099000009 -0.024300002 0.94500005 4294967295
0.011700001 -0.024300002 0.94500005 4294967295
0.013500001 -0.024300002 0.94500005 4294967295
0.015300001 -0.024300002 0.94500005 4294967295
0.017100001 -0.024300002 0.94500005 4294967295
0.018900001 -0.024300002 0.94500005 4294967295
0.020700002 -0.024300002 0.94500005 4294967295
0.02257143 -0.024377145 0.94800007 4294967295
0.024377145 -0.024377145 0.94800007 4294967295
0.031600002 -0.024377145 0.94800007 4294967295
0.033405717 -0.024377145 0.94800007 4294967295
0.035100002 -0.024300002 0.94500005 4294967295
0.036900003 -0.024300002 0.94500005 4294967295
0.03882286 -0.024377145 0.94800007 4294967295
0.040500004 -0.024300002 0.94500005 4294967295
0.042300005 -0.024300002 0.94500005 4294967295
0.044100001 -0.024300002 0.94500005 4294967295
0.045900002 -0.024300002 0.94500005 4294967295
0.047700003 -0.024300002 0.94500005 4294967295
0.049500003 -0.024300002 0.94500005 4294967295
0.051137146 -0.024222858 0.94200003 4294967295
0.052931432 -0.024222858 0.94200003 4294967295
0.054725718 -0.024222858 0.94200003 4294967295
0.056520004 -0.024222858 0.94200003 4294967295
0.05831429 -0.024222858 0.94200003 4294967295
0.060108576 -0.024222858 0.94200003 4294967295
0.062100004 -0.024300002 0.94500005 4294967295
0.063900001 -0.024300002 0.94500005 4294967295
0.065700002 -0.024300002 0.94500005 4294967295
0.080100007 -0.024300002 0.94500005 4294967295
0.081900008 -0.024300002 0.94500005 4294967295
0.083700009 -0.024300002 0.94500005 4294967295
0.085500002 -0.024300002 0.94500005 4294967295
0.087300003 -0.024300002 0.94500005 4294967295
0.089100003 -0.024300002 0.94500005 4294967295
0.090900004 -0.024300002 0.94500005 4294967295
0.092700005 -0.024300002 0.94500005 4294967295
0.10530001 -0.024300002 0.94500005 4294967295
0.10890001 -0.024300002 0.94500005 4294967295
0.1107 -0.024300002 0.94500005 4294967295
-0.0045000003 -0.022500001 0.94500005 4294967295
0.00090000004 -0.022500001 0.94500005 4294967295
0.0045000003 -0.022500001 0.94500005 4294967295
0.0063000005 -0.022500001 0.94500005 4294967295
0.0081000002 -0.022500001 0.94500005 4294967295
0.0098685725 -0.022428572 0.94200003 4294967295
0.011662858 -0.022428572 0.94200003 4294967295
0.013457144 -0.022428572 0.94200003 4294967295
0.015219049 -0.022380954 0.94000006 4294967295
0.017009525 -0.022380954 0.94000006 4294967295
0.018800002 -0.022380954 0.94000006 4294967295
0.020590477 -0.022380954 0.94000006 4294967295
0.022428572 -0.022428572 0.94200003 4294967295
0.024222858 -0.022428572 0.94200003 4294967295
0.026100002 -0.022500001 0.94500005 4294967295
0.027900001 -0.022500001 0.94500005 4294967295
0.029700002 -0.022500001 0.94500005 4294967295
0.031500001 -0.022500001 0.94500005 4294967295
0.033194289 -0.022428572 0.94200003 4294967295
0.034914289 -0.022380954 0.94000006 4294967295
0.036782861 -0.022428572 0.94200003 4294967295
0.038577147 -0.022428572 0.94200003 4294967295
0.040371433 -0.022428572 0.94200003 4294967295
0.042165715 -0.022428572 0.94200003 4294967295
0.043960001 -0.022428572 0.94200003 4294967295
0.045754287 -0.022428572 0.94200003 4294967295
0.047548573 -0.022428572 0.94200003 4294967295
0.04934286 -0.022428572 0.94200003 4294967295
0.051028576 -0.022380954 0.94000006 4294967295
0.052819051 -0.022380954 0.94000006 4294967295
0.054609526 -0.022380954 0.94000006 4294967295
0.056400005 -0.022380954 0.94000006 4294967295
0.05819048 -0.022380954 0.94000006 4294967295
0.059980955 -0.022380954 0.94000006 4294967295
0.061771434 -0.022380954 0.94000006 4294967295
0.063561909 -0.022380954 0.94000006 4294967295
0.06549143 -0.022428572 0.94200003 4294967295
0.067285717 -0.022428572 0.94200003 4294967295
0.078051433 -0.022428572 0.94200003 4294967295
0.079845719 -0.022428572 0.94200003 4294967295
0.081640005 -0.022428572 0.94200003 4294967295
0.083434291 -0.022428572 0.94200003 4294967295
0.085228577 -0.022428572 0.94200003 4294967295
0.086838104 -0.022380954 0.94000006 4294967295
0.088628575 -0.022380954 0.94000006 4294967295
0.090419054 -0.022380954 0.94000006 4294967295
0.092405722 -0.022428572 0.94200003 4294967295
0.094200008 -0.022428572 0.94200003 4294967295
0.095994294 -0.022428572 0.94200003 4294967295
0.09778858 -0.022428572 0.94200003 4294967295
0.099582866 -0.022428572 0.94200003 4294967295
0.10317144 -0.022428572 0.94200003 4294967295
0.10496572 -0.022428572 0.94200003 4294967295
0.10676001 -0.022428572 0.94200003 4294967295
0.1085543 -0.022428572 0.94200003 4294967295
0.11034858 -0.022428572 0.94200003 4294967295
0.11393715 -0.022428572 0.94200003 4294967295
0.11573143 -0.022428572 0.94200003 4294967295
-0.034988575 -0.020634288 0.94200003 4294967295
-0.03312381 -0.020590477 0.94000006 4294967295
-0.031333335 -0.020590477 0.94000006 4294967295
-0.02954286 -0.020590477 0.94000006 4294967295
-0.027752383 -0.020590477 0.94000006 4294967295
-0.025961906 -0.020590477 0.94000006 4294967295
-0.024222858 -0.020634288 0.94200003 4294967295
-0.01525143 -0.020634288 0.94200003 4294967295
-0.0080742864 -0.020634288 0.94200003 4294967295
-0.0062800003 -0.020634288 0.94200003 4294967295
-0.0044857147 -0.020634288 0.94200003 4294967295
-0.00089714292 -0.020634288 0.94200003 4294967295
0.00089714292 -0.020634288 0.94200003 4294967295
0.0026857145 -0.020590477 0.94000006 4294967295
0.0044857147 -0.020634288 0.94200003 4294967295
0.0062800003 -0.020634288 0.94200003 4294967295
0.0080571435 -0.020590477 0.94000006 4294967295
0.0098476196 -0.020590477 0.94000006 4294967295
0.011638096 -0.020590477 0.94000006 4294967295
0.013428573 -0.020590477 0.94000006 4294967295
0.015219049 -0.020590477 0.94000006 4294967295
0.01695524 -0.020524763 0.93700004 4294967295
0.018800002 -0.020590477 0.94000006 4294967295
0.020590477 -0.020590477 0.94000006 4294967295
0.022380954 -0.020590477 0.94000006 4294967295
0.024171431 -0.020590477 0.94000006 4294967295
0.025961906 -0.020590477 0.94000006 4294967295
0.027752383 -0.020590477 0.94000006 4294967295
0.02954286 -0.020590477 0.94000006 4294967295
0.031333335 -0.020590477 0.94000006 4294967295
0.03312381 -0.020590477 0.94000006 4294967295
0.034802858 -0.020524763 0.93700004 4294967295
0.036587622 -0.020524763 0.93700004 4294967295
0.038495239 -0.020590477 0.94000006 4294967295
0.040285718 -0.020590477 0.94000006 4294967295
0.042076193 -0.020590477 0.94000006 4294967295
0.043866668 -0.020590477 0.94000006 4294967295
0.045657147 -0.020590477 0.94000006 4294967295
0.047447622 -0.020590477 0.94000006 4294967295
0.049238097 -0.020590477 0.94000006 4294967295
0.051028576 -0.020590477 0.94000006 4294967295
0.052650481 -0.020524763 0.93700004 4294967295
0.054435242 -0.020524763 0.93700004 4294967295
0.056400005 -0.020590477 0.94000006 4294967295
0.05819048 -0.020590477 0.94000006 4294967295
0.059980955 -0.020590477 0.94000006 4294967295
0.061771434 -0.020590477 0.94000006 4294967295
0.063561909 -0.020590477 0.94000006 4294967295
0.065352388 -0.020590477 0.94000006 4294967295
0.067142859 -0.020590477 0.94000006 4294967295
0.068933338 -0.020590477 0.94000006 4294967295
0.070723817 -0.020590477 0.94000006 4294967295
0.072514288 -0.020590477 0.94000006 4294967295
0.084776193 -0.020524763 0.93700004 4294967295
0.086560957 -0.020524763 0.93700004 4294967295
0.088345721 -0.020524763 0.93700004 4294967295
0.090130486 -0.020524763 0.93700004 4294967295
0.091915242 -0.020524763 0.93700004 4294967295
0.093700007 -0.020524763 0.93700004 4294967295
0.095484771 -0.020524763 0.93700004 4294967295
-0.036704764 -0.018800002 0.94000006 4294967295
-0.034802858 -0.018740002 0.93700004 4294967295
-0.033018097 -0.018740002 0.93700004 4294967295
-0.031233335 -0.018740002 0.93700004 4294967295
-0.029448573 -0.018740002 0.93700004 4294967295
-0.027663812 -0.018740002 0.93700004 4294967295
-0.02587905 -0.018740002 0.93700004 4294967295
-0.024094287 -0.018740002 0.93700004 4294967295
-0.0080314288 -0.018740002 0.93700004 4294967295
-0.0062466669 -0.018740002 0.93700004 4294967295
-0.004461905 -0.018740002 0.93700004 4294967295
-0.0026771431 -0.018740002 0.93700004 4294967295
-0.00089047622 -0.018700002 0.93500006 4294967295
0.00089238101 -0.018740002 0.93700004 4294967295
0.0026714287 -0.018700002 0.93500006 4294967295
0.0044523813 -0.018700002 0.93500006 4294967295
0.0062466669 -0.018740002 0.93700004 4294967295
0.0080314288 -0.018740002 0.93700004 4294967295
0.0097952392 -0.018700002 0.93500006 4294967295
0.011600954 -0.018740002 0.93700004 4294967295
0.013385715 -0.018740002 0.93700004 4294967295
0.015170477 -0.018740002 0.93700004 4294967295
0.01695524 -0.018740002 0.93700004 4294967295
0.018740002 -0.018740002 0.93700004 4294967295
0.020524763 -0.018740002 0.93700004 4294967295
0.022309525 -0.018740002 0.93700004 4294967295
0.024094287 -0.018740002 0.93700004 4294967295
0.027663812 -0.018740002 0.93700004 4294967295
0.031233335 -0.018740002 0.93700004 4294967295
0.033018097 -0.018740002 0.93700004 4294967295
0.034802858 -0.018740002 0.93700004 4294967295
0.036587622 -0.018740002 0.93700004 4294967295
0.038372383 -0.018740002 0.93700004 4294967295
0.040157147 -0.018740002 0.93700004 4294967295
0.041941907 -0.018740002 0.93700004 4294967295
0.043726668 -0.018740002 0.93700004 4294967295
0.045511432 -0.018740002 0.93700004 4294967295
0.047296192 -0.018740002 0.93700004 4294967295
0.049080957 -0.018740002 0.93700004 4294967295
0.050865717 -0.018740002 0.93700004 4294967295
0.052650481 -0.018740002 0.93700004 4294967295
0.054435242 -0.018740002 0.93700004 4294967295
0.056220002 -0.018740002 0.93700004 4294967295
0.058004767 -0.018740002 0.93700004 4294967295
0.059789527 -0.018740002 0.93700004 4294967295
0.061574291 -0.018740002 0.93700004 4294967295
0.063359052 -0.018740002 0.93700004 4294967295
0.084595241 -0.018700002 0.93500006 4294967295
0.086376198 -0.018700002 0.93500006 4294967295
0.087874293 -0.01864 0.93200004 4294967295
0.089938104 -0.018700002 0.93500006 4294967295
0.091719054 -0.018700002 0.93500006 4294967295
0.093500003 -0.018700002 0.93500006 4294967295
0.09528096 -0.018700002 0.93500006 4294967295
0.11309049 -0.018700002 0.93500006 4294967295
-0.034728575 -0.016919049 0.93500006 4294967295
-0.032947622 -0.016919049 0.93500006 4294967295
-0.031166669 -0.016919049 0.93500006 4294967295
-0.029385716 -0.016919049 0.93500006 4294967295
-0.027604764 -0.016919049 0.93500006 4294967295
-0.025823811 -0.016919049 0.93500006 4294967295
-0.024042858 -0.016919049 0.93500006 4294967295
-0.022261906 -0.016919049 0.93500006 4294967295
-0.0080142859 -0.016919049 0.93500006 4294967295
-0.0062333336 -0.016919049 0.93500006 4294967295
-0.0044523813 -0.016919049 0.93500006 4294967295
-0.0026628573 -0.016864764 0.93200004 4294967295
-0.0008876191 -0.016864764 0.93200004 4294967295
0.00088571437 -0.016828572 0.93000007 4294967295
0.0026628573 -0.016864764 0.93200004 4294967295
0.0044285716 -0.016828572 0.93000007 4294967295
0.0062133339 -0.016864764 0.93200004 4294967295
0.0079885721 -0.016864764 0.93200004 4294967295
0.0097638099 -0.016864764 0.93200004 4294967295
0.011576192 -0.016919049 0.93500006 4294967295
0.013357144 -0.016919049 0.93500006 4294967295
0.015138096 -0.016919049 0.93500006 4294967295
0.016919049 -0.016919049 0.93500006 4294967295
0.018700002 -0.016919049 0.93500006 4294967295
0.020480953 -0.016919049 0.93500006 4294967295
0.041718099 -0.016864764 0.93200004 4294967295
0.071897149 -0.016864764 0.93200004 4294967295
0.084323816 -0.016864764 0.93200004 4294967295
0.086099051 -0.016864764 0.93200004 4294967295
0.087685719 -0.016828572 0.93000007 4294967295
0.089457147 -0.016828572 0.93000007 4294967295
0.091228575 -0.016828572 0.93000007 4294967295
0.09300001 -0.016828572 0.93000007 4294967295
0.094975248 -0.016864764 0.93200004 4294967295
0.096750483 -0.016864764 0.93200004 4294967295
-0.032841906 -0.015089525 0.93200004 4294967295
-0.031066669 -0.015089525 0.93200004 4294967295
-0.02929143 -0.015089525 0.93200004 4294967295
-0.022190478 -0.015089525 0.93200004 4294967295
-0.015089525 -0.015089525 0.93200004 4294967295
-0.013314286 -0.015089525 0.93200004 4294967295
-0.011539049 -0.015089525 0.93200004 4294967295
-0.0097638099 -0.015089525 0.93200004 4294967295
-0.0079885721 -0.015089525 0.93200004 4294967295
-0.0062133339 -0.015089525 0.93200004 4294967295
-0.0044380957 -0.015089525 0.93200004 4294967295
-0.0026571429 -0.015057144 0.93000007 4294967295
-0.00088571437 -0.015057144 0.93000007 4294967295
0.00088571437 -0.015057144 0.93000007 4294967295
0.0026571429 -0.015057144 0.93000007 4294967295
0.0044285716 -0.015057144 0.93000007 4294967295
0.0062000002 -0.015057144 0.93000007 4294967295
0.0079714293 -0.015057144 0.93000007 4294967295
0.0097428579 -0.015057144 0.93000007 4294967295
0.013285715 -0.015057144 0.93000007 4294967295
0.016828572 -0.015057144 0.93000007 4294967295
0.038085718 -0.015057144 0.93000007 4294967295
0.039857145 -0.015057144 0.93000007 4294967295
0.041628573 -0.015057144 0.93000007 4294967295
0.043400005 -0.015057144 0.93000007 4294967295
0.045171432 -0.015057144 0.93000007 4294967295
0.048714288 -0.015057144 0.93000007 4294967295
0.050485719 -0.015057144 0.93000007 4294967295
0.090934291 -0.015008572 0.92700005 4294967295
0.092700005 -0.015008572 0.92700005 4294967295
-0.0026485715 -0.013242858 0.92700005 4294967295
-0.00088285719 -0.013242858 0.92700005 4294967295
0.00088285719 -0.013242858 0.92700005 4294967295
0.0026485715 -0.013242858 0.92700005 4294967295
0.004414286 -0.013242858 0.92700005 4294967295
0.0061800005 -0.013242858 0.92700005 4294967295
0.0079457145 -0.013242858 0.92700005 4294967295
0.0097114295 -0.013242858 0.92700005 4294967295
0.013242858 -0.013242858 0.92700005 4294967295
0.016774287 -0.013242858 0.92700005 4294967295
0.034431431 -0.013242858 0.92700005 4294967295
0.037962861 -0.013242858 0.92700005 4294967295
0.039728574 -0.013242858 0.92700005 4294967295
0.041404765 -0.013214286 0.92500007 4294967295
0.043260004 -0.013242858 0.92700005 4294967295
0.045025717 -0.013242858 0.92700005 4294967295
0.046791431 -0.013242858 0.92700005 4294967295
0.048557147 -0.013242858 0.92700005 4294967295
0.05032286 -0.013242858 0.92700005 4294967295
0.052088574 -0.013242858 0.92700005 4294967295
0.05385429 -0.013242858 0.92700005 4294967295
0.055620003 -0.013242858 0.92700005 4294967295
-0.02202381 -0.011452381 0.92500007 4294967295
0.00088095246 -0.011452381 0.92500007 4294967295
0.0026428574 -0.011452381 0.92500007 4294967295
0.0044047623 -0.011452381 0.92500007 4294967295
0.0061666672 -0.011452381 0.92500007 4294967295
0.0079285717 -0.011452381 0.92500007 4294967295
0.0096904766 -0.011452381 0.92500007 4294967295
0.011452381 -0.011452381 0.92500007 4294967295
0.013214286 -0.011452381 0.92500007 4294967295
0.037758097 -0.011415238 0.92200005 4294967295
0.039514288 -0.011415238 0.92200005 4294967295
0.04127048 -0.011415238 0.92200005 4294967295
0.071125716 -0.011415238 0.92200005 4294967295
-0.036001906 -0.0096590482 0.92200005 4294967295
-0.034245718 -0.0096590482 0.92200005 4294967295
-0.032419048 -0.0096380962 0.92000002 4294967295
-0.030666668 -0.0096380962 0.92000002 4294967295
-0.028914288 -0.0096380962 0.92000002 4294967295
-0.027161907 -0.0096380962 0.92000002 4294967295
-0.025409525 -0.0096380962 0.92000002 4294967295
-0.023657145 -0.0096380962 0.92000002 4294967295
-0.021904763 -0.0096380962 0.92000002 4294967295
-0.020152383 -0.0096380962 0.92000002 4294967295
-0.0184 -0.0096380962 0.92000002 4294967295
-0.016683811 -0.0096590482 0.92200005 4294967295
-0.01492762 -0.0096590482 0.92200005 4294967295
-0.01317143 -0.0096590482 0.92200005 4294967295
-0.011415238 -0.0096590482 0.92200005 4294967295
-0.0043904763 -0.0096590482 0.92200005 4294967295
-0.0026342859 -0.0096590482 0.92200005 4294967295
-0.00087809528 -0.0096590482 0.92200005 4294967295
0.00087809528 -0.0096590482 0.92200005 4294967295
0.0026285716 -0.0096380962 0.92000002 4294967295
0.0043809526 -0.0096380962 0.92000002 4294967295
0.0061133336 -0.0096066669 0.91700006 4294967295
0.007885715 -0.0096380962 0.92000002 4294967295
0.0096380962 -0.0096380962 0.92000002 4294967295
0.011390476 -0.0096380962 0.92000002 4294967295
0.013142858 -0.0096380962 0.92000002 4294967295
0.014895239 -0.0096380962 0.92000002 4294967295
0.020152383 -0.0096380962 0.92000002 4294967295
0.021904763 -0.0096380962 0.92000002 4294967295
0.023657145 -0.0096380962 0.92000002 4294967295
0.025409525 -0.0096380962 0.92000002 4294967295
0.027161907 -0.0096380962 0.92000002 4294967295
0.028820002 -0.0096066669 0.91700006 4294967295
0.030566668 -0.0096066669 0.91700006 4294967295
0.032313336 -0.0096066669 0.91700006 4294967295
0.034060001 -0.0096066669 0.91700006 4294967295
0.035806671 -0.0096066669 0.91700006 4294967295
0.037553336 -0.0096066669 0.91700006 4294967295
0.039300002 -0.0096066669 0.91700006 4294967295
0.041046668 -0.0096066669 0.91700006 4294967295
0.042793337 -0.0096066669 0.91700006 4294967295
0.044540003 -0.0096066669 0.91700006 4294967295
0.046286669 -0.0096066669 0.91700006 4294967295
0.048033338 -0.0096066669 0.91700006 4294967295
0.049780004 -0.0096066669 0.91700006 4294967295
0.051526669 -0.0096066669 0.91700006 4294967295
0.053273335 -0.0096066669 0.91700006 4294967295
0.055020005 -0.0096066669 0.91700006 4294967295
0.05676667 -0.0096066669 0.91700006 4294967295
0.058513336 -0.0096066669 0.91700006 4294967295
0.060260005 -0.0096066669 0.91700006 4294967295
0.062006671 -0.0096066669 0.91700006 4294967295
0.063961908 -0.0096380962 0.92000002 4294967295
0.065714292 -0.0096380962 0.92000002 4294967295
0.067246668 -0.0096066669 0.91700006 4294967295
0.068993337 -0.0096066669 0.91700006 4294967295
0.070740007 -0.0096066669 0.91700006 4294967295
0.072486669 -0.0096066669 0.91700006 4294967295
0.074233338 -0.0096066669 0.91700006 4294967295
0.075980008 -0.0096066669 0.91700006 4294967295
0.07772667 -0.0096066669 0.91700006 4294967295
0.079473339 -0.0096066669 0.91700006 4294967295
0.081220008 -0.0096066669 0.91700006 4294967295
0.11790001 -0.0096066669 0.91700006 4294967295
0.11964668 -0.0096066669 0.91700006 4294967295
-0.035923813 -0.007885715 0.92000002 4294967295
-0.034060001 -0.0078600002 0.91700006 4294967295
-0.032313336 -0.0078600002 0.91700006 4294967295
-0.030500002 -0.0078428574 0.91500002 4294967295
-0.028757146 -0.0078428574 0.91500002 4294967295
-0.027014287 -0.0078428574 0.91500002 4294967295
-0.025271431 -0.0078428574 0.91500002 4294967295
-0.023580002 -0.0078600002 0.91700006 4294967295
-0.021833334 -0.0078600002 0.91700006 4294967295
-0.020086668 -0.0078600002 0.91700006 4294967295
-0.018340001 -0.0078600002 0.91700006 4294967295
-0.013100001 -0.0078600002 0.91700006 4294967295
-0.004366667 -0.0078600002 0.91700006 4294967295
-0.0026200002 -0.0078600002 0.91700006 4294967295
0.0026200002 -0.0078600002 0.91700006 4294967295
0.004366667 -0.0078600002 0.91700006 4294967295
0.0061000003 -0.0078428574 0.91500002 4294967295
0.0078600002 -0.0078600002 0.91700006 4294967295
0.0096066669 -0.0078600002 0.91700006 4294967295
0.011328572 -0.0078428574 0.91500002 4294967295
0.013071429 -0.0078428574 0.91500002 4294967295
0.014814286 -0.0078428574 0.91500002 4294967295
0.016593335 -0.0078600002 0.91700006 4294967295
0.018340001 -0.0078600002 0.91700006 4294967295
0.020086668 -0.0078600002 0.91700006 4294967295
0.021833334 -0.0078600002 0.91700006 4294967295
0.023580002 -0.0078600002 0.91700006 4294967295
0.025326669 -0.0078600002 0.91700006 4294967295
0.027014287 -0.0078428574 0.91500002 4294967295
0.028757146 -0.0078428574 0.91500002 4294967295
0.030500002 -0.0078428574 0.91500002 4294967295
0.032242861 -0.0078428574 0.91500002 4294967295
0.033985715 -0.0078428574 0.91500002 4294967295
0.035728574 -0.0078428574 0.91500002 4294967295
0.037471432 -0.0078428574 0.91500002 4294967295
0.039214287 -0.0078428574 0.91500002 4294967295
0.040957145 -0.0078428574 0.91500002 4294967295
0.042793337 -0.0078600002 0.91700006 4294967295
0.044540003 -0.0078600002 0.91700006 4294967295
0.046286669 -0.0078600002 0.91700006 4294967295
0.047928575 -0.0078428574 0.91500002 4294967295
0.04967143 -0.0078428574 0.91500002 4294967295
0.051414289 -0.0078428574 0.91500002 4294967295
0.053157147 -0.0078428574 0.91500002 4294967295
0.054900005 -0.0078428574 0.91500002 4294967295
0.05664286 -0.0078428574 0.91500002 4294967295
0.058385719 -0.0078428574 0.91500002 4294967295
0.068842858 -0.0078428574 0.91500002 4294967295
0.07058572 -0.0078428574 0.91500002 4294967295
0.072328575 -0.0078428574 0.91500002 4294967295
0.074071437 -0.0078428574 0.91500002 4294967295
0.075814292 -0.0078428574 0.91500002 4294967295
0.077557147 -0.0078428574 0.91500002 4294967295
0.079300009 -0.0078428574 0.91500002 4294967295
0.081042863 -0.0078428574 0.91500002 4294967295
0.1037 -0.0078428574 0.91500002 4294967295
-0.033985715 -0.0061000003 0.91500002 4294967295
-0.032242861 -0.0061000003 0.91500002 4294967295
-0.030500002 -0.0061000003 0.91500002 4294967295
-0.028757146 -0.0061000003 0.91500002 4294967295
-0.027014287 -0.0061000003 0.91500002 4294967295
-0.025271431 -0.0061000003 0.91500002 4294967295
-0.023528572 -0.0061000003 0.91500002 4294967295
-0.021785716 -0.0061000003 0.91500002 4294967295
-0.020042859 -0.0061000003 0.91500002 4294967295
-0.018300001 -0.0061000003 0.91500002 4294967295
-0.016557144 -0.0061000003 0.91500002 4294967295
-0.014814286 -0.0061000003 0.91500002 4294967295
-0.013071429 -0.0061000003 0.91500002 4294967295
-0.011328572 -0.0061000003 0.91500002 4294967295
-0.0043571433 -0.0061000003 0.91500002 4294967295
-0.0026142858 -0.0061000003 0.91500002 4294967295
-0.00087142864 -0.0061000003 0.91500002 4294967295
0.00087142864 -0.0061000003 0.91500002 4294967295
0.0026142858 -0.0061000003 0.91500002 4294967295
0.0043476191 -0.0060866671 0.91300005 4294967295
0.0060866671 -0.0060866671 0.91300005 4294967295
0.0078257145 -0.0060866671 0.91300005 4294967295
0.0095647629 -0.0060866671 0.91300005 4294967295
0.011266667 -0.0060666669 0.91000003 4294967295
0.013000001 -0.0060666669 0.91000003 4294967295
0.014733334 -0.0060666669 0.91000003 4294967295
0.016520953 -0.0060866671 0.91300005 4294967295
0.01826 -0.0060866671 0.91300005 4294967295
0.01999905 -0.0060866671 0.91300005 4294967295
0.021738097 -0.0060866671 0.91300005 4294967295
0.026955239 -0.0060866671 0.91300005 4294967295
0.028694287 -0.0060866671 0.91300005 4294967295
0.030433334 -0.0060866671 0.91300005 4294967295
0.032172382 -0.0060866671 0.91300005 4294967295
0.033911429 -0.0060866671 0.91300005 4294967295
0.035650477 -0.0060866671 0.91300005 4294967295
0.037389528 -0.0060866671 0.91300005 4294967295
0.039128575 -0.0060866671 0.91300005 4294967295
0.040867623 -0.0060866671 0.91300005 4294967295
0.04260667 -0.0060866671 0.91300005 4294967295
0.047823813 -0.0060866671 0.91300005 4294967295
0.04956286 -0.0060866671 0.91300005 4294967295
0.051301908 -0.0060866671 0.91300005 4294967295
0.053040955 -0.0060866671 0.91300005 4294967295
0.054780003 -0.0060866671 0.91300005 4294967295
0.05651905 -0.0060866671 0.91300005 4294967295
0.058258098 -0.0060866671 0.91300005 4294967295
0.059997145 -0.0060866671 0.91300005 4294967295
0.061736196 -0.0060866671 0.91300005 4294967295
0.066953339 -0.0060866671 0.91300005 4294967295
0.068692386 -0.0060866671 0.91300005 4294967295
0.070431434 -0.0060866671 0.91300005 4294967295
0.072170481 -0.0060866671 0.91300005 4294967295
0.073909529 -0.0060866671 0.91300005 4294967295
0.075648576 -0.0060866671 0.91300005 4294967295
0.077387623 -0.0060866671 0.91300005 4294967295
0.079126671 -0.0060866671 0.91300005 4294967295
-0.035650477 -0.0043476191 0.91300005 4294967295
-0.033911429 -0.0043476191 0.91300005 4294967295
-0.032172382 -0.0043476191 0.91300005 4294967295
-0.030433334 -0.0043476191 0.91300005 4294967295
-0.028694287 -0.0043476191 0.91300005 4294967295
-0.026955239 -0.0043476191 0.91300005 4294967295
-0.025216192 -0.0043476191 0.91300005 4294967295
-0.023477145 -0.0043476191 0.91300005 4294967295
-0.01999905 -0.0043476191 0.91300005 4294967295
0.0026000002 -0.0043333336 0.91000003 4294967295
0.0043333336 -0.0043333336 0.91000003 4294967295
0.0060533336 -0.0043238099 0.90800005 4294967295
0.0077828579 -0.0043238099 0.90800005 4294967295
0.0095123816 -0.0043238099 0.90800005 4294967295
0.011241905 -0.0043238099 0.90800005 4294967295
0.012971429 -0.0043238099 0.90800005 4294967295
0.014700953 -0.0043238099 0.90800005 4294967295
0.016466668 -0.0043333336 0.91000003 4294967295
0.018200001 -0.0043333336 0.91000003 4294967295
0.019933335 -0.0043333336 0.91000003 4294967295
0.021666668 -0.0043333336 0.91000003 4294967295
0.023400001 -0.0043333336 0.91000003 4294967295
0.025133334 -0.0043333336 0.91000003 4294967295
0.026866669 -0.0043333336 0.91000003 4294967295
0.028600002 -0.0043333336 0.91000003 4294967295
0.030266669 -0.0043238099 0.90800005 4294967295
0.031996194 -0.0043238099 0.90800005 4294967295
0.033725716 -0.0043238099 0.90800005 4294967295
0.035455242 -0.0043238099 0.90800005 4294967295
0.037266668 -0.0043333336 0.91000003 4294967295
0.039000001 -0.0043333336 0.91000003 4294967295
0.040733337 -0.0043333336 0.91000003 4294967295
0.04246667 -0.0043333336 0.91000003 4294967295
0.044200003 -0.0043333336 0.91000003 4294967295
0.047666669 -0.0043333336 0.91000003 4294967295
0.049400002 -0.0043333336 0.91000003 4294967295
0.051020958 -0.0043238099 0.90800005 4294967295
0.052750479 -0.0043238099 0.90800005 4294967295
0.054480005 -0.0043238099 0.90800005 4294967295
0.056209527 -0.0043238099 0.90800005 4294967295
0.057939053 -0.0043238099 0.90800005 4294967295
0.059800003 -0.0043333336 0.91000003 4294967295
0.0613981 -0.0043238099 0.90800005 4294967295
0.063266672 -0.0043333336 0.91000003 4294967295
0.066733338 -0.0043333336 0.91000003 4294967295
0.068466671 -0.0043333336 0.91000003 4294967295
0.070200004 -0.0043333336 0.91000003 4294967295
0.071933337 -0.0043333336 0.91000003 4294967295
0.075234294 -0.0043238099 0.90800005 4294967295
0.076963812 -0.0043238099 0.90800005 4294967295
0.080422863 -0.0043238099 0.90800005 4294967295
0.10290667 -0.0043238099 0.90800005 4294967295
0.1046362 -0.0043238099 0.90800005 4294967295
0.11155429 -0.0043238099 0.90800005 4294967295
-0.035533335 -0.0026000002 0.91000003 4294967295
-0.033800002 -0.0026000002 0.91000003 4294967295
-0.032066669 -0.0026000002 0.91000003 4294967295
-0.030333335 -0.0026000002 0.91000003 4294967295
-0.028600002 -0.0026000002 0.91000003 4294967295
-0.026866669 -0.0026000002 0.91000003 4294967295
0.00086476194 -0.0025942859 0.90800005 4294967295
0.0025942859 -0.0025942859 0.90800005 4294967295
0.0043238099 -0.0025942859 0.90800005 4294967295
0.0060333339 -0.0025857145 0.90500003 4294967295
0.0077828579 -0.0025942859 0.90800005 4294967295
0.0094809532 -0.0025857145 0.90500003 4294967295
0.011204762 -0.0025857145 0.90500003 4294967295
0.012971429 -0.0025942859 0.90800005 4294967295
0.014700953 -0.0025942859 0.90800005 4294967295
0.016430477 -0.0025942859 0.90800005 4294967295
0.01816 -0.0025942859 0.90800005 4294967295
0.019889524 -0.0025942859 0.90800005 4294967295
0.02161905 -0.0025942859 0.90800005 4294967295
0.023348574 -0.0025942859 0.90800005 4294967295
0.025078097 -0.0025942859 0.90800005 4294967295
0.026807621 -0.0025942859 0.90800005 4294967295
0.02844286 -0.0025857145 0.90500003 4294967295
0.030166669 -0.0025857145 0.90500003 4294967295
0.031890478 -0.0025857145 0.90500003 4294967295
0.033614289 -0.0025857145 0.90500003 4294967295
0.035338096 -0.0025857145 0.90500003 4294967295
0.050852384 -0.0025857145 0.90500003 4294967295
0.052576195 -0.0025857145 0.90500003 4294967295
0.054300003 -0.0025857145 0.90500003 4294967295
0.069814287 -0.0025857145 0.90500003 4294967295
0.071538098 -0.0025857145 0.90500003 4294967295
0.073261909 -0.0025857145 0.90500003 4294967295
0.07498572 -0.0025857145 0.90500003 4294967295
0.10429049 -0.0025857145 0.90500003 4294967295
-0.014652382 -0.00086190482 0.90500003 4294967295
-0.012928572 -0.00086190482 0.90500003 4294967295
-0.011204762 -0.00086190482 0.90500003 4294967295
-0.0094809532 -0.00086190482 0.90500003 4294967295
-0.0077571436 -0.00086190482 0.90500003 4294967295
-0.0060333339 -0.00086190482 0.90500003 4294967295
-0.0043095243 -0.00086190482 0.90500003 4294967295
-0.0025857145 -0.00086190482 0.90500003 4294967295
-0.00086190482 -0.00086190482 0.90500003 4294967295
0.00086000003 -0.00086000003 0.90300006 4294967295
0.0025800001 -0.00086000003 0.90300006 4294967295
0.0043000001 -0.00086000003 0.90300006 4294967295
0.0060200002 -0.00086000003 0.90300006 4294967295
0.0077571436 -0.00086190482 0.90500003 4294967295
0.0094600003 -0.00086000003 0.90300006 4294967295
0.011204762 -0.00086190482 0.90500003 4294967295
0.012928572 -0.00086190482 0.90500003 4294967295
0.014652382 -0.00086190482 0.90500003 4294967295
0.016376192 -0.00086190482 0.90500003 4294967295
0.018100001 -0.00086190482 0.90500003 4294967295
0.01982381 -0.00086190482 0.90500003 4294967295
0.021547621 -0.00086190482 0.90500003 4294967295
0.02327143 -0.00086190482 0.90500003 4294967295
0.024995239 -0.00086190482 0.90500003 4294967295
0.026719049 -0.00086190482 0.90500003 4294967295
0.028380001 -0.00086000003 0.90300006 4294967295
0.030100003 -0.00086000003 0.90300006 4294967295
0.031820003 -0.00086000003 0.90300006 4294967295
0.033540003 -0.00086000003 0.90300006 4294967295
0.035260003 -0.00086000003 0.90300006 4294967295
0.036980003 -0.00086000003 0.90300006 4294967295
0.038700003 -0.00086000003 0.90300006 4294967295
0.040420003 -0.00086000003 0.90300006 4294967295
0.042140003 -0.00086000003 0.90300006 4294967295
0.043860003 -0.00086000003 0.90300006 4294967295
0.045580003 -0.00086000003 0.90300006 4294967295
0.050740004 -0.00086000003 0.90300006 4294967295
0.052460004 -0.00086000003 0.90300006 4294967295
0.054180004 -0.00086000003 0.90300006 4294967295
0.061060004 -0.00086000003 0.90300006 4294967295
0.062780008 -0.00086000003 0.90300006 4294967295
0.067940004 -0.00086000003 0.90300006 4294967295
0.069660008 -0.00086000003 0.90300006 4294967295
0.071380004 -0.00086000003 0.90300006 4294967295
0.073100008 -0.00086000003 0.90300006 4294967295
-0.019780001 0.00086000003 0.90300006 4294967295
-0.01802 0.0008580953 0.90100002 4294967295
-0.016340001 0.00086000003 0.90300006 4294967295
-0.01462 0.00086000003 0.90300006 4294967295
-0.0129 0.00086000003 0.90300006 4294967295
-0.01118 0.00086000003 0.90300006 4294967295
-0.0094600003 0.00086000003 0.90300006 4294967295
-0.0077228579 0.0008580953 0.90100002 4294967295
-0.0060066669 0.0008580953 0.90100002 4294967295
-0.002574286 0.0008580953 0.90100002 4294967295
-0.0008580953 0.0008580953 0.90100002 4294967295
0.0008580953 0.0008580953 0.90100002 4294967295
0.002574286 0.0008580953 0.90100002 4294967295
0.0042904764 0.0008580953 0.90100002 4294967295
0.0060066669 0.0008580953 0.90100002 4294967295
0.0094390484 0.0008580953 0.90100002 4294967295
0.024884764 0.0008580953 0.90100002 4294967295
0.026600955 0.0008580953 0.90100002 4294967295
0.028317144 0.0008580953 0.90100002 4294967295
0.030033335 0.0008580953 0.90100002 4294967295
0.031749524 0.0008580953 0.90100002 4294967295
0.033465717 0.0008580953 0.90100002 4294967295
0.035181906 0.0008580953 0.90100002 4294967295
0.036898099 0.0008580953 0.90100002 4294967295
0.038614288 0.0008580953 0.90100002 4294967295
0.040330477 0.0008580953 0.90100002 4294967295
0.04204667 0.0008580953 0.90100002 4294967295
0.043762859 0.0008580953 0.90100002 4294967295
0.045479052 0.0008580953 0.90100002 4294967295
0.047195241 0.0008580953 0.90100002 4294967295
0.050627623 0.0008580953 0.90100002 4294967295
0.052343812 0.0008580953 0.90100002 4294967295
0.060721908 0.00085523818 0.89800006 4294967295
0.062432386 0.00085523818 0.89800006 4294967295
-0.019670477 0.0025657145 0.89800006 4294967295
-0.017960001 0.0025657145 0.89800006 4294967295
-0.016249524 0.0025657145 0.89800006 4294967295
-0.014539049 0.0025657145 0.89800006 4294967295
-0.0094076199 0.0025657145 0.89800006 4294967295
-0.0059866672 0.0025657145 0.89800006 4294967295
-0.0025657145 0.0025657145 0.89800006 4294967295
-0.00085523818 0.0025657145 0.89800006 4294967295
0.00085523818 0.0025657145 0.89800006 4294967295
0.0025657145 0.0025657145 0.89800006 4294967295
0.0042761909 0.0025657145 0.89800006 4294967295
0.0059866672 0.0025657145 0.89800006 4294967295
