# .PCD v0.7 - Point Cloud Data file format
VERSION 0.7
FIELDS x y z
SIZE 4 4 4
TYPE F F F
COUNT 1 1 1
WIDTH 1396
HEIGHT 1
VIEWPOINT 0 0 0 1 0 0 0
POINTS 1396
DATA ascii
-0.37422001 0.025740001 0.69300002
-0.37505239 0.025888573 0.69700003
-0.37426099 0.025925716 0.69800001
-0.37293145 0.025925716 0.69800001
-0.37426382 0.02611143 0.70300001
-0.37292477 0.02611143 0.70300001
-0.37528574 0.026371431 0.71000004
-0.37551335 0.02648286 0.71300006
-0.37468001 0.026520003 0.71400005
-0.37436575 0.026594287 0.71600002
-0.37756193 0.026552383 0.68000001
-0.37626669 0.026552383 0.68000001
-0.37717718 0.026708573 0.68400002
-0.37532479 0.026669526 0.68300003
-0.37566668 0.026786668 0.68600005
-0.37490574 0.026825717 0.68700004
-0.37522858 0.026942858 0.69000006
-0.3739143 0.026942858 0.69000006
-0.37422001 0.027060002 0.69300002
-0.37505239 0.027216192 0.69700003
-0.37426099 0.027255239 0.69800001
-0.37400001 0.027333336 0.70000005
-0.37426382 0.027450478 0.70300001
-0.37345526 0.027489526 0.70400006
-0.3742286 0.027645716 0.708
-0.37446001 0.027762858 0.71100003
-0.37468001 0.027880002 0.71400005
-0.37756193 0.027847622 0.68000001
-0.37626669 0.027847622 0.68000001
-0.37607431 0.027929526 0.68200004
-0.37477526 0.027929526 0.68200004
-0.37566668 0.028093334 0.68600005
-0.37490574 0.028134288 0.68700004
-0.37468478 0.028216192 0.68900001
-0.3739143 0.028257145 0.69000006
-0.37422001 0.028380001 0.69300002
-0.3755905 0.028584763 0.69800001
-0.37426099 0.028584763 0.69800001
-0.37400001 0.028666668 0.70000005
-0.37426382 0.028789526 0.70300001
-0.37292477 0.028789526 0.70300001
-0.3742286 0.028994288 0.708
-0.37446001 0.029117145 0.71100003
-0.37700668 0.029100003 0.67900002
-0.37571335 0.029100003 0.67900002
-0.37607431 0.029228574 0.68200004
-0.37477526 0.029228574 0.68200004
-0.37402382 0.029271431 0.68300003
-0.3732686 0.029314287 0.68400002
-0.37468478 0.029528573 0.68900001
-0.3739143 0.029571431 0.69000006
-0.37314004 0.029614288 0.69100004
-0.37666669 0.030000001 0.70000005
-0.37533337 0.030000001 0.70000005
-0.37400001 0.030000001 0.70000005
-0.37426382 0.030128574 0.70300001
-0.37292477 0.030128574 0.70300001
-0.3721143 0.03017143 0.70400006
-0.37077335 0.03017143 0.70400006
-0.44222862 0.03651429 0.85200006
-0.37645146 0.030348573 0.67800003
-0.37516004 0.030348573 0.67800003
-0.37607431 0.030527622 0.68200004
-0.37477526 0.030527622 0.68200004
-0.37402382 0.030572383 0.68300003
-0.3732686 0.030617144 0.68400002
-0.37359717 0.030751431 0.68700004
-0.3739143 0.030885717 0.69000006
-0.37314004 0.030930478 0.69100004
-0.37666669 0.031333335 0.70000005
-0.37533337 0.031333335 0.70000005
-0.37400001 0.031333335 0.70000005
-0.37319908 0.031378098 0.70100003
-0.37292477 0.03146762 0.70300001
-0.37158573 0.03146762 0.70300001
-0.37077335 0.031512383 0.70400006
-0.37534097 0.031546667 0.67600006
-0.37516004 0.031640001 0.67800003
-0.37497145 0.031733334 0.68000001
-0.37477526 0.031826667 0.68200004
-0.37347621 0.031826667 0.68200004
-0.3732686 0.031920001 0.68400002
-0.37468478 0.032153334 0.68900001
-0.3739143 0.032200001 0.69000006
-0.37314004 0.032246668 0.69100004
-0.37505239 0.032526668 0.69700003
-0.37426099 0.032573335 0.69800001
-0.37293145 0.032573335 0.69800001
-0.37319908 0.032713335 0.70100003
-0.37292477 0.032806668 0.70300001
-0.37158573 0.032806668 0.70300001
0.16579716 0.039246671 0.84100002
-0.37430003 0.032300003 0.66500002
-0.37303334 0.032300003 0.66500002
-0.37064859 0.032202858 0.66300005
-0.36938575 0.032202858 0.66300005
-0.36923337 0.032300003 0.66500002
-0.37350002 0.032785717 0.67500001
-0.37221432 0.032785717 0.67500001
-0.37367621 0.033028573 0.68000001
-0.37347621 0.033125717 0.68200004
-0.37272289 0.033174288 0.68300003
-0.37468478 0.033465717 0.68900001
-0.37445623 0.033562858 0.69100004
-0.37314004 0.033562858 0.69100004
-0.3739762 0.033757146 0.69500005
-0.37372479 0.033854287 0.69700003
-0.37293145 0.033902861 0.69800001
-0.37266669 0.034000002 0.70000005
-0.37292477 0.034145717 0.70300001
-0.37158573 0.034145717 0.70300001
-0.42952859 0.040945716 0.84300005
-0.37486288 0.033617146 0.66600001
-0.37303334 0.033566669 0.66500002
-0.37176669 0.033566669 0.66500002
-0.37050003 0.033566669 0.66500002
-0.36923337 0.033566669 0.66500002
-0.37294668 0.034020953 0.67400002
-0.37166288 0.034020953 0.67400002
-0.37477526 0.034424763 0.68200004
-0.37347621 0.034424763 0.68200004
-0.3732686 0.034525715 0.68400002
-0.37468478 0.034778096 0.68900001
-0.37445623 0.034879051 0.69100004
-0.37314004 0.034879051 0.69100004
-0.37290004 0.034980003 0.69300002
-0.37265241 0.035080954 0.69500005
-0.37293145 0.035232384 0.69800001
-0.37266669 0.035333335 0.70000005
-0.37186384 0.035383813 0.70100003
-0.37158573 0.035484765 0.70300001
-0.43011147 0.04245048 0.84100002
-0.37542573 0.034938097 0.66700006
-0.37359431 0.034885716 0.66600001
-0.37232575 0.034885716 0.66600001
-0.37105715 0.034885716 0.66600001
-0.36978859 0.034885716 0.66600001
-0.37184003 0.035200004 0.67200005
-0.37056002 0.035200004 0.67200005
-0.37312669 0.035566669 0.67900002
-0.37402382 0.035776194 0.68300003
-0.37436002 0.035933334 0.68600005
-0.37468478 0.036090478 0.68900001
-0.3739143 0.03614286 0.69000006
-0.37314004 0.036195241 0.69100004
-0.37290004 0.036300004 0.69300002
-0.37265241 0.036404766 0.69500005
-0.37293145 0.036561906 0.69800001
-0.37266669 0.036666669 0.70000005
-0.37186384 0.03671905 0.70100003
-0.37359431 0.036154289 0.66600001
-0.37400287 0.036317144 0.66900003
-0.37161431 0.036208574 0.66700006
-0.37200955 0.036371432 0.67000002
-0.37184003 0.036480002 0.67200005
-0.37056002 0.036480002 0.67200005
-0.37257716 0.036805715 0.67800003
-0.37402382 0.037077144 0.68300003
-0.3732686 0.037131432 0.68400002
-0.37359717 0.037294287 0.68700004
-0.3739143 0.037457146 0.69000006
-0.37260002 0.037457146 0.69000006
-0.37182385 0.037511431 0.69100004
-0.37158003 0.037620004 0.69300002
-0.37293145 0.037891433 0.69800001
-0.37266669 0.038000003 0.70000005
-0.37186384 0.038054287 0.70100003
-0.37415525 0.03747905 0.66700006
-0.37288478 0.03747905 0.66700006
-0.37272859 0.037591431 0.66900003
-0.37200955 0.03764762 0.67000002
-0.37184003 0.037760001 0.67200005
-0.37056002 0.037760001 0.67200005
-0.36928001 0.037760001 0.67200005
-0.37402382 0.038378097 0.68300003
-0.3732686 0.038434289 0.68400002
-0.37305337 0.03854667 0.68600005
-0.3739143 0.038771432 0.69000006
-0.37260002 0.038771432 0.69000006
-0.37182385 0.03882762 0.69100004
-0.37158003 0.038940001 0.69300002
-0.37293145 0.039220955 0.69800001
-0.37266669 0.039333336 0.70000005
-0.37133336 0.039333336 0.70000005
-0.37000003 0.039333336 0.70000005
-0.4323667 0.046806671 0.83300006
-0.43078002 0.046806671 0.83300006
-0.37486288 0.038691431 0.66600001
-0.37359431 0.038691431 0.66600001
-0.37288478 0.038749527 0.66700006
-0.37272859 0.038865715 0.66900003
-0.37200955 0.038923811 0.67000002
-0.37184003 0.039040003 0.67200005
-0.37056002 0.039040003 0.67200005
-0.36928001 0.039040003 0.67200005
-0.3701905 0.039272383 0.67600006
-0.37359717 0.03991143 0.68700004
-0.37228858 0.03991143 0.68700004
-0.37206003 0.040027622 0.68900001
-0.37182385 0.040143814 0.69100004
-0.37158003 0.040260002 0.69300002
-0.37239715 0.040492382 0.69700003
-0.37266669 0.04066667 0.70000005
-0.3702724 0.040550478 0.69800001
-0.36841431 0.040492382 0.69700003
-0.37415525 0.040020004 0.66700006
-0.37288478 0.040020004 0.66700006
-0.37272859 0.040140003 0.66900003
-0.37200955 0.040200002 0.67000002
-0.37294668 0.040440004 0.67400002
-0.37166288 0.040440004 0.67400002
-0.37092859 0.040500004 0.67500001
-0.3701905 0.040560003 0.67600006
-0.36890289 0.040560003 0.67600006
-0.36652765 0.040440004 0.67400002
-0.36416003 0.040320002 0.67200005
-0.36288002 0.040320002 0.67200005
-0.36106193 0.040260002 0.671
-0.37239715 0.041820005 0.69700003
-0.37106955 0.041820005 0.69700003
-0.36974192 0.041820005 0.69700003
-0.36841431 0.041820005 0.69700003
-0.36708668 0.041820005 0.69700003
-0.37359431 0.041228574 0.66600001
-0.37400287 0.041414287 0.66900003
-0.37272859 0.041414287 0.66900003
-0.37200955 0.041476194 0.67000002
-0.37294668 0.041723814 0.67400002
-0.37166288 0.041723814 0.67400002
-0.37092859 0.041785717 0.67500001
-0.36964288 0.041785717 0.67500001
-0.36890289 0.04184762 0.67600006
-0.36652765 0.041723814 0.67400002
-0.36524382 0.041723814 0.67400002
-0.36396003 0.041723814 0.67400002
-0.37372479 0.043147624 0.69700003
-0.37239715 0.043147624 0.69700003
-0.37266669 0.043333337 0.70000005
-0.37133336 0.043333337 0.70000005
-0.42926574 0.050823811 0.82100004
-0.42874384 0.050947621 0.82300001
-0.42821431 0.051071431 0.82500005
-0.42664289 0.051071431 0.82500005
-0.42507145 0.051071431 0.82500005
-0.42350003 0.051071431 0.82500005
-0.37556669 0.042433336 0.66500002
-0.37430003 0.042433336 0.66500002
-0.37359431 0.042497147 0.66600001
-0.37400287 0.042688575 0.66900003
-0.37328574 0.042752385 0.67000002
-0.37312001 0.042880002 0.67200005
-0.37294668 0.043007623 0.67400002
-0.37166288 0.043007623 0.67400002
-0.37092859 0.04307143 0.67500001
-0.36964288 0.04307143 0.67500001
-0.36890289 0.043135241 0.67600006
-0.36652765 0.043007623 0.67400002
-0.36524382 0.043007623 0.67400002
-0.36396003 0.043007623 0.67400002
-0.37265241 0.044347622 0.69500005
-0.37132859 0.044347622 0.69500005
-0.37160194 0.044539049 0.69800001
-0.3702724 0.044539049 0.69800001
-0.42926574 0.052387621 0.82100004
-0.37556669 0.043700002 0.66500002
-0.37486288 0.043765716 0.66600001
-0.37415525 0.04383143 0.66700006
-0.37400287 0.043962859 0.66900003
-0.37272859 0.043962859 0.66900003
-0.37256479 0.044094287 0.671
-0.37184003 0.044160005 0.67200005
-0.37166288 0.044291433 0.67400002
-0.37092859 0.044357147 0.67500001
-0.36964288 0.044357147 0.67500001
-0.36835718 0.044357147 0.67500001
-0.36707145 0.044357147 0.67500001
-0.36524382 0.044291433 0.67400002
-0.36396003 0.044291433 0.67400002
-0.37211621 0.045605719 0.69400001
-0.3707943 0.045605719 0.69400001
-0.37000477 0.045671433 0.69500005
-0.36974192 0.045802861 0.69700003
-0.37613145 0.045034289 0.66600001
-0.37486288 0.045034289 0.66600001
-0.37415525 0.045101907 0.66700006
-0.37400287 0.045237146 0.66900003
-0.37328574 0.045304764 0.67000002
-0.37256479 0.045372386 0.671
-0.37184003 0.045440003 0.67200005
-0.37166288 0.045575242 0.67400002
-0.37092859 0.04564286 0.67500001
-0.36964288 0.04564286 0.67500001
-0.36890289 0.045710478 0.67600006
-0.37343812 0.046927623 0.69400001
-0.37211621 0.046927623 0.69400001
-0.3707943 0.046927623 0.69400001
-0.36947241 0.046927623 0.69400001
-0.3681505 0.046927623 0.69400001
-0.36735716 0.046995241 0.69500005
-0.37556669 0.046233337 0.66500002
-0.37430003 0.046233337 0.66500002
-0.37359431 0.046302859 0.66600001
-0.37288478 0.046372384 0.66700006
-0.37272859 0.04651143 0.66900003
-0.37200955 0.046580955 0.67000002
-0.37128669 0.04665048 0.671
-0.37000859 0.04665048 0.671
-0.36873052 0.04665048 0.671
-0.3701905 0.046998098 0.67600006
-0.36890289 0.046998098 0.67600006
-0.3707943 0.048249528 0.69400001
-0.36894003 0.048180003 0.69300002
-0.36868098 0.048319049 0.69500005
-0.36735716 0.048319049 0.69500005
-0.37669623 0.047642861 0.66700006
-0.37430003 0.047500003 0.66500002
-0.37359431 0.047571432 0.66600001
-0.37288478 0.047642861 0.66700006
-0.37272859 0.047785718 0.66900003
-0.37200955 0.047857147 0.67000002
-0.37128669 0.047928575 0.671
-0.37166288 0.048142862 0.67400002
-0.37092859 0.04821429 0.67500001
-0.37613145 0.048840005 0.66600001
-0.37430003 0.048766669 0.66500002
-0.37303334 0.048766669 0.66500002
-0.37288478 0.048913337 0.66700006
-0.37272859 0.049060002 0.66900003
-0.37200955 0.049133338 0.67000002
-0.37073335 0.049133338 0.67000002
-0.37166288 0.049426671 0.67400002
-0.37037906 0.049426671 0.67400002
-0.37486288 0.050108574 0.66600001
-0.37359431 0.050108574 0.66600001
-0.37288478 0.050183814 0.66700006
-0.37272859 0.05033429 0.66900003
-0.37200955 0.050409526 0.67000002
-0.37073335 0.050409526 0.67000002
-0.37000859 0.050484765 0.671
-0.37486288 0.051377147 0.66600001
-0.37415525 0.051454291 0.66700006
-0.37400287 0.051608574 0.66900003
-0.37272859 0.051608574 0.66900003
-0.37200955 0.051685717 0.67000002
-0.37073335 0.051685717 0.67000002
-0.36945716 0.051685717 0.67000002
-0.37542573 0.052724764 0.66700006
-0.37527716 0.052882861 0.66900003
-0.37400287 0.052882861 0.66900003
-0.37328574 0.052961908 0.67000002
-0.37200955 0.052961908 0.67000002
-0.37073335 0.052961908 0.67000002
-0.37542573 0.05399524 0.66700006
-0.37415525 0.05399524 0.66700006
-0.37400287 0.054157145 0.66900003
-0.37328574 0.0542381 0.67000002
-0.37200955 0.0542381 0.67000002
-0.37073335 0.0542381 0.67000002
-0.38360098 0.066138096 0.81700003
-0.38204479 0.066138096 0.81700003
-0.3804886 0.066138096 0.81700003
-0.37893242 0.066138096 0.81700003
-0.37582001 0.066138096 0.81700003
-0.3538886 0.063061908 0.77900004
-0.35002002 0.062900007 0.77700001
-0.34854001 0.062900007 0.77700001
-0.37542573 0.055265717 0.66700006
-0.37415525 0.055265717 0.66700006
-0.37400287 0.055431433 0.66900003
-0.37328574 0.055514291 0.67000002
-0.37256479 0.055597145 0.671
-0.37184003 0.055680003 0.67200005
-0.41316861 0.067694291 0.81700003
-0.35446003 0.064380005 0.77700001
-0.3538886 0.064545721 0.77900004
-0.35150003 0.064380005 0.77700001
-0.35002002 0.064380005 0.77700001
-0.34854001 0.064380005 0.77700001
-0.34706002 0.064380005 0.77700001
-0.37415525 0.056536194 0.66700006
-0.37288478 0.056536194 0.66700006
-0.37272859 0.056705717 0.66900003
-0.37200955 0.056790479 0.67000002
-0.35446003 0.065860003 0.77700001
-0.35298002 0.065860003 0.77700001
-0.35150003 0.065860003 0.77700001
-0.35092098 0.066029526 0.77900004
-0.34854001 0.065860003 0.77700001
-0.34706002 0.065860003 0.77700001
-0.37232575 0.057720006 0.66600001
-0.37161431 0.057806671 0.66700006
-0.37034383 0.057806671 0.66700006
-0.4100562 0.070806675 0.81700003
-0.35446003 0.067340001 0.77700001
-0.35298002 0.067340001 0.77700001
-0.35150003 0.067340001 0.77700001
-0.35002002 0.067340001 0.77700001
-0.34854001 0.067340001 0.77700001
-0.3461667 0.067166671 0.77500004
-0.34380096 0.066993341 0.77300006
-0.34188575 0.066906668 0.77200001
0.14352287 0.068380006 0.78900003
-0.35207146 0.068642862 0.77500004
-0.3496905 0.068465717 0.77300006
-0.34911907 0.068642862 0.77500004
-0.34674573 0.068465717 0.77300006
-0.3448267 0.068377145 0.77200001
-0.34335622 0.068377145 0.77200001
-0.34188575 0.068377145 0.77200001
-0.33953336 0.068200007 0.77000004
-0.3507086 0.069847621 0.77200001
-0.34923813 0.069847621 0.77200001
-0.34821811 0.069938101 0.77300006
-0.34629717 0.069847621 0.77200001
-0.3448267 0.069847621 0.77200001
-0.34246668 0.069666669 0.77000004
-0.34100002 0.069666669 0.77000004
-0.33953336 0.069666669 0.77000004
-0.34980002 0.071133338 0.77000004
-0.34833336 0.071133338 0.77000004
-0.34776765 0.071318097 0.77200001
-0.34540004 0.071133338 0.77000004
-0.34393334 0.071133338 0.77000004
-0.34246668 0.071133338 0.77000004
-0.34100002 0.071133338 0.77000004
-0.33953336 0.071133338 0.77000004
-0.34980002 0.072600007 0.77000004
-0.34833336 0.072600007 0.77000004
-0.3468667 0.072600007 0.77000004
-0.34540004 0.072600007 0.77000004
-0.34393334 0.072600007 0.77000004
-0.34246668 0.072600007 0.77000004
-0.34100002 0.072600007 0.77000004
-0.33953336 0.072600007 0.77000004
-0.34889144 0.073874287 0.76800001
-0.34742859 0.073874287 0.76800001
-0.3468667 0.074066669 0.77000004
-0.34450287 0.073874287 0.76800001
-0.34304002 0.073874287 0.76800001
-0.34157717 0.073874287 0.76800001
-0.3401143 0.073874287 0.76800001
-0.34742859 0.075337149 0.76800001
-0.34596574 0.075337149 0.76800001
-0.34405431 0.075239055 0.76700002
-0.34170002 0.075042859 0.76500005
-0.34024289 0.075042859 0.76500005
-0.33878574 0.075042859 0.76500005
-0.34516668 0.076300003 0.76300001
-0.3446143 0.076500006 0.76500005
-0.34226003 0.076300003 0.76300001
-0.33991337 0.076100007 0.76100004
-0.33935335 0.076300003 0.76300001
-0.33701432 0.076100007 0.76100004
-0.3364467 0.076300003 0.76300001
-0.39520478 0.075919054 0.74500006
-0.39220002 0.075613335 0.74200004
-0.39131334 0.075715244 0.74300003
-0.38989812 0.075715244 0.74300003
-0.3895286 0.075919054 0.74500006
-0.38810953 0.075919054 0.74500006
-0.34136289 0.077549532 0.76100004
-0.33991337 0.077549532 0.76100004
-0.33801907 0.077447623 0.76000005
-0.33701432 0.077549532 0.76100004
-0.33556479 0.077549532 0.76100004
-0.39255241 0.076819055 0.74000001
-0.39220002 0.077026673 0.74200004
-0.39078668 0.077026673 0.74200004
-0.38937336 0.077026673 0.74200004
-0.38848287 0.077130482 0.74300003
-0.38810953 0.077338099 0.74500006
-0.38565239 0.077130482 0.74300003
-0.34056002 0.078480005 0.75600004
-0.34001717 0.078687623 0.75800002
-0.33857337 0.078687623 0.75800002
-0.33712953 0.078687623 0.75800002
-0.39414385 0.078545719 0.74300003
-0.3927286 0.078545719 0.74300003
-0.39078668 0.078440003 0.74200004
-0.38832384 0.078228578 0.74000001
-0.38848287 0.078545719 0.74300003
-0.34154764 0.079814292 0.75500005
-0.34010956 0.079814292 0.75500005
-0.33867145 0.079814292 0.75500005
-0.33723336 0.079814292 0.75500005
-0.33624002 0.079920009 0.75600004
-0.39255241 0.079638101 0.74000001
-0.3906143 0.079530485 0.73900002
-0.38920668 0.079530485 0.73900002
-0.38779908 0.079530485 0.73900002
-0.34064287 0.081037149 0.75300002
-0.33875811 0.080929533 0.75200003
-0.33777431 0.081037149 0.75300002
-0.33634001 0.081037149 0.75300002
-0.33490574 0.081037149 0.75300002
-0.33347145 0.081037149 0.75300002
-0.39202192 0.080938101 0.73900002
-0.3906143 0.080938101 0.73900002
-0.38920668 0.080938101 0.73900002
-0.38674954 0.080719054 0.73700005
-0.3401905 0.082361907 0.75200003
-0.33875811 0.082361907 0.75200003
-0.33732572 0.082361907 0.75200003
-0.33589336 0.082361907 0.75200003
-0.33446097 0.082361907 0.75200003
-0.33302858 0.082361907 0.75200003
-0.33159623 0.082361907 0.75200003
-0.39096099 0.082122862 0.73700005
-0.38955718 0.082122862 0.73700005
-0.38762668 0.082011431 0.73600006
-0.38622478 0.082011431 0.73600006
-0.3401905 0.083794288 0.75200003
-0.33785716 0.083571434 0.75000006
-0.33732572 0.083794288 0.75200003
-0.33589336 0.083794288 0.75200003
-0.33446097 0.083794288 0.75200003
-0.33302858 0.083794288 0.75200003
-0.33159623 0.083794288 0.75200003
-0.38552001 0.082960002 0.73200005
-0.38412574 0.082960002 0.73200005
-0.37803146 0.082846671 0.73100001
-0.33928573 0.085000008 0.75000006
-0.33785716 0.085000008 0.75000006
-0.33732572 0.08522667 0.75200003
-0.33589336 0.08522667 0.75200003
-0.33357146 0.085000008 0.75000006
-0.33214289 0.085000008 0.75000006
-0.33159623 0.08522667 0.75200003
-0.32928574 0.085000008 0.75000006
-0.38499334 0.084239051 0.73100001
-0.38360098 0.084239051 0.73100001
-0.38220859 0.084239051 0.73100001
-0.3797743 0.084008574 0.72900003
-0.37838575 0.084008574 0.72900003
-0.37699717 0.084008574 0.72900003
-0.37663907 0.084239051 0.73100001
-0.33785716 0.086428575 0.75000006
-0.33732572 0.086659051 0.75200003
-0.33500001 0.086428575 0.75000006
-0.33357146 0.086428575 0.75000006
-0.33214289 0.086428575 0.75000006
-0.33071432 0.086428575 0.75000006
-0.32928574 0.086428575 0.75000006
-0.32785717 0.086428575 0.75000006
-0.32642859 0.086428575 0.75000006
-0.32500002 0.086428575 0.75000006
-0.32357144 0.086428575 0.75000006
-0.32214287 0.086428575 0.75000006
-0.38394001 0.085397147 0.72900003
-0.38255146 0.085397147 0.72900003
-0.38116288 0.085397147 0.72900003
-0.37925336 0.085280009 0.72800004
-0.37786669 0.085280009 0.72800004
-0.37648001 0.085280009 0.72800004
-0.37509337 0.085280009 0.72800004
-0.3737067 0.085280009 0.72800004
-0.3369562 0.087622866 0.74800003
-0.33553144 0.087622866 0.74800003
-0.33125716 0.087622866 0.74800003
-0.33071432 0.08785715 0.75000006
-0.32840765 0.087622866 0.74800003
-0.32698289 0.087622866 0.74800003
-0.32555813 0.087622866 0.74800003
-0.32500002 0.08785715 0.75000006
-0.32270861 0.087622866 0.74800003
-0.32214287 0.08785715 0.75000006
-0.31985906 0.087622866 0.74800003
-0.3184343 0.087622866 0.74800003
-0.38236001 0.086428575 0.72600001
-0.38097715 0.086428575 0.72600001
-0.3795943 0.086428575 0.72600001
-0.37821144 0.086428575 0.72600001
-0.37682861 0.086428575 0.72600001
-0.37544575 0.086428575 0.72600001
-0.3740629 0.086428575 0.72600001
-0.37268004 0.086428575 0.72600001
-0.37129718 0.086428575 0.72600001
-0.37246192 0.087023817 0.73100001
-0.33071432 0.089285724 0.75000006
-0.32840765 0.089047626 0.74800003
-0.32698289 0.089047626 0.74800003
-0.32555813 0.089047626 0.74800003
-0.32500002 0.089285724 0.75000006
-0.32270861 0.089047626 0.74800003
-0.32214287 0.089285724 0.75000006
-0.32071429 0.089285724 0.75000006
-0.3184343 0.089047626 0.74800003
-0.31700954 0.089047626 0.74800003
-0.38236001 0.087811433 0.72600001
-0.38045239 0.08769048 0.72500002
-0.37907144 0.08769048 0.72500002
-0.37769049 0.08769048 0.72500002
-0.37682861 0.087811433 0.72600001
-0.37544575 0.087811433 0.72600001
-0.37354764 0.08769048 0.72500002
-0.37216669 0.08769048 0.72500002
-0.37129718 0.087811433 0.72600001
-0.36991432 0.087811433 0.72600001
-0.35066289 0.088537149 0.73200005
-0.34879145 0.088416196 0.73100001
-0.34739906 0.088416196 0.73100001
-0.32698289 0.090472385 0.74800003
-0.32555813 0.090472385 0.74800003
-0.32128382 0.090472385 0.74800003
-0.31943145 0.090351433 0.74700004
-0.3184343 0.090472385 0.74800003
-0.31700954 0.090472385 0.74800003
-0.38575432 0.088702865 0.72200006
-0.38437906 0.088702865 0.72200006
-0.38300383 0.088702865 0.72200006
-0.3816286 0.088702865 0.72200006
-0.38078001 0.088825718 0.72300005
-0.37887812 0.088702865 0.72200006
-0.37750289 0.088702865 0.72200006
-0.3766486 0.088825718 0.72300005
-0.37630954 0.089071438 0.72500002
-0.37492859 0.089071438 0.72500002
-0.37354764 0.089071438 0.72500002
-0.37216669 0.089071438 0.72500002
-0.37078574 0.089071438 0.72500002
-0.35200289 0.089562863 0.72900003
-0.35157621 0.089808576 0.73100001
-0.35018384 0.089808576 0.73100001
-0.34783718 0.089562863 0.72900003
-0.34739906 0.089808576 0.73100001
-0.38605717 0.089828581 0.72000003
-0.38468572 0.089828581 0.72000003
-0.38331431 0.089828581 0.72000003
-0.38194287 0.089828581 0.72000003
-0.38057145 0.089828581 0.72000003
-0.37920001 0.089828581 0.72000003
-0.3778286 0.089828581 0.72000003
-0.37645715 0.089828581 0.72000003
-0.37508574 0.089828581 0.72000003
-0.37251717 0.090202861 0.72300005
-0.37114003 0.090202861 0.72300005
-0.35152003 0.090826675 0.72800004
-0.35061431 0.090951435 0.72900003
-0.34922573 0.090951435 0.72900003
-0.34736001 0.090826675 0.72800004
-0.3464486 0.090951435 0.72900003
-0.3868905 0.091073342 0.71900004
-0.38605717 0.091200009 0.72000003
-0.38468572 0.091200009 0.72000003
-0.38331431 0.091200009 0.72000003
-0.38141242 0.091073342 0.71900004
-0.38004288 0.091073342 0.71900004
-0.37867334 0.091073342 0.71900004
-0.37730384 0.091073342 0.71900004
-0.3759343 0.091073342 0.71900004
-0.3636086 0.091073342 0.71900004
-0.36274287 0.091200009 0.72000003
-0.36438289 0.091960005 0.72600001
-0.36300004 0.091960005 0.72600001
-0.35055432 0.091960005 0.72600001
-0.34917146 0.091960005 0.72600001
-0.3477886 0.091960005 0.72600001
-0.34640574 0.091960005 0.72600001
-0.34502289 0.091960005 0.72600001
-0.38880002 0.092571437 0.72000003
-0.38742861 0.092571437 0.72000003
-0.38605717 0.092571437 0.72000003
-0.38468572 0.092571437 0.72000003
-0.38278192 0.092442863 0.71900004
-0.38141242 0.092442863 0.71900004
-0.37898573 0.092185721 0.71700001
-0.37709334 0.092057146 0.71600002
-0.37625432 0.092185721 0.71700001
-0.3748886 0.092185721 0.71700001
-0.36396289 0.092185721 0.71700001
-0.36209145 0.092057146 0.71600002
-0.36123145 0.092185721 0.71700001
-0.35145241 0.093214288 0.72500002
-0.34910575 0.092957146 0.72300005
-0.34772858 0.092957146 0.72300005
-0.34635144 0.092957146 0.72300005
-0.34449717 0.092828579 0.72200006
-0.34217146 0.092571437 0.72000003
-0.34222001 0.092957146 0.72300005
-0.34037146 0.092828579 0.72200006
-0.34043717 0.093985721 0.73100001
-0.33904478 0.093985721 0.73100001
-0.3362667 0.093600005 0.72800004
-0.33488002 0.093600005 0.72800004
-0.38552096 0.093812384 0.71900004
-0.38415146 0.093812384 0.71900004
-0.38278192 0.093812384 0.71900004
-0.38035145 0.093551435 0.71700001
-0.37845716 0.09342096 0.71600002
-0.37709334 0.09342096 0.71600002
-0.37625432 0.093551435 0.71700001
-0.37436575 0.09342096 0.71600002
-0.36396289 0.093551435 0.71700001
-0.36259717 0.093551435 0.71700001
-0.36223906 0.093812384 0.71900004
-0.35986573 0.093551435 0.71700001
-0.35850003 0.093551435 0.71700001
-0.35813048 0.093812384 0.71900004
-0.35048288 0.094334289 0.72300005
-0.34862289 0.094203815 0.72200006
-0.34724763 0.094203815 0.72200006
-0.3458724 0.094203815 0.72200006
-0.34354287 0.093942866 0.72000003
-0.34217146 0.093942866 0.72000003
-0.34222001 0.094334289 0.72300005
-0.33895716 0.093812384 0.71900004
-0.33949146 0.094725721 0.72600001
-0.3381086 0.094725721 0.72600001
-0.33765337 0.09498667 0.72800004
-0.3362667 0.09498667 0.72800004
-0.33488002 0.09498667 0.72800004
-0.38552096 0.095181912 0.71900004
-0.38415146 0.095181912 0.71900004
-0.38171718 0.094917148 0.71700001
-0.38035145 0.094917148 0.71700001
-0.37845716 0.094784766 0.71600002
-0.37709334 0.094784766 0.71600002
-0.37625432 0.094917148 0.71700001
-0.37436575 0.094784766 0.71600002
-0.36396289 0.094917148 0.71700001
-0.36259717 0.094917148 0.71700001
-0.36123145 0.094917148 0.71700001
-0.35936382 0.094784766 0.71600002
-0.35800001 0.094784766 0.71600002
-0.35663623 0.094784766 0.71600002
-0.34717432 0.095181912 0.71900004
-0.34580478 0.095181912 0.71900004
-0.34443527 0.095181912 0.71900004
-0.34211144 0.094917148 0.71700001
-0.34074575 0.094917148 0.71700001
-0.33938003 0.094917148 0.71700001
-0.33754289 0.094784766 0.71600002
-0.33664858 0.094917148 0.71700001
-0.33762097 0.09557905 0.72200006
-0.33671144 0.095711432 0.72300005
-0.33626193 0.095976196 0.72500002
-0.33534288 0.096108578 0.72600001
-0.33350003 0.095976196 0.72500002
-0.33211908 0.095976196 0.72500002
-0.33119431 0.096108578 0.72600001
-0.38420004 0.095880009 0.71400005
-0.38444859 0.096282862 0.71700001
-0.38148004 0.095880009 0.71400005
-0.38118479 0.09614858 0.71600002
-0.37982097 0.09614858 0.71600002
-0.37845716 0.09614858 0.71600002
-0.37604001 0.095880009 0.71400005
-0.37572956 0.09614858 0.71600002
-0.37332001 0.095880009 0.71400005
-0.37196001 0.095880009 0.71400005
-0.37060001 0.095880009 0.71400005
-0.36244002 0.095880009 0.71400005
-0.36209145 0.09614858 0.71600002
-0.36072764 0.09614858 0.71600002
-0.35836002 0.095880009 0.71400005
-0.35700002 0.095880009 0.71400005
-0.35663623 0.09614858 0.71600002
-0.34902859 0.096685722 0.72000003
-0.34717432 0.096551433 0.71900004
-0.34436193 0.09614858 0.71600002
-0.34299812 0.09614858 0.71600002
-0.3416343 0.09614858 0.71600002
-0.34027049 0.09614858 0.71600002
-0.33938003 0.096282862 0.71700001
-0.3380143 0.096282862 0.71700001
-0.33758765 0.096551433 0.71900004
-0.33668575 0.096685722 0.72000003
-0.33624575 0.096954294 0.72200006
-0.3353343 0.097088575 0.72300005
-0.33488098 0.097357146 0.72500002
-0.33258003 0.097088575 0.72300005
-0.33211908 0.097357146 0.72500002
-0.33073813 0.097357146 0.72500002
-0.32935718 0.097357146 0.72500002
-0.32707146 0.097088575 0.72300005
-0.38447335 0.096286669 0.70700002
-0.38312671 0.096286669 0.70700002
-0.38232002 0.096422866 0.708
-0.38204765 0.096695244 0.71000004
-0.38069525 0.096695244 0.71000004
-0.37987718 0.096831433 0.71100003
-0.38012004 0.097240008 0.71400005
-0.37876001 0.097240008 0.71400005
-0.37740001 0.097240008 0.71400005
-0.37604001 0.097240008 0.71400005
-0.37468001 0.097240008 0.71400005
-0.37332001 0.097240008 0.71400005
-0.37196001 0.097240008 0.71400005
-0.37060001 0.097240008 0.71400005
-0.36924002 0.097240008 0.71400005
-0.36176193 0.096695244 0.71000004
-0.3619324 0.097103819 0.71300006
-0.36057431 0.097103819 0.71300006
-0.35669717 0.096422866 0.708
-0.35785812 0.097103819 0.71300006
-0.35650003 0.097103819 0.71300006
-0.35514194 0.097103819 0.71300006
-0.34708956 0.097512387 0.71600002
-0.34476003 0.097240008 0.71400005
-0.34340003 0.097240008 0.71400005
-0.34204003 0.097240008 0.71400005
-0.34068003 0.097240008 0.71400005
-0.34027049 0.097512387 0.71600002
-0.33890668 0.097512387 0.71600002
-0.3380143 0.097648576 0.71700001
-0.33758765 0.097920962 0.71900004
-0.33621812 0.097920962 0.71900004
-0.33484858 0.097920962 0.71900004
-0.33394289 0.098057151 0.72000003
-0.33395717 0.098465718 0.72300005
-0.33258003 0.098465718 0.72300005
-0.33120286 0.098465718 0.72300005
-0.32982573 0.098465718 0.72300005
-0.32844859 0.098465718 0.72300005
-0.38095906 0.097080961 0.70300001
-0.38016003 0.097219057 0.70400006
-0.37935716 0.097357146 0.70500004
-0.3790867 0.097633339 0.70700002
-0.37827432 0.097771436 0.708
-0.37799051 0.098047629 0.71000004
-0.3771686 0.098185718 0.71100003
-0.37687147 0.098461911 0.71300006
-0.37551335 0.098461911 0.71300006
-0.37415525 0.098461911 0.71300006
-0.37279716 0.098461911 0.71300006
-0.37143907 0.098461911 0.71300006
-0.37008098 0.098461911 0.71300006
-0.36872289 0.098461911 0.71300006
-0.36633432 0.098185718 0.71100003
-0.3631143 0.098047629 0.71000004
-0.36074287 0.097771436 0.708
-0.36040956 0.098047629 0.71000004
-0.35804573 0.097771436 0.708
-0.35669717 0.097771436 0.708
-0.35635242 0.098047629 0.71000004
-0.35550001 0.098185718 0.71100003
-0.35414574 0.098185718 0.71100003
-0.34563527 0.098461911 0.71300006
-0.34427717 0.098461911 0.71300006
-0.34291908 0.098461911 0.71300006
-0.34156099 0.098461911 0.71300006
-0.34020287 0.098461911 0.71300006
-0.33932003 0.098600008 0.71400005
-0.33796003 0.098600008 0.71400005
-0.33754289 0.098876201 0.71600002
-0.33664858 0.09901429 0.71700001
-0.33481526 0.098876201 0.71600002
-0.33391717 0.09901429 0.71700001
-0.33347908 0.099290483 0.71900004
-0.32844859 0.099842861 0.72300005
-0.38229811 0.098420009 0.70300001
-0.38095906 0.098420009 0.70300001
-0.37962002 0.098420009 0.70300001
-0.37828097 0.098420009 0.70300001
-0.37747812 0.098560005 0.70400006
-0.37774003 0.09898001 0.70700002
-0.37692574 0.099120006 0.708
-0.37557718 0.099120006 0.708
-0.37581432 0.09954001 0.71100003
-0.37446001 0.09954001 0.71100003
-0.37415525 0.099820003 0.71300006
-0.37279716 0.099820003 0.71300006
-0.37143907 0.099820003 0.71300006
-0.37008098 0.099820003 0.71300006
-0.36872289 0.099820003 0.71300006
-0.36633432 0.09954001 0.71100003
-0.36209145 0.099120006 0.708
-0.36074287 0.099120006 0.708
-0.35939431 0.099120006 0.708
-0.35400003 0.099120006 0.708
-0.35265145 0.099120006 0.708
-0.34466574 0.09954001 0.71100003
-0.34331146 0.09954001 0.71100003
-0.34195715 0.09954001 0.71100003
-0.34012383 0.099400006 0.71000004
-0.3392486 0.09954001 0.71100003
-0.33884478 0.099820003 0.71300006
-0.33796003 0.099960007 0.71400005
-0.31460002 0.10164001 0.72600001
-0.38229811 0.099759057 0.70300001
-0.38095906 0.099759057 0.70300001
-0.37962002 0.099759057 0.70300001
-0.37828097 0.099759057 0.70300001
-0.37694192 0.099759057 0.70300001
-0.37613717 0.099900961 0.70400006
-0.3753286 0.10004286 0.70500004
-0.3750467 0.10032667 0.70700002
-0.37528574 0.10075239 0.71000004
-0.37393335 0.10075239 0.71000004
-0.37415525 0.1011781 0.71300006
-0.37279716 0.1011781 0.71300006
-0.37039718 0.10089429 0.71100003
-0.36904287 0.10089429 0.71100003
-0.36717147 0.10075239 0.71000004
-0.36581907 0.10075239 0.71000004
-0.36074287 0.10046858 0.708
-0.35939431 0.10046858 0.708
-0.35400003 0.10046858 0.708
-0.35265145 0.10046858 0.708
-0.34553334 0.10075239 0.71000004
-0.34418097 0.10075239 0.71000004
-0.3428286 0.10075239 0.71000004
-0.3414762 0.10075239 0.71000004
-0.33916575 0.10046858 0.708
-0.33781716 0.10046858 0.708
-0.33646861 0.10046858 0.708
-0.38254574 0.10081048 0.70100003
-0.38229811 0.10109811 0.70300001
-0.38095906 0.10109811 0.70300001
-0.37962002 0.10109811 0.70300001
-0.37828097 0.10109811 0.70300001
-0.37694192 0.10109811 0.70300001
-0.37613717 0.10124191 0.70400006
-0.3753286 0.10138572 0.70500004
-0.37398574 0.10138572 0.70500004
-0.37393335 0.10210477 0.71000004
-0.37468001 0.10268001 0.71400005
-0.36987621 0.10210477 0.71000004
-0.36852384 0.10210477 0.71000004
-0.36717147 0.10210477 0.71000004
-0.36478859 0.10181715 0.708
-0.36023337 0.10167334 0.70700002
-0.35265145 0.10181715 0.708
-0.35080668 0.10167334 0.70700002
-0.34946004 0.10167334 0.70700002
-0.34676668 0.10167334 0.70700002
-0.34590858 0.10181715 0.708
-0.34456003 0.10181715 0.708
-0.34321144 0.10181715 0.708
-0.34186289 0.10181715 0.708
-0.3405143 0.10181715 0.708
-0.33916575 0.10181715 0.708
-0.33781716 0.10181715 0.708
-0.33646861 0.10181715 0.708
-0.38254574 0.10214572 0.70100003
-0.38229811 0.10243715 0.70300001
-0.38095906 0.10243715 0.70300001
-0.37962002 0.10243715 0.70300001
-0.37828097 0.10243715 0.70300001
-0.37694192 0.10243715 0.70300001
-0.37613717 0.10258286 0.70400006
-0.37479621 0.10258286 0.70400006
-0.37292477 0.10243715 0.70300001
-0.37370002 0.10302 0.70700002
-0.37288001 0.10316572 0.708
-0.36748573 0.10316572 0.708
-0.34590858 0.10316572 0.708
-0.34456003 0.10316572 0.708
-0.34321144 0.10316572 0.708
-0.34186289 0.10316572 0.708
-0.3405143 0.10316572 0.708
-0.33916575 0.10316572 0.708
-0.33781716 0.10316572 0.708
-0.33646861 0.10316572 0.708
-0.38229811 0.10377619 0.70300001
-0.37987527 0.10348096 0.70100003
-0.37854004 0.10348096 0.70100003
-0.37720478 0.10348096 0.70100003
-0.37586954 0.10348096 0.70100003
-0.37453431 0.10348096 0.70100003
-0.37266669 0.10333334 0.70000005
-0.3702724 0.1030381 0.69800001
-0.34480479 0.10377619 0.70300001
-0.34444287 0.10407144 0.70500004
-0.34407336 0.10436668 0.70700002
-0.34272668 0.10436668 0.70700002
-0.34138003 0.10436668 0.70700002
-0.34003335 0.10436668 0.70700002
-0.33868667 0.10436668 0.70700002
-0.33734003 0.10436668 0.70700002
-0.33599335 0.10436668 0.70700002
-0.37854004 0.1048162 0.70100003
-0.37666669 0.10466667 0.70000005
-0.37533337 0.10466667 0.70000005
-0.37293145 0.10436763 0.69800001
-0.37160194 0.10436763 0.69800001
-0.36974192 0.1042181 0.69700003
-0.34515908 0.1048162 0.70100003
-0.34382382 0.1048162 0.70100003
-0.34346575 0.10511524 0.70300001
-0.3421267 0.10511524 0.70300001
-0.37800002 0.10600001 0.70000005
-0.37666669 0.10600001 0.70000005
-0.37533337 0.10600001 0.70000005
-0.37239715 0.10554572 0.69700003
-0.37106955 0.10554572 0.69700003
-0.34692001 0.10388001 0.68600005
-0.34515908 0.10615144 0.70100003
-0.34382382 0.10615144 0.70100003
-0.34248859 0.10615144 0.70100003
-0.3421267 0.10645429 0.70300001
-0.31620002 0.10812001 0.71400005
-0.35809049 0.10656668 0.69500005
-0.34692001 0.10518667 0.68600005
-0.34561336 0.10518667 0.68600005
-0.34515908 0.10748667 0.70100003
-0.34333336 0.10733334 0.70000005
-0.34200001 0.10733334 0.70000005
-0.34066668 0.10733334 0.70000005
-0.33933336 0.10733334 0.70000005
-0.31711525 0.10932668 0.71300006
-0.3604486 0.10820096 0.69700003
-0.35809049 0.10789049 0.69500005
-0.3567667 0.10789049 0.69500005
-0.35493144 0.10773525 0.69400001
-0.34843716 0.10695905 0.68900001
-0.34466669 0.10866667 0.70000005
-0.34235239 0.1083562 0.69800001
-0.34102288 0.1083562 0.69800001
-0.33969337 0.1083562 0.69800001
-0.31622574 0.11037429 0.71100003
-0.37445623 0.10858572 0.69100004
-0.37260002 0.10842858 0.69000006
-0.37128574 0.10842858 0.69000006
-0.3604486 0.10952858 0.69700003
-0.35809049 0.10921429 0.69500005
-0.35625336 0.10905715 0.69400001
-0.35493144 0.10905715 0.69400001
-0.35360956 0.10905715 0.69400001
-0.34873432 0.10795715 0.68700004
-0.34742573 0.10795715 0.68700004
-0.34611717 0.10795715 0.68700004
-0.3435286 0.10921429 0.69500005
-0.34318954 0.10952858 0.69700003
-0.34186193 0.10952858 0.69700003
-0.33955717 0.10921429 0.69500005
-0.37445623 0.10990191 0.69100004
-0.37314004 0.10990191 0.69100004
-0.37182385 0.10990191 0.69100004
-0.35941431 0.1105381 0.69500005
-0.35809049 0.1105381 0.69500005
-0.35625336 0.11037906 0.69400001
-0.35493144 0.11037906 0.69400001
-0.35310003 0.11022001 0.69300002
-0.3482267 0.10910667 0.68600005
-0.34692001 0.10910667 0.68600005
-0.34611717 0.10926572 0.68700004
-0.34480861 0.10926572 0.68700004
-0.34350002 0.10926572 0.68700004
-0.34386003 0.11022001 0.69300002
-0.3430343 0.11037906 0.69400001
-0.34171242 0.11037906 0.69400001
-0.34088096 0.1105381 0.69500005
-0.33906859 0.11037906 0.69400001
-0.33726001 0.11022001 0.69300002
-0.37577242 0.1112181 0.69100004
-0.3739143 0.11105715 0.69000006
-0.37260002 0.11105715 0.69000006
-0.37128574 0.11105715 0.69000006
-0.35889718 0.11170096 0.69400001
-0.35757527 0.11170096 0.69400001
-0.35574001 0.11154 0.69300002
-0.35442004 0.11154 0.69300002
-0.35310003 0.11154 0.69300002
-0.34974954 0.1108962 0.68900001
-0.34742573 0.11057429 0.68700004
-0.34611717 0.11057429 0.68700004
-0.34480861 0.11057429 0.68700004
-0.34350002 0.11057429 0.68700004
-0.34368575 0.11105715 0.69000006
-0.34237146 0.11105715 0.69000006
-0.34155145 0.1112181 0.69100004
-0.34122002 0.11154 0.69300002
-0.33990002 0.11154 0.69300002
-0.33858001 0.11154 0.69300002
-0.33628669 0.1112181 0.69100004
-0.3349705 0.1112181 0.69100004
-0.33365431 0.1112181 0.69100004
-0.33185717 0.11105715 0.69000006
-0.33054289 0.11105715 0.69000006
-0.37522858 0.11237144 0.69000006
-0.3739143 0.11237144 0.69000006
-0.37260002 0.11237144 0.69000006
-0.37074766 0.11220858 0.68900001
-0.36521336 0.11172001 0.68600005
-0.35734573 0.11253429 0.69100004
-0.35602954 0.11253429 0.69100004
-0.35471335 0.11253429 0.69100004
-0.35288572 0.11237144 0.69000006
-0.35208097 0.11253429 0.69100004
-0.34974954 0.11220858 0.68900001
-0.34742573 0.11188287 0.68700004
-0.34561336 0.11172001 0.68600005
-0.34430668 0.11172001 0.68600005
-0.34300002 0.11172001 0.68600005
-0.34169334 0.11172001 0.68600005
-0.34187526 0.11220858 0.68900001
-0.34105715 0.11237144 0.69000006
-0.34023526 0.11253429 0.69100004
-0.33891907 0.11253429 0.69100004
-0.33760288 0.11253429 0.69100004
-0.33580002 0.11237144 0.69000006
-0.33448574 0.11237144 0.69000006
-0.33317146 0.11237144 0.69000006
-0.3304143 0.11188287 0.68700004
-0.3739143 0.11368572 0.69000006
-0.37206003 0.11352096 0.68900001
-0.36913335 0.11302667 0.68600005
-0.3678267 0.11302667 0.68600005
-0.36652002 0.11302667 0.68600005
-0.36414859 0.11269715 0.68400002
-0.3568286 0.11368572 0.69000006
-0.35551432 0.11368572 0.69000006
-0.35214669 0.11302667 0.68600005
-0.34981716 0.11269715 0.68400002
-0.34953335 0.11302667 0.68600005
-0.3482267 0.11302667 0.68600005
-0.34692001 0.11302667 0.68600005
-0.34561336 0.11302667 0.68600005
-0.34430668 0.11302667 0.68600005
-0.34200001 0.11269715 0.68400002
-0.34219146 0.11319143 0.68700004
-0.34088287 0.11319143 0.68700004
-0.34056288 0.11352096 0.68900001
-0.33974287 0.11368572 0.69000006
-0.33842859 0.11368572 0.69000006
-0.33662573 0.11352096 0.68900001
-0.33580002 0.11368572 0.69000006
-0.33448574 0.11368572 0.69000006
-0.3326886 0.11352096 0.68900001
-0.33137622 0.11352096 0.68900001
-0.37337241 0.11483334 0.68900001
-0.36936003 0.11400001 0.68400002
-0.36751908 0.11383334 0.68300003
-0.36621812 0.11383334 0.68300003
-0.36491716 0.11383334 0.68300003
-0.36361623 0.11383334 0.68300003
-0.36231527 0.11383334 0.68300003
-0.35813335 0.11333334 0.68000001
-0.35788766 0.11366668 0.68200004
-0.3565886 0.11366668 0.68200004
-0.35528955 0.11366668 0.68200004
-0.3539905 0.11366668 0.68200004
-0.35269144 0.11366668 0.68200004
-0.35139242 0.11366668 0.68200004
-0.35060668 0.11383334 0.68300003
-0.34930575 0.11383334 0.68300003
-0.34749526 0.11366668 0.68200004
-0.34670383 0.11383334 0.68300003
-0.34590858 0.11400001 0.68400002
-0.34460574 0.11400001 0.68400002
-0.34330288 0.11400001 0.68400002
-0.34200001 0.11400001 0.68400002
-0.34169334 0.11433334 0.68600005
-0.34038669 0.11433334 0.68600005
-0.33957431 0.11450001 0.68700004
-0.3392505 0.11483334 0.68900001
-0.33793813 0.11483334 0.68900001
-0.3356486 0.11450001 0.68700004
-0.33531335 0.11483334 0.68900001
-0.33303145 0.11450001 0.68700004
-0.33172289 0.11450001 0.68700004
-0.32993335 0.11433334 0.68600005
-0.32862669 0.11433334 0.68600005
-0.32732001 0.11433334 0.68600005
-0.32601336 0.11433334 0.68600005
-0.36936003 0.11530287 0.68400002
-0.36698097 0.11496572 0.68200004
-0.36568192 0.11496572 0.68200004
-0.36491716 0.11513429 0.68300003
-0.36361623 0.11513429 0.68300003
-0.36231527 0.11513429 0.68300003
-0.36048573 0.11496572 0.68200004
-0.35813335 0.11462858 0.68000001
-0.35683811 0.11462858 0.68000001
-0.35554287 0.11462858 0.68000001
-0.35424763 0.11462858 0.68000001
-0.35295239 0.11462858 0.68000001
-0.35165715 0.11462858 0.68000001
-0.35036191 0.11462858 0.68000001
-0.35009336 0.11496572 0.68200004
-0.34879431 0.11496572 0.68200004
-0.34749526 0.11496572 0.68200004
-0.3461962 0.11496572 0.68200004
-0.34540287 0.11513429 0.68300003
-0.34460574 0.11530287 0.68400002
-0.34280097 0.11513429 0.68300003
-0.34150001 0.11513429 0.68300003
-0.34069717 0.11530287 0.68400002
-0.3393943 0.11530287 0.68400002
-0.33908004 0.11564001 0.68600005
-0.33777335 0.11564001 0.68600005
-0.33695716 0.11580858 0.68700004
-0.3356486 0.11580858 0.68700004
-0.33434004 0.11580858 0.68700004
-0.33303145 0.11580858 0.68700004
-0.33172289 0.11580858 0.68700004
-0.32993335 0.11564001 0.68600005
-0.32862669 0.11564001 0.68600005
-0.32732001 0.11564001 0.68600005
-0.36882001 0.11643524 0.68300003
-0.36590478 0.11592381 0.68000001
-0.36460954 0.11592381 0.68000001
-0.3633143 0.11592381 0.68000001
-0.36201906 0.11592381 0.68000001
-0.36072382 0.11592381 0.68000001
-0.35942858 0.11592381 0.68000001
-0.35813335 0.11592381 0.68000001
-0.35683811 0.11592381 0.68000001
-0.3565886 0.11626477 0.68200004
-0.35424763 0.11592381 0.68000001
-0.35295239 0.11592381 0.68000001
-0.35165715 0.11592381 0.68000001
-0.35036191 0.11592381 0.68000001
-0.34906667 0.11592381 0.68000001
-0.34777147 0.11592381 0.68000001
-0.34647623 0.11592381 0.68000001
-0.34518099 0.11592381 0.68000001
-0.34489715 0.11626477 0.68200004
-0.34410194 0.11643524 0.68300003
-0.34229907 0.11626477 0.68200004
-0.34150001 0.11643524 0.68300003
-0.34019908 0.11643524 0.68300003
-0.33840191 0.11626477 0.68200004
-0.33759716 0.11643524 0.68300003
-0.3362962 0.11643524 0.68300003
-0.33548573 0.11660572 0.68400002
-0.33516002 0.11694667 0.68600005
-0.33434004 0.11711715 0.68700004
-0.33303145 0.11711715 0.68700004
-0.33172289 0.11711715 0.68700004
-0.32993335 0.11694667 0.68600005
-0.32862669 0.11694667 0.68600005
-0.32732001 0.11694667 0.68600005
-0.36720002 0.11721905 0.68000001
-0.3653667 0.11704668 0.67900002
-0.36407337 0.11704668 0.67900002
-0.36224574 0.11687429 0.67800003
-0.36095431 0.11687429 0.67800003
-0.36019337 0.11704668 0.67900002
-0.35890001 0.11704668 0.67900002
-0.35760668 0.11704668 0.67900002
-0.35631335 0.11704668 0.67900002
-0.35554287 0.11721905 0.68000001
-0.35424763 0.11721905 0.68000001
-0.35295239 0.11721905 0.68000001
-0.35165715 0.11721905 0.68000001
-0.35036191 0.11721905 0.68000001
-0.34906667 0.11721905 0.68000001
-0.34777147 0.11721905 0.68000001
-0.34647623 0.11721905 0.68000001
-0.34518099 0.11721905 0.68000001
-0.34388575 0.11721905 0.68000001
-0.34259051 0.11721905 0.68000001
-0.34129527 0.11721905 0.68000001
-0.34000003 0.11721905 0.68000001
-0.33870479 0.11721905 0.68000001
-0.33691335 0.11704668 0.67900002
-0.33562002 0.11704668 0.67900002
-0.33481908 0.11721905 0.68000001
-0.33450478 0.11756381 0.68200004
-0.33418289 0.11790858 0.68400002
-0.33385336 0.11825334 0.68600005
-0.33254668 0.11825334 0.68600005
-0.33124003 0.11825334 0.68600005
-0.32993335 0.11825334 0.68600005
-0.32862669 0.11825334 0.68600005
-0.36612001 0.11816572 0.67800003
-0.36375239 0.11781715 0.67600006
-0.36353716 0.11816572 0.67800003
-0.36117718 0.11781715 0.67600006
-0.3614867 0.11834001 0.67900002
-0.36019337 0.11834001 0.67900002
-0.35890001 0.11834001 0.67900002
-0.35760668 0.11834001 0.67900002
-0.35631335 0.11834001 0.67900002
-0.35554287 0.11851429 0.68000001
-0.35424763 0.11851429 0.68000001
-0.35295239 0.11851429 0.68000001
-0.35114002 0.11834001 0.67900002
-0.34984669 0.11834001 0.67900002
-0.34855336 0.11834001 0.67900002
-0.34726003 0.11834001 0.67900002
-0.34647623 0.11851429 0.68000001
-0.34518099 0.11851429 0.68000001
-0.34287432 0.11816572 0.67800003
-0.34057525 0.11781715 0.67600006
-0.34079334 0.11834001 0.67900002
-0.34000003 0.11851429 0.68000001
-0.33870479 0.11851429 0.68000001
-0.33691335 0.11834001 0.67900002
-0.33562002 0.11834001 0.67900002
-0.33432668 0.11834001 0.67900002
-0.36652765 0.11875239 0.67400002
-0.36578575 0.11892858 0.67500001
-0.36450002 0.11892858 0.67500001
-0.36321431 0.11892858 0.67500001
-0.36246479 0.11910477 0.67600006
-0.36117718 0.11910477 0.67600006
-0.35988954 0.11910477 0.67600006
-0.35966289 0.11945715 0.67800003
-0.35837147 0.11945715 0.67800003
-0.35708001 0.11945715 0.67800003
-0.35578859 0.11945715 0.67800003
-0.35502002 0.11963334 0.67900002
-0.35372669 0.11963334 0.67900002
-0.35243335 0.11963334 0.67900002
-0.35114002 0.11963334 0.67900002
-0.34933144 0.11945715 0.67800003
-0.34804001 0.11945715 0.67800003
-0.34674859 0.11945715 0.67800003
-0.3459667 0.11963334 0.67900002
-0.34416574 0.11945715 0.67800003
-0.34135717 0.11892858 0.67500001
-0.34007144 0.11892858 0.67500001
-0.33928764 0.11910477 0.67600006
-0.33950001 0.11963334 0.67900002
-0.33820668 0.11963334 0.67900002
-0.33542478 0.11910477 0.67600006
-0.33512574 0.11945715 0.67800003
-0.33383432 0.11945715 0.67800003
-0.36544001 0.11968001 0.67200005
-0.36524382 0.1200362 0.67400002
-0.36450002 0.12021429 0.67500001
-0.36321431 0.12021429 0.67500001
-0.36192858 0.12021429 0.67500001
-0.36064288 0.12021429 0.67500001
-0.35935718 0.12021429 0.67500001
-0.35966289 0.12074858 0.67800003
-0.35837147 0.12074858 0.67800003
-0.35708001 0.12074858 0.67800003
-0.35578859 0.12074858 0.67800003
-0.35502002 0.12092668 0.67900002
-0.35372669 0.12092668 0.67900002
-0.35243335 0.12092668 0.67900002
-0.35062289 0.12074858 0.67800003
-0.34933144 0.12074858 0.67800003
-0.34701335 0.12039239 0.67600006
-0.34572574 0.12039239 0.67600006
-0.34545717 0.12074858 0.67800003
-0.34264287 0.12021429 0.67500001
-0.34085146 0.1200362 0.67400002
-0.33956763 0.1200362 0.67400002
-0.33878574 0.12021429 0.67500001
-0.33800003 0.12039239 0.67600006
-0.33770859 0.12074858 0.67800003
-0.33542478 0.12039239 0.67600006
-0.33512574 0.12074858 0.67800003
-0.33284953 0.12039239 0.67600006
-0.36544001 0.12096 0.67200005
-0.36416003 0.12096 0.67200005
-0.36396003 0.12132001 0.67400002
-0.3626762 0.12132001 0.67400002
-0.36139241 0.12132001 0.67400002
-0.36010858 0.12132001 0.67400002
-0.35882479 0.12132001 0.67400002
-0.35807145 0.12150001 0.67500001
-0.35731432 0.12168001 0.67600006
-0.35602668 0.12168001 0.67600006
-0.35473907 0.12168001 0.67600006
-0.35345146 0.12168001 0.67600006
-0.35320574 0.12204001 0.67800003
-0.35191432 0.12204001 0.67800003
-0.3495886 0.12168001 0.67600006
-0.34830096 0.12168001 0.67600006
-0.34650001 0.12150001 0.67500001
-0.34470287 0.12132001 0.67400002
-0.34240001 0.12096 0.67200005
-0.34112003 0.12096 0.67200005
-0.34085146 0.12132001 0.67400002
-0.33856001 0.12096 0.67200005
-0.33828384 0.12132001 0.67400002
-0.33700001 0.12132001 0.67400002
-0.33671239 0.12168001 0.67600006
-0.3349286 0.12150001 0.67500001
-0.33413717 0.12168001 0.67600006
-0.33235717 0.12150001 0.67500001
-0.37607145 0.12278572 0.67500001
-0.3742305 0.12260382 0.67400002
-0.37294668 0.12260382 0.67400002
-0.36945716 0.1218762 0.67000002
-0.36818099 0.1218762 0.67000002
-0.3669048 0.1218762 0.67000002
-0.36617431 0.1220581 0.671
-0.36489621 0.1220581 0.671
-0.36361811 0.1220581 0.671
-0.36288002 0.12224001 0.67200005
-0.36160001 0.12224001 0.67200005
-0.36139241 0.12260382 0.67400002
-0.36010858 0.12260382 0.67400002
-0.35882479 0.12260382 0.67400002
-0.35807145 0.12278572 0.67500001
-0.35731432 0.12296763 0.67600006
-0.35708001 0.12333144 0.67800003
-0.35473907 0.12296763 0.67600006
-0.35502002 0.12351334 0.67900002
-0.35372669 0.12351334 0.67900002
-0.35087621 0.12296763 0.67600006
-0.3495886 0.12296763 0.67600006
-0.34778574 0.12278572 0.67500001
-0.34650001 0.12278572 0.67500001
-0.34470287 0.12260382 0.67400002
-0.34240001 0.12224001 0.67200005
-0.34112003 0.12224001 0.67200005
-0.33984002 0.12224001 0.67200005
-0.33856001 0.12224001 0.67200005
