# .PCD v0.7 - Point Cloud Data file format
VERSION 0.7
FIELDS x y z rgb
SIZE 4 4 4 4
TYPE F F F U
COUNT 1 1 1 1
WIDTH 1065
HEIGHT 1
VIEWPOINT 0 0 0 1 0 0 0
POINTS 1065
DATA ascii
-0.38674954 0.082122862 0.73700005 4294901760
-0.38534573 0.082122862 0.73700005 4294901760
-0.38394192 0.082122862 0.73700005 4294901760
-0.38201907 0.082011431 0.73600006 4294901760
-0.3811343 0.082122862 0.73700005 4294901760
-0.37973049 0.082122862 0.73700005 4294901760
-0.37935334 0.082345717 0.73900002 4294901760
-0.33732572 0.083794288 0.75200003 4294901760
-0.33589336 0.083794288 0.75200003 4294901760
-0.33446097 0.083794288 0.75200003 4294901760
-0.33302858 0.083794288 0.75200003 4294901760
-0.33159623 0.083794288 0.75200003 4294901760
-0.32928574 0.083571434 0.75000006 4294901760
-0.32785717 0.083571434 0.75000006 4294901760
-0.32642859 0.083571434 0.75000006 4294901760
-0.32500002 0.083571434 0.75000006 4294901760
-0.32357144 0.083571434 0.75000006 4294901760
-0.32214287 0.083571434 0.75000006 4294901760
-0.32071429 0.083571434 0.75000006 4294901760
-0.38622478 0.08341334 0.73600006 4294901760
-0.38534573 0.083526671 0.73700005 4294901760
-0.38342097 0.08341334 0.73600006 4294901760
-0.38201907 0.08341334 0.73600006 4294901760
-0.38061717 0.08341334 0.73600006 4294901760
-0.37973049 0.083526671 0.73700005 4294901760
-0.37832668 0.083526671 0.73700005 4294901760
-0.33357146 0.085000008 0.75000006 4294901760
-0.33214289 0.085000008 0.75000006 4294901760
-0.33071432 0.085000008 0.75000006 4294901760
-0.32928574 0.085000008 0.75000006 4294901760
-0.32698289 0.084773339 0.74800003 4294901760
-0.32555813 0.084773339 0.74800003 4294901760
-0.32413337 0.084773339 0.74800003 4294901760
-0.32270861 0.084773339 0.74800003 4294901760
-0.32128382 0.084773339 0.74800003 4294901760
-0.31985906 0.084773339 0.74800003 4294901760
-0.31928572 0.085000008 0.75000006 4294901760
0.18191905 0.08556667 0.75500005 4294901760
-0.38237908 0.084584765 0.73400003 4294901760
-0.38098097 0.084584765 0.73400003 4294901760
-0.37958288 0.084584765 0.73400003 4294901760
-0.3781848 0.084584765 0.73400003 4294901760
-0.37781337 0.084815241 0.73600006 4294901760
-0.35345146 0.084354289 0.73200005 4294901760
-0.32840765 0.086198099 0.74800003 4294901760
-0.32654575 0.086082861 0.74700004 4294901760
-0.32512289 0.086082861 0.74700004 4294901760
-0.32370001 0.086082861 0.74700004 4294901760
-0.32227716 0.086082861 0.74700004 4294901760
-0.32128382 0.086198099 0.74800003 4294901760
-0.31985906 0.086198099 0.74800003 4294901760
-0.31928572 0.086428575 0.75000006 4294901760
-0.38133717 0.085748576 0.73200005 4294901760
-0.37994289 0.085748576 0.73200005 4294901760
-0.37544575 0.085045718 0.72600001 4294901760
-0.35624003 0.085748576 0.73200005 4294901760
-0.35581526 0.085982859 0.73400003 4294901760
-0.35345146 0.085748576 0.73200005 4294901760
-0.35205716 0.085748576 0.73200005 4294901760
-0.32567146 0.087271437 0.74500006 4294901760
-0.3242524 0.087271437 0.74500006 4294901760
-0.32283336 0.087271437 0.74500006 4294901760
-0.32227716 0.087505721 0.74700004 4294901760
-0.32085431 0.087505721 0.74700004 4294901760
-0.31943145 0.087505721 0.74700004 4294901760
-0.3184343 0.087622866 0.74800003 4294901760
-0.38081622 0.087023817 0.73100001 4294901760
-0.37838575 0.086785719 0.72900003 4294901760
-0.37544575 0.086428575 0.72600001 4294901760
-0.35624003 0.087142862 0.73200005 4294901760
-0.35484573 0.087142862 0.73200005 4294901760
-0.3529686 0.087023817 0.73100001 4294901760
-0.35157621 0.087023817 0.73100001 4294901760
-0.35066289 0.087142862 0.73200005 4294901760
-0.34926859 0.087142862 0.73200005 4294901760
-0.32567146 0.088690482 0.74500006 4294901760
-0.3242524 0.088690482 0.74500006 4294901760
-0.32283336 0.088690482 0.74500006 4294901760
-0.32141432 0.088690482 0.74500006 4294901760
-0.32085431 0.08892858 0.74700004 4294901760
-0.31985906 0.089047626 0.74800003 4294901760
-0.31928572 0.089285724 0.75000006 4294901760
-0.31785718 0.089285724 0.75000006 4294901760
-0.37786669 0.088053338 0.72800004 4294901760
-0.37492859 0.08769048 0.72500002 4294901760
-0.35575336 0.088416196 0.73100001 4294901760
-0.35436097 0.088416196 0.73100001 4294901760
-0.3529686 0.088416196 0.73100001 4294901760
-0.35157621 0.088416196 0.73100001 4294901760
-0.35018384 0.088416196 0.73100001 4294901760
-0.34879145 0.088416196 0.73100001 4294901760
-0.34739906 0.088416196 0.73100001 4294901760
-0.34648001 0.088537149 0.73200005 4294901760
-0.34463051 0.088779055 0.73400003 4294901760
-0.34323239 0.088779055 0.73400003 4294901760
-0.34183431 0.088779055 0.73400003 4294901760
-0.33950859 0.088537149 0.73200005 4294901760
-0.32479715 0.089867622 0.74300003 4294901760
-0.32338193 0.089867622 0.74300003 4294901760
-0.32141432 0.090109527 0.74500006 4294901760
-0.31999525 0.090109527 0.74500006 4294901760
-0.37821144 0.08919429 0.72600001 4294901760
-0.37682861 0.08919429 0.72600001 4294901760
-0.37492859 0.089071438 0.72500002 4294901760
-0.37354764 0.089071438 0.72500002 4294901760
-0.35575336 0.089808576 0.73100001 4294901760
-0.35339144 0.089562863 0.72900003 4294901760
-0.35200289 0.089562863 0.72900003 4294901760
-0.35061431 0.089562863 0.72900003 4294901760
-0.35018384 0.089808576 0.73100001 4294901760
-0.34783718 0.089562863 0.72900003 4294901760
-0.3464486 0.089562863 0.72900003 4294901760
-0.34600669 0.089808576 0.73100001 4294901760
-0.34508574 0.089931436 0.73200005 4294901760
-0.34369144 0.089931436 0.73200005 4294901760
-0.34323239 0.090177149 0.73400003 4294901760
-0.34090286 0.089931436 0.73200005 4294901760
-0.34043622 0.090177149 0.73400003 4294901760
-0.32055146 0.091282859 0.74300003 4294901760
-0.3191362 0.091282859 0.74300003 4294901760
-0.39017147 0.089828581 0.72000003 4294901760
-0.38880002 0.089828581 0.72000003 4294901760
-0.3868905 0.089703813 0.71900004 4294901760
-0.37802574 0.090202861 0.72300005 4294901760
-0.37769049 0.090452388 0.72500002 4294901760
-0.37527144 0.090202861 0.72300005 4294901760
-0.37337717 0.090078101 0.72200006 4294901760
-0.37251717 0.090202861 0.72300005 4294901760
-0.37114003 0.090202861 0.72300005 4294901760
-0.35575336 0.091200955 0.73100001 4294901760
-0.35339144 0.090951435 0.72900003 4294901760
-0.35200289 0.090951435 0.72900003 4294901760
-0.35061431 0.090951435 0.72900003 4294901760
-0.34922573 0.090951435 0.72900003 4294901760
-0.34783718 0.090951435 0.72900003 4294901760
-0.3464486 0.090951435 0.72900003 4294901760
-0.34506002 0.090951435 0.72900003 4294901760
-0.3446143 0.091200955 0.73100001 4294901760
-0.34322193 0.091200955 0.73100001 4294901760
-0.34229717 0.091325723 0.73200005 4294901760
-0.34090286 0.091325723 0.73200005 4294901760
-0.33950859 0.091325723 0.73200005 4294901760
-0.33811432 0.091325723 0.73200005 4294901760
-0.33672002 0.091325723 0.73200005 4294901760
-0.33532575 0.091325723 0.73200005 4294901760
-0.39154288 0.091200009 0.72000003 4294901760
-0.39017147 0.091200009 0.72000003 4294901760
-0.38826004 0.091073342 0.71900004 4294901760
-0.3868905 0.091073342 0.71900004 4294901760
-0.38552096 0.091073342 0.71900004 4294901760
-0.38415146 0.091073342 0.71900004 4294901760
-0.38278192 0.091073342 0.71900004 4294901760
-0.38141242 0.091073342 0.71900004 4294901760
-0.38004288 0.091073342 0.71900004 4294901760
-0.37867334 0.091073342 0.71900004 4294901760
-0.3778286 0.091200009 0.72000003 4294901760
-0.37750289 0.091453336 0.72200006 4294901760
-0.3766486 0.091580003 0.72300005 4294901760
-0.3747524 0.091453336 0.72200006 4294901760
-0.37337717 0.091453336 0.72200006 4294901760
-0.37200192 0.091453336 0.72200006 4294901760
-0.37062669 0.091453336 0.72200006 4294901760
-0.36925146 0.091453336 0.72200006 4294901760
-0.35478002 0.092340007 0.72900003 4294901760
-0.3529067 0.09221334 0.72800004 4294901760
-0.35200289 0.092340007 0.72900003 4294901760
-0.35013336 0.09221334 0.72800004 4294901760
-0.3477886 0.091960005 0.72600001 4294901760
-0.34640574 0.091960005 0.72600001 4294901760
-0.34502289 0.091960005 0.72600001 4294901760
-0.34364003 0.091960005 0.72600001 4294901760
-0.34367144 0.092340007 0.72900003 4294901760
-0.34228289 0.092340007 0.72900003 4294901760
-0.34089431 0.092340007 0.72900003 4294901760
-0.34043717 0.092593342 0.73100001 4294901760
-0.33904478 0.092593342 0.73100001 4294901760
-0.33765242 0.092593342 0.73100001 4294901760
-0.33626002 0.092593342 0.73100001 4294901760
-0.33486763 0.092593342 0.73100001 4294901760
-0.33347526 0.092593342 0.73100001 4294901760
-0.32055146 0.094113342 0.74300003 4294901760
-0.39291432 0.092571437 0.72000003 4294901760
-0.39154288 0.092571437 0.72000003 4294901760
-0.39017147 0.092571437 0.72000003 4294901760
-0.38880002 0.092571437 0.72000003 4294901760
-0.3868905 0.092442863 0.71900004 4294901760
-0.38552096 0.092442863 0.71900004 4294901760
-0.38415146 0.092442863 0.71900004 4294901760
-0.38278192 0.092442863 0.71900004 4294901760
-0.38141242 0.092442863 0.71900004 4294901760
-0.38004288 0.092442863 0.71900004 4294901760
-0.37867334 0.092442863 0.71900004 4294901760
-0.37730384 0.092442863 0.71900004 4294901760
-0.3759343 0.092442863 0.71900004 4294901760
-0.37508574 0.092571437 0.72000003 4294901760
-0.3737143 0.092571437 0.72000003 4294901760
-0.37182572 0.092442863 0.71900004 4294901760
-0.37045622 0.092442863 0.71900004 4294901760
-0.36908668 0.092442863 0.71900004 4294901760
-0.36822858 0.092571437 0.72000003 4294901760
-0.35332003 0.093342863 0.72600001 4294901760
-0.35145241 0.093214288 0.72500002 4294901760
-0.35007146 0.093214288 0.72500002 4294901760
-0.34772858 0.092957146 0.72300005 4294901760
-0.34635144 0.092957146 0.72300005 4294901760
-0.34449717 0.092828579 0.72200006 4294901760
-0.34312192 0.092828579 0.72200006 4294901760
-0.34222001 0.092957146 0.72300005 4294901760
-0.34037146 0.092828579 0.72200006 4294901760
-0.3389962 0.092828579 0.72200006 4294901760
-0.34042668 0.093600005 0.72800004 4294901760
-0.33950573 0.09372858 0.72900003 4294901760
-0.33765337 0.093600005 0.72800004 4294901760
-0.3362667 0.093600005 0.72800004 4294901760
-0.33488002 0.093600005 0.72800004 4294901760
-0.33349335 0.093600005 0.72800004 4294901760
-0.38962954 0.093812384 0.71900004 4294901760
-0.38826004 0.093812384 0.71900004 4294901760
-0.3868905 0.093812384 0.71900004 4294901760
-0.38552096 0.093812384 0.71900004 4294901760
-0.38415146 0.093812384 0.71900004 4294901760
-0.38171718 0.093551435 0.71700001 4294901760
-0.38035145 0.093551435 0.71700001 4294901760
-0.37898573 0.093551435 0.71700001 4294901760
-0.37762001 0.093551435 0.71700001 4294901760
-0.37625432 0.093551435 0.71700001 4294901760
-0.3759343 0.093812384 0.71900004 4294901760
-0.3745648 0.093812384 0.71900004 4294901760
-0.37319526 0.093812384 0.71900004 4294901760
-0.37182572 0.093812384 0.71900004 4294901760
-0.37045622 0.093812384 0.71900004 4294901760
-0.36908668 0.093812384 0.71900004 4294901760
-0.36822858 0.093942866 0.72000003 4294901760
-0.34765717 0.093942866 0.72000003 4294901760
-0.34580478 0.093812384 0.71900004 4294901760
-0.34347716 0.093551435 0.71700001 4294901760
-0.34449717 0.094203815 0.72200006 4294901760
-0.34217146 0.093942866 0.72000003 4294901760
-0.34174669 0.094203815 0.72200006 4294901760
-0.34037146 0.094203815 0.72200006 4294901760
-0.3389962 0.094203815 0.72200006 4294901760
-0.33902383 0.094595246 0.72500002 4294901760
-0.33764288 0.094595246 0.72500002 4294901760
-0.33672574 0.094725721 0.72600001 4294901760
-0.33534288 0.094725721 0.72600001 4294901760
-0.33396003 0.094725721 0.72600001 4294901760
-0.33257717 0.094725721 0.72600001 4294901760
-0.38826004 0.095181912 0.71900004 4294901760
-0.3868905 0.095181912 0.71900004 4294901760
-0.3830829 0.094917148 0.71700001 4294901760
-0.38171718 0.094917148 0.71700001 4294901760
-0.38035145 0.094917148 0.71700001 4294901760
-0.37898573 0.094917148 0.71700001 4294901760
-0.37709334 0.094784766 0.71600002 4294901760
-0.37572956 0.094784766 0.71600002 4294901760
-0.3748886 0.094917148 0.71700001 4294901760
-0.37352288 0.094917148 0.71700001 4294901760
-0.37163812 0.094784766 0.71600002 4294901760
-0.37079147 0.094917148 0.71700001 4294901760
-0.36891049 0.094784766 0.71600002 4294901760
-0.36908668 0.095181912 0.71900004 4294901760
-0.36771718 0.095181912 0.71900004 4294901760
-0.36634764 0.095181912 0.71900004 4294901760
-0.3649781 0.095181912 0.71900004 4294901760
-0.34765717 0.095314294 0.72000003 4294901760
-0.34628573 0.095314294 0.72000003 4294901760
-0.34491432 0.095314294 0.72000003 4294901760
-0.34354287 0.095314294 0.72000003 4294901760
-0.34217146 0.095314294 0.72000003 4294901760
-0.34080002 0.095314294 0.72000003 4294901760
-0.3394286 0.095314294 0.72000003 4294901760
-0.33805716 0.095314294 0.72000003 4294901760
-0.33762097 0.09557905 0.72200006 4294901760
-0.33624575 0.09557905 0.72200006 4294901760
-0.33487049 0.09557905 0.72200006 4294901760
-0.33395717 0.095711432 0.72300005 4294901760
-0.33258003 0.095711432 0.72300005 4294901760
-0.33120286 0.095711432 0.72300005 4294901760
-0.38118479 0.09614858 0.71600002 4294901760
-0.37982097 0.09614858 0.71600002 4294901760
-0.37740001 0.095880009 0.71400005 4294901760
-0.37604001 0.095880009 0.71400005 4294901760
-0.37415525 0.09574572 0.71300006 4294901760
-0.37332001 0.095880009 0.71400005 4294901760
-0.37143907 0.09574572 0.71300006 4294901760
-0.37008098 0.09574572 0.71300006 4294901760
-0.36924002 0.095880009 0.71400005 4294901760
-0.36788002 0.095880009 0.71400005 4294901760
-0.34854382 0.096551433 0.71900004 4294901760
-0.34717432 0.096551433 0.71900004 4294901760
-0.34340003 0.095880009 0.71400005 4294901760
-0.34204003 0.095880009 0.71400005 4294901760
-0.34211144 0.096282862 0.71700001 4294901760
-0.34074575 0.096282862 0.71700001 4294901760
-0.33938003 0.096282862 0.71700001 4294901760
-0.33895716 0.096551433 0.71900004 4294901760
-0.33758765 0.096551433 0.71900004 4294901760
-0.33668575 0.096685722 0.72000003 4294901760
-0.33484858 0.096551433 0.71900004 4294901760
-0.33347908 0.096551433 0.71900004 4294901760
-0.33257145 0.096685722 0.72000003 4294901760
-0.33120003 0.096685722 0.72000003 4294901760
-0.32982859 0.096685722 0.72000003 4294901760
-0.32845718 0.096685722 0.72000003 4294901760
-0.32663146 0.096551433 0.71900004 4294901760
-0.37876001 0.097240008 0.71400005 4294901760
-0.37740001 0.097240008 0.71400005 4294901760
-0.37551335 0.097103819 0.71300006 4294901760
-0.37415525 0.097103819 0.71300006 4294901760
-0.37279716 0.097103819 0.71300006 4294901760
-0.37143907 0.097103819 0.71300006 4294901760
-0.36904287 0.096831433 0.71100003 4294901760
-0.3676886 0.096831433 0.71100003 4294901760
-0.36736479 0.097103819 0.71300006 4294901760
-0.34612003 0.097240008 0.71400005 4294901760
-0.34476003 0.097240008 0.71400005 4294901760
-0.34340003 0.097240008 0.71400005 4294901760
-0.34156099 0.097103819 0.71300006 4294901760
-0.34020287 0.097103819 0.71300006 4294901760
-0.33884478 0.097103819 0.71300006 4294901760
-0.33890668 0.097512387 0.71600002 4294901760
-0.3380143 0.097648576 0.71700001 4294901760
-0.33664858 0.097648576 0.71700001 4294901760
-0.33621812 0.097920962 0.71900004 4294901760
-0.33484858 0.097920962 0.71900004 4294901760
-0.33347908 0.097920962 0.71900004 4294901760
-0.33257145 0.098057151 0.72000003 4294901760
-0.33120003 0.098057151 0.72000003 4294901760
-0.3293705 0.097920962 0.71900004 4294901760
-0.32845718 0.098057151 0.72000003 4294901760
-0.32663146 0.097920962 0.71900004 4294901760
-0.37822956 0.098461911 0.71300006 4294901760
-0.37687147 0.098461911 0.71300006 4294901760
-0.37446001 0.098185718 0.71100003 4294901760
-0.37310573 0.098185718 0.71100003 4294901760
-0.37175146 0.098185718 0.71100003 4294901760
-0.37039718 0.098185718 0.71100003 4294901760
-0.36904287 0.098185718 0.71100003 4294901760
-0.36717147 0.098047629 0.71000004 4294901760
-0.36581907 0.098047629 0.71000004 4294901760
-0.34553334 0.098047629 0.71000004 4294901760
-0.34418097 0.098047629 0.71000004 4294901760
-0.3428286 0.098047629 0.71000004 4294901760
-0.3414762 0.098047629 0.71000004 4294901760
-0.34012383 0.098047629 0.71000004 4294901760
-0.33781716 0.097771436 0.708 4294901760
-0.33741906 0.098047629 0.71000004 4294901760
-0.33748668 0.098461911 0.71300006 4294901760
-0.33612859 0.098461911 0.71300006 4294901760
-0.3347705 0.098461911 0.71300006 4294901760
-0.33481526 0.098876201 0.71600002 4294901760
-0.33345145 0.098876201 0.71600002 4294901760
-0.33208764 0.098876201 0.71600002 4294901760
-0.33210954 0.099290483 0.71900004 4294901760
-0.32982001 0.09901429 0.71700001 4294901760
-0.32845432 0.09901429 0.71700001 4294901760
-0.32708859 0.09901429 0.71700001 4294901760
-0.32572287 0.09901429 0.71700001 4294901760
-0.32526192 0.099290483 0.71900004 4294901760
-0.31830955 0.10011905 0.72500002 4294901760
-0.31736574 0.10025715 0.72600001 4294901760
-0.31685334 0.10053334 0.72800004 4294901760
-0.37446001 0.09954001 0.71100003 4294901760
-0.37310573 0.09954001 0.71100003 4294901760
-0.37175146 0.09954001 0.71100003 4294901760
-0.37039718 0.09954001 0.71100003 4294901760
-0.36852384 0.099400006 0.71000004 4294901760
-0.36717147 0.099400006 0.71000004 4294901760
-0.36478859 0.099120006 0.708 4294901760
-0.34542003 0.09898001 0.70700002 4294901760
-0.34456003 0.099120006 0.708 4294901760
-0.34321144 0.099120006 0.708 4294901760
-0.34186289 0.099120006 0.708 4294901760
-0.3414762 0.099400006 0.71000004 4294901760
-0.33916575 0.099120006 0.708 4294901760
-0.33781716 0.099120006 0.708 4294901760
-0.33741906 0.099400006 0.71000004 4294901760
-0.33606669 0.099400006 0.71000004 4294901760
-0.33471429 0.099400006 0.71000004 4294901760
-0.33242288 0.099120006 0.708 4294901760
-0.33388001 0.099960007 0.71400005 4294901760
-0.33252001 0.099960007 0.71400005 4294901760
-0.33208764 0.10024001 0.71600002 4294901760
-0.33118573 0.10038 0.71700001 4294901760
-0.32982001 0.10038 0.71700001 4294901760
-0.32799622 0.10024001 0.71600002 4294901760
-0.32708859 0.10038 0.71700001 4294901760
-0.32572287 0.10038 0.71700001 4294901760
-0.32526192 0.10066 0.71900004 4294901760
-0.32389241 0.10066 0.71900004 4294901760
-0.32252288 0.10066 0.71900004 4294901760
-0.31830955 0.1015 0.72500002 4294901760
-0.31824002 0.10192001 0.72800004 4294901760
-0.31685334 0.10192001 0.72800004 4294901760
-0.31590003 0.10206001 0.72900003 4294901760
-0.31408003 0.10192001 0.72800004 4294901760
-0.37393335 0.10075239 0.71000004 4294901760
-0.37258098 0.10075239 0.71000004 4294901760
-0.37175146 0.10089429 0.71100003 4294901760
-0.37039718 0.10089429 0.71100003 4294901760
-0.36852384 0.10075239 0.71000004 4294901760
-0.36717147 0.10075239 0.71000004 4294901760
-0.36478859 0.10046858 0.708 4294901760
-0.34542003 0.10032667 0.70700002 4294901760
-0.34456003 0.10046858 0.708 4294901760
-0.34272668 0.10032667 0.70700002 4294901760
-0.34186289 0.10046858 0.708 4294901760
-0.3405143 0.10046858 0.708 4294901760
-0.33916575 0.10046858 0.708 4294901760
-0.33734003 0.10032667 0.70700002 4294901760
-0.33646861 0.10046858 0.708 4294901760
-0.33512002 0.10046858 0.708 4294901760
-0.33377144 0.10046858 0.708 4294901760
-0.33242288 0.10046858 0.708 4294901760
-0.33205432 0.1011781 0.71300006 4294901760
-0.33116001 0.10132001 0.71400005 4294901760
-0.33072382 0.10160381 0.71600002 4294901760
-0.32936001 0.10160381 0.71600002 4294901760
-0.32845432 0.10174572 0.71700001 4294901760
-0.32708859 0.10174572 0.71700001 4294901760
-0.32572287 0.10174572 0.71700001 4294901760
-0.32526192 0.10202953 0.71900004 4294901760
-0.32389241 0.10202953 0.71900004 4294901760
-0.32252288 0.10202953 0.71900004 4294901760
-0.32115334 0.10202953 0.71900004 4294901760
-0.31830955 0.10288096 0.72500002 4294901760
-0.37288001 0.10181715 0.708 4294901760
-0.37122861 0.10210477 0.71000004 4294901760
-0.36987621 0.10210477 0.71000004 4294901760
-0.36748573 0.10181715 0.708 4294901760
-0.36613718 0.10181715 0.708 4294901760
-0.36478859 0.10181715 0.708 4294901760
-0.34542003 0.10167334 0.70700002 4294901760
-0.34407336 0.10167334 0.70700002 4294901760
-0.34272668 0.10167334 0.70700002 4294901760
-0.34138003 0.10167334 0.70700002 4294901760
-0.3405143 0.10181715 0.708 4294901760
-0.33916575 0.10181715 0.708 4294901760
-0.33734003 0.10167334 0.70700002 4294901760
-0.33599335 0.10167334 0.70700002 4294901760
-0.3346467 0.10167334 0.70700002 4294901760
-0.33377144 0.10181715 0.708 4294901760
-0.33195335 0.10167334 0.70700002 4294901760
-0.33247715 0.10224858 0.71100003 4294901760
-0.33205432 0.10253619 0.71300006 4294901760
-0.33116001 0.10268001 0.71400005 4294901760
-0.33072382 0.10296763 0.71600002 4294901760
-0.32936001 0.10296763 0.71600002 4294901760
-0.32845432 0.10311144 0.71700001 4294901760
-0.32708859 0.10311144 0.71700001 4294901760
-0.32572287 0.10311144 0.71700001 4294901760
-0.32526192 0.10339905 0.71900004 4294901760
-0.32299146 0.10311144 0.71700001 4294901760
-0.32162574 0.10311144 0.71700001 4294901760
-0.32115334 0.10339905 0.71900004 4294901760
-0.31830955 0.10426191 0.72500002 4294901760
-0.37130001 0.10272858 0.70500004 4294901760
-0.36831337 0.10302 0.70700002 4294901760
-0.36696669 0.10302 0.70700002 4294901760
-0.36562002 0.10302 0.70700002 4294901760
-0.34272668 0.10302 0.70700002 4294901760
-0.34186289 0.10316572 0.708 4294901760
-0.3405143 0.10316572 0.708 4294901760
-0.33868667 0.10302 0.70700002 4294901760
-0.33734003 0.10302 0.70700002 4294901760
-0.33599335 0.10302 0.70700002 4294901760
-0.3346467 0.10302 0.70700002 4294901760
-0.33330002 0.10302 0.70700002 4294901760
-0.33242288 0.10316572 0.708 4294901760
-0.33252001 0.10404 0.71400005 4294901760
-0.33116001 0.10404 0.71400005 4294901760
-0.32980001 0.10404 0.71400005 4294901760
-0.32936001 0.10433143 0.71600002 4294901760
-0.32845432 0.10447715 0.71700001 4294901760
-0.32708859 0.10447715 0.71700001 4294901760
-0.32572287 0.10447715 0.71700001 4294901760
-0.32526192 0.10476858 0.71900004 4294901760
-0.32299146 0.10447715 0.71700001 4294901760
-0.32162574 0.10447715 0.71700001 4294901760
-0.32026002 0.10447715 0.71700001 4294901760
-0.3428286 0.10480953 0.71000004 4294901760
-0.3405143 0.10451429 0.708 4294901760
-0.33868667 0.10436668 0.70700002 4294901760
-0.33734003 0.10436668 0.70700002 4294901760
-0.33599335 0.10436668 0.70700002 4294901760
-0.3346467 0.10436668 0.70700002 4294901760
-0.33235717 0.10407144 0.70500004 4294901760
-0.33007526 0.10377619 0.70300001 4294901760
-0.32844001 0.1054 0.71400005 4294901760
-0.32799622 0.10569525 0.71600002 4294901760
-0.32663241 0.10569525 0.71600002 4294901760
-0.32572287 0.10584287 0.71700001 4294901760
-0.32526192 0.1061381 0.71900004 4294901760
-0.32254097 0.10569525 0.71600002 4294901760
-0.32028002 0.1054 0.71400005 4294901760
-0.34003335 0.10571334 0.70700002 4294901760
-0.33868667 0.10571334 0.70700002 4294901760
-0.33638573 0.10541429 0.70500004 4294901760
-0.33599335 0.10571334 0.70700002 4294901760
-0.3346467 0.10571334 0.70700002 4294901760
-0.33141431 0.10511524 0.70300001 4294901760
-0.33007526 0.10511524 0.70300001 4294901760
-0.31704479 0.10750762 0.71900004 4294901760
-0.3367705 0.10645429 0.70300001 4294901760
-0.33543146 0.10645429 0.70300001 4294901760
-0.33409241 0.10645429 0.70300001 4294901760
-0.33275336 0.10645429 0.70300001 4294901760
-0.33141431 0.10645429 0.70300001 4294901760
-0.32913622 0.10615144 0.70100003 4294901760
-0.31575716 0.10796858 0.71300006 4294901760
-0.31572193 0.10842287 0.71600002 4294901760
-0.31479716 0.10857429 0.71700001 4294901760
-0.33581239 0.10748667 0.70100003 4294901760
-0.33447716 0.10748667 0.70100003 4294901760
-0.33314192 0.10748667 0.70100003 4294901760
-0.33180669 0.10748667 0.70100003 4294901760
-0.33000001 0.10733334 0.70000005 4294901760
-0.32866669 0.10733334 0.70000005 4294901760
-0.3263981 0.10702667 0.69800001 4294901760
-0.31711525 0.10932668 0.71300006 4294901760
-0.31575716 0.10932668 0.71300006 4294901760
-0.33304575 0.1083562 0.69800001 4294901760
-0.33171621 0.1083562 0.69800001 4294901760
-0.3303867 0.1083562 0.69800001 4294901760
-0.32905716 0.1083562 0.69800001 4294901760
-0.32772765 0.1083562 0.69800001 4294901760
-0.32593051 0.10820096 0.69700003 4294901760
-0.33256859 0.10952858 0.69700003 4294901760
-0.33124098 0.10952858 0.69700003 4294901760
-0.3303867 0.10968572 0.69800001 4294901760
-0.32858574 0.10952858 0.69700003 4294901760
-0.32725811 0.10952858 0.69700003 4294901760
-0.32593051 0.10952858 0.69700003 4294901760
-0.32367146 0.10921429 0.69500005 4294901760
-0.33161432 0.1105381 0.69500005 4294901760
-0.3302905 0.1105381 0.69500005 4294901760
-0.32991335 0.1108562 0.69700003 4294901760
-0.32858574 0.1108562 0.69700003 4294901760
-0.32725811 0.1108562 0.69700003 4294901760
-0.32499525 0.1105381 0.69500005 4294901760
-0.32367146 0.1105381 0.69500005 4294901760
-0.31659621 0.11037906 0.69400001 4294901760
-0.31482002 0.11022001 0.69300002 4294901760
-0.31259525 0.10990191 0.69100004 4294901760
-0.33330002 0.11154 0.69300002 4294901760
-0.33198002 0.11154 0.69300002 4294901760
-0.33113715 0.11170096 0.69400001 4294901760
-0.32981527 0.11170096 0.69400001 4294901760
-0.32896668 0.11186191 0.69500005 4294901760
-0.32764289 0.11186191 0.69500005 4294901760
-0.32631907 0.11186191 0.69500005 4294901760
-0.32499525 0.11186191 0.69500005 4294901760
-0.32367146 0.11186191 0.69500005 4294901760
-0.32188383 0.11170096 0.69400001 4294901760
-0.31614003 0.11154 0.69300002 4294901760
-0.31391144 0.1112181 0.69100004 4294901760
-0.31214288 0.11105715 0.69000006 4294901760
-0.36231527 0.11123144 0.68300003 4294901760
-0.33317146 0.11237144 0.69000006 4294901760
-0.33233812 0.11253429 0.69100004 4294901760
-0.33054289 0.11237144 0.69000006 4294901760
-0.33066002 0.11286001 0.69300002 4294901760
-0.32981527 0.11302286 0.69400001 4294901760
-0.32849336 0.11302286 0.69400001 4294901760
-0.32764289 0.11318572 0.69500005 4294901760
-0.32631907 0.11318572 0.69500005 4294901760
-0.32499525 0.11318572 0.69500005 4294901760
-0.32367146 0.11318572 0.69500005 4294901760
-0.32188383 0.11302286 0.69400001 4294901760
-0.32010001 0.11286001 0.69300002 4294901760
-0.31746003 0.11286001 0.69300002 4294901760
-0.31614003 0.11286001 0.69300002 4294901760
-0.31391144 0.11253429 0.69100004 4294901760
-0.31259525 0.11253429 0.69100004 4294901760
-0.36231527 0.11253238 0.68300003 4294901760
-0.33254668 0.11302667 0.68600005 4294901760
-0.33172289 0.11319143 0.68700004 4294901760
-0.33137622 0.11352096 0.68900001 4294901760
-0.33054289 0.11368572 0.69000006 4294901760
-0.32970574 0.11385048 0.69100004 4294901760
-0.32934001 0.11418001 0.69300002 4294901760
-0.32802004 0.11418001 0.69300002 4294901760
-0.32717144 0.11434477 0.69400001 4294901760
-0.32631907 0.11450953 0.69500005 4294901760
-0.32499525 0.11450953 0.69500005 4294901760
-0.32320574 0.11434477 0.69400001 4294901760
-0.32142001 0.11418001 0.69300002 4294901760
-0.32010001 0.11418001 0.69300002 4294901760
-0.31786001 0.11385048 0.69100004 4294901760
-0.31654382 0.11385048 0.69100004 4294901760
-0.31522763 0.11385048 0.69100004 4294901760
-0.31391144 0.11385048 0.69100004 4294901760
-0.31259525 0.11385048 0.69100004 4294901760
-0.3108286 0.11368572 0.69000006 4294901760
-0.36460954 0.11333334 0.68000001 4294901760
-0.36278003 0.11316667 0.67900002 4294901760
-0.36201906 0.11333334 0.68000001 4294901760
-0.36072382 0.11333334 0.68000001 4294901760
-0.35942858 0.11333334 0.68000001 4294901760
-0.35760668 0.11316667 0.67900002 4294901760
-0.35683811 0.11333334 0.68000001 4294901760
-0.35554287 0.11333334 0.68000001 4294901760
-0.35633144 0.11400001 0.68400002 4294901760
-0.3539905 0.11366668 0.68200004 4294901760
-0.33434004 0.11450001 0.68700004 4294901760
-0.33303145 0.11450001 0.68700004 4294901760
-0.33172289 0.11450001 0.68700004 4294901760
-0.3304143 0.11450001 0.68700004 4294901760
-0.32910573 0.11450001 0.68700004 4294901760
-0.32779717 0.11450001 0.68700004 4294901760
-0.32743907 0.11483334 0.68900001 4294901760
-0.32518002 0.11450001 0.68700004 4294901760
-0.32387146 0.11450001 0.68700004 4294901760
-0.32256287 0.11450001 0.68700004 4294901760
-0.32265717 0.11500001 0.69000006 4294901760
-0.32134289 0.11500001 0.69000006 4294901760
-0.3200286 0.11500001 0.69000006 4294901760
-0.31871432 0.11500001 0.69000006 4294901760
-0.31740001 0.11500001 0.69000006 4294901760
-0.31608573 0.11500001 0.69000006 4294901760
-0.31477144 0.11500001 0.69000006 4294901760
-0.31345716 0.11500001 0.69000006 4294901760
-0.31214288 0.11500001 0.69000006 4294901760
-0.3108286 0.11500001 0.69000006 4294901760
-0.3653667 0.11446001 0.67900002 4294901760
-0.36407337 0.11446001 0.67900002 4294901760
-0.36278003 0.11446001 0.67900002 4294901760
-0.36095431 0.11429144 0.67800003 4294901760
-0.36019337 0.11446001 0.67900002 4294901760
-0.35890001 0.11446001 0.67900002 4294901760
-0.35708001 0.11429144 0.67800003 4294901760
-0.35631335 0.11446001 0.67900002 4294901760
-0.35554287 0.11462858 0.68000001 4294901760
-0.33157715 0.11530287 0.68400002 4294901760
-0.33172289 0.11580858 0.68700004 4294901760
-0.32993335 0.11564001 0.68600005 4294901760
-0.32910573 0.11580858 0.68700004 4294901760
-0.32732001 0.11564001 0.68600005 4294901760
-0.32648858 0.11580858 0.68700004 4294901760
-0.32470667 0.11564001 0.68600005 4294901760
-0.32198572 0.11513429 0.68300003 4294901760
-0.32068479 0.11513429 0.68300003 4294901760
-0.31938383 0.11513429 0.68300003 4294901760
-0.31994572 0.11580858 0.68700004 4294901760
-0.31863716 0.11580858 0.68700004 4294901760
-0.3173286 0.11580858 0.68700004 4294901760
-0.31694001 0.11614572 0.68900001 4294901760
-0.31562763 0.11614572 0.68900001 4294901760
-0.31477144 0.11631429 0.69000006 4294901760
-0.31300288 0.11614572 0.68900001 4294901760
-0.31214288 0.11631429 0.69000006 4294901760
-0.3108286 0.11631429 0.69000006 4294901760
-0.3653667 0.11575334 0.67900002 4294901760
-0.36407337 0.11575334 0.67900002 4294901760
-0.36278003 0.11575334 0.67900002 4294901760
-0.36095431 0.11558287 0.67800003 4294901760
-0.35966289 0.11558287 0.67800003 4294901760
-0.35837147 0.11558287 0.67800003 4294901760
-0.35708001 0.11558287 0.67800003 4294901760
-0.33060765 0.11626477 0.68200004 4294901760
-0.32897145 0.11660572 0.68400002 4294901760
-0.32766861 0.11660572 0.68400002 4294901760
-0.32541144 0.11626477 0.68200004 4294901760
-0.32506287 0.11660572 0.68400002 4294901760
-0.32376003 0.11660572 0.68400002 4294901760
-0.32245716 0.11660572 0.68400002 4294901760
-0.31927621 0.11592381 0.68000001 4294901760
-0.31798097 0.11592381 0.68000001 4294901760
-0.31668574 0.11592381 0.68000001 4294901760
-0.31817335 0.11694667 0.68600005 4294901760
-0.3168667 0.11694667 0.68600005 4294901760
-0.31556001 0.11694667 0.68600005 4294901760
-0.31425336 0.11694667 0.68600005 4294901760
-0.31431526 0.11745811 0.68900001 4294901760
-0.3120943 0.11711715 0.68700004 4294901760
-0.31169051 0.11745811 0.68900001 4294901760
-0.3103781 0.11745811 0.68900001 4294901760
-0.31310287 0.11899239 0.69800001 4294901760
-0.31177336 0.11899239 0.69800001 4294901760
-0.31044382 0.11899239 0.69800001 4294901760
-0.30911431 0.11899239 0.69800001 4294901760
-0.3653667 0.11704668 0.67900002 4294901760
-0.36353716 0.11687429 0.67800003 4294901760
-0.36224574 0.11687429 0.67800003 4294901760
-0.36095431 0.11687429 0.67800003 4294901760
-0.35860193 0.11652953 0.67600006 4294901760
-0.35731432 0.11652953 0.67600006 4294901760
-0.35602668 0.11652953 0.67600006 4294901760
-0.33044669 0.11704668 0.67900002 4294901760
-0.3265667 0.11704668 0.67900002 4294901760
-0.32527336 0.11704668 0.67900002 4294901760
-0.32398003 0.11704668 0.67900002 4294901760
-0.32316193 0.11721905 0.68000001 4294901760
-0.32281336 0.11756381 0.68200004 4294901760
-0.32057145 0.11721905 0.68000001 4294901760
-0.31927621 0.11721905 0.68000001 4294901760
-0.31798097 0.11721905 0.68000001 4294901760
-0.31668574 0.11721905 0.68000001 4294901760
-0.3168667 0.11825334 0.68600005 4294901760
-0.31556001 0.11825334 0.68600005 4294901760
-0.31425336 0.11825334 0.68600005 4294901760
-0.31340289 0.11842572 0.68700004 4294901760
-0.31164002 0.11825334 0.68600005 4294901760
-0.31169051 0.11877049 0.68900001 4294901760
-0.3103781 0.11877049 0.68900001 4294901760
-0.36482859 0.11816572 0.67800003 4294901760
-0.36353716 0.11816572 0.67800003 4294901760
-0.36224574 0.11816572 0.67800003 4294901760
-0.35988954 0.11781715 0.67600006 4294901760
-0.35860193 0.11781715 0.67600006 4294901760
-0.35678574 0.11764286 0.67500001 4294901760
-0.35550001 0.11764286 0.67500001 4294901760
-0.32527336 0.11834001 0.67900002 4294901760
-0.32398003 0.11834001 0.67900002 4294901760
-0.32316193 0.11851429 0.68000001 4294901760
-0.32186669 0.11851429 0.68000001 4294901760
-0.32057145 0.11851429 0.68000001 4294901760
-0.31880668 0.11834001 0.67900002 4294901760
-0.31751335 0.11834001 0.67900002 4294901760
-0.31622002 0.11834001 0.67900002 4294901760
-0.3153905 0.11851429 0.68000001 4294901760
-0.31333718 0.11921144 0.68400002 4294901760
-0.31294668 0.11956001 0.68600005 4294901760
-0.31027716 0.11903715 0.68300003 4294901760
-0.31169051 0.12008286 0.68900001 4294901760
-0.3103781 0.12008286 0.68900001 4294901760
-0.36504003 0.11910477 0.67600006 4294901760
-0.36375239 0.11910477 0.67600006 4294901760
-0.36246479 0.11910477 0.67600006 4294901760
-0.36117718 0.11910477 0.67600006 4294901760
-0.35935718 0.11892858 0.67500001 4294901760
-0.35860193 0.11910477 0.67600006 4294901760
-0.35678574 0.11892858 0.67500001 4294901760
-0.35550001 0.11892858 0.67500001 4294901760
-0.32527336 0.11963334 0.67900002 4294901760
-0.32398003 0.11963334 0.67900002 4294901760
-0.32316193 0.11980953 0.68000001 4294901760
-0.32186669 0.11980953 0.68000001 4294901760
-0.32057145 0.11980953 0.68000001 4294901760
-0.31880668 0.11963334 0.67900002 4294901760
-0.31751335 0.11963334 0.67900002 4294901760
-0.31622002 0.11963334 0.67900002 4294901760
-0.3153905 0.11980953 0.68000001 4294901760
-0.31333718 0.1205143 0.68400002 4294901760
-0.31203431 0.1205143 0.68400002 4294901760
-0.31073144 0.1205143 0.68400002 4294901760
-0.31033334 0.12086667 0.68600005 4294901760
-0.30902669 0.12086667 0.68600005 4294901760
-0.30996287 0.12174763 0.69100004 4294901760
-0.36741146 0.12074858 0.67800003 4294901760
-0.36504003 0.12039239 0.67600006 4294901760
-0.36482859 0.12074858 0.67800003 4294901760
-0.36353716 0.12074858 0.67800003 4294901760
-0.36117718 0.12039239 0.67600006 4294901760
-0.35935718 0.12021429 0.67500001 4294901760
-0.35807145 0.12021429 0.67500001 4294901760
-0.35625717 0.1200362 0.67400002 4294901760
-0.35497335 0.1200362 0.67400002 4294901760
-0.32416192 0.1200362 0.67400002 4294901760
-0.32335716 0.12021429 0.67500001 4294901760
-0.3225486 0.12039239 0.67600006 4294901760
-0.32316193 0.12110477 0.68000001 4294901760
-0.32186669 0.12110477 0.68000001 4294901760
-0.32057145 0.12110477 0.68000001 4294901760
-0.31880668 0.12092668 0.67900002 4294901760
-0.31751335 0.12092668 0.67900002 4294901760
-0.31622002 0.12092668 0.67900002 4294901760
-0.3153905 0.12110477 0.68000001 4294901760
-0.31409526 0.12110477 0.68000001 4294901760
-0.31333718 0.12181715 0.68400002 4294901760
-0.31203431 0.12181715 0.68400002 4294901760
-0.31073144 0.12181715 0.68400002 4294901760
-0.31078574 0.12235144 0.68700004 4294901760
-0.3108286 0.12288572 0.69000006 4294901760
-0.36524382 0.12132001 0.67400002 4294901760
-0.36396003 0.12132001 0.67400002 4294901760
-0.36375239 0.12168001 0.67600006 4294901760
-0.36246479 0.12168001 0.67600006 4294901760
-0.36117718 0.12168001 0.67600006 4294901760
-0.35882479 0.12132001 0.67400002 4294901760
-0.35754097 0.12132001 0.67400002 4294901760
-0.35625717 0.12132001 0.67400002 4294901760
-0.35497335 0.12132001 0.67400002 4294901760
-0.32335716 0.12150001 0.67500001 4294901760
-0.32207146 0.12150001 0.67500001 4294901760
-0.32221144 0.12204001 0.67800003 4294901760
-0.32139334 0.12222001 0.67900002 4294901760
-0.32010001 0.12222001 0.67900002 4294901760
-0.31880668 0.12222001 0.67900002 4294901760
-0.31751335 0.12222001 0.67900002 4294901760
-0.31622002 0.12222001 0.67900002 4294901760
-0.31492668 0.12222001 0.67900002 4294901760
-0.31464002 0.12312001 0.68400002 4294901760
-0.31425336 0.12348001 0.68600005 4294901760
-0.31294668 0.12348001 0.68600005 4294901760
-0.31073144 0.12312001 0.68400002 4294901760
-0.31169051 0.12402001 0.68900001 4294901760
-0.37456194 0.1218762 0.67000002 4294901760
-0.37328574 0.1218762 0.67000002 4294901760
-0.37200955 0.1218762 0.67000002 4294901760
-0.37073335 0.1218762 0.67000002 4294901760
-0.36945716 0.1218762 0.67000002 4294901760
-0.36818099 0.1218762 0.67000002 4294901760
-0.36745241 0.1220581 0.671 4294901760
-0.36489621 0.1220581 0.671 4294901760
-0.36361811 0.1220581 0.671 4294901760
-0.36234003 0.1220581 0.671 4294901760
-0.36106193 0.1220581 0.671 4294901760
-0.35978383 0.1220581 0.671 4294901760
-0.35850573 0.1220581 0.671 4294901760
-0.35776001 0.12224001 0.67200005 4294901760
-0.35594955 0.1220581 0.671 4294901760
-0.35520002 0.12224001 0.67200005 4294901760
-0.32287812 0.12260382 0.67400002 4294901760
-0.32207146 0.12278572 0.67500001 4294901760
-0.31333718 0.12442286 0.68400002 4294901760
-0.31203431 0.12442286 0.68400002 4294901760
-0.31073144 0.12442286 0.68400002 4294901760
-0.31078574 0.12496858 0.68700004 4294901760
-0.36945716 0.12315239 0.67000002 4294901760
-0.36873052 0.1233362 0.671 4294901760
-0.3669048 0.12315239 0.67000002 4294901760
-0.36672002 0.12352001 0.67200005 4294901760
-0.36489621 0.1233362 0.671 4294901760
-0.36307621 0.12315239 0.67000002 4294901760
-0.36180001 0.12315239 0.67000002 4294901760
-0.36052382 0.12315239 0.67000002 4294901760
-0.35871145 0.12296858 0.66900003 4294901760
-0.35797146 0.12315239 0.67000002 4294901760
-0.35669526 0.12315239 0.67000002 4294901760
-0.35541907 0.12315239 0.67000002 4294901760
-0.35467145 0.1233362 0.671 4294901760
-0.32207146 0.12407143 0.67500001 4294901760
-0.31178573 0.12407143 0.67500001 4294901760
-0.31050003 0.12407143 0.67500001 4294901760
-0.31333718 0.12572572 0.68400002 4294901760
-0.31203431 0.12572572 0.68400002 4294901760
-0.31073144 0.12572572 0.68400002 4294901760
-0.36907336 0.12387144 0.66700006 4294901760
-0.36945716 0.12442858 0.67000002 4294901760
-0.36818099 0.12442858 0.67000002 4294901760
-0.3669048 0.12442858 0.67000002 4294901760
-0.36617431 0.12461429 0.671 4294901760
-0.36489621 0.12461429 0.671 4294901760
-0.36361811 0.12461429 0.671 4294901760
-0.36180001 0.12442858 0.67000002 4294901760
-0.36052382 0.12442858 0.67000002 4294901760
-0.35871145 0.12424286 0.66900003 4294901760
-0.35743716 0.12424286 0.66900003 4294901760
-0.35616288 0.12424286 0.66900003 4294901760
-0.35488859 0.12424286 0.66900003 4294901760
-0.3536143 0.12424286 0.66900003 4294901760
-0.31317145 0.12591429 0.67800003 4294901760
-0.31188002 0.12591429 0.67800003 4294901760
-0.31150478 0.12628572 0.68000001 4294901760
-0.31157812 0.12684287 0.68300003 4294901760
-0.31027716 0.12684287 0.68300003 4294901760
-0.36796668 0.12476668 0.66500002 4294901760
-0.36890575 0.12551714 0.66900003 4294901760
-0.36818099 0.12570477 0.67000002 4294901760
-0.36635718 0.12551714 0.66900003 4294901760
-0.3656286 0.12570477 0.67000002 4294901760
-0.36435241 0.12570477 0.67000002 4294901760
-0.36307621 0.12570477 0.67000002 4294901760
-0.36180001 0.12570477 0.67000002 4294901760
-0.35998574 0.12551714 0.66900003 4294901760
-0.35763907 0.12514192 0.66700006 4294901760
-0.35583431 0.12495429 0.66600001 4294901760
-0.35403335 0.12476668 0.66500002 4294901760
-0.35276669 0.12476668 0.66500002 4294901760
-0.35044289 0.12439144 0.66300005 4294901760
-0.34918001 0.12439144 0.66300005 4294901760
-0.34791717 0.12439144 0.66300005 4294901760
-0.3337667 0.12476668 0.66500002 4294901760
-0.33250001 0.12476668 0.66500002 4294901760
-0.32924098 0.1240162 0.66100001 4294901760
-0.32798192 0.1240162 0.66100001 4294901760
-0.32672289 0.1240162 0.66100001 4294901760
-0.32546383 0.1240162 0.66100001 4294901760
-0.32420477 0.1240162 0.66100001 4294901760
-0.31492668 0.12739334 0.67900002 4294901760
-0.31363335 0.12739334 0.67900002 4294901760
-0.31234002 0.12739334 0.67900002 4294901760
-0.31150478 0.12758096 0.68000001 4294901760
-0.36796668 0.12603334 0.66500002 4294901760
-0.36598289 0.12622286 0.66600001 4294901760
-0.36526194 0.12641239 0.66700006 4294901760
-0.36399144 0.12641239 0.66700006 4294901760
-0.36272097 0.12641239 0.66700006 4294901760
-0.36253431 0.12679143 0.66900003 4294901760
-0.36018002 0.12641239 0.66700006 4294901760
-0.35890955 0.12641239 0.66700006 4294901760
-0.35710287 0.12622286 0.66600001 4294901760
-0.35530001 0.12603334 0.66500002 4294901760
-0.3529686 0.1256543 0.66300005 4294901760
-0.35170573 0.1256543 0.66300005 4294901760
-0.35044289 0.1256543 0.66300005 4294901760
-0.34918001 0.1256543 0.66300005 4294901760
-0.34791717 0.1256543 0.66300005 4294901760
-0.3337667 0.12603334 0.66500002 4294901760
-0.33150002 0.1256543 0.66300005 4294901760
-0.32874289 0.12508573 0.66000003 4294901760
-0.32748574 0.12508573 0.66000003 4294901760
-0.32622859 0.12508573 0.66000003 4294901760
-0.32497144 0.12508573 0.66000003 4294901760
-0.32371432 0.12508573 0.66000003 4294901760
-0.31363335 0.12868668 0.67900002 4294901760
-0.31234002 0.12868668 0.67900002 4294901760
-0.31150478 0.12887619 0.68000001 4294901760
-0.3089143 0.12887619 0.68000001 4294901760
-0.30761907 0.12887619 0.68000001 4294901760
-0.36543337 0.12730001 0.66500002 4294901760
-0.36471432 0.12749144 0.66600001 4294901760
-0.36344573 0.12749144 0.66600001 4294901760
-0.36217716 0.12749144 0.66600001 4294901760
-0.36145049 0.12768286 0.66700006 4294901760
-0.36018002 0.12768286 0.66700006 4294901760
-0.35890955 0.12768286 0.66700006 4294901760
-0.35710287 0.12749144 0.66600001 4294901760
-0.35423145 0.12691715 0.66300005 4294901760
-0.3529686 0.12691715 0.66300005 4294901760
-0.35170573 0.12691715 0.66300005 4294901760
-0.34938574 0.1265343 0.66100001 4294901760
-0.34865335 0.12672572 0.66200006 4294901760
-0.34739241 0.12672572 0.66200006 4294901760
-0.34034002 0.12691715 0.66300005 4294901760
-0.34010002 0.12730001 0.66500002 4294901760
-0.33883336 0.12730001 0.66500002 4294901760
-0.33655146 0.12691715 0.66300005 4294901760
-0.33503336 0.12730001 0.66500002 4294901760
-0.33276287 0.12691715 0.66300005 4294901760
-0.33100003 0.12672572 0.66200006 4294901760
-0.32874289 0.12634286 0.66000003 4294901760
-0.32748574 0.12634286 0.66000003 4294901760
-0.32622859 0.12634286 0.66000003 4294901760
-0.32398668 0.12596001 0.65800005 4294901760
-0.32273334 0.12596001 0.65800005 4294901760
-0.31446287 0.12978858 0.67800003 4294901760
-0.31317145 0.12978858 0.67800003 4294901760
-0.36307144 0.12818001 0.66300005 4294901760
-0.3618086 0.12818001 0.66300005 4294901760
-0.36163336 0.12856668 0.66500002 4294901760
-0.3609086 0.12876001 0.66600001 4294901760
-0.35910001 0.12856668 0.66500002 4294901760
-0.35783336 0.12856668 0.66500002 4294901760
-0.35549432 0.12818001 0.66300005 4294901760
-0.35369718 0.12798667 0.66200006 4294901760
-0.35243621 0.12798667 0.66200006 4294901760
-0.35117525 0.12798667 0.66200006 4294901760
-0.34938574 0.12779334 0.66100001 4294901760
-0.34812668 0.12779334 0.66100001 4294901760
-0.34739241 0.12798667 0.66200006 4294901760
-0.34508574 0.12760001 0.66000003 4294901760
-0.34434953 0.12779334 0.66100001 4294901760
-0.34360954 0.12798667 0.66200006 4294901760
-0.34286574 0.12818001 0.66300005 4294901760
-0.3398267 0.12798667 0.66200006 4294901760
-0.33856574 0.12798667 0.66200006 4294901760
-0.33730477 0.12798667 0.66200006 4294901760
-0.33604383 0.12798667 0.66200006 4294901760
-0.33377144 0.12760001 0.66000003 4294901760
-0.33352193 0.12798667 0.66200006 4294901760
-0.33226097 0.12798667 0.66200006 4294901760
-0.33100003 0.12798667 0.66200006 4294901760
-0.32874289 0.12760001 0.66000003 4294901760
-0.32748574 0.12760001 0.66000003 4294901760
-0.32622859 0.12760001 0.66000003 4294901760
-0.32497144 0.12760001 0.66000003 4294901760
-0.32273334 0.12721334 0.65800005 4294901760
-0.32245716 0.12760001 0.66000003 4294901760
-0.36000192 0.12924762 0.66200006 4294901760
-0.35928288 0.12944287 0.66300005 4294901760
-0.35694003 0.12905239 0.66100001 4294901760
-0.3565667 0.12983334 0.66500002 4294901760
-0.35316288 0.12905239 0.66100001 4294901760
-0.35190383 0.12905239 0.66100001 4294901760
-0.3506448 0.12905239 0.66100001 4294901760
-0.34938574 0.12905239 0.66100001 4294901760
-0.34812668 0.12905239 0.66100001 4294901760
-0.34686765 0.12905239 0.66100001 4294901760
-0.34508574 0.12885715 0.66000003 4294901760
-0.34382859 0.12885715 0.66000003 4294901760
-0.34257144 0.12885715 0.66000003 4294901760
-0.33872861 0.12788096 0.65500003 4294901760
-0.33748096 0.12788096 0.65500003 4294901760
-0.33623335 0.12788096 0.65500003 4294901760
-0.33754289 0.12885715 0.66000003 4294901760
-0.33628574 0.12885715 0.66000003 4294901760
-0.33502859 0.12885715 0.66000003 4294901760
-0.33276004 0.12846668 0.65800005 4294901760
-0.33251432 0.12885715 0.66000003 4294901760
-0.33125716 0.12885715 0.66000003 4294901760
-0.33000001 0.12885715 0.66000003 4294901760
-0.32774669 0.12846668 0.65800005 4294901760
-0.32649335 0.12846668 0.65800005 4294901760
-0.32524002 0.12846668 0.65800005 4294901760
-0.32398668 0.12846668 0.65800005 4294901760
-0.32273334 0.12846668 0.65800005 4294901760
-0.32245716 0.12885715 0.66000003 4294901760
-0.3202267 0.12846668 0.65800005 4294901760
-0.35891432 0.13011429 0.66000003 4294901760
-0.35874099 0.13050859 0.66200006 4294901760
-0.35694003 0.13031144 0.66100001 4294901760
-0.35262859 0.13011429 0.66000003 4294901760
-0.35137144 0.13011429 0.66000003 4294901760
-0.3506448 0.13031144 0.66100001 4294901760
-0.34938574 0.13031144 0.66100001 4294901760
-0.34760001 0.13011429 0.66000003 4294901760
-0.34634289 0.13011429 0.66000003 4294901760
-0.34404004 0.12972 0.65800005 4294901760
-0.34174478 0.12932572 0.65600002 4294901760
-0.33997622 0.12912858 0.65500003 4294901760
-0.33872861 0.12912858 0.65500003 4294901760
-0.33748096 0.12912858 0.65500003 4294901760
-0.33674669 0.12932572 0.65600002 4294901760
-0.33652002 0.12972 0.65800005 4294901760
-0.33628574 0.13011429 0.66000003 4294901760
-0.33401334 0.12972 0.65800005 4294901760
-0.33276004 0.12972 0.65800005 4294901760
-0.33100289 0.12952286 0.65700001 4294901760
-0.32975146 0.12952286 0.65700001 4294901760
-0.32900003 0.12972 0.65800005 4294901760
-0.32774669 0.12972 0.65800005 4294901760
-0.32649335 0.12972 0.65800005 4294901760
-0.32524002 0.12972 0.65800005 4294901760
-0.32398668 0.12972 0.65800005 4294901760
-0.32273334 0.12972 0.65800005 4294901760
-0.32245716 0.13011429 0.66000003 4294901760
-0.3202267 0.12972 0.65800005 4294901760
-0.31994289 0.13011429 0.66000003 4294901760
-0.35782668 0.13097334 0.65800005 4294901760
-0.35262859 0.13137144 0.66000003 4294901760
-0.35030669 0.13097334 0.65800005 4294901760
-0.34905335 0.13097334 0.65800005 4294901760
-0.34780002 0.13097334 0.65800005 4294901760
-0.34654668 0.13097334 0.65800005 4294901760
-0.34476858 0.13077429 0.65700001 4294901760
-0.3429943 0.13057524 0.65600002 4294901760
-0.34122384 0.1303762 0.65500003 4294901760
-0.33997622 0.1303762 0.65500003 4294901760
-0.33872861 0.1303762 0.65500003 4294901760
-0.33748096 0.1303762 0.65500003 4294901760
-0.33674669 0.13057524 0.65600002 4294901760
-0.33600861 0.13077429 0.65700001 4294901760
-0.33526668 0.13097334 0.65800005 4294901760
-0.33401334 0.13097334 0.65800005 4294901760
-0.33276004 0.13097334 0.65800005 4294901760
-0.33100289 0.13077429 0.65700001 4294901760
-0.32975146 0.13077429 0.65700001 4294901760
-0.32850003 0.13077429 0.65700001 4294901760
-0.32774669 0.13097334 0.65800005 4294901760
-0.32649335 0.13097334 0.65800005 4294901760
-0.32474574 0.13077429 0.65700001 4294901760
-0.32349432 0.13077429 0.65700001 4294901760
-0.32273334 0.13097334 0.65800005 4294901760
-0.32148004 0.13097334 0.65800005 4294901760
-0.3202267 0.13097334 0.65800005 4294901760
-0.31897336 0.13097334 0.65800005 4294901760
-0.34905335 0.13222668 0.65800005 4294901760
-0.34727144 0.13202572 0.65700001 4294901760
-0.34602001 0.13202572 0.65700001 4294901760
-0.34424382 0.13182478 0.65600002 4294901760
-0.34247145 0.13162382 0.65500003 4294901760
-0.34018192 0.13122192 0.65300006 4294901760
-0.33997622 0.13162382 0.65500003 4294901760
