# .PCD v0.7 - Point Cloud Data file format
VERSION 0.7
FIELDS x y z
SIZE 4 4 4
TYPE F F F
COUNT 1 1 1
WIDTH 1378
HEIGHT 1
VIEWPOINT 0 0 0 1 0 0 0
POINTS 1378
DATA ascii
-0.39584288 -0.26891145 0.68700004
-0.39625716 -0.27008572 0.69000006
-0.39666003 -0.27126002 0.69300002
-0.39534003 -0.27126002 0.69300002
-0.39458859 -0.27165145 0.69400001
-0.3991867 -0.26721334 0.68600005
-0.39846003 -0.26760286 0.68700004
-0.39715144 -0.26760286 0.68700004
-0.39584288 -0.26760286 0.68700004
-0.39625716 -0.26877144 0.69000006
-0.39551526 -0.26916096 0.69100004
-0.39534003 -0.26994002 0.69300002
-0.39458859 -0.27032954 0.69400001
-0.39976859 -0.2662943 0.68700004
-0.39846003 -0.2662943 0.68700004
-0.39830765 -0.26706955 0.68900001
-0.39699528 -0.26706955 0.68900001
-0.39625716 -0.26745716 0.69000006
-0.39551526 -0.26784477 0.69100004
-0.39534003 -0.26862001 0.69300002
-0.39402002 -0.26862001 0.69300002
-0.39976859 -0.26498574 0.68700004
-0.39846003 -0.26498574 0.68700004
-0.39715144 -0.26498574 0.68700004
-0.39757144 -0.26614287 0.69000006
-0.39625716 -0.26614287 0.69000006
-0.39551526 -0.26652858 0.69100004
-0.39534003 -0.26730001 0.69300002
-0.39458859 -0.26768574 0.69400001
-0.39383337 -0.26807144 0.69500005
-0.39976859 -0.26367715 0.68700004
-0.39788002 -0.26329336 0.68600005
-0.39715144 -0.26367715 0.68700004
-0.39699528 -0.26444477 0.68900001
-0.39625716 -0.26482859 0.69000006
-0.39494288 -0.26482859 0.69000006
-0.39534003 -0.26598001 0.69300002
-0.39458859 -0.26636383 0.69400001
-0.39496669 -0.26751524 0.69700003
-0.39788002 -0.26198667 0.68600005
-0.39715144 -0.26236859 0.68700004
-0.39699528 -0.26313239 0.68900001
-0.39625716 -0.26351431 0.69000006
-0.39494288 -0.26351431 0.69000006
-0.39534003 -0.26466003 0.69300002
-0.39515716 -0.26542383 0.69500005
-0.39496669 -0.26618764 0.69700003
-0.39363909 -0.26618764 0.69700003
-0.39788002 -0.26068002 0.68600005
-0.39715144 -0.26106003 0.68700004
-0.39699528 -0.26182002 0.68900001
-0.39625716 -0.26220003 0.69000006
-0.39494288 -0.26220003 0.69000006
-0.39534003 -0.26334003 0.69300002
-0.39629433 -0.26486 0.69700003
-0.39553335 -0.26524001 0.69800001
-0.39363909 -0.26486 0.69700003
-0.39788002 -0.25937334 0.68600005
-0.39715144 -0.25975144 0.68700004
-0.39757144 -0.26088575 0.69000006
-0.39625716 -0.26088575 0.69000006
-0.39494288 -0.26088575 0.69000006
-0.39534003 -0.26202002 0.69300002
-0.39629433 -0.2635324 0.69700003
-0.39553335 -0.2639105 0.69800001
-0.39363909 -0.2635324 0.69700003
-0.39788002 -0.25806668 0.68600005
-0.39830765 -0.25919527 0.68900001
-0.39757144 -0.25957143 0.69000006
-0.39625716 -0.25957143 0.69000006
-0.39494288 -0.25957143 0.69000006
-0.39534003 -0.26070002 0.69300002
-0.39629433 -0.26220477 0.69700003
-0.39496669 -0.26220477 0.69700003
-0.39363909 -0.26220477 0.69700003
-0.39672002 -0.25601146 0.68400002
-0.39715144 -0.25713429 0.68700004
-0.39757144 -0.25825715 0.69000006
-0.39625716 -0.25825715 0.69000006
-0.39551526 -0.25863144 0.69100004
-0.39534003 -0.25938001 0.69300002
-0.39686289 -0.26125145 0.69800001
-0.39553335 -0.26125145 0.69800001
-0.39420384 -0.26125145 0.69800001
-0.39400002 -0.26200002 0.70000005
-0.39715144 -0.25582573 0.68700004
-0.39757144 -0.25694287 0.69000006
-0.39625716 -0.25694287 0.69000006
-0.39494288 -0.25694287 0.69000006
-0.39534003 -0.25806001 0.69300002
-0.39629433 -0.25954953 0.69700003
-0.39723337 -0.26103908 0.70100003
-0.39420384 -0.25992191 0.69800001
-0.39400002 -0.2606667 0.70000005
-0.39322764 -0.26103908 0.70100003
-0.39987621 -0.25711051 0.69400001
-0.39683145 -0.25599906 0.69100004
-0.39551526 -0.25599906 0.69100004
-0.39762193 -0.25822192 0.69700003
-0.39800003 -0.25933334 0.70000005
-0.39723337 -0.25970381 0.70100003
-0.39589813 -0.25970381 0.70100003
-0.39456287 -0.25970381 0.70100003
-0.39434955 -0.26044479 0.70300001
-0.39814764 -0.25468287 0.69100004
-0.39683145 -0.25468287 0.69100004
-0.39666003 -0.25542003 0.69300002
-0.39534003 -0.25542003 0.69300002
-0.39686289 -0.25726289 0.69800001
-0.39723337 -0.25836858 0.70100003
-0.39702764 -0.25910574 0.70300001
-0.39456287 -0.25836858 0.70100003
-0.39434955 -0.25910574 0.70300001
-0.39814764 -0.25336668 0.69100004
-0.39683145 -0.25336668 0.69100004
-0.39894956 -0.25556669 0.69700003
-0.39762193 -0.25556669 0.69700003
-0.39800003 -0.25666669 0.70000005
-0.39723337 -0.25703335 0.70100003
-0.39589813 -0.25703335 0.70100003
-0.39456287 -0.25703335 0.70100003
-0.39434955 -0.25776669 0.70300001
-0.3930105 -0.25776669 0.70300001
-0.39814764 -0.25205049 0.69100004
-0.39912859 -0.25350955 0.69500005
-0.39894956 -0.25423905 0.69700003
-0.39819241 -0.25460383 0.69800001
-0.39800003 -0.25533336 0.70000005
-0.39723337 -0.25569811 0.70100003
-0.39702764 -0.25642765 0.70300001
-0.39568859 -0.25642765 0.70300001
-0.39547145 -0.25715715 0.70500004
-0.39412859 -0.25715715 0.70500004
-0.39912859 -0.25218573 0.69500005
-0.39952192 -0.25327429 0.69800001
-0.39762193 -0.25291145 0.69700003
-0.39800003 -0.25400001 0.70000005
-0.39836669 -0.2550886 0.70300001
-0.3975924 -0.25545144 0.70400006
-0.39681432 -0.25581431 0.70500004
-0.39659336 -0.25654003 0.70700002
-0.39524668 -0.25654003 0.70700002
-0.39390004 -0.25654003 0.70700002
-0.39912859 -0.25086191 0.69500005
-0.3978048 -0.25086191 0.69500005
-0.39762193 -0.25158381 0.69700003
-0.39686289 -0.25194478 0.69800001
-0.39836669 -0.25374955 0.70300001
-0.39815718 -0.25447145 0.70500004
-0.39794004 -0.25519335 0.70700002
-0.3971543 -0.25555429 0.708
-0.39580575 -0.25555429 0.708
-0.39445716 -0.25555429 0.708
-0.39912859 -0.24953811 0.69500005
-0.39894956 -0.25025621 0.69700003
-0.39762193 -0.25025621 0.69700003
-0.39686289 -0.25061527 0.69800001
-0.39723337 -0.25169238 0.70100003
-0.39815718 -0.25312859 0.70500004
-0.39794004 -0.25384668 0.70700002
-0.3971543 -0.25420573 0.708
-0.39580575 -0.25420573 0.708
-0.39445716 -0.25420573 0.708
-0.39912859 -0.2482143 0.69500005
-0.39894956 -0.24892859 0.69700003
-0.39762193 -0.24892859 0.69700003
-0.39629433 -0.24892859 0.69700003
-0.39666671 -0.25000003 0.70000005
-0.39589813 -0.25035715 0.70100003
-0.39625144 -0.25142857 0.70400006
-0.3971543 -0.25285715 0.708
-0.39692384 -0.25357145 0.71000004
-0.39557144 -0.25357145 0.71000004
-0.40027717 -0.24760097 0.69700003
-0.39894956 -0.24760097 0.69700003
-0.39762193 -0.24760097 0.69700003
-0.39629433 -0.24760097 0.69700003
-0.39666671 -0.24866669 0.70000005
-0.39702764 -0.24973239 0.70300001
-0.39568859 -0.24973239 0.70300001
-0.39912859 -0.24556668 0.69500005
-0.3978048 -0.24556668 0.69500005
-0.39648098 -0.24556668 0.69500005
-0.39629433 -0.24627335 0.69700003
-0.39553335 -0.24662669 0.69800001
-0.39420384 -0.24662669 0.69800001
-0.40027717 -0.24494573 0.69700003
-0.39894956 -0.24494573 0.69700003
-0.39762193 -0.24494573 0.69700003
-0.39629433 -0.24494573 0.69700003
-0.39553335 -0.24529716 0.69800001
-0.39894956 -0.24361812 0.69700003
-0.39762193 -0.24361812 0.69700003
-0.39629433 -0.24361812 0.69700003
-0.39496669 -0.24361812 0.69700003
-0.39363909 -0.24361812 0.69700003
-0.39894956 -0.2422905 0.69700003
-0.39762193 -0.2422905 0.69700003
-0.39629433 -0.2422905 0.69700003
-0.39553335 -0.24263811 0.69800001
-0.39589813 -0.24368097 0.70100003
-0.39819241 -0.24130858 0.69800001
-0.39686289 -0.24130858 0.69800001
-0.39553335 -0.24130858 0.69800001
-0.39589813 -0.24234574 0.70100003
-0.39568859 -0.24303716 0.70300001
-0.39434955 -0.24303716 0.70300001
-0.39819241 -0.23997906 0.69800001
-0.39800003 -0.24066669 0.70000005
-0.39666671 -0.24066669 0.70000005
-0.39589813 -0.24101049 0.70100003
-0.39568859 -0.24169812 0.70300001
-0.39434955 -0.24169812 0.70300001
-0.39524668 -0.24307334 0.70700002
-0.39557144 -0.24410477 0.71000004
-0.39588478 -0.2451362 0.71300006
-0.39800003 -0.23933335 0.70000005
-0.39723337 -0.23967525 0.70100003
-0.39702764 -0.24035907 0.70300001
-0.39625144 -0.24070098 0.70400006
-0.39491051 -0.24070098 0.70400006
-0.39580575 -0.24206859 0.708
-0.39557144 -0.2427524 0.71000004
-0.39588478 -0.24377811 0.71300006
-0.39990383 -0.23834002 0.70100003
-0.39970574 -0.23902002 0.70300001
-0.39836669 -0.23902002 0.70300001
-0.3975924 -0.23936002 0.70400006
-0.39625144 -0.23936002 0.70400006
-0.39659336 -0.24038002 0.70700002
-0.39580575 -0.24072002 0.708
-0.39557144 -0.24140002 0.71000004
-0.39477432 -0.24174002 0.71100003
-0.39342004 -0.24174002 0.71100003
-0.39970574 -0.23768097 0.70300001
-0.39893335 -0.23801906 0.70400006
-0.39928669 -0.23903336 0.70700002
-0.39850289 -0.23937145 0.708
-0.3971543 -0.23937145 0.708
-0.39748287 -0.24038573 0.71100003
-0.39612859 -0.24038573 0.71100003
-0.39588478 -0.24106193 0.71300006
-0.39452669 -0.24106193 0.71300006
-0.40027431 -0.23667811 0.70400006
-0.39950001 -0.23701431 0.70500004
-0.39928669 -0.23768668 0.70700002
-0.39850289 -0.23802288 0.708
-0.3971543 -0.23802288 0.708
-0.39692384 -0.23869525 0.71000004
-0.39612859 -0.23903145 0.71100003
-0.39588478 -0.23970382 0.71300006
-0.39452669 -0.23970382 0.71300006
-0.40198001 -0.23634002 0.70700002
-0.40063336 -0.23634002 0.70700002
-0.39985144 -0.23667429 0.708
-0.39850289 -0.23667429 0.708
-0.39827621 -0.23734288 0.71000004
-0.39860097 -0.23834573 0.71300006
-0.39780003 -0.23868002 0.71400005
-0.39644003 -0.23868002 0.71400005
-0.39508003 -0.23868002 0.71400005
-0.3953743 -0.23968287 0.71700001
-0.40254861 -0.23532572 0.708
-0.40120003 -0.23532572 0.708
-0.39985144 -0.23532572 0.708
-0.39962861 -0.23599049 0.71000004
-0.39883718 -0.23632288 0.71100003
-0.39916003 -0.23732002 0.71400005
-0.39780003 -0.23732002 0.71400005
-0.39755049 -0.23798478 0.71600002
-0.39618668 -0.23798478 0.71600002
-0.3953743 -0.23831716 0.71700001
-0.40120003 -0.23397715 0.708
-0.39985144 -0.23397715 0.708
-0.40019146 -0.23496859 0.71100003
-0.39883718 -0.23496859 0.71100003
-0.39916003 -0.23596002 0.71400005
-0.39780003 -0.23596002 0.71400005
-0.39755049 -0.23662096 0.71600002
-0.39618668 -0.23662096 0.71600002
-0.3953743 -0.23695144 0.71700001
-0.40233335 -0.23328573 0.71000004
-0.40098098 -0.23328573 0.71000004
-0.40019146 -0.2336143 0.71100003
-0.39995909 -0.23427144 0.71300006
-0.39916003 -0.23460002 0.71400005
-0.39891431 -0.23525716 0.71600002
-0.39755049 -0.23525716 0.71600002
-0.39618668 -0.23525716 0.71600002
-0.3953743 -0.23558573 0.71700001
-0.39400861 -0.23558573 0.71700001
-0.40233335 -0.23193336 0.71000004
-0.40098098 -0.23193336 0.71000004
-0.39962861 -0.23193336 0.71000004
-0.39995909 -0.23291335 0.71300006
-0.39916003 -0.23324001 0.71400005
-0.39780003 -0.23324001 0.71400005
-0.39644003 -0.23324001 0.71400005
-0.39508003 -0.23324001 0.71400005
-0.39372003 -0.23324001 0.71400005
-0.40154573 -0.23090573 0.71100003
-0.39962861 -0.23058097 0.71000004
-0.39827621 -0.23058097 0.71000004
-0.39580575 -0.22993144 0.708
-0.39724287 -0.23155525 0.71300006
-0.39588478 -0.23155525 0.71300006
-0.39452669 -0.23155525 0.71300006
-0.3931686 -0.23155525 0.71300006
-0.40154573 -0.22955145 0.71100003
-0.39962861 -0.22922859 0.71000004
-0.39827621 -0.22922859 0.71000004
-0.39580575 -0.22858287 0.708
-0.39557144 -0.22922859 0.71000004
-0.39421907 -0.22922859 0.71000004
-0.39508003 -0.23052001 0.71400005
-0.3931686 -0.23019716 0.71300006
-0.40154573 -0.22819716 0.71100003
-0.39850289 -0.2272343 0.708
-0.3971543 -0.2272343 0.708
-0.39580575 -0.2272343 0.708
-0.39445716 -0.2272343 0.708
-0.39310861 -0.2272343 0.708
-0.3928667 -0.2278762 0.71000004
-0.39206573 -0.22819716 0.71100003
-0.39681432 -0.22492859 0.70500004
-0.39659336 -0.22556669 0.70700002
-0.39524668 -0.22556669 0.70700002
-0.39390004 -0.22556669 0.70700002
-0.39310861 -0.22588573 0.708
-0.3928667 -0.22652383 0.71000004
-0.39547145 -0.22358572 0.70500004
-0.39356956 -0.22326858 0.70400006
-0.3922286 -0.22326858 0.70400006
-0.39088765 -0.22326858 0.70400006
-0.39681432 -0.22224288 0.70500004
-0.39547145 -0.22224288 0.70500004
-0.39356956 -0.22192763 0.70400006
-0.3922286 -0.22192763 0.70400006
-0.39568859 -0.22027335 0.70300001
-0.39491051 -0.22058669 0.70400006
-0.3930105 -0.22027335 0.70300001
-0.39167145 -0.22027335 0.70300001
-0.39946288 -0.22936001 0.73200005
-0.39806861 -0.22936001 0.73200005
-0.39884192 -0.23061335 0.73600006
-0.39636004 -0.22998668 0.73400003
-0.39618668 -0.22298287 0.71600002
-0.3948229 -0.22298287 0.71600002
-0.3989543 -0.22609715 0.72600001
-0.39866668 -0.22672002 0.72800004
-0.39891717 -0.22765431 0.73100001
-0.39643717 -0.22703144 0.72900003
-0.39613241 -0.22765431 0.73100001
-0.39528003 -0.22796573 0.73200005
-0.39755049 -0.22161907 0.71600002
-0.39618668 -0.22161907 0.71600002
-0.3953743 -0.22192858 0.71700001
-0.39840478 -0.22440478 0.72500002
-0.39592859 -0.22378573 0.72300005
-0.39728004 -0.22533335 0.72800004
-0.39589337 -0.22533335 0.72800004
-0.39504859 -0.22564287 0.72900003
-0.39528003 -0.22657144 0.73200005
-0.39755049 -0.22025526 0.71600002
-0.39674002 -0.22056288 0.71700001
-0.3953743 -0.22056288 0.71700001
-0.3989543 -0.22333144 0.72600001
-0.39702383 -0.22302382 0.72500002
-0.39891717 -0.22486953 0.73100001
-0.39589337 -0.22394668 0.72800004
-0.39450669 -0.22394668 0.72800004
-0.39755049 -0.21889144 0.71600002
-0.39618668 -0.21889144 0.71600002
-0.3948229 -0.21889144 0.71600002
-0.39400861 -0.21919715 0.71700001
-0.39428574 -0.22011431 0.72000003
-0.39564288 -0.22164287 0.72500002
-0.39480573 -0.22194858 0.72600001
-0.39342287 -0.22194858 0.72600001
-0.39780003 -0.21692002 0.71400005
-0.39644003 -0.21692002 0.71400005
-0.39618668 -0.21752763 0.71600002
-0.3948229 -0.21752763 0.71600002
-0.39345908 -0.21752763 0.71600002
-0.39373812 -0.21843906 0.71900004
-0.39291432 -0.21874288 0.72000003
-0.39154288 -0.21874288 0.72000003
-0.39644003 -0.21556002 0.71400005
-0.39618668 -0.21616383 0.71600002
-0.3948229 -0.21616383 0.71600002
-0.39345908 -0.21616383 0.71600002
-0.39373812 -0.21706954 0.71900004
-0.39236858 -0.21706954 0.71900004
-0.39099908 -0.21706954 0.71900004
-0.39780003 -0.21420002 0.71400005
-0.39644003 -0.21420002 0.71400005
-0.39674002 -0.21510002 0.71700001
-0.3953743 -0.21510002 0.71700001
-0.39510766 -0.21570002 0.71900004
-0.39373812 -0.21570002 0.71900004
-0.39236858 -0.21570002 0.71900004
-0.39099908 -0.21570002 0.71900004
-0.38962954 -0.21570002 0.71900004
-0.39644003 -0.21284002 0.71400005
-0.39618668 -0.2134362 0.71600002
-0.39647716 -0.21433049 0.71900004
-0.39565718 -0.21462859 0.72000003
-0.39428574 -0.21462859 0.72000003
-0.39291432 -0.21462859 0.72000003
-0.39099908 -0.21433049 0.71900004
-0.39017147 -0.21462859 0.72000003
-0.39810574 -0.21236859 0.71700001
-0.3978467 -0.21296097 0.71900004
-0.3970286 -0.21325716 0.72000003
-0.39565718 -0.21325716 0.72000003
-0.39428574 -0.21325716 0.72000003
-0.39291432 -0.21325716 0.72000003
-0.39154288 -0.21325716 0.72000003
-0.39017147 -0.21325716 0.72000003
-0.39755049 -0.21070859 0.71600002
-0.3978467 -0.21159144 0.71900004
-0.3970286 -0.21188574 0.72000003
-0.39565718 -0.21188574 0.72000003
-0.39428574 -0.21188574 0.72000003
-0.39291432 -0.21188574 0.72000003
-0.39263049 -0.2124743 0.72200006
-0.39017147 -0.21188574 0.72000003
-0.38988003 -0.2124743 0.72200006
-0.39810574 -0.20963715 0.71700001
-0.39840004 -0.21051429 0.72000003
-0.3970286 -0.21051429 0.72000003
-0.39565718 -0.21051429 0.72000003
-0.39538097 -0.21109906 0.72200006
-0.39400575 -0.21109906 0.72200006
-0.39317432 -0.21139145 0.72300005
-0.39125526 -0.21109906 0.72200006
-0.38988003 -0.21109906 0.72200006
-0.38742861 -0.21051429 0.72000003
-0.39977145 -0.20914286 0.72000003
-0.39840004 -0.20914286 0.72000003
-0.39813146 -0.20972383 0.72200006
-0.3967562 -0.20972383 0.72200006
-0.39538097 -0.20972383 0.72200006
-0.39455146 -0.2100143 0.72300005
-0.39317432 -0.2100143 0.72300005
-0.39179716 -0.2100143 0.72300005
-0.39150003 -0.21059525 0.72500002
-0.38904288 -0.2100143 0.72300005
-0.39977145 -0.20777144 0.72000003
-0.39840004 -0.20777144 0.72000003
-0.39813146 -0.20834859 0.72200006
-0.3967562 -0.20834859 0.72200006
-0.39538097 -0.20834859 0.72200006
-0.39455146 -0.20863716 0.72300005
-0.39317432 -0.20863716 0.72300005
-0.39288098 -0.2092143 0.72500002
-0.39150003 -0.2092143 0.72500002
-0.39011908 -0.2092143 0.72500002
-0.40088192 -0.20697334 0.72200006
-0.39840004 -0.20640001 0.72000003
-0.39813146 -0.20697334 0.72200006
-0.3967562 -0.20697334 0.72200006
-0.39592859 -0.20726001 0.72300005
-0.39564288 -0.20783335 0.72500002
-0.39426193 -0.20783335 0.72500002
-0.39288098 -0.20783335 0.72500002
-0.39204001 -0.20812002 0.72600001
-0.39065716 -0.20812002 0.72600001
-0.3892743 -0.20812002 0.72600001
-0.40143716 -0.20588288 0.72300005
-0.39950669 -0.20559812 0.72200006
-0.39813146 -0.20559812 0.72200006
-0.39565718 -0.20502858 0.72000003
-0.39538097 -0.20559812 0.72200006
-0.39455146 -0.20588288 0.72300005
-0.39317432 -0.20588288 0.72300005
-0.39288098 -0.2064524 0.72500002
-0.39204001 -0.20673716 0.72600001
-0.39065716 -0.20673716 0.72600001
-0.3892743 -0.20673716 0.72600001
-0.39056289 -0.20816097 0.73100001
-0.39840004 -0.20365715 0.72000003
-0.39813146 -0.20422287 0.72200006
-0.39565718 -0.20365715 0.72000003
-0.39428574 -0.20365715 0.72000003
-0.39455146 -0.20450573 0.72300005
-0.39317432 -0.20450573 0.72300005
-0.39179716 -0.20450573 0.72300005
-0.39366004 -0.20620286 0.72900003
-0.39334765 -0.20676859 0.73100001
-0.39195526 -0.20676859 0.73100001
-0.39056289 -0.20676859 0.73100001
-0.39361337 -0.20988001 0.74200004
-0.39813146 -0.20284763 0.72200006
-0.3967562 -0.20284763 0.72200006
-0.39538097 -0.20284763 0.72200006
-0.39455146 -0.20312859 0.72300005
-0.39317432 -0.20312859 0.72300005
-0.39288098 -0.20369048 0.72500002
-0.39366004 -0.2048143 0.72900003
-0.39227146 -0.2048143 0.72900003
-0.39195526 -0.20537621 0.73100001
-0.39056289 -0.20537621 0.73100001
-0.39202192 -0.20762382 0.73900002
-0.39868289 -0.20175144 0.72300005
-0.39730573 -0.20175144 0.72300005
-0.39538097 -0.2014724 0.72200006
-0.39455146 -0.20175144 0.72300005
-0.39426193 -0.20230953 0.72500002
-0.39288098 -0.20230953 0.72500002
-0.39366004 -0.20342572 0.72900003
-0.39227146 -0.20342572 0.72900003
-0.39249146 -0.20426287 0.73200005
-0.39109716 -0.20426287 0.73200005
-0.39183241 -0.20537905 0.73600006
-0.39202192 -0.2062162 0.73900002
-0.39978573 -0.20092858 0.72500002
-0.39730573 -0.20037431 0.72300005
-0.39538097 -0.20009716 0.72200006
-0.39455146 -0.20037431 0.72300005
-0.39426193 -0.20092858 0.72500002
-0.39288098 -0.20092858 0.72500002
-0.39366004 -0.20203716 0.72900003
-0.39227146 -0.20203716 0.72900003
-0.39249146 -0.20286858 0.73200005
-0.39109716 -0.20286858 0.73200005
-0.39183241 -0.20397715 0.73600006
-0.39202192 -0.20480858 0.73900002
-0.39538097 -0.19872192 0.72200006
-0.39455146 -0.19899715 0.72300005
-0.39426193 -0.19954763 0.72500002
-0.39288098 -0.19954763 0.72500002
-0.39312002 -0.20037335 0.72800004
-0.39227146 -0.20064859 0.72900003
-0.39249146 -0.20147429 0.73200005
-0.39109716 -0.20147429 0.73200005
-0.39183241 -0.20257525 0.73600006
-0.39202192 -0.20340097 0.73900002
-0.39220002 -0.20422667 0.74200004
-0.39538097 -0.19734667 0.72200006
-0.39455146 -0.19762002 0.72300005
-0.39426193 -0.19816668 0.72500002
-0.39342287 -0.19844002 0.72600001
-0.39312002 -0.19898668 0.72800004
-0.39227146 -0.19926001 0.72900003
-0.39249146 -0.20008001 0.73200005
-0.39109716 -0.20008001 0.73200005
-0.39183241 -0.20117335 0.73600006
-0.39428574 -0.19542858 0.72000003
-0.39564288 -0.19678573 0.72500002
-0.39480573 -0.19705716 0.72600001
-0.39450669 -0.19760001 0.72800004
-0.39312002 -0.19760001 0.72800004
-0.39227146 -0.19787145 0.72900003
-0.39195526 -0.1984143 0.73100001
-0.39056289 -0.1984143 0.73100001
-0.39255241 -0.20085716 0.74000001
-0.39378574 -0.2022143 0.74500006
-0.39618859 -0.1956743 0.72600001
-0.39589337 -0.19621335 0.72800004
-0.39450669 -0.19621335 0.72800004
-0.39312002 -0.19621335 0.72800004
-0.39227146 -0.19648287 0.72900003
-0.39195526 -0.19702192 0.73100001
-0.39056289 -0.19702192 0.73100001
-0.39728004 -0.19482668 0.72800004
-0.39589337 -0.19482668 0.72800004
-0.39450669 -0.19482668 0.72800004
-0.39312002 -0.19482668 0.72800004
-0.39173335 -0.19482668 0.72800004
-0.39088288 -0.1950943 0.72900003
-0.39502668 -0.19857335 0.74200004
-0.39589337 -0.19344002 0.72800004
-0.39450669 -0.19344002 0.72800004
-0.39312002 -0.19344002 0.72800004
-0.39173335 -0.19344002 0.72800004
-0.39034671 -0.19344002 0.72800004
-0.39396194 -0.19662859 0.74000001
-0.39480573 -0.19152573 0.72600001
-0.39450669 -0.19205335 0.72800004
-0.39312002 -0.19205335 0.72800004
-0.39173335 -0.19205335 0.72800004
-0.39034671 -0.19205335 0.72800004
-0.39396194 -0.19521905 0.74000001
-0.39480573 -0.19014287 0.72600001
-0.39450669 -0.19066668 0.72800004
-0.39204001 -0.19014287 0.72600001
-0.39065716 -0.19014287 0.72600001
-0.3892743 -0.19014287 0.72600001
-0.39502668 -0.19433334 0.74200004
-0.39520478 -0.19511905 0.74500006
-0.39618859 -0.18876001 0.72600001
-0.39480573 -0.18876001 0.72600001
-0.39450669 -0.18928002 0.72800004
-0.39204001 -0.18876001 0.72600001
-0.39065716 -0.18876001 0.72600001
-0.39034671 -0.18928002 0.72800004
-0.39396194 -0.19240001 0.74000001
-0.39564288 -0.18711907 0.72500002
-0.39480573 -0.18737715 0.72600001
-0.39450669 -0.18789335 0.72800004
-0.39312002 -0.18789335 0.72800004
-0.39173335 -0.18789335 0.72800004
-0.39034671 -0.18789335 0.72800004
-0.39216575 -0.18944192 0.73400003
-0.39426193 -0.1857381 0.72500002
-0.39504859 -0.18676287 0.72900003
-0.39312002 -0.18650667 0.72800004
-0.39173335 -0.18650667 0.72800004
-0.39088288 -0.18676287 0.72900003
-0.39056289 -0.18727525 0.73100001
-0.39426193 -0.18435715 0.72500002
-0.39504859 -0.1853743 0.72900003
-0.39312002 -0.18512002 0.72800004
-0.39227146 -0.1853743 0.72900003
-0.39088288 -0.1853743 0.72900003
-0.39056289 -0.18588287 0.73100001
-0.39202192 -0.18791716 0.73900002
-0.39426193 -0.1829762 0.72500002
-0.39450669 -0.18373334 0.72800004
-0.39312002 -0.18373334 0.72800004
-0.39227146 -0.18398573 0.72900003
-0.39195526 -0.18449049 0.73100001
-0.39109716 -0.18474287 0.73200005
-0.39183241 -0.18575239 0.73600006
-0.39202192 -0.18650953 0.73900002
-0.39504859 -0.18259716 0.72900003
-0.39366004 -0.18259716 0.72900003
-0.39334765 -0.18309811 0.73100001
-0.39249146 -0.18334858 0.73200005
-0.39216575 -0.18384954 0.73400003
-0.39183241 -0.18435049 0.73600006
-0.39202192 -0.18510191 0.73900002
-0.39366004 -0.18120858 0.72900003
-0.39388573 -0.18195429 0.73200005
-0.39356384 -0.18245144 0.73400003
-0.39216575 -0.18245144 0.73400003
-0.3923648 -0.18319716 0.73700005
-0.39202192 -0.1836943 0.73900002
-0.39366004 -0.17982002 0.72900003
-0.39334765 -0.18031335 0.73100001
-0.39249146 -0.18056001 0.73200005
-0.39109716 -0.18056001 0.73200005
-0.39183241 -0.18154667 0.73600006
-0.39043051 -0.18154667 0.73600006
-0.3906143 -0.18228668 0.73900002
-0.39334765 -0.17892097 0.73100001
-0.39249146 -0.17916572 0.73200005
-0.39109716 -0.17916572 0.73200005
-0.39183241 -0.18014477 0.73600006
-0.39096099 -0.18038954 0.73700005
-0.39114287 -0.18112382 0.74000001
-0.39078668 -0.18161334 0.74200004
-0.38989812 -0.18185811 0.74300003
-0.38848287 -0.18185811 0.74300003
-0.39334765 -0.17752859 0.73100001
-0.39249146 -0.17777143 0.73200005
-0.39216575 -0.17825715 0.73400003
-0.39183241 -0.17874287 0.73600006
-0.39096099 -0.17898573 0.73700005
-0.39114287 -0.17971429 0.74000001
-0.39078668 -0.18020001 0.74200004
-0.39094764 -0.18092859 0.74500006
-0.3895286 -0.18092859 0.74500006
-0.39334765 -0.1761362 0.73100001
-0.39249146 -0.17637715 0.73200005
-0.39216575 -0.17685907 0.73400003
-0.39183241 -0.17734097 0.73600006
-0.39096099 -0.17758192 0.73700005
-0.39114287 -0.17830478 0.74000001
-0.39131334 -0.17902763 0.74300003
-0.39199716 -0.17999144 0.74700004
-0.3895286 -0.17950954 0.74500006
-0.39388573 -0.17498288 0.73200005
-0.39249146 -0.17498288 0.73200005
-0.39216575 -0.17546096 0.73400003
-0.39183241 -0.17593905 0.73600006
-0.39096099 -0.17617811 0.73700005
-0.39114287 -0.17689525 0.74000001
-0.39131334 -0.17761239 0.74300003
-0.39094764 -0.17809048 0.74500006
-0.3895286 -0.17809048 0.74500006
-0.39388573 -0.17358859 0.73200005
-0.39195526 -0.17335144 0.73100001
-0.39109716 -0.17358859 0.73200005
-0.39076763 -0.17406286 0.73400003
-0.38936955 -0.17406286 0.73400003
-0.3906143 -0.17524858 0.73900002
-0.39078668 -0.17596 0.74200004
-0.38989812 -0.17619716 0.74300003
-0.3895286 -0.17667145 0.74500006
-0.39388573 -0.1721943 0.73200005
-0.39195526 -0.17195906 0.73100001
-0.39109716 -0.1721943 0.73200005
-0.39076763 -0.17266478 0.73400003
-0.38936955 -0.17266478 0.73400003
-0.38955718 -0.17337048 0.73700005
-0.39078668 -0.17454667 0.74200004
-0.39094764 -0.17525239 0.74500006
-0.3895286 -0.17525239 0.74500006
-0.38915145 -0.17572287 0.74700004
-0.38928574 -0.17642859 0.75000006
-0.38785717 -0.17642859 0.75000006
-0.39388573 -0.17080002 0.73200005
-0.39249146 -0.17080002 0.73200005
-0.39216575 -0.17126667 0.73400003
-0.39076763 -0.17126667 0.73400003
-0.38936955 -0.17126667 0.73400003
-0.38955718 -0.17196667 0.73700005
-0.38920668 -0.17243335 0.73900002
-0.39252192 -0.17453334 0.74800003
-0.39057431 -0.17430001 0.74700004
-0.39071432 -0.17500001 0.75000006
-0.39032385 -0.17546667 0.75200003
-0.38889146 -0.17546667 0.75200003
-0.38642859 -0.17500001 0.75000006
-0.39496192 -0.16986859 0.73400003
-0.39356384 -0.16986859 0.73400003
-0.39323431 -0.17033143 0.73600006
-0.39076763 -0.16986859 0.73400003
-0.38936955 -0.16986859 0.73400003
-0.38955718 -0.17056286 0.73700005
-0.38920668 -0.17102572 0.73900002
-0.39357147 -0.17357144 0.75000006
-0.39214289 -0.17357144 0.75000006
-0.39175621 -0.1740343 0.75200003
-0.39084288 -0.17426573 0.75300002
-0.38940859 -0.17426573 0.75300002
-0.3890048 -0.17472859 0.75500005
-0.39496192 -0.16847049 0.73400003
-0.39249146 -0.16801144 0.73200005
-0.39216575 -0.16847049 0.73400003
-0.39076763 -0.16847049 0.73400003
-0.38936955 -0.16847049 0.73400003
-0.38902861 -0.16892953 0.73600006
-0.38815334 -0.16915905 0.73700005
-0.39357147 -0.17214286 0.75000006
-0.39214289 -0.17214286 0.75000006
-0.39331907 -0.17329049 0.75500005
-0.39240003 -0.17352001 0.75600004
-0.39044288 -0.17329049 0.75500005
-0.38952002 -0.17352001 0.75600004
-0.38808003 -0.17352001 0.75600004
-0.39388573 -0.16661716 0.73200005
-0.39249146 -0.16661716 0.73200005
-0.39216575 -0.16707239 0.73400003
-0.39076763 -0.16707239 0.73400003
-0.38936955 -0.16707239 0.73400003
-0.38902861 -0.16752763 0.73600006
-0.38815334 -0.16775525 0.73700005
-0.38674954 -0.16775525 0.73700005
-0.39475718 -0.17185239 0.75500005
-0.39331907 -0.17185239 0.75500005
-0.39240003 -0.17208001 0.75600004
-0.39044288 -0.17185239 0.75500005
-0.38952002 -0.17208001 0.75600004
-0.38910669 -0.17253526 0.75800002
-0.39388573 -0.16522287 0.73200005
-0.39249146 -0.16522287 0.73200005
-0.39109716 -0.16522287 0.73200005
-0.39076763 -0.1656743 0.73400003
-0.38936955 -0.1656743 0.73400003
-0.38902861 -0.16612573 0.73600006
-0.38815334 -0.16635144 0.73700005
-0.38779908 -0.16680287 0.73900002
-0.3895286 -0.16815716 0.74500006
-0.39331907 -0.1704143 0.75500005
-0.39188099 -0.1704143 0.75500005
-0.39096004 -0.17064001 0.75600004
-0.38952002 -0.17064001 0.75600004
-0.38910669 -0.17109144 0.75800002
-0.39249146 -0.16382858 0.73200005
-0.39109716 -0.16382858 0.73200005
-0.39183241 -0.16472381 0.73600006
-0.39043051 -0.16472381 0.73600006
-0.38955718 -0.16494763 0.73700005
-0.38920668 -0.16539524 0.73900002
-0.38937336 -0.16606668 0.74200004
-0.39057431 -0.16718572 0.74700004
-0.39331907 -0.1689762 0.75500005
-0.39188099 -0.1689762 0.75500005
-0.39096004 -0.16920002 0.75600004
-0.38952002 -0.16920002 0.75600004
-0.38910669 -0.16964763 0.75800002
-0.39022002 -0.17076668 0.76300001
-0.38876671 -0.17076668 0.76300001
-0.39109716 -0.16243429 0.73200005
-0.39183241 -0.16332191 0.73600006
-0.39043051 -0.16332191 0.73600006
-0.38955718 -0.16354382 0.73700005
-0.38920668 -0.16398764 0.73900002
-0.38937336 -0.16465335 0.74200004
-0.3895286 -0.16531906 0.74500006
-0.39227718 -0.16709429 0.75300002
-0.39188099 -0.16753811 0.75500005
-0.39096004 -0.16776001 0.75600004
-0.38952002 -0.16776001 0.75600004
-0.38910669 -0.16820382 0.75800002
-0.39022002 -0.16931334 0.76300001
-0.38876671 -0.16931334 0.76300001
-0.39109716 -0.16104001 0.73200005
-0.39183241 -0.16192001 0.73600006
-0.39096099 -0.16214001 0.73700005
-0.3906143 -0.16258001 0.73900002
-0.38973334 -0.16280001 0.74000001
-0.38989812 -0.16346002 0.74300003
-0.3895286 -0.16390002 0.74500006
-0.39071432 -0.16500001 0.75000006
-0.39032385 -0.16544001 0.75200003
-0.39044288 -0.16610001 0.75500005
-0.38952002 -0.16632001 0.75600004
-0.38808003 -0.16632001 0.75600004
-0.39022002 -0.16786002 0.76300001
-0.38876671 -0.16786002 0.76300001
-0.3923648 -0.1607362 0.73700005
-0.39202192 -0.16117239 0.73900002
-0.39114287 -0.16139048 0.74000001
-0.39078668 -0.16182667 0.74200004
-0.38989812 -0.16204478 0.74300003
-0.3895286 -0.16248097 0.74500006
-0.38915145 -0.16291715 0.74700004
-0.38928574 -0.16357143 0.75000006
-0.38889146 -0.16400763 0.75200003
-0.38797432 -0.16422573 0.75300002
-0.38808003 -0.16488001 0.75600004
-0.39022002 -0.16640668 0.76300001
-0.38876671 -0.16640668 0.76300001
-0.39255241 -0.15998097 0.74000001
-0.39220002 -0.16041334 0.74200004
-0.39078668 -0.16041334 0.74200004
-0.38989812 -0.16062954 0.74300003
-0.3895286 -0.16106191 0.74500006
-0.38915145 -0.1614943 0.74700004
-0.38824764 -0.16171049 0.74800003
-0.38889146 -0.16257524 0.75200003
-0.38797432 -0.16279145 0.75300002
-0.38756669 -0.16322382 0.75500005
-0.3861286 -0.16322382 0.75500005
-0.39361337 -0.15900001 0.74200004
-0.39220002 -0.15900001 0.74200004
-0.39131334 -0.1592143 0.74300003
-0.38989812 -0.1592143 0.74300003
-0.3895286 -0.15964286 0.74500006
-0.38810953 -0.15964286 0.74500006
-0.38824764 -0.16028573 0.74800003
-0.38785717 -0.1607143 0.75000006
-0.38745907 -0.16114287 0.75200003
-0.38602668 -0.16114287 0.75200003
-0.38510573 -0.16135715 0.75300002
-0.38520002 -0.16200002 0.75600004
-0.39414385 -0.15779907 0.74300003
-0.39220002 -0.15758668 0.74200004
-0.39131334 -0.15779907 0.74300003
-0.39094764 -0.15822382 0.74500006
-0.3895286 -0.15822382 0.74500006
-0.38810953 -0.15822382 0.74500006
-0.38824764 -0.15886097 0.74800003
-0.38785717 -0.15928572 0.75000006
-0.38642859 -0.15928572 0.75000006
-0.38602668 -0.15971048 0.75200003
-0.38459432 -0.15971048 0.75200003
-0.38520002 -0.16056001 0.75600004
-0.38376004 -0.16056001 0.75600004
-0.39414385 -0.15638381 0.74300003
-0.39220002 -0.15617335 0.74200004
-0.39131334 -0.15638381 0.74300003
-0.39094764 -0.15680477 0.74500006
-0.3895286 -0.15680477 0.74500006
-0.38915145 -0.15722573 0.74700004
-0.38824764 -0.15743621 0.74800003
-0.38785717 -0.15785715 0.75000006
-0.38642859 -0.15785715 0.75000006
-0.38602668 -0.15827811 0.75200003
-0.38459432 -0.15827811 0.75200003
-0.38520002 -0.15912001 0.75600004
-0.39220002 -0.15476 0.74200004
-0.39131334 -0.15496857 0.74300003
-0.39094764 -0.15538572 0.74500006
-0.3895286 -0.15538572 0.74500006
-0.3896724 -0.15601143 0.74800003
-0.38824764 -0.15601143 0.74800003
-0.38785717 -0.15642858 0.75000006
-0.38745907 -0.15684572 0.75200003
-0.38602668 -0.15684572 0.75200003
-0.38510573 -0.15705429 0.75300002
-0.39220002 -0.15334667 0.74200004
-0.39131334 -0.15355334 0.74300003
-0.39094764 -0.15396668 0.74500006
-0.39057431 -0.15438001 0.74700004
-0.3896724 -0.15458667 0.74800003
-0.38928574 -0.15500002 0.75000006
-0.38889146 -0.15541334 0.75200003
-0.38745907 -0.15541334 0.75200003
-0.38602668 -0.15541334 0.75200003
-0.3927286 -0.1521381 0.74300003
-0.39236671 -0.15254763 0.74500006
-0.39199716 -0.15295716 0.74700004
-0.39057431 -0.15295716 0.74700004
-0.3896724 -0.15316191 0.74800003
-0.38928574 -0.15357144 0.75000006
-0.38785717 -0.15357144 0.75000006
-0.38745907 -0.15398096 0.75200003
-0.38602668 -0.15398096 0.75200003
-0.3927286 -0.15072286 0.74300003
-0.39236671 -0.15112858 0.74500006
-0.39199716 -0.15153429 0.74700004
-0.39109716 -0.15173715 0.74800003
-0.3896724 -0.15173715 0.74800003
-0.38928574 -0.15214287 0.75000006
-0.38785717 -0.15214287 0.75000006
-0.38642859 -0.15214287 0.75000006
-0.38602668 -0.15254858 0.75200003
-0.3927286 -0.14930762 0.74300003
-0.39236671 -0.14970954 0.74500006
-0.39199716 -0.15011144 0.74700004
-0.39109716 -0.15031239 0.74800003
-0.3896724 -0.15031239 0.74800003
-0.38928574 -0.15071429 0.75000006
-0.38785717 -0.15071429 0.75000006
-0.38642859 -0.15071429 0.75000006
-0.38602668 -0.15111621 0.75200003
-0.38510573 -0.15131715 0.75300002
-0.3927286 -0.14789239 0.74300003
-0.39236671 -0.14829049 0.74500006
-0.39094764 -0.14829049 0.74500006
-0.39109716 -0.14888763 0.74800003
-0.3896724 -0.14888763 0.74800003
-0.38928574 -0.14928572 0.75000006
-0.38785717 -0.14928572 0.75000006
-0.38642859 -0.14928572 0.75000006
-0.38602668 -0.14968382 0.75200003
-0.39220002 -0.14628001 0.74200004
-0.39131334 -0.14647715 0.74300003
-0.39094764 -0.14687143 0.74500006
-0.39109716 -0.14746286 0.74800003
-0.3896724 -0.14746286 0.74800003
-0.38928574 -0.14785716 0.75000006
-0.38785717 -0.14785716 0.75000006
-0.38642859 -0.14785716 0.75000006
-0.38602668 -0.14825144 0.75200003
-0.39220002 -0.14486668 0.74200004
-0.39131334 -0.14506191 0.74300003
-0.38989812 -0.14506191 0.74300003
-0.39057431 -0.14584287 0.74700004
-0.3896724 -0.1460381 0.74800003
-0.38824764 -0.1460381 0.74800003
-0.38682288 -0.1460381 0.74800003
-0.38642859 -0.14642859 0.75000006
-0.38602668 -0.14681906 0.75200003
-0.38459432 -0.14681906 0.75200003
-0.3913143 -0.14994286 0.76800001
-0.3908667 -0.15033334 0.77000004
-0.39041147 -0.15072381 0.77200001
-0.39220002 -0.14345334 0.74200004
-0.39078668 -0.14345334 0.74200004
-0.38989812 -0.14364667 0.74300003
-0.3895286 -0.14403334 0.74500006
-0.38915145 -0.14442001 0.74700004
-0.38824764 -0.14461334 0.74800003
-0.38682288 -0.14461334 0.74800003
-0.38642859 -0.14500001 0.75000006
-0.38602668 -0.14538668 0.75200003
-0.38868573 -0.14693335 0.76000005
-0.38978574 -0.14790002 0.76500005
-0.3908667 -0.14886668 0.77000004
-0.39041147 -0.14925334 0.77200001
-0.38894099 -0.14925334 0.77200001
-0.39114287 -0.14165716 0.74000001
-0.38973334 -0.14165716 0.74000001
-0.38937336 -0.14204001 0.74200004
-0.38848287 -0.14223143 0.74300003
-0.38915145 -0.14299715 0.74700004
-0.38824764 -0.14318858 0.74800003
-0.38785717 -0.14357144 0.75000006
-0.38745907 -0.14395429 0.75200003
-0.38654003 -0.14414573 0.75300002
-0.39022002 -0.14606 0.76300001
-0.38978574 -0.14644286 0.76500005
-0.3908667 -0.14740001 0.77000004
-0.39041147 -0.14778286 0.77200001
-0.38894099 -0.14778286 0.77200001
-0.38747051 -0.14778286 0.77200001
-0.3906143 -0.1400581 0.73900002
-0.38920668 -0.1400581 0.73900002
-0.38832384 -0.14024763 0.74000001
-0.38691431 -0.14024763 0.74000001
-0.38706765 -0.1408162 0.74300003
-0.3877286 -0.14157429 0.74700004
-0.38785717 -0.14214286 0.75000006
-0.38797432 -0.14271143 0.75300002
-0.38654003 -0.14271143 0.75300002
-0.39022002 -0.14460668 0.76300001
-0.38978574 -0.14498572 0.76500005
-0.3908667 -0.14593334 0.77000004
-0.39041147 -0.14631239 0.77200001
-0.38894099 -0.14631239 0.77200001
-0.38747051 -0.14631239 0.77200001
-0.3906143 -0.13865049 0.73900002
-0.38973334 -0.1388381 0.74000001
-0.38832384 -0.1388381 0.74000001
-0.38691431 -0.1388381 0.74000001
-0.3865467 -0.13921334 0.74200004
-0.38565239 -0.13940096 0.74300003
-0.38630575 -0.14015144 0.74700004
-0.38797432 -0.14127715 0.75300002
-0.38654003 -0.14127715 0.75300002
-0.39124289 -0.14352858 0.76500005
-0.3908048 -0.14390382 0.76700002
-0.3908667 -0.14446668 0.77000004
-0.39041147 -0.14484191 0.77200001
-0.38894099 -0.14484191 0.77200001
-0.38747051 -0.14484191 0.77200001
-0.38973334 -0.13742858 0.74000001
-0.38989812 -0.13798572 0.74300003
-0.38848287 -0.13798572 0.74300003
-0.38706765 -0.13798572 0.74300003
-0.3866905 -0.13835715 0.74500006
-0.38682288 -0.1389143 0.74800003
-0.38745907 -0.13965715 0.75200003
-0.38654003 -0.13984287 0.75300002
-0.38919717 -0.14132859 0.76100004
-0.3908048 -0.14244287 0.76700002
-0.38985145 -0.14262858 0.76800001
-0.38940004 -0.14300001 0.77000004
-0.38793337 -0.14300001 0.77000004
-0.38747051 -0.14337143 0.77200001
-0.38989812 -0.13657048 0.74300003
-0.38848287 -0.13657048 0.74300003
-0.38810953 -0.13693811 0.74500006
-0.3877286 -0.13730572 0.74700004
-0.38682288 -0.13748953 0.74800003
-0.38745907 -0.13822477 0.75200003
-0.38654003 -0.13840859 0.75300002
-0.39022002 -0.14024667 0.76300001
-0.3908048 -0.14098191 0.76700002
-0.38985145 -0.14116572 0.76800001
-0.3883886 -0.14116572 0.76800001
-0.38793337 -0.14153334 0.77000004
-0.38747051 -0.14190096 0.77200001
-0.38600004 -0.14190096 0.77200001
-0.39094764 -0.13551906 0.74500006
-0.3895286 -0.13551906 0.74500006
-0.3896724 -0.13606477 0.74800003
-0.38824764 -0.13606477 0.74800003
-0.38682288 -0.13606477 0.74800003
-0.38745907 -0.13679239 0.75200003
-0.38602668 -0.13679239 0.75200003
-0.39022002 -0.13879335 0.76300001
-0.3913143 -0.13970287 0.76800001
-0.38985145 -0.13970287 0.76800001
-0.38940004 -0.14006668 0.77000004
-0.38894099 -0.14043048 0.77200001
-0.38797241 -0.14061239 0.77300006
-0.38650003 -0.14061239 0.77300006
-0.39094764 -0.13410001 0.74500006
-0.39057431 -0.13446 0.74700004
-0.3896724 -0.13464001 0.74800003
-0.38824764 -0.13464001 0.74800003
-0.38785717 -0.13500001 0.75000006
-0.38642859 -0.13500001 0.75000006
-0.38602668 -0.13536 0.75200003
-0.3861286 -0.13590001 0.75500005
-0.39233336 -0.13860001 0.77000004
-0.3908667 -0.13860001 0.77000004
-0.38940004 -0.13860001 0.77000004
-0.38894099 -0.13896 0.77200001
-0.38797241 -0.13914001 0.77300006
-0.38950002 -0.14022002 0.77900004
-0.39050668 -0.14112002 0.78400004
-0.38901335 -0.14112002 0.78400004
-0.39094764 -0.13268097 0.74500006
-0.39057431 -0.13303715 0.74700004
-0.3896724 -0.13321525 0.74800003
-0.38824764 -0.13321525 0.74800003
-0.38682288 -0.13321525 0.74800003
-0.38539812 -0.13321525 0.74800003
-0.38500002 -0.13357143 0.75000006
-0.38459432 -0.13392763 0.75200003
-0.39233336 -0.13713335 0.77000004
-0.3908667 -0.13713335 0.77000004
-0.38940004 -0.13713335 0.77000004
-0.38894099 -0.13748953 0.77200001
-0.38797241 -0.13766763 0.77300006
-0.38750002 -0.13802382 0.77500004
-0.39109716 -0.13179049 0.74800003
-0.39071432 -0.13214287 0.75000006
-0.38928574 -0.13214287 0.75000006
-0.38785717 -0.13214287 0.75000006
-0.38642859 -0.13214287 0.75000006
-0.38602668 -0.13249524 0.75200003
-0.38459432 -0.13249524 0.75200003
-0.39233336 -0.13566667 0.77000004
-0.3908667 -0.13566667 0.77000004
-0.39041147 -0.13601905 0.77200001
-0.38894099 -0.13601905 0.77200001
-0.38747051 -0.13601905 0.77200001
-0.38650003 -0.13619524 0.77300006
-0.39071432 -0.1307143 0.75000006
-0.38928574 -0.1307143 0.75000006
-0.38785717 -0.1307143 0.75000006
-0.38642859 -0.1307143 0.75000006
-0.38602668 -0.13106287 0.75200003
-0.38459432 -0.13106287 0.75200003
-0.39233336 -0.13420001 0.77000004
-0.3908667 -0.13420001 0.77000004
-0.39041147 -0.13454857 0.77200001
-0.3894448 -0.13472286 0.77300006
-0.38797241 -0.13472286 0.77300006
-0.38750002 -0.13507144 0.77500004
-0.39071432 -0.12928572 0.75000006
-0.38928574 -0.12928572 0.75000006
-0.38785717 -0.12928572 0.75000006
-0.38642859 -0.12928572 0.75000006
-0.38602668 -0.12963049 0.75200003
-0.38459432 -0.12963049 0.75200003
-0.39233336 -0.13273335 0.77000004
-0.3908667 -0.13273335 0.77000004
-0.39041147 -0.1330781 0.77200001
-0.3894448 -0.13325049 0.77300006
-0.38797241 -0.13325049 0.77300006
-0.38750002 -0.13359524 0.77500004
-0.38702002 -0.13394001 0.77700001
-0.39214289 -0.12785715 0.75000006
-0.39071432 -0.12785715 0.75000006
-0.38928574 -0.12785715 0.75000006
-0.38785717 -0.12785715 0.75000006
-0.38642859 -0.12785715 0.75000006
-0.38602668 -0.1281981 0.75200003
-0.38459432 -0.1281981 0.75200003
-0.39335242 -0.13160762 0.77200001
-0.39188194 -0.13160762 0.77200001
-0.39192858 -0.13211906 0.77500004
-0.39045241 -0.13211906 0.77500004
-0.38897622 -0.13211906 0.77500004
-0.38750002 -0.13211906 0.77500004
-0.38702002 -0.13246001 0.77700001
-0.39071432 -0.12642857 0.75000006
-0.38928574 -0.12642857 0.75000006
-0.38785717 -0.12642857 0.75000006
-0.38642859 -0.12642857 0.75000006
-0.38500002 -0.12642857 0.75000006
-0.38459432 -0.12676573 0.75200003
-0.39335242 -0.13013715 0.77200001
-0.39238954 -0.13030572 0.77300006
-0.39192858 -0.13064286 0.77500004
-0.39146003 -0.13098001 0.77700001
-0.38897622 -0.13064286 0.77500004
-0.38850003 -0.13098001 0.77700001
-0.38702002 -0.13098001 0.77700001
-0.39071432 -0.12500001 0.75000006
-0.38824764 -0.12466668 0.74800003
-0.38682288 -0.12466668 0.74800003
-0.38539812 -0.12466668 0.74800003
-0.38397336 -0.12466668 0.74800003
-0.38459432 -0.12533334 0.75200003
-0.38978574 -0.12750001 0.76500005
-0.38832858 -0.12750001 0.76500005
-0.38687146 -0.12750001 0.76500005
-0.38793337 -0.12833335 0.77000004
-0.38747051 -0.12866667 0.77200001
-0.38750002 -0.12916668 0.77500004
-0.38702002 -0.1295 0.77700001
-0.38554004 -0.1295 0.77700001
-0.3861286 -0.12439524 0.75500005
-0.38621908 -0.12488953 0.75800002
-0.38477525 -0.12488953 0.75800002
-0.38333145 -0.12488953 0.75800002
-0.38188764 -0.12488953 0.75800002
-0.38998002 -0.12802 0.77700001
-0.38850003 -0.12802 0.77700001
-0.38801622 -0.12834953 0.77900004
-0.3865324 -0.12834953 0.77900004
-0.3850486 -0.12834953 0.77900004
-0.38664001 -0.12312001 0.75600004
-0.38621908 -0.12344572 0.75800002
-0.38477525 -0.12344572 0.75800002
-0.38333145 -0.12344572 0.75800002
-0.38642192 -0.12491143 0.76700002
-0.38998002 -0.12654001 0.77700001
-0.38850003 -0.12654001 0.77700001
-0.38801622 -0.12686573 0.77900004
-0.3865324 -0.12686573 0.77900004
-0.3850486 -0.12686573 0.77900004
-0.38919717 -0.12248477 0.76100004
-0.38774765 -0.12248477 0.76100004
-0.38629812 -0.12248477 0.76100004
-0.38484859 -0.12248477 0.76100004
-0.38642192 -0.12345049 0.76700002
-0.38747051 -0.12425525 0.77200001
-0.38750002 -0.1247381 0.77500004
-0.38801622 -0.12538192 0.77900004
-0.3865324 -0.12538192 0.77900004
-0.3850486 -0.12538192 0.77900004
-0.3835648 -0.12538192 0.77900004
-0.38766289 -0.12055811 0.75800002
-0.38621908 -0.12055811 0.75800002
-0.3857905 -0.1208762 0.76000005
-0.38434288 -0.1208762 0.76000005
-0.3854143 -0.12167144 0.76500005
-0.38646668 -0.12246668 0.77000004
-0.38850003 -0.12358001 0.77700001
-0.38801622 -0.1238981 0.77900004
-0.3865324 -0.1238981 0.77900004
-0.3850486 -0.1238981 0.77900004
-0.38405716 -0.12405715 0.78000003
-0.38257146 -0.12405715 0.78000003
-0.39167336 -0.11990001 0.76300001
-0.38919717 -0.11958572 0.76100004
-0.38723812 -0.11942858 0.76000005
-0.3857905 -0.11942858 0.76000005
-0.38484859 -0.11958572 0.76100004
-0.3854143 -0.12021429 0.76500005
-0.38546288 -0.12068572 0.76800001
-0.38750002 -0.12178572 0.77500004
-0.38801622 -0.12241429 0.77900004
-0.3865324 -0.12241429 0.77900004
-0.3850486 -0.12241429 0.77900004
-0.3835648 -0.12241429 0.77900004
-0.38257146 -0.12257144 0.78000003
-0.3931267 -0.11844668 0.76300001
-0.39167336 -0.11844668 0.76300001
-0.38919717 -0.1181362 0.76100004
-0.38723812 -0.11798096 0.76000005
-0.3857905 -0.11798096 0.76000005
-0.38434288 -0.11798096 0.76000005
-0.38440669 -0.11844668 0.76300001
-0.38496098 -0.11906762 0.76700002
-0.38650003 -0.11999906 0.77300006
-0.38702002 -0.12062 0.77700001
-0.3865324 -0.12093049 0.77900004
-0.38406003 -0.12062 0.77700001
-0.3835648 -0.12093049 0.77900004
-0.38257146 -0.12108573 0.78000003
-0.38304001 -0.12170667 0.78400004
-0.3931267 -0.11699334 0.76300001
-0.3906467 -0.11668667 0.76100004
-0.38868573 -0.11653334 0.76000005
-0.38723812 -0.11653334 0.76000005
-0.38477525 -0.11622667 0.75800002
-0.38434288 -0.11653334 0.76000005
-0.38440669 -0.11699334 0.76300001
-0.38496098 -0.11760668 0.76700002
-0.38750002 -0.11883334 0.77500004
-0.38801622 -0.11944667 0.77900004
-0.3865324 -0.11944667 0.77900004
-0.3850486 -0.11944667 0.77900004
-0.38405716 -0.11960001 0.78000003
-0.3835524 -0.11990667 0.78200006
-0.38304001 -0.12021334 0.78400004
-0.38952002 -0.11448001 0.75600004
-0.38910669 -0.11478286 0.75800002
-0.38868573 -0.11508572 0.76000005
-0.38774765 -0.11523715 0.76100004
-0.3857905 -0.11508572 0.76000005
-0.38586003 -0.11554001 0.76300001
-0.3854143 -0.11584286 0.76500005
-0.38496098 -0.11614572 0.76700002
-0.38600004 -0.11690287 0.77200001
-0.38702002 -0.11766001 0.77700001
-0.3865324 -0.11796287 0.77900004
-0.38554287 -0.11811429 0.78000003
-0.38504192 -0.11841715 0.78200006
-0.38551432 -0.11902287 0.78600001
-0.38401717 -0.11902287 0.78600001
-0.38592669 -0.12008286 0.79300004
-0.38952002 -0.11304001 0.75600004
-0.38910669 -0.11333905 0.75800002
-0.38868573 -0.1136381 0.76000005
-0.38774765 -0.11378763 0.76100004
-0.38629812 -0.11378763 0.76100004
-0.38687146 -0.11438572 0.76500005
-0.38642192 -0.11468477 0.76700002
-0.38546288 -0.11483429 0.76800001
-0.38500002 -0.11513334 0.77000004
-0.38502765 -0.11558191 0.77300006
-0.38554004 -0.11618001 0.77700001
-0.38554287 -0.11662858 0.78000003
-0.38602668 -0.11722668 0.78400004
-0.38796669 -0.11827334 0.79100001
-0.38743716 -0.11857239 0.79300004
-0.38592669 -0.11857239 0.79300004
-0.38952002 -0.1116 0.75600004
-0.38910669 -0.11189525 0.75800002
-0.38868573 -0.11219049 0.76000005
-0.38774765 -0.1123381 0.76100004
-0.38731337 -0.11263334 0.76300001
-0.38687146 -0.11292858 0.76500005
-0.38642192 -0.11322381 0.76700002
-0.38646668 -0.11366668 0.77000004
-0.38600004 -0.11396191 0.77200001
-0.38602385 -0.11440477 0.77500004
-0.3865324 -0.11499525 0.77900004
-0.38554287 -0.11514287 0.78000003
-0.38602668 -0.11573334 0.78400004
-0.38551432 -0.11602858 0.78600001
-0.3849943 -0.11632381 0.78800005
-0.38592669 -0.11706191 0.79300004
-0.38919717 -0.11088858 0.76100004
-0.38774765 -0.11088858 0.76100004
-0.38731337 -0.11118001 0.76300001
-0.38687146 -0.11147144 0.76500005
-0.38793337 -0.11220001 0.77000004
-0.38646668 -0.11220001 0.77000004
-0.38650003 -0.11263715 0.77300006
-0.38602385 -0.11292858 0.77500004
-0.3865324 -0.11351144 0.77900004
-0.38554287 -0.11365715 0.78000003
-0.38602668 -0.11424001 0.78400004
-0.38796669 -0.11526 0.79100001
-0.38743716 -0.11555143 0.79300004
-0.38774765 -0.10943905 0.76100004
-0.38832858 -0.11001429 0.76500005
-0.3883886 -0.11044572 0.76800001
-0.38793337 -0.11073334 0.77000004
-0.38646668 -0.11073334 0.77000004
-0.38600004 -0.11102096 0.77200001
-0.38502765 -0.11116477 0.77300006
-0.38554004 -0.11174001 0.77700001
-0.38554287 -0.11217143 0.78000003
-0.38405716 -0.11217143 0.78000003
-0.38832858 -0.10855715 0.76500005
-0.3883886 -0.10898286 0.76800001
-0.38793337 -0.10926668 0.77000004
-0.38646668 -0.10926668 0.77000004
-0.38500002 -0.10926668 0.77000004
-0.38452956 -0.10955048 0.77200001
-0.38554004 -0.11026001 0.77700001
-0.38752002 -0.11125334 0.78400004
-0.38799623 -0.11182096 0.78800005
-0.38934383 -0.10738001 0.76700002
-0.3883886 -0.10752001 0.76800001
-0.38793337 -0.10780001 0.77000004
-0.38646668 -0.10780001 0.77000004
-0.38500002 -0.10780001 0.77000004
-0.38452956 -0.10808001 0.77200001
-0.38305908 -0.10808001 0.77200001
-0.38978574 -0.10564286 0.76500005
-0.38934383 -0.10591906 0.76700002
-0.3883886 -0.10605715 0.76800001
-0.38793337 -0.10633334 0.77000004
-0.38646668 -0.10633334 0.77000004
-0.38500002 -0.10633334 0.77000004
-0.38452956 -0.10660953 0.77200001
-0.38305908 -0.10660953 0.77200001
-0.38307145 -0.10702381 0.77500004
-0.38985145 -0.10459429 0.76800001
-0.3883886 -0.10459429 0.76800001
-0.38793337 -0.10486668 0.77000004
-0.38646668 -0.10486668 0.77000004
-0.38500002 -0.10486668 0.77000004
-0.38452956 -0.10513905 0.77200001
-0.38355526 -0.10527524 0.77300006
-0.38208288 -0.10527524 0.77300006
-0.38985145 -0.10313144 0.76800001
-0.38940004 -0.10340001 0.77000004
-0.38793337 -0.10340001 0.77000004
-0.38646668 -0.10340001 0.77000004
-0.38500002 -0.10340001 0.77000004
-0.38452956 -0.10366858 0.77200001
-0.38355526 -0.10380287 0.77300006
-0.38208288 -0.10380287 0.77300006
-0.38940004 -0.10193334 0.77000004
-0.38793337 -0.10193334 0.77000004
-0.38646668 -0.10193334 0.77000004
-0.38500002 -0.10193334 0.77000004
-0.38452956 -0.1021981 0.77200001
-0.38305908 -0.1021981 0.77200001
-0.38307145 -0.10259525 0.77500004
-0.38940004 -0.10046668 0.77000004
-0.38793337 -0.10046668 0.77000004
-0.38646668 -0.10046668 0.77000004
-0.38500002 -0.10046668 0.77000004
-0.38452956 -0.10072763 0.77200001
-0.38355526 -0.1008581 0.77300006
-0.38208288 -0.1008581 0.77300006
-0.3835648 -0.10164096 0.77900004
-0.38551432 -0.10255429 0.78600001
-0.38401717 -0.10255429 0.78600001
