# .PCD v0.7 - Point Cloud Data file format
VERSION 0.7
FIELDS x y z
SIZE 4 4 4
TYPE F F F
COUNT 1 1 1
WIDTH 1371
HEIGHT 1
VIEWPOINT 0 0 0 1 0 0 0
POINTS 1371
DATA ascii
-0.39517337 -0.05490667 0.81200004
-0.39362669 -0.05490667 0.81200004
-0.39208004 -0.05490667 0.81200004
-0.39053336 -0.05490667 0.81200004
-0.38994479 -0.055041909 0.81400001
-0.38839433 -0.055041909 0.81400001
-0.38731906 -0.055109527 0.81500006
-0.38766003 -0.055380005 0.81900007
-0.39517337 -0.053360004 0.81200004
-0.39362669 -0.053360004 0.81200004
-0.39208004 -0.053360004 0.81200004
-0.39053336 -0.053360004 0.81200004
-0.38898671 -0.053360004 0.81200004
-0.38839433 -0.053491432 0.81400001
-0.38684383 -0.053491432 0.81400001
-0.38671336 -0.053688575 0.81700003
-0.38610002 -0.053820003 0.81900007
-0.39362669 -0.051813338 0.81200004
-0.39208004 -0.051813338 0.81200004
-0.39053336 -0.051813338 0.81200004
-0.38898671 -0.051813338 0.81200004
-0.38839433 -0.051940955 0.81400001
-0.38731906 -0.052004766 0.81500006
-0.38529336 -0.051940955 0.81400001
-0.38515717 -0.052132383 0.81700003
-0.39459622 -0.050390478 0.81400001
-0.39208004 -0.050266668 0.81200004
-0.39149526 -0.050390478 0.81400001
-0.38994479 -0.050390478 0.81400001
-0.38839433 -0.050390478 0.81400001
-0.38731906 -0.050452385 0.81500006
-0.38576669 -0.050452385 0.81500006
-0.38610002 -0.050700005 0.81900007
-0.39459622 -0.048840005 0.81400001
-0.39304575 -0.048840005 0.81400001
-0.39149526 -0.048840005 0.81400001
-0.38994479 -0.048840005 0.81400001
-0.38839433 -0.048840005 0.81400001
-0.38731906 -0.048900004 0.81500006
-0.38576669 -0.048900004 0.81500006
-0.38515717 -0.049020004 0.81700003
-0.39459622 -0.047289528 0.81400001
-0.39208004 -0.047173336 0.81200004
-0.39149526 -0.047289528 0.81400001
-0.39042383 -0.047347624 0.81500006
-0.38887146 -0.047347624 0.81500006
-0.38731906 -0.047347624 0.81500006
-0.38671336 -0.047463812 0.81700003
-0.38610002 -0.047580004 0.81900007
-0.38547906 -0.047696192 0.82100004
-0.42316002 -0.057746671 0.99400002
-0.42253813 -0.057920955 0.99700004
-0.42063907 -0.057920955 0.99700004
-0.39362669 -0.04562667 0.81200004
-0.39208004 -0.04562667 0.81200004
-0.39149526 -0.045739051 0.81400001
-0.39042383 -0.04579524 0.81500006
-0.38887146 -0.04579524 0.81500006
-0.38826954 -0.04590762 0.81700003
-0.38671336 -0.04590762 0.81700003
-0.38610002 -0.046020001 0.81900007
-0.38641813 -0.046244767 0.82300001
-0.42377052 -0.055684764 0.99100006
-0.42316002 -0.055853337 0.99400002
-0.4212667 -0.055853337 0.99400002
-0.41937336 -0.055853337 0.99400002
-0.42000002 -0.05619048 1
-0.41809526 -0.05619048 1
-0.38761908 -0.05619048 1
-0.38571432 -0.05619048 1
-0.39265716 -0.043971431 0.81000006
-0.39111432 -0.043971431 0.81000006
-0.39053336 -0.044080004 0.81200004
-0.39042383 -0.044242859 0.81500006
-0.38887146 -0.044242859 0.81500006
-0.38826954 -0.044351432 0.81700003
-0.38766003 -0.044460002 0.81900007
-0.38704288 -0.044568576 0.82100004
-0.38735718 -0.044785716 0.82500005
-0.38672099 -0.044894289 0.82700002
-0.42823526 -0.054122861 0.99700004
-0.42377052 -0.053797148 0.99100006
-0.42060575 -0.05363429 0.98800004
-0.41872385 -0.05363429 0.98800004
-0.41810766 -0.053797148 0.99100006
-0.41748002 -0.053960003 0.99400002
-0.41558668 -0.053960003 0.99400002
-0.41494194 -0.054122861 0.99700004
-0.41428575 -0.054285716 1
-0.39265716 -0.042428575 0.81000006
-0.39111432 -0.042428575 0.81000006
-0.39053336 -0.042533334 0.81200004
-0.38994479 -0.042638097 0.81400001
-0.38839433 -0.042638097 0.81400001
-0.38826954 -0.042795241 0.81700003
-0.38766003 -0.042900003 0.81900007
-0.38798574 -0.043109525 0.82300001
-0.38735718 -0.043214288 0.82500005
-0.38672099 -0.04331905 0.82700002
-0.38514575 -0.04331905 0.82700002
-0.43013433 -0.052223813 0.99700004
-0.42565814 -0.051909529 0.99100006
-0.42377052 -0.051909529 0.99100006
-0.42060575 -0.051752385 0.98800004
-0.41872385 -0.051752385 0.98800004
-0.41684192 -0.051752385 0.98800004
-0.41622004 -0.051909529 0.99100006
-0.41558668 -0.052066669 0.99400002
-0.41494194 -0.052223813 0.99700004
-0.41428575 -0.052380957 1
-0.41238099 -0.052380957 1
-0.41047621 -0.052380957 1
-0.40857145 -0.052380957 1
-0.4066667 -0.052380957 1
-0.40476194 -0.052380957 1
-0.40285715 -0.052380957 1
-0.4009524 -0.052380957 1
-0.39714289 -0.052380957 1
-0.39523813 -0.052380957 1
-0.38952383 -0.052380957 1
-0.38761908 -0.052380957 1
-0.38571432 -0.052380957 1
-0.39168763 -0.040784765 0.80800003
-0.39111432 -0.040885717 0.81000006
-0.39053336 -0.040986668 0.81200004
-0.38994479 -0.04108762 0.81400001
-0.38839433 -0.04108762 0.81400001
-0.38826954 -0.041239049 0.81700003
-0.3886067 -0.041440956 0.82100004
-0.38798574 -0.041541908 0.82300001
-0.38735718 -0.04164286 0.82500005
-0.38672099 -0.041743811 0.82700002
-0.38421431 -0.04164286 0.82500005
-0.43013433 -0.050324764 0.99700004
-0.4269467 -0.050173335 0.99400002
-0.42377052 -0.050021909 0.99100006
-0.4218829 -0.050021909 0.99100006
-0.41872385 -0.04987048 0.98800004
-0.41810766 -0.050021909 0.99100006
-0.41748002 -0.050173335 0.99400002
-0.41558668 -0.050173335 0.99400002
-0.41494194 -0.050324764 0.99700004
-0.41304287 -0.050324764 0.99700004
-0.41238099 -0.050476193 1
-0.41047621 -0.050476193 1
-0.40857145 -0.050476193 1
-0.4066667 -0.050476193 1
-0.40476194 -0.050476193 1
-0.40285715 -0.050476193 1
-0.4009524 -0.050476193 1
-0.39904764 -0.050476193 1
-0.39714289 -0.050476193 1
-0.39523813 -0.050476193 1
-0.38952383 -0.050476193 1
-0.38761908 -0.050476193 1
-0.39281145 -0.039051432 0.80400002
-0.39128003 -0.039051432 0.80400002
-0.3897486 -0.039051432 0.80400002
-0.3891829 -0.039148573 0.80600005
-0.38764766 -0.039148573 0.80600005
-0.38802859 -0.039342858 0.81000006
-0.38744003 -0.039440002 0.81200004
-0.38731906 -0.039585717 0.81500006
-0.38766003 -0.039780002 0.81900007
-0.38704288 -0.039877146 0.82100004
-0.38641813 -0.039974287 0.82300001
-0.38578573 -0.040071432 0.82500005
-0.38328287 -0.039974287 0.82300001
-0.43073335 -0.048280004 0.99400002
-0.43013433 -0.048425719 0.99700004
-0.4269467 -0.048280004 0.99400002
-0.42377052 -0.04813429 0.99100006
-0.4218829 -0.04813429 0.99100006
-0.41999528 -0.04813429 0.99100006
-0.41810766 -0.04813429 0.99100006
-0.41748002 -0.048280004 0.99400002
-0.41558668 -0.048280004 0.99400002
-0.41494194 -0.048425719 0.99700004
-0.41304287 -0.048425719 0.99700004
-0.41114384 -0.048425719 0.99700004
-0.41047621 -0.04857143 1
-0.40857145 -0.04857143 1
-0.40544668 -0.048425719 0.99700004
-0.40476194 -0.04857143 1
-0.40285715 -0.04857143 1
-0.4009524 -0.04857143 1
-0.39904764 -0.04857143 1
-0.39714289 -0.04857143 1
-0.39523813 -0.04857143 1
-0.39333335 -0.04857143 1
-0.39142859 -0.04857143 1
-0.38952383 -0.04857143 1
-0.38761908 -0.04857143 1
-0.39281145 -0.037520003 0.80400002
-0.39128003 -0.037520003 0.80400002
-0.3897486 -0.037520003 0.80400002
-0.38821718 -0.037520003 0.80400002
-0.38764766 -0.037613336 0.80600005
-0.38707051 -0.037706669 0.80800003
-0.38648573 -0.037800003 0.81000006
-0.38684383 -0.03798667 0.81400001
-0.3886067 -0.038313337 0.82100004
-0.38704288 -0.038313337 0.82100004
-0.38547906 -0.038313337 0.82100004
-0.38578573 -0.038500004 0.82500005
-0.38328287 -0.03840667 0.82300001
-0.38171527 -0.03840667 0.82300001
-0.37830001 -0.038220003 0.81900007
-0.37352002 -0.037893336 0.81200004
-0.37105715 -0.037800003 0.81000006
-0.37042668 -0.037893336 0.81200004
-0.43773049 -0.04652667 0.99700004
-0.43452004 -0.04638667 0.99400002
-0.43262669 -0.04638667 0.99400002
-0.42943338 -0.04624667 0.99100006
-0.42754576 -0.04624667 0.99100006
-0.42565814 -0.04624667 0.99100006
-0.42377052 -0.04624667 0.99100006
-0.42316002 -0.04638667 0.99400002
-0.41999528 -0.04624667 0.99100006
-0.41937336 -0.04638667 0.99400002
-0.41874003 -0.04652667 0.99700004
-0.41558668 -0.04638667 0.99400002
-0.41494194 -0.04652667 0.99700004
-0.41304287 -0.04652667 0.99700004
-0.41114384 -0.04652667 0.99700004
-0.40544668 -0.04652667 0.99700004
-0.38947335 -0.035406668 0.79100001
-0.38992861 -0.035585716 0.79500002
-0.39281145 -0.035988573 0.80400002
-0.39030668 -0.035899051 0.80200005
-0.38877907 -0.035899051 0.80200005
-0.38821718 -0.035988573 0.80400002
-0.38764766 -0.036078099 0.80600005
-0.38707051 -0.036167622 0.80800003
-0.38648573 -0.036257144 0.81000006
-0.38684383 -0.036436193 0.81400001
-0.38766003 -0.036660001 0.81900007
-0.38704288 -0.036749527 0.82100004
-0.38641813 -0.036839049 0.82300001
-0.38578573 -0.036928575 0.82500005
-0.38328287 -0.036839049 0.82300001
-0.38171527 -0.036839049 0.82300001
-0.37599051 -0.036436193 0.81400001
-0.37352002 -0.03634667 0.81200004
-0.37105715 -0.036257144 0.81000006
-0.43452004 -0.044493336 0.99400002
-0.43262669 -0.044493336 0.99400002
-0.43073335 -0.044493336 0.99400002
-0.42884004 -0.044493336 0.99400002
-0.42565814 -0.044359051 0.99100006
-0.42505336 -0.044493336 0.99400002
-0.42316002 -0.044493336 0.99400002
-0.4212667 -0.044493336 0.99400002
-0.41937336 -0.044493336 0.99400002
-0.38848859 -0.033814289 0.78900003
-0.38698575 -0.033814289 0.78900003
-0.38646004 -0.033900004 0.79100001
-0.38787335 -0.034157146 0.79700005
-0.38635525 -0.034157146 0.79700005
-0.38725147 -0.034371432 0.80200005
-0.38764766 -0.034542859 0.80600005
-0.38707051 -0.034628574 0.80800003
-0.38648573 -0.034714289 0.81000006
-0.38684383 -0.034885716 0.81400001
-0.38766003 -0.035100002 0.81900007
-0.38704288 -0.035185717 0.82100004
-0.38547906 -0.035185717 0.82100004
-0.3848505 -0.035271432 0.82300001
-0.38328287 -0.035271432 0.82300001
-0.38078764 -0.035185717 0.82100004
-0.37599051 -0.034885716 0.81400001
-0.37352002 -0.0348 0.81200004
-0.37197337 -0.0348 0.81200004
-0.42754576 -0.042471431 0.99100006
-0.42565814 -0.042471431 0.99100006
-0.38698575 -0.032311432 0.78900003
-0.38743716 -0.032475241 0.79300004
-0.38787335 -0.032639049 0.79700005
-0.38684002 -0.032680001 0.79800004
-0.38725147 -0.032843813 0.80200005
-0.38764766 -0.033007622 0.80600005
-0.38707051 -0.033089526 0.80800003
-0.38648573 -0.03317143 0.81000006
-0.38684383 -0.033335239 0.81400001
-0.38576669 -0.033376191 0.81500006
-0.38515717 -0.033458099 0.81700003
-0.38547906 -0.033621907 0.82100004
-0.3848505 -0.033703811 0.82300001
-0.38328287 -0.033703811 0.82300001
-0.38698575 -0.030808574 0.78900003
-0.38646004 -0.030886669 0.79100001
-0.38787335 -0.031120954 0.79700005
-0.38684002 -0.031160003 0.79800004
-0.38725147 -0.031316191 0.80200005
-0.38668573 -0.031394288 0.80400002
-0.38611239 -0.031472381 0.80600005
-0.38648573 -0.031628575 0.81000006
-0.38684383 -0.031784765 0.81400001
-0.38576669 -0.03182381 0.81500006
-0.38704288 -0.032058097 0.82100004
-0.38547906 -0.032058097 0.82100004
-0.3848505 -0.032136194 0.82300001
-0.38646004 -0.029380001 0.79100001
-0.38690004 -0.029528573 0.79500002
-0.38684002 -0.029640002 0.79800004
-0.38725147 -0.029788574 0.80200005
-0.38668573 -0.029862858 0.80400002
-0.38611239 -0.029937144 0.80600005
-0.38553146 -0.03001143 0.80800003
-0.3839924 -0.03001143 0.80800003
-0.38529336 -0.030234288 0.81400001
-0.38704288 -0.030494288 0.82100004
-0.38547906 -0.030494288 0.82100004
-0.3571429 -0.037142858 1
-0.35523811 -0.037142858 1
-0.34190479 -0.037142858 1
-0.34000003 -0.037142858 1
-0.33809525 -0.037142858 1
-0.33619049 -0.037142858 1
-0.3835648 -0.027450478 0.77900004
-0.38548288 -0.027802859 0.78900003
-0.38495335 -0.027873335 0.79100001
-0.38635525 -0.028084764 0.79700005
-0.38725147 -0.028260954 0.80200005
-0.38668573 -0.028331431 0.80400002
-0.38611239 -0.028401908 0.80600005
-0.38553146 -0.028472383 0.80800003
-0.3839924 -0.028472383 0.80800003
-0.38245335 -0.028472383 0.80800003
-0.3655667 -0.035132382 0.99700004
-0.36366764 -0.035132382 0.99700004
-0.3617686 -0.035132382 0.99700004
-0.35986954 -0.035132382 0.99700004
-0.35797051 -0.035132382 0.99700004
-0.35607144 -0.035132382 0.99700004
-0.35417241 -0.035132382 0.99700004
-0.33898002 -0.035132382 0.99700004
-0.33708099 -0.035132382 0.99700004
-0.38305908 -0.025733335 0.77200001
-0.38158861 -0.025733335 0.77200001
-0.38258001 -0.025900003 0.77700001
-0.38110003 -0.025900003 0.77700001
-0.38398004 -0.026300002 0.78900003
-0.38344669 -0.026366668 0.79100001
-0.38572383 -0.026733335 0.80200005
-0.38611239 -0.026866669 0.80600005
-0.38457716 -0.026866669 0.80600005
-0.38304192 -0.026866669 0.80600005
-0.38150668 -0.026866669 0.80600005
-0.38305908 -0.024262859 0.77200001
-0.38208288 -0.024294287 0.77300006
-0.3835648 -0.024482859 0.77900004
-0.38208097 -0.024482859 0.77900004
-0.38349336 -0.024765715 0.78800005
-0.38441622 -0.024922859 0.79300004
-0.38194004 -0.024860002 0.79100001
-0.38668573 -0.025268573 0.80400002
-0.38611239 -0.02533143 0.80600005
-0.45540002 -0.030360002 0.96600002
-0.45356002 -0.030360002 0.96600002
-0.38400003 -0.022674287 0.76800001
-0.38353336 -0.022733334 0.77000004
-0.3820667 -0.022733334 0.77000004
-0.38158861 -0.022792382 0.77200001
-0.38258001 -0.022940002 0.77700001
-0.38208097 -0.022999048 0.77900004
-0.38349336 -0.023264764 0.78800005
-0.38441622 -0.023412382 0.79300004
-0.38194004 -0.023353335 0.79100001
-0.38235718 -0.02347143 0.79500002
-0.45724002 -0.028520001 0.96600002
-0.45398575 -0.02843143 0.96300006
-0.45356002 -0.028520001 0.96600002
-0.38395718 -0.021128573 0.76500005
-0.38350004 -0.021183811 0.76700002
-0.38253716 -0.02121143 0.76800001
-0.3820667 -0.021266667 0.77000004
-0.38158861 -0.021321906 0.77200001
-0.38258001 -0.021460002 0.77700001
-0.38257146 -0.021542858 0.78000003
-0.38401717 -0.021708572 0.78600001
-0.38495335 -0.021846669 0.79100001
-0.38441622 -0.021901906 0.79300004
-0.38290575 -0.021901906 0.79300004
-0.38235718 -0.021957144 0.79500002
-0.38323811 -0.022095239 0.80000001
-0.38395718 -0.019671429 0.76500005
-0.38350004 -0.019722858 0.76700002
-0.38253716 -0.019748572 0.76800001
-0.3820667 -0.019800002 0.77000004
-0.38158861 -0.019851429 0.77200001
-0.38258001 -0.019980002 0.77700001
-0.38257146 -0.020057144 0.78000003
-0.38401717 -0.02021143 0.78600001
-0.38398004 -0.020288574 0.78900003
-0.38344669 -0.020340001 0.79100001
-0.38194004 -0.020340001 0.79100001
-0.38139525 -0.020391431 0.79300004
-0.38295335 -0.018166669 0.76300001
-0.38150004 -0.018166669 0.76300001
-0.38253716 -0.018285716 0.76800001
-0.3820667 -0.018333334 0.77000004
-0.38158861 -0.018380953 0.77200001
-0.38405716 -0.018571429 0.78000003
-0.3835524 -0.018619049 0.78200006
-0.38401717 -0.018714286 0.78600001
-0.38349336 -0.018761907 0.78800005
-0.38247716 -0.018785715 0.78900003
-0.38194004 -0.018833335 0.79100001
-0.38043335 -0.018833335 0.79100001
-0.37892669 -0.018833335 0.79100001
-0.38484859 -0.016669525 0.76100004
-0.38440669 -0.016713334 0.76300001
-0.38295335 -0.016713334 0.76300001
-0.38150004 -0.016713334 0.76300001
-0.38203907 -0.016800953 0.76700002
-0.38107431 -0.016822858 0.76800001
-0.38158861 -0.016910477 0.77200001
-0.38258001 -0.017020002 0.77700001
-0.3835524 -0.017129526 0.78200006
-0.38304001 -0.017173335 0.78400004
-0.38349336 -0.017260954 0.78800005
-0.38247716 -0.017282858 0.78900003
-0.38097432 -0.017282858 0.78900003
-0.38043335 -0.017326668 0.79100001
-0.37892669 -0.017326668 0.79100001
-0.38434288 -0.015200001 0.76000005
-0.38339907 -0.015220001 0.76100004
-0.38194954 -0.015220001 0.76100004
-0.38050002 -0.015220001 0.76100004
-0.38203907 -0.015340001 0.76700002
-0.3820667 -0.015400001 0.77000004
-0.38307145 -0.015500001 0.77500004
-0.3835524 -0.015640002 0.78200006
-0.38304001 -0.01568 0.78400004
-0.38349336 -0.015760001 0.78800005
-0.3819924 -0.015760001 0.78800005
-0.38049147 -0.015760001 0.78800005
-0.37947145 -0.015780002 0.78900003
-0.37892669 -0.01582 0.79100001
0.20133716 -0.018960001 0.94800007
-0.3857905 -0.013752382 0.76000005
-0.38434288 -0.013752382 0.76000005
-0.38289526 -0.013752382 0.76000005
-0.38194954 -0.013770477 0.76100004
-0.38050002 -0.013770477 0.76100004
-0.38203907 -0.013879049 0.76700002
-0.3820667 -0.013933334 0.77000004
-0.38208288 -0.01398762 0.77300006
-0.3835524 -0.014150477 0.78200006
-0.38304001 -0.014186667 0.78400004
-0.38252002 -0.014222858 0.78600001
-0.38102287 -0.014222858 0.78600001
-0.37952575 -0.014222858 0.78600001
-0.37947145 -0.014277143 0.78900003
-0.37796861 -0.014277143 0.78900003
-0.38621908 -0.012272382 0.75800002
-0.3857905 -0.012304762 0.76000005
-0.38434288 -0.012304762 0.76000005
-0.38289526 -0.012304762 0.76000005
-0.38194954 -0.012320953 0.76100004
-0.38050002 -0.012320953 0.76100004
-0.38203907 -0.012418096 0.76700002
-0.38107431 -0.012434287 0.76800001
-0.38307145 -0.01254762 0.77500004
-0.38257146 -0.012628572 0.78000003
-0.38304001 -0.012693334 0.78400004
-0.38252002 -0.012725716 0.78600001
-0.38102287 -0.012725716 0.78600001
-0.37952575 -0.012725716 0.78600001
-0.3780286 -0.012725716 0.78600001
-0.32490954 -0.015559048 0.96100003
-0.38621908 -0.010828572 0.75800002
-0.3857905 -0.010857143 0.76000005
-0.38434288 -0.010857143 0.76000005
-0.38289526 -0.010857143 0.76000005
-0.38144764 -0.010857143 0.76000005
-0.38050002 -0.010871429 0.76100004
-0.38203907 -0.010957143 0.76700002
-0.3820667 -0.011000001 0.77000004
-0.38307145 -0.01107143 0.77500004
-0.38257146 -0.011142858 0.78000003
-0.38304001 -0.011200001 0.78400004
-0.38252002 -0.011228573 0.78600001
-0.38005337 -0.011200001 0.78400004
-0.37856004 -0.011200001 0.78400004
-0.38520002 -0.0093600005 0.75600004
-0.38477525 -0.0093847625 0.75800002
-0.38333145 -0.0093847625 0.75800002
-0.38188764 -0.0093847625 0.75800002
-0.38044384 -0.0093847625 0.75800002
-0.38000003 -0.0094095245 0.76000005
-0.38104287 -0.0094714295 0.76500005
-0.3820667 -0.0095333336 0.77000004
-0.38307145 -0.0095952386 0.77500004
-0.38258001 -0.0096200006 0.77700001
-0.38110003 -0.0096200006 0.77700001
-0.38304001 -0.0097066676 0.78400004
-0.38252002 -0.0097314296 0.78600001
-0.32946575 -0.011799049 0.95300007
-0.32765049 -0.011799049 0.95300007
-0.32583526 -0.011799049 0.95300007
-0.32038954 -0.011799049 0.95300007
-0.38376004 -0.0079200007 0.75600004
-0.38333145 -0.0079409527 0.75800002
-0.38188764 -0.0079409527 0.75800002
-0.38044384 -0.0079409527 0.75800002
-0.38000003 -0.0079619056 0.76000005
-0.3800467 -0.007993334 0.76300001
-0.38057813 -0.0080352388 0.76700002
-0.38307145 -0.0081190486 0.77500004
-0.38258001 -0.0081400005 0.77700001
-0.38208097 -0.0081609525 0.77900004
-0.37921527 -0.0063085719 0.73600006
-0.37781337 -0.0063085719 0.73600006
-0.37948003 -0.0063600005 0.74200004
-0.37959525 -0.0063857147 0.74500006
-0.37969908 -0.006411429 0.74800003
-0.38080287 -0.0064542862 0.75300002
-0.38088003 -0.0064800004 0.75600004
-0.37944004 -0.0064800004 0.75600004
-0.38000003 -0.0065142862 0.76000005
-0.37905049 -0.0065228576 0.76100004
-0.37958574 -0.0065571433 0.76500005
-0.38307145 -0.0066428576 0.77500004
-0.37921527 -0.0049066669 0.73600006
-0.37832668 -0.0049133338 0.73700005
-0.37948003 -0.0049466668 0.74200004
-0.37959525 -0.0049666669 0.74500006
-0.37817621 -0.0049666669 0.74500006
-0.37928575 -0.0050000004 0.75000006
-0.38037622 -0.0050333338 0.75500005
-0.37944004 -0.0050400002 0.75600004
-0.38000003 -0.0050666672 0.76000005
-0.3800467 -0.0050866669 0.76300001
-0.38307145 -0.005166667 0.77500004
-0.45221907 -0.0061466671 0.92200005
-0.3811343 -0.003509524 0.73700005
-0.37921527 -0.0035047622 0.73600006
-0.37832668 -0.003509524 0.73700005
-0.37845716 -0.0035238098 0.74000001
-0.37857622 -0.0035380954 0.74300003
-0.37817621 -0.0035476193 0.74500006
-0.37827432 -0.0035619049 0.74800003
-0.3793686 -0.0035857146 0.75300002
-0.37944004 -0.0036000002 0.75600004
-0.37900004 -0.0036095241 0.75800002
-0.3775562 -0.0036095241 0.75800002
-0.45221907 -0.0043904763 0.92200005
-0.45046288 -0.0043904763 0.92200005
-0.34108573 -0.0044761905 0.94000006
-0.3811343 -0.0021057145 0.73700005
-0.37973049 -0.0021057145 0.73700005
-0.37832668 -0.0021057145 0.73700005
-0.37845716 -0.0021142859 0.74000001
-0.37857622 -0.0021228574 0.74300003
-0.37817621 -0.0021285715 0.74500006
-0.37886479 -0.0021485717 0.75200003
-0.37944004 -0.0021600001 0.75600004
-0.37800002 -0.0021600001 0.75600004
-0.3775562 -0.0021657145 0.75800002
-0.3811343 -0.00070190482 0.73700005
-0.37973049 -0.00070190482 0.73700005
-0.37935334 -0.00070380955 0.73900002
-0.37845716 -0.00070476194 0.74000001
-0.37857622 -0.00070761907 0.74300003
-0.37919146 -0.00071142864 0.74700004
-0.37886479 -0.00071619055 0.75200003
-0.37944004 -0.00072000007 0.75600004
-0.37800002 -0.00072000007 0.75600004
-0.3775562 -0.0007219048 0.75800002
-0.3811343 0.00070190482 0.73700005
-0.38076097 0.00070380955 0.73900002
-0.37935334 0.00070380955 0.73900002
-0.37794575 0.00070380955 0.73900002
-0.37806669 0.00070666673 0.74200004
-0.37817621 0.00070952385 0.74500006
-0.37928575 0.00071428576 0.75000006
-0.38037622 0.00071904768 0.75500005
-0.37944004 0.00072000007 0.75600004
-0.37800002 0.00072000007 0.75600004
-0.37656003 0.00072000007 0.75600004
-0.31088573 0.00088571437 0.93000007
-0.38061717 0.0021028572 0.73600006
-0.37973049 0.0021057145 0.73700005
-0.37832668 0.0021057145 0.73700005
-0.37692288 0.0021057145 0.73700005
-0.37857622 0.0021228574 0.74300003
-0.37817621 0.0021285715 0.74500006
-0.37886479 0.0021485717 0.75200003
-0.37944004 0.0021600001 0.75600004
-0.37800002 0.0021600001 0.75600004
-0.37656003 0.0021600001 0.75600004
-0.37942383 0.0034809527 0.73100001
-0.38061717 0.0035047622 0.73600006
-0.37921527 0.0035047622 0.73600006
-0.37781337 0.0035047622 0.73600006
-0.37794575 0.0035190478 0.73900002
-0.37806669 0.0035333335 0.74200004
-0.37817621 0.0035476193 0.74500006
-0.37928575 0.0035714288 0.75000006
-0.38037622 0.0035952383 0.75500005
-0.37893811 0.0035952383 0.75500005
-0.37800002 0.0036000002 0.75600004
-0.37656003 0.0036000002 0.75600004
-0.37942383 0.0048733335 0.73100001
-0.37958288 0.0048933337 0.73400003
-0.3781848 0.0048933337 0.73400003
-0.37781337 0.0049066669 0.73600006
-0.37692288 0.0049133338 0.73700005
-0.37704766 0.0049333335 0.74000001
-0.37716097 0.0049533336 0.74300003
-0.37675717 0.0049666669 0.74500006
-0.3793686 0.0050200005 0.75300002
-0.37893811 0.0050333338 0.75500005
-0.37750003 0.0050333338 0.75500005
-0.37606192 0.0050333338 0.75500005
-0.37845716 0.0061371434 0.71600002
-0.37709334 0.0061371434 0.71600002
-0.37572956 0.0061371434 0.71600002
-0.3748886 0.0061457148 0.71700001
-0.37838575 0.0062485719 0.72900003
-0.37854859 0.0062742862 0.73200005
-0.3781848 0.006291429 0.73400003
-0.37781337 0.0063085719 0.73600006
-0.37692288 0.0063171433 0.73700005
-0.37704766 0.0063428576 0.74000001
-0.37919146 0.0064028576 0.74700004
-0.37928575 0.0064285719 0.75000006
-0.3793686 0.0064542862 0.75300002
-0.37893811 0.006471429 0.75500005
-0.37750003 0.006471429 0.75500005
-0.37606192 0.006471429 0.75500005
-0.37982097 0.007500953 0.71600002
-0.37845716 0.007500953 0.71600002
-0.37709334 0.007500953 0.71600002
-0.37572956 0.007500953 0.71600002
-0.3748886 0.007511429 0.71700001
-0.37786669 0.0076266672 0.72800004
-0.37803146 0.0076580956 0.73100001
-0.3781848 0.0076895244 0.73400003
-0.37781337 0.0077104769 0.73600006
-0.37692288 0.0077209529 0.73700005
-0.37704766 0.0077523813 0.74000001
-0.37665334 0.0077733337 0.74200004
-0.37574574 0.0077838101 0.74300003
-0.37886479 0.0078780958 0.75200003
-0.37893811 0.0079095243 0.75500005
-0.37900004 0.0079409527 0.75800002
-0.3775562 0.0079409527 0.75800002
-0.37822956 0.0088276193 0.71300006
-0.37740001 0.0088400003 0.71400005
-0.37709334 0.0088647623 0.71600002
-0.37572956 0.0088647623 0.71600002
-0.3748886 0.0088771433 0.71700001
-0.37508574 0.0089142863 0.72000003
-0.37682861 0.0089885723 0.72600001
-0.37699717 0.0090257153 0.72900003
-0.37715432 0.0090628574 0.73200005
-0.37678668 0.0090876194 0.73400003
-0.37692288 0.0091247624 0.73700005
-0.37704766 0.0091619054 0.74000001
-0.37665334 0.0091866674 0.74200004
-0.37524003 0.0091866674 0.74200004
-0.38194954 0.0094219055 0.76100004
-0.38050002 0.0094219055 0.76100004
-0.44040859 0.011031429 0.89100003
-0.44018859 0.011068572 0.89400005
-0.43848574 0.011068572 0.89400005
-0.37663811 0.010142858 0.71000004
-0.37687147 0.010185715 0.71300006
-0.37709334 0.010228572 0.71600002
-0.37572956 0.010228572 0.71600002
-0.3748886 0.010242858 0.71700001
-0.37508574 0.010285715 0.72000003
-0.37630954 0.010357143 0.72500002
-0.37699717 0.010414287 0.72900003
-0.37715432 0.010457143 0.73200005
-0.37678668 0.010485715 0.73400003
-0.37692288 0.010528572 0.73700005
-0.37704766 0.01057143 0.74000001
-0.37665334 0.010600001 0.74200004
-0.44350004 0.01267143 0.88700002
-0.44280669 0.012700001 0.88900006
-0.44111335 0.012700001 0.88900006
-0.44040859 0.012728572 0.89100003
-0.43871146 0.012728572 0.89100003
-0.43701431 0.012728572 0.89100003
-0.37799051 0.011495239 0.71000004
-0.37557718 0.011462858 0.708
-0.37687147 0.01154381 0.71300006
-0.37709334 0.011592382 0.71600002
-0.37625432 0.011608572 0.71700001
-0.3748886 0.011608572 0.71700001
-0.37508574 0.011657144 0.72000003
-0.37682861 0.011754286 0.72600001
-0.37663907 0.011835239 0.73100001
-0.37678668 0.01188381 0.73400003
-0.37794575 0.011964763 0.73900002
-0.44536763 0.014312382 0.88400006
-0.44368383 0.014312382 0.88400006
-0.44200003 0.014312382 0.88400006
-0.44181052 0.014360953 0.88700002
-0.3780143 0.012757144 0.70500004
-0.37774003 0.012793334 0.70700002
-0.37692574 0.01281143 0.708
-0.37557718 0.01281143 0.708
-0.37528574 0.01284762 0.71000004
-0.37709334 0.012956192 0.71600002
-0.37625432 0.012974286 0.71700001
-0.3759343 0.013010477 0.71900004
-0.37508574 0.013028572 0.72000003
-0.37527144 0.013082858 0.72300005
-0.37648001 0.013173334 0.72800004
-0.37663907 0.01322762 0.73100001
-0.37781337 0.013318096 0.73600006
-0.44604003 0.01596 0.88200003
-0.44536763 0.015996192 0.88400006
-0.44368383 0.015996192 0.88400006
-0.44200003 0.015996192 0.88400006
-0.3780143 0.014100001 0.70500004
-0.37774003 0.014140001 0.70700002
-0.37639335 0.014140001 0.70700002
-0.3750467 0.014140001 0.70700002
-0.3742286 0.014160001 0.708
-0.37709334 0.014320001 0.71600002
-0.37625432 0.014340001 0.71700001
-0.3748886 0.014340001 0.71700001
-0.37508574 0.014400001 0.72000003
-0.37630954 0.014500001 0.72500002
-0.37699717 0.014580001 0.72900003
-0.37663907 0.01462 0.73100001
-0.37576002 0.014640001 0.73200005
-0.44604003 0.017640002 0.88200003
-0.37881908 0.015420954 0.70400006
-0.3780143 0.015442858 0.70500004
-0.37667146 0.015442858 0.70500004
-0.3753286 0.015442858 0.70500004
-0.3750467 0.015486668 0.70700002
-0.37370002 0.015486668 0.70700002
-0.37709334 0.015683811 0.71600002
-0.37572956 0.015683811 0.71600002
-0.3748886 0.015705716 0.71700001
-0.37508574 0.01577143 0.72000003
-0.37527144 0.015837144 0.72300005
-0.37648001 0.015946668 0.72800004
-0.37663907 0.016012382 0.73100001
-0.37881908 0.016761906 0.70400006
-0.37747812 0.016761906 0.70400006
-0.37667146 0.016785715 0.70500004
-0.3753286 0.016785715 0.70500004
-0.3750467 0.016833335 0.70700002
-0.37370002 0.016833335 0.70700002
-0.37446001 0.016928572 0.71100003
-0.37572956 0.017047619 0.71600002
-0.37436575 0.017047619 0.71600002
-0.37527144 0.017214287 0.72300005
-0.37492859 0.017261906 0.72500002
-0.37720478 0.018025715 0.70100003
-0.37694192 0.018077144 0.70300001
-0.37560287 0.018077144 0.70300001
-0.37479621 0.018102858 0.70400006
-0.37398574 0.018128572 0.70500004
-0.37370002 0.018180002 0.70700002
-0.37572956 0.01841143 0.71600002
-0.37436575 0.01841143 0.71600002
-0.37508574 0.018514287 0.72000003
-0.3737143 0.018514287 0.72000003
-0.37234288 0.018514287 0.72000003
-0.37666669 0.019333335 0.70000005
-0.37586954 0.019360954 0.70100003
-0.37453431 0.019360954 0.70100003
-0.37479621 0.01944381 0.70400006
-0.37398574 0.019471429 0.70500004
-0.37370002 0.019526668 0.70700002
-0.37446001 0.019637143 0.71100003
-0.37572956 0.01977524 0.71600002
-0.37436575 0.01977524 0.71600002
-0.37508574 0.019885715 0.72000003
-0.37666669 0.020666668 0.70000005
-0.37533337 0.020666668 0.70000005
-0.37453431 0.020696191 0.70100003
-0.37426382 0.020755239 0.70300001
-0.37398574 0.020814287 0.70500004
-0.37370002 0.020873334 0.70700002
-0.37446001 0.02099143 0.71100003
-0.37468001 0.021080002 0.71400005
-0.37436575 0.02113905 0.71600002
-0.37352288 0.021168573 0.71700001
-0.44340861 0.025597144 0.86700004
-0.44175717 0.025597144 0.86700004
-0.37666669 0.022000002 0.70000005
-0.37586954 0.02203143 0.70100003
-0.37560287 0.022094287 0.70300001
-0.3753286 0.022157144 0.70500004
-0.3750467 0.022220001 0.70700002
-0.37528574 0.022314288 0.71000004
-0.37551335 0.022408573 0.71300006
-0.37468001 0.022440001 0.71400005
-0.37332001 0.022440001 0.71400005
-0.36883432 0.022251431 0.708
-0.44403335 0.027185716 0.86500007
-0.44238573 0.027185716 0.86500007
-0.3755905 0.023266668 0.69800001
-0.37533337 0.023333335 0.70000005
-0.37453431 0.023366667 0.70100003
-0.3753286 0.023500001 0.70500004
-0.3750467 0.023566669 0.70700002
-0.37528574 0.023666669 0.71000004
-0.37551335 0.023766669 0.71300006
-0.37468001 0.023800002 0.71400005
-0.37279716 0.023766669 0.71300006
-0.36883432 0.023600001 0.708
-0.43920955 0.028733335 0.86200005
-0.37457144 0.024102859 0.68400002
-0.37436002 0.024173334 0.68600005
-0.37359717 0.024208574 0.68700004
-0.37228858 0.024208574 0.68700004
-0.37260002 0.024314288 0.69000006
-0.3739762 0.024490478 0.69500005
-0.37426099 0.024596192 0.69800001
-0.37293145 0.024596192 0.69800001
-0.37479621 0.024807621 0.70400006
-0.3750467 0.024913335 0.70700002
-0.37581432 0.025054287 0.71100003
-0.37551335 0.025124764 0.71300006
-0.37468001 0.025160002 0.71400005
-0.37279716 0.025124764 0.71300006
-0.37039718 0.025054287 0.71100003
-0.37457144 0.025405716 0.68400002
-0.37436002 0.025480002 0.68600005
-0.37359717 0.025517145 0.68700004
-0.37228858 0.025517145 0.68700004
-0.37260002 0.025628572 0.69000006
-0.3739762 0.025814287 0.69500005
-0.37372479 0.025888573 0.69700003
-0.37293145 0.025925716 0.69800001
-0.37426382 0.02611143 0.70300001
-0.37345526 0.026148573 0.70400006
-0.37528574 0.026371431 0.71000004
-0.37551335 0.02648286 0.71300006
-0.37468001 0.026520003 0.71400005
-0.37332001 0.026520003 0.71400005
-0.37532479 0.026669526 0.68300003
-0.37457144 0.026708573 0.68400002
-0.37436002 0.026786668 0.68600005
-0.37359717 0.026825717 0.68700004
-0.37228858 0.026825717 0.68700004
-0.37260002 0.026942858 0.69000006
-0.3739762 0.027138097 0.69500005
-0.37372479 0.027216192 0.69700003
-0.37293145 0.027255239 0.69800001
-0.37319908 0.027372383 0.70100003
-0.37292477 0.027450478 0.70300001
-0.37528574 0.027723812 0.71000004
-0.37446001 0.027762858 0.71100003
-0.37415525 0.027840953 0.71300006
-0.37587431 0.02801143 0.68400002
-0.37457144 0.02801143 0.68400002
-0.37436002 0.028093334 0.68600005
-0.37359717 0.028134288 0.68700004
-0.37228858 0.028134288 0.68700004
-0.37260002 0.028257145 0.69000006
-0.37505239 0.028543811 0.69700003
-0.37426099 0.028584763 0.69800001
-0.37400001 0.028666668 0.70000005
-0.37319908 0.028707622 0.70100003
-0.37292477 0.028789526 0.70300001
-0.37370002 0.028953334 0.70700002
-0.37446001 0.029117145 0.71100003
-0.44015241 0.034727622 0.84800005
-0.37516004 0.029057145 0.67800003
-0.37442002 0.029100003 0.67900002
-0.37477526 0.029228574 0.68200004
-0.37402382 0.029271431 0.68300003
-0.3732686 0.029314287 0.68400002
-0.37359717 0.02944286 0.68700004
-0.37337241 0.029528573 0.68900001
-0.37260002 0.029571431 0.69000006
-0.3755905 0.029914288 0.69800001
-0.37426099 0.029914288 0.69800001
-0.37400001 0.030000001 0.70000005
-0.37319908 0.030042859 0.70100003
-0.37292477 0.030128574 0.70300001
-0.37158573 0.030128574 0.70300001
-0.44176766 0.036342859 0.84800005
-0.44015241 0.036342859 0.84800005
-0.37312001 0.030080002 0.67200005
-0.37516004 0.030348573 0.67800003
-0.37497145 0.030438097 0.68000001
-0.37477526 0.030527622 0.68200004
-0.37402382 0.030572383 0.68300003
-0.3732686 0.030617144 0.68400002
-0.37305337 0.030706668 0.68600005
-0.37337241 0.030840954 0.68900001
-0.37260002 0.030885717 0.69000006
-0.3755905 0.031243812 0.69800001
-0.37426099 0.031243812 0.69800001
-0.37400001 0.031333335 0.70000005
-0.37319908 0.031378098 0.70100003
-0.37186384 0.031378098 0.70100003
-0.37052861 0.031378098 0.70100003
-0.3771143 0.031266667 0.67000002
-0.37256479 0.031313334 0.671
-0.37516004 0.031640001 0.67800003
-0.37442002 0.031686667 0.67900002
-0.37477526 0.031826667 0.68200004
-0.37402382 0.031873334 0.68300003
-0.3732686 0.031920001 0.68400002
-0.37359717 0.032060001 0.68700004
-0.37337241 0.032153334 0.68900001
-0.37260002 0.032200001 0.69000006
-0.37343812 0.032386668 0.69400001
-0.37372479 0.032526668 0.69700003
-0.37239715 0.032526668 0.69700003
-0.37266669 0.032666668 0.70000005
-0.37133336 0.032666668 0.70000005
-0.37052861 0.032713335 0.70100003
-0.37923717 0.032397144 0.66700006
-0.3779667 0.032397144 0.66700006
-0.37782574 0.032494288 0.66900003
-0.3771143 0.032542858 0.67000002
-0.37583813 0.032542858 0.67000002
-0.37288478 0.032397144 0.66700006
-0.36938575 0.032202858 0.66300005
-0.3714543 0.032494288 0.66900003
-0.37294668 0.032737143 0.67400002
-0.37276575 0.032834288 0.67600006
-0.37312669 0.032980002 0.67900002
-0.37238097 0.033028573 0.68000001
-0.37272289 0.033174288 0.68300003
-0.37359717 0.033368573 0.68700004
-0.3739143 0.033514287 0.69000006
-0.37260002 0.033514287 0.69000006
-0.37182385 0.033562858 0.69100004
-0.37211621 0.033708572 0.69400001
-0.37239715 0.033854287 0.69700003
-0.37266669 0.034000002 0.70000005
-0.37133336 0.034000002 0.70000005
-0.37923717 0.03366762 0.66700006
-0.3779667 0.03366762 0.66700006
-0.37782574 0.033768572 0.66900003
-0.37317431 0.033465717 0.66300005
-0.37303334 0.033566669 0.66500002
-0.37176669 0.033566669 0.66500002
-0.37050003 0.033566669 0.66500002
-0.36923337 0.033566669 0.66500002
-0.37128669 0.033869527 0.671
-0.37166288 0.034020953 0.67400002
-0.37037906 0.034020953 0.67400002
-0.37238097 0.034323812 0.68000001
-0.3732686 0.034525715 0.68400002
-0.37359717 0.034677144 0.68700004
-0.3739143 0.034828573 0.69000006
-0.37260002 0.034828573 0.69000006
-0.37182385 0.034879051 0.69100004
-0.37211621 0.035030477 0.69400001
-0.37239715 0.035181906 0.69700003
-0.37266669 0.035333335 0.70000005
-0.37133336 0.035333335 0.70000005
-0.3779667 0.034938097 0.66700006
-0.37782574 0.03504286 0.66900003
-0.37261146 0.034676194 0.66200006
-0.37191147 0.034728575 0.66300005
-0.37064859 0.034728575 0.66300005
-0.36938575 0.034728575 0.66300005
-0.36923337 0.034833334 0.66500002
-0.37128669 0.035147622 0.671
-0.37056002 0.035200004 0.67200005
-0.37092859 0.035357144 0.67500001
-0.37238097 0.03561905 0.68000001
-0.3732686 0.035828575 0.68400002
-0.37359717 0.035985716 0.68700004
-0.37337241 0.036090478 0.68900001
-0.37260002 0.03614286 0.69000006
-0.37128574 0.03614286 0.69000006
-0.37158003 0.036300004 0.69300002
-0.37132859 0.036404766 0.69500005
-0.37266669 0.036666669 0.70000005
-0.37133336 0.036666669 0.70000005
-0.37298289 0.035611432 0.65600002
-0.37230003 0.035665717 0.65700001
-0.37161335 0.035720002 0.65800005
-0.37148574 0.035828575 0.66000003
-0.37191147 0.03599143 0.66300005
-0.37064859 0.03599143 0.66300005
-0.37105715 0.036154289 0.66600001
-0.37200955 0.036371432 0.67000002
-0.37128669 0.036425717 0.671
-0.37166288 0.036588576 0.67400002
-0.37037906 0.036588576 0.67400002
-0.37238097 0.036914289 0.68000001
-0.3732686 0.037131432 0.68400002
-0.37305337 0.037240002 0.68600005
-0.37337241 0.037402861 0.68900001
-0.37206003 0.037402861 0.68900001
-0.37128574 0.037457146 0.69000006
-0.37050766 0.037511431 0.69100004
-0.36919144 0.037511431 0.69100004
-0.37160194 0.037891433 0.69800001
-0.3702724 0.037891433 0.69800001
-0.37355146 0.036917146 0.65700001
-0.37286669 0.036973335 0.65800005
-0.37161335 0.036973335 0.65800005
-0.37317431 0.037254289 0.66300005
-0.37191147 0.037254289 0.66300005
-0.37232575 0.037422858 0.66600001
-0.37105715 0.037422858 0.66600001
-0.37200955 0.03764762 0.67000002
-0.37128669 0.037703812 0.671
-0.37056002 0.037760001 0.67200005
-0.36928001 0.037760001 0.67200005
-0.36909527 0.037872385 0.67400002
-0.37196574 0.038434289 0.68400002
-0.37337241 0.03871524 0.68900001
-0.37206003 0.03871524 0.68900001
-0.37128574 0.038771432 0.69000006
-0.36943525 0.03871524 0.68900001
-0.36812288 0.03871524 0.68900001
-0.3668105 0.03871524 0.68900001
-0.37400001 0.03834286 0.66000003
-0.3738724 0.038459051 0.66200006
-0.37317431 0.038517144 0.66300005
-0.37191147 0.038517144 0.66300005
-0.37176669 0.038633335 0.66500002
-0.37105715 0.038691431 0.66600001
-0.37200955 0.038923811 0.67000002
-0.37128669 0.038981907 0.671
-0.37000859 0.038981907 0.671
-0.37037906 0.039156195 0.67400002
-0.36909527 0.039156195 0.67400002
-0.37305337 0.039853334 0.68600005
-0.37174669 0.039853334 0.68600005
-0.37044004 0.039853334 0.68600005
-0.37128574 0.040085718 0.69000006
-0.36997145 0.040085718 0.69000006
-0.36812288 0.040027622 0.68900001
-0.3668105 0.040027622 0.68900001
-0.36868098 0.040376194 0.69500005
-0.37582573 0.039660003 0.66100001
-0.37513337 0.039720003 0.66200006
-0.3738724 0.039720003 0.66200006
-0.37317431 0.039780002 0.66300005
-0.37191147 0.039780002 0.66300005
-0.37232575 0.039960004 0.66600001
-0.37161431 0.040020004 0.66700006
-0.37200955 0.040200002 0.67000002
-0.37128669 0.040260002 0.671
-0.37000859 0.040260002 0.671
-0.37037906 0.040440004 0.67400002
-0.36909527 0.040440004 0.67400002
-0.36835718 0.040500004 0.67500001
-0.36544001 0.040320002 0.67200005
-0.37044004 0.041160002 0.68600005
-0.37074766 0.041340001 0.68900001
-0.37158003 0.041580003 0.69300002
-0.37026003 0.041580003 0.69300002
-0.36947241 0.041640002 0.69400001
-0.36868098 0.041700002 0.69500005
-0.36682859 0.041640002 0.69400001
-0.36550668 0.041640002 0.69400001
-0.3763943 0.040980954 0.66200006
-0.37513337 0.040980954 0.66200006
-0.37443715 0.041042861 0.66300005
-0.37317431 0.041042861 0.66300005
-0.37191147 0.041042861 0.66300005
-0.37232575 0.041228574 0.66600001
-0.37161431 0.041290481 0.66700006
-0.3714543 0.041414287 0.66900003
-0.37128669 0.041538097 0.671
-0.37056002 0.041600004 0.67200005
-0.37037906 0.041723814 0.67400002
-0.36909527 0.041723814 0.67400002
-0.36835718 0.041785717 0.67500001
-0.36707145 0.041785717 0.67500001
-0.37066287 0.04234286 0.68400002
-0.36936003 0.04234286 0.68400002
-0.37211621 0.042961907 0.69400001
-0.3707943 0.042961907 0.69400001
-0.37000477 0.043023814 0.69500005
-0.36868098 0.043023814 0.69500005
-0.36682859 0.042961907 0.69400001
-0.36498001 0.042900003 0.69300002
-0.3763943 0.042241909 0.66200006
-0.37570003 0.042305715 0.66300005
-0.37443715 0.042305715 0.66300005
-0.37430003 0.042433336 0.66500002
-0.37303334 0.042433336 0.66500002
-0.37288478 0.042560954 0.66700006
-0.37272859 0.042688575 0.66900003
-0.37200955 0.042752385 0.67000002
-0.37128669 0.042816192 0.671
-0.37056002 0.042880002 0.67200005
-0.37037906 0.043007623 0.67400002
-0.36909527 0.043007623 0.67400002
-0.36781144 0.043007623 0.67400002
-0.36544001 0.042880002 0.67200005
-0.37290004 0.044220004 0.69300002
-0.37158003 0.044220004 0.69300002
-0.3707943 0.044283811 0.69400001
-0.37000477 0.044347622 0.69500005
-0.36868098 0.044347622 0.69500005
-0.36735716 0.044347622 0.69500005
-0.36550668 0.044283811 0.69400001
-0.37570003 0.043568574 0.66300005
-0.37443715 0.043568574 0.66300005
-0.37430003 0.043700002 0.66500002
-0.37359431 0.043765716 0.66600001
-0.37288478 0.04383143 0.66700006
-0.37272859 0.043962859 0.66900003
-0.37256479 0.044094287 0.671
-0.37128669 0.044094287 0.671
-0.37056002 0.044160005 0.67200005
-0.37037906 0.044291433 0.67400002
-0.36909527 0.044291433 0.67400002
-0.36781144 0.044291433 0.67400002
-0.36544001 0.044160005 0.67200005
-0.37265241 0.045671433 0.69500005
-0.3707943 0.045605719 0.69400001
-0.37106955 0.045802861 0.69700003
-0.37186384 0.046065718 0.70100003
-0.36735716 0.045671433 0.69500005
-0.36550668 0.045605719 0.69400001
-0.37613145 0.045034289 0.66600001
-0.37430003 0.044966668 0.66500002
-0.37415525 0.045101907 0.66700006
-0.37400287 0.045237146 0.66900003
-0.37272859 0.045237146 0.66900003
-0.37200955 0.045304764 0.67000002
-0.37128669 0.045372386 0.671
-0.37000859 0.045372386 0.671
-0.37037906 0.045575242 0.67400002
-0.36909527 0.045575242 0.67400002
-0.36781144 0.045575242 0.67400002
-0.37265241 0.046995241 0.69500005
-0.3707943 0.046927623 0.69400001
-0.37000477 0.046995241 0.69500005
-0.36974192 0.04713048 0.69700003
-0.42456004 0.05490667 0.81200004
-0.3779667 0.046372384 0.66700006
-0.37613145 0.046302859 0.66600001
-0.37486288 0.046302859 0.66600001
-0.37359431 0.046302859 0.66600001
-0.37288478 0.046372384 0.66700006
-0.37272859 0.04651143 0.66900003
-0.3714543 0.04651143 0.66900003
-0.37073335 0.046580955 0.67000002
-0.36945716 0.046580955 0.67000002
-0.36909527 0.046859052 0.67400002
-0.36835718 0.046928573 0.67500001
-0.3779667 0.047642861 0.66700006
-0.37613145 0.047571432 0.66600001
-0.37486288 0.047571432 0.66600001
-0.37359431 0.047571432 0.66600001
-0.37288478 0.047642861 0.66700006
-0.37272859 0.047785718 0.66900003
-0.3714543 0.047785718 0.66900003
-0.37073335 0.047857147 0.67000002
-0.36945716 0.047857147 0.67000002
-0.37430003 0.048766669 0.66500002
-0.37359431 0.048840005 0.66600001
-0.37232575 0.048840005 0.66600001
-0.37272859 0.049060002 0.66900003
-0.3714543 0.049060002 0.66900003
-0.37073335 0.049133338 0.67000002
-0.37359431 0.050108574 0.66600001
-0.37232575 0.050108574 0.66600001
-0.37272859 0.05033429 0.66900003
-0.3714543 0.05033429 0.66900003
-0.37018001 0.05033429 0.66900003
-0.35889432 0.06177048 0.82100004
-0.37359431 0.051377147 0.66600001
-0.37232575 0.051377147 0.66600001
-0.37161431 0.051454291 0.66700006
-0.37486288 0.052645717 0.66600001
-0.37359431 0.052645717 0.66600001
-0.37232575 0.052645717 0.66600001
-0.37161431 0.052724764 0.66700006
-0.37034383 0.052724764 0.66700006
-0.3804886 0.064581908 0.81700003
-0.37206003 0.064740002 0.81900007
-0.37486288 0.05391429 0.66600001
-0.37359431 0.05391429 0.66600001
-0.37232575 0.05391429 0.66600001
-0.37161431 0.05399524 0.66700006
-0.37034383 0.05399524 0.66700006
-0.37430003 0.055100005 0.66500002
-0.37359431 0.055182859 0.66600001
-0.37232575 0.055182859 0.66600001
-0.37161431 0.055265717 0.66700006
-0.37034383 0.055265717 0.66700006
-0.36907336 0.055265717 0.66700006
-0.37359431 0.056451432 0.66600001
-0.37232575 0.056451432 0.66600001
-0.37161431 0.056536194 0.66700006
-0.37034383 0.056536194 0.66700006
-0.37359431 0.057720006 0.66600001
-0.37232575 0.057720006 0.66600001
-0.37161431 0.057806671 0.66700006
-0.37034383 0.057806671 0.66700006
-0.37415525 0.059077147 0.66700006
-0.37288478 0.059077147 0.66700006
-0.37161431 0.059077147 0.66700006
-0.37034383 0.059077147 0.66700006
-0.37288478 0.060347624 0.66700006
-0.33904478 0.089808576 0.73100001
-0.33349335 0.089440003 0.72800004
-0.33950573 0.090951435 0.72900003
-0.33811715 0.090951435 0.72900003
-0.3367286 0.090951435 0.72900003
-0.33488002 0.090826675 0.72800004
-0.33349335 0.090826675 0.72800004
-0.33256289 0.090951435 0.72900003
-0.33208287 0.091200955 0.73100001
-0.33114287 0.091325723 0.73200005
-0.33064955 0.091575243 0.73400003
-0.33014861 0.09182477 0.73600006
-0.32874668 0.09182477 0.73600006
-0.32734478 0.09182477 0.73600006
-0.32638574 0.09194953 0.73700005
-0.32498193 0.09194953 0.73700005
-0.32357812 0.09194953 0.73700005
-0.33904001 0.09221334 0.72800004
-0.33811715 0.092340007 0.72900003
-0.3362667 0.09221334 0.72800004
-0.33396003 0.091960005 0.72600001
-0.33349335 0.09221334 0.72800004
-0.33256289 0.092340007 0.72900003
-0.33208287 0.092593342 0.73100001
-0.3306905 0.092593342 0.73100001
-0.33064955 0.092973337 0.73400003
-0.32925144 0.092973337 0.73400003
-0.32874668 0.093226671 0.73600006
-0.32734478 0.093226671 0.73600006
-0.32594287 0.093226671 0.73600006
-0.32498193 0.093353339 0.73700005
-0.32357812 0.093353339 0.73700005
-0.32304859 0.093606673 0.73900002
-0.32164097 0.093606673 0.73900002
-0.32023335 0.093606673 0.73900002
-0.33671144 0.092957146 0.72300005
-0.33672574 0.093342863 0.72600001
-0.33534288 0.093342863 0.72600001
-0.33396003 0.093342863 0.72600001
-0.33257717 0.093342863 0.72600001
-0.33210668 0.093600005 0.72800004
-0.33117431 0.09372858 0.72900003
-0.3306905 0.093985721 0.73100001
-0.32929811 0.093985721 0.73100001
-0.3283543 0.094114289 0.73200005
-0.32785335 0.094371438 0.73400003
-0.32645527 0.094371438 0.73400003
-0.32594287 0.09462858 0.73600006
-0.32454097 0.09462858 0.73600006
-0.32226098 0.094371438 0.73400003
-0.32086289 0.094371438 0.73400003
-0.32033527 0.09462858 0.73600006
-0.31936669 0.094757147 0.73700005
-0.3353343 0.094334289 0.72300005
-0.33488098 0.094595246 0.72500002
-0.33350003 0.094595246 0.72500002
-0.33257717 0.094725721 0.72600001
-0.33119431 0.094725721 0.72600001
-0.32981145 0.094725721 0.72600001
-0.3284286 0.094725721 0.72600001
-0.32839715 0.095117152 0.72900003
-0.32790574 0.095378101 0.73100001
-0.32696003 0.095508575 0.73200005
-0.32556573 0.095508575 0.73200005
-0.32505718 0.095769532 0.73400003
-0.32226098 0.095769532 0.73400003
-0.32086289 0.095769532 0.73400003
-0.33255145 0.094917148 0.71700001
-0.33120003 0.095314294 0.72000003
-0.32982859 0.095314294 0.72000003
-0.33073813 0.095976196 0.72500002
-0.32935718 0.095976196 0.72500002
-0.32797623 0.095976196 0.72500002
-0.32651335 0.09677048 0.73100001
-0.32556573 0.096902862 0.73200005
-0.33255145 0.096282862 0.71700001
-0.33210954 0.096551433 0.71900004
-0.33074003 0.096551433 0.71900004
-0.3293705 0.096551433 0.71900004
-0.32845718 0.096685722 0.72000003
-0.32708573 0.096685722 0.72000003
-0.32526192 0.096551433 0.71900004
-0.33118573 0.097648576 0.71700001
-0.32982001 0.097648576 0.71700001
-0.32845432 0.097648576 0.71700001
-0.32708859 0.097648576 0.71700001
-0.32663146 0.097920962 0.71900004
-0.32526192 0.097920962 0.71900004
-0.32936001 0.098876201 0.71600002
-0.32708001 0.098600008 0.71400005
-0.32663241 0.098876201 0.71600002
-0.32662192 0.099820003 0.71300006
-0.32526383 0.099820003 0.71300006
-0.32570574 0.10089429 0.71100003
-0.31622574 0.10495715 0.71100003
-0.31575716 0.10525239 0.71300006
-0.31622574 0.10631143 0.71100003
-0.31575716 0.10661048 0.71300006
-0.32873622 0.10645429 0.70300001
-0.31711525 0.10796858 0.71300006
-0.31575716 0.10796858 0.71300006
-0.33235717 0.1081 0.70500004
-0.33054477 0.10794667 0.70400006
-0.32873622 0.10779334 0.70300001
-0.31758001 0.10902001 0.71100003
-0.32913622 0.10882191 0.70100003
-0.32780096 0.10882191 0.70100003
-0.32913622 0.11015715 0.70100003
-0.32780096 0.11015715 0.70100003
-0.32646573 0.11015715 0.70100003
-0.32466668 0.11000001 0.70000005
-0.32333335 0.11000001 0.70000005
-0.32200003 0.11000001 0.70000005
-0.31705239 0.10921429 0.69500005
-0.32481432 0.10958382 0.68900001
-0.32350191 0.10958382 0.68900001
-0.32593051 0.1108562 0.69700003
-0.32460287 0.1108562 0.69700003
-0.32327527 0.1108562 0.69700003
-0.32240954 0.11101525 0.69800001
-0.32200003 0.11133334 0.70000005
-0.3192924 0.1108562 0.69700003
-0.31705239 0.1105381 0.69500005
-0.3157286 0.1105381 0.69500005
-0.3326886 0.1108962 0.68900001
-0.33137622 0.1108962 0.68900001
-0.32612669 0.1108962 0.68900001
-0.32481432 0.1108962 0.68900001
-0.32367146 0.11186191 0.69500005
-0.32234764 0.11186191 0.69500005
-0.32240954 0.11234477 0.69800001
-0.32200003 0.11266667 0.70000005
-0.3192924 0.11218382 0.69700003
-0.31705239 0.11186191 0.69500005
-0.3157286 0.11186191 0.69500005
-0.33303145 0.11188287 0.68700004
-0.33172289 0.11188287 0.68700004
-0.32993335 0.11172001 0.68600005
-0.32862669 0.11172001 0.68600005
-0.32636574 0.11139429 0.68400002
-0.32506287 0.11139429 0.68400002
-0.32612669 0.11220858 0.68900001
-0.32481432 0.11220858 0.68900001
-0.3211543 0.11139429 0.68400002
-0.32367146 0.11318572 0.69500005
-0.32234764 0.11318572 0.69500005
-0.32240954 0.11367429 0.69800001
-0.32200003 0.11400001 0.70000005
-0.3192924 0.11351144 0.69700003
-0.31705239 0.11318572 0.69500005
-0.3157286 0.11318572 0.69500005
-0.31440479 0.11318572 0.69500005
-0.33759716 0.11253238 0.68300003
-0.3362962 0.11253238 0.68300003
-0.33548573 0.11269715 0.68400002
-0.33288002 0.11269715 0.68400002
-0.33254668 0.11302667 0.68600005
-0.33172289 0.11319143 0.68700004
-0.3304143 0.11319143 0.68700004
-0.32862669 0.11302667 0.68600005
-0.32732001 0.11302667 0.68600005
-0.32601336 0.11302667 0.68600005
-0.32376003 0.11269715 0.68400002
-0.32245716 0.11269715 0.68400002
-0.3211543 0.11269715 0.68400002
