# .PCD v0.7 - Point Cloud Data file format
VERSION 0.7
FIELDS x y z
SIZE 4 4 4
TYPE F F F
COUNT 1 1 1
WIDTH 1382
HEIGHT 1
VIEWPOINT 0 0 0 1 0 0 0
POINTS 1382
DATA ascii
-0.38194954 -0.010871429 0.76100004
-0.38150004 -0.010900001 0.76300001
-0.38104287 -0.010928572 0.76500005
-0.38158861 -0.011028572 0.77200001
-0.3835648 -0.011128572 0.77900004
-0.3835524 -0.011171429 0.78200006
-0.38304001 -0.011200001 0.78400004
-0.38349336 -0.011257144 0.78800005
-0.3819924 -0.011257144 0.78800005
-0.38876671 -0.0094466675 0.76300001
-0.38731337 -0.0094466675 0.76300001
-0.38586003 -0.0094466675 0.76300001
-0.38440669 -0.0094466675 0.76300001
-0.38295335 -0.0094466675 0.76300001
-0.38150004 -0.0094466675 0.76300001
-0.38104287 -0.0094714295 0.76500005
-0.38107431 -0.0095085725 0.76800001
-0.38208288 -0.0095704766 0.77300006
-0.38257146 -0.0096571436 0.78000003
-0.38401717 -0.0097314296 0.78600001
-0.38876671 -0.007993334 0.76300001
-0.38731337 -0.007993334 0.76300001
-0.38586003 -0.007993334 0.76300001
-0.38440669 -0.007993334 0.76300001
-0.38295335 -0.007993334 0.76300001
-0.38150004 -0.007993334 0.76300001
-0.3800467 -0.007993334 0.76300001
-0.37958574 -0.0080142859 0.76500005
-0.37812859 -0.0080142859 0.76500005
-0.3835648 -0.0081609525 0.77900004
-0.3811343 -0.0063171433 0.73700005
-0.37973049 -0.0063171433 0.73700005
-0.37832668 -0.0063171433 0.73700005
-0.37692288 -0.0063171433 0.73700005
-0.37857622 -0.0063685719 0.74300003
-0.3857905 -0.0065142862 0.76000005
-0.38586003 -0.0065400004 0.76300001
-0.38440669 -0.0065400004 0.76300001
-0.38194954 -0.0065228576 0.76100004
-0.38050002 -0.0065228576 0.76100004
-0.3800467 -0.0065400004 0.76300001
-0.37859336 -0.0065400004 0.76300001
-0.3811343 -0.0049133338 0.73700005
-0.37973049 -0.0049133338 0.73700005
-0.37935334 -0.0049266671 0.73900002
-0.37845716 -0.0049333335 0.74000001
-0.37959525 -0.0049666669 0.74500006
-0.37817621 -0.0049666669 0.74500006
-0.38434288 -0.0050666672 0.76000005
-0.38339907 -0.0050733336 0.76100004
-0.38144764 -0.0050666672 0.76000005
-0.38150004 -0.0050866669 0.76300001
-0.3800467 -0.0050866669 0.76300001
-0.37958574 -0.0051000002 0.76500005
-0.45046288 -0.0061466671 0.92200005
-0.38216859 -0.0035190478 0.73900002
-0.38076097 -0.0035190478 0.73900002
-0.37935334 -0.0035190478 0.73900002
-0.37845716 -0.0035238098 0.74000001
-0.37857622 -0.0035380954 0.74300003
-0.37817621 -0.0035476193 0.74500006
-0.38232002 -0.0036000002 0.75600004
-0.38289526 -0.0036190478 0.76000005
-0.38144764 -0.0036190478 0.76000005
-0.38000003 -0.0036190478 0.76000005
-0.37855241 -0.0036190478 0.76000005
-0.4536905 -0.0044047623 0.92500007
-0.45192862 -0.0044047623 0.92500007
-0.38216859 -0.0021114287 0.73900002
-0.38076097 -0.0021114287 0.73900002
-0.37986669 -0.0021142859 0.74000001
-0.37948003 -0.0021200001 0.74200004
-0.37959525 -0.0021285715 0.74500006
-0.37919146 -0.0021342859 0.74700004
-0.3818143 -0.0021571431 0.75500005
-0.38289526 -0.0021714286 0.76000005
-0.38144764 -0.0021714286 0.76000005
-0.37900004 -0.0021657145 0.75800002
-0.37855241 -0.0021714286 0.76000005
-0.37994289 -0.00069714291 0.73200005
-0.38216859 -0.00070380955 0.73900002
-0.38076097 -0.00070380955 0.73900002
-0.37986669 -0.00070476194 0.74000001
-0.37948003 -0.00070666673 0.74200004
-0.37857622 -0.00070761907 0.74300003
-0.37817621 -0.00070952385 0.74500006
-0.3818143 -0.00071904768 0.75500005
-0.38188764 -0.0007219048 0.75800002
-0.38044384 -0.0007219048 0.75800002
-0.37900004 -0.0007219048 0.75800002
-0.3775562 -0.0007219048 0.75800002
-0.38216859 0.00070380955 0.73900002
-0.38127622 0.00070476194 0.74000001
-0.37986669 0.00070476194 0.74000001
-0.37948003 0.00070666673 0.74200004
-0.37857622 0.00070761907 0.74300003
-0.37919146 0.00071142864 0.74700004
-0.38088003 0.00072000007 0.75600004
-0.37944004 0.00072000007 0.75600004
-0.37900004 0.0007219048 0.75800002
-0.3775562 0.0007219048 0.75800002
-0.37876001 0.0020400002 0.71400005
-0.37740001 0.0020400002 0.71400005
-0.37994289 0.0020914287 0.73200005
-0.3811343 0.0021057145 0.73700005
-0.38076097 0.0021114287 0.73900002
-0.37986669 0.0021142859 0.74000001
-0.37845716 0.0021142859 0.74000001
-0.37857622 0.0021228574 0.74300003
-0.37919146 0.0021342859 0.74700004
-0.38037622 0.0021571431 0.75500005
-0.37944004 0.0021600001 0.75600004
-0.37800002 0.0021600001 0.75600004
-0.3775562 0.0021657145 0.75800002
-0.37958765 0.0033952384 0.71300006
-0.37822956 0.0033952384 0.71300006
-0.37687147 0.0033952384 0.71300006
-0.38098097 0.0034952383 0.73400003
-0.3811343 0.003509524 0.73700005
-0.37973049 0.003509524 0.73700005
-0.37935334 0.0035190478 0.73900002
-0.37794575 0.0035190478 0.73900002
-0.37817621 0.0035476193 0.74500006
-0.38037622 0.0035952383 0.75500005
-0.37944004 0.0036000002 0.75600004
-0.37800002 0.0036000002 0.75600004
-0.3775562 0.0036095241 0.75800002
-0.37852287 0.0047400002 0.71100003
-0.37822956 0.0047533335 0.71300006
-0.37740001 0.0047600004 0.71400005
-0.37604001 0.0047600004 0.71400005
-0.37572956 0.0047733337 0.71600002
-0.37436575 0.0047733337 0.71600002
-0.37612763 0.0048133335 0.72200006
-0.37994289 0.0048800004 0.73200005
-0.38061717 0.0049066669 0.73600006
-0.37973049 0.0049133338 0.73700005
-0.37832668 0.0049133338 0.73700005
-0.37794575 0.0049266671 0.73900002
-0.37857622 0.0049533336 0.74300003
-0.37817621 0.0049666669 0.74500006
-0.37776861 0.0049800002 0.74700004
-0.38037622 0.0050333338 0.75500005
-0.37944004 0.0050400002 0.75600004
-0.37800002 0.0050400002 0.75600004
-0.37656003 0.0050400002 0.75600004
-0.37512001 0.0050400002 0.75600004
-0.37958765 0.0061114291 0.71300006
-0.37822956 0.0061114291 0.71300006
-0.37740001 0.0061200005 0.71400005
-0.37709334 0.0061371434 0.71600002
-0.37625432 0.0061457148 0.71700001
-0.3759343 0.0061628576 0.71900004
-0.37612763 0.0061885719 0.72200006
-0.37838575 0.0062485719 0.72900003
-0.38061717 0.0063085719 0.73600006
-0.37921527 0.0063085719 0.73600006
-0.37832668 0.0063171433 0.73700005
-0.37692288 0.0063171433 0.73700005
-0.37806669 0.0063600005 0.74200004
-0.37817621 0.0063857147 0.74500006
-0.37928575 0.0064285719 0.75000006
-0.38037622 0.006471429 0.75500005
-0.37944004 0.0064800004 0.75600004
-0.37800002 0.0064800004 0.75600004
-0.37656003 0.0064800004 0.75600004
-0.37958765 0.0074695242 0.71300006
-0.37876001 0.0074800006 0.71400005
-0.37740001 0.0074800006 0.71400005
-0.37762001 0.007511429 0.71700001
-0.37730384 0.0075323815 0.71900004
-0.37645715 0.0075428574 0.72000003
-0.37508574 0.0075428574 0.72000003
-0.37630954 0.0075952387 0.72500002
-0.37854859 0.007668572 0.73200005
-0.37921527 0.0077104769 0.73600006
-0.37832668 0.0077209529 0.73700005
-0.37692288 0.0077209529 0.73700005
-0.37704766 0.0077523813 0.74000001
-0.37563813 0.0077523813 0.74000001
-0.37524003 0.0077733337 0.74200004
-0.37382668 0.0077733337 0.74200004
-0.37893811 0.0079095243 0.75500005
-0.38050002 0.0079723811 0.76100004
-0.37905049 0.0079723811 0.76100004
-0.37852287 0.0088028582 0.71100003
-0.37822956 0.0088276193 0.71300006
-0.37740001 0.0088400003 0.71400005
-0.37867334 0.0089019053 0.71900004
-0.37730384 0.0089019053 0.71900004
-0.37645715 0.0089142863 0.72000003
-0.37612763 0.0089390483 0.72200006
-0.37682861 0.0089885723 0.72600001
-0.37803146 0.0090504764 0.73100001
-0.37921527 0.0091123814 0.73600006
-0.37781337 0.0091123814 0.73600006
-0.37692288 0.0091247624 0.73700005
-0.37653813 0.0091495244 0.73900002
-0.37563813 0.0091619054 0.74000001
-0.3742286 0.0091619054 0.74000001
-0.44280669 0.011006667 0.88900006
-0.44111335 0.011006667 0.88900006
-0.44040859 0.011031429 0.89100003
-0.44018859 0.011068572 0.89400005
-0.43946669 0.011093334 0.89600003
-0.43873718 0.011118096 0.89800006
-0.37827432 0.010114286 0.708
-0.37852287 0.010157144 0.71100003
-0.3771686 0.010157144 0.71100003
-0.37740001 0.0102 0.71400005
-0.37762001 0.010242858 0.71700001
-0.37730384 0.010271429 0.71900004
-0.3759343 0.010271429 0.71900004
-0.37612763 0.010314287 0.72200006
-0.37682861 0.010371429 0.72600001
-0.37803146 0.010442858 0.73100001
-0.3781848 0.010485715 0.73400003
-0.37781337 0.010514286 0.73600006
-0.37692288 0.010528572 0.73700005
-0.37653813 0.010557144 0.73900002
-0.37563813 0.01057143 0.74000001
-0.44450003 0.012700001 0.88900006
-0.44280669 0.012700001 0.88900006
-0.44111335 0.012700001 0.88900006
-0.44040859 0.012728572 0.89100003
-0.44018859 0.012771429 0.89400005
-0.43848574 0.012771429 0.89400005
-0.37934288 0.011495239 0.71000004
-0.37799051 0.011495239 0.71000004
-0.37663811 0.011495239 0.71000004
-0.37740001 0.01156 0.71400005
-0.37762001 0.011608572 0.71700001
-0.37730384 0.011640953 0.71900004
-0.3759343 0.011640953 0.71900004
-0.37612763 0.011689524 0.72200006
-0.37630954 0.011738096 0.72500002
-0.37699717 0.011802858 0.72900003
-0.37715432 0.011851429 0.73200005
-0.37781337 0.011916191 0.73600006
-0.37692288 0.011932381 0.73700005
-0.37704766 0.011980954 0.74000001
-0.44518957 0.014360953 0.88700002
-0.44350004 0.014360953 0.88700002
-0.44181052 0.014360953 0.88700002
-0.44111335 0.014393334 0.88900006
-0.44040859 0.014425715 0.89100003
-0.43871146 0.014425715 0.89100003
-0.37828097 0.012720954 0.70300001
-0.37694192 0.012720954 0.70300001
-0.37667146 0.012757144 0.70500004
-0.37692574 0.01281143 0.708
-0.37663811 0.01284762 0.71000004
-0.37687147 0.012901906 0.71300006
-0.37762001 0.012974286 0.71700001
-0.37730384 0.013010477 0.71900004
-0.37645715 0.013028572 0.72000003
-0.3766486 0.013082858 0.72300005
-0.37682861 0.013137144 0.72600001
-0.37699717 0.01319143 0.72900003
-0.37715432 0.013245715 0.73200005
-0.37678668 0.013281906 0.73400003
-0.37692288 0.013336191 0.73700005
-0.44536763 0.015996192 0.88400006
-0.44518957 0.016050477 0.88700002
-0.44350004 0.016050477 0.88700002
-0.44181052 0.016050477 0.88700002
-0.440121 0.016050477 0.88700002
-0.43942001 0.016086668 0.88900006
-0.37747812 0.014080001 0.70400006
-0.37667146 0.014100001 0.70500004
-0.37692574 0.014160001 0.708
-0.37557718 0.014160001 0.708
-0.37528574 0.014200001 0.71000004
-0.37709334 0.014320001 0.71600002
-0.37730384 0.014380001 0.71900004
-0.37645715 0.014400001 0.72000003
-0.3766486 0.014460001 0.72300005
-0.37682861 0.014520001 0.72600001
-0.37803146 0.01462 0.73100001
-0.37715432 0.014640001 0.73200005
-0.37678668 0.014680001 0.73400003
-0.44604003 0.017640002 0.88200003
-0.44536763 0.017680001 0.88400006
-0.44518957 0.017740002 0.88700002
-0.44350004 0.017740002 0.88700002
-0.44181052 0.017740002 0.88700002
-0.440121 0.017740002 0.88700002
-0.37881908 0.015420954 0.70400006
-0.37747812 0.015420954 0.70400006
-0.37667146 0.015442858 0.70500004
-0.3753286 0.015442858 0.70500004
-0.3750467 0.015486668 0.70700002
-0.37370002 0.015486668 0.70700002
-0.37393335 0.015552382 0.71000004
-0.37625432 0.015705716 0.71700001
-0.37645715 0.01577143 0.72000003
-0.37769049 0.015880954 0.72500002
-0.37786669 0.015946668 0.72800004
-0.37803146 0.016012382 0.73100001
-0.37715432 0.016034286 0.73200005
-0.37678668 0.016078096 0.73400003
-0.4450286 0.019276192 0.88000005
-0.44536763 0.019363811 0.88400006
-0.44368383 0.019363811 0.88400006
-0.44200003 0.019363811 0.88400006
-0.44031623 0.019363811 0.88400006
-0.37828097 0.016738096 0.70300001
-0.37694192 0.016738096 0.70300001
-0.37613717 0.016761906 0.70400006
-0.3753286 0.016785715 0.70500004
-0.37398574 0.016785715 0.70500004
-0.37393335 0.016904764 0.71000004
-0.37572956 0.017047619 0.71600002
-0.3748886 0.01707143 0.71700001
-0.3766486 0.017214287 0.72300005
-0.37682861 0.017285716 0.72600001
-0.37699717 0.017357145 0.72900003
-0.37715432 0.017428573 0.73200005
-0.4467048 0.020952383 0.88000005
-0.4450286 0.020952383 0.88000005
-0.37828097 0.018077144 0.70300001
-0.37694192 0.018077144 0.70300001
-0.37560287 0.018077144 0.70300001
-0.37479621 0.018102858 0.70400006
-0.37398574 0.018128572 0.70500004
-0.37393335 0.018257145 0.71000004
-0.37625432 0.018437143 0.71700001
-0.3748886 0.018437143 0.71700001
-0.37508574 0.018514287 0.72000003
-0.37630954 0.018642858 0.72500002
-0.44750002 0.022500001 0.87500006
-0.44736195 0.022577144 0.87800002
-0.44401717 0.022577144 0.87800002
-0.37854004 0.019360954 0.70100003
-0.37720478 0.019360954 0.70100003
-0.37586954 0.019360954 0.70100003
-0.37453431 0.019360954 0.70100003
-0.37426382 0.019416193 0.70300001
-0.37345526 0.01944381 0.70400006
-0.37572956 0.01977524 0.71600002
-0.3759343 0.019858096 0.71900004
-0.37527144 0.019968573 0.72300005
-0.44750002 0.024166668 0.87500006
-0.44250003 0.024166668 0.87500006
-0.37800002 0.020666668 0.70000005
-0.37666669 0.020666668 0.70000005
-0.37586954 0.020696191 0.70100003
-0.37453431 0.020696191 0.70100003
-0.37426382 0.020755239 0.70300001
-0.37292477 0.020755239 0.70300001
-0.37551335 0.021050477 0.71300006
-0.37625432 0.021168573 0.71700001
-0.3759343 0.021227621 0.71900004
-0.37508574 0.021257143 0.72000003
-0.44443145 0.025656192 0.86900002
-0.44175717 0.025597144 0.86700004
-0.44112098 0.025656192 0.86900002
-0.43946573 0.025656192 0.86900002
-0.43881813 0.025715239 0.87100005
-0.43715909 0.025715239 0.87100005
-0.37490574 0.021591431 0.68700004
-0.37359717 0.021591431 0.68700004
-0.37228858 0.021591431 0.68700004
-0.37098002 0.021591431 0.68700004
-0.37666669 0.022000002 0.70000005
-0.37533337 0.022000002 0.70000005
-0.37453431 0.02203143 0.70100003
-0.37479621 0.022125715 0.70400006
-0.37398574 0.022157144 0.70500004
-0.3742286 0.022251431 0.708
-0.37604001 0.022440001 0.71400005
-0.37468001 0.022440001 0.71400005
-0.3759343 0.022597143 0.71900004
-0.3745648 0.022597143 0.71900004
-0.44506001 0.027248573 0.86700004
-0.44340861 0.027248573 0.86700004
-0.44073811 0.027185716 0.86500007
-0.43909049 0.027185716 0.86500007
-0.4384543 0.027248573 0.86700004
-0.43680289 0.027248573 0.86700004
-0.43515146 0.027248573 0.86700004
-0.43450004 0.027311431 0.86900002
-0.43284479 0.027311431 0.86900002
-0.37490574 0.022900002 0.68700004
-0.37359717 0.022900002 0.68700004
-0.37228858 0.022900002 0.68700004
-0.37314004 0.023033334 0.69100004
-0.37666669 0.023333335 0.70000005
-0.37533337 0.023333335 0.70000005
-0.37453431 0.023366667 0.70100003
-0.37426382 0.023433335 0.70300001
-0.37345526 0.023466669 0.70400006
-0.37581432 0.023700001 0.71100003
-0.37604001 0.023800002 0.71400005
-0.37572956 0.023866668 0.71600002
-0.37436575 0.023866668 0.71600002
-0.37196001 0.023800002 0.71400005
-0.44403335 0.028833335 0.86500007
-0.44238573 0.028833335 0.86500007
-0.44073811 0.028833335 0.86500007
-0.43909049 0.028833335 0.86500007
-0.4374429 0.028833335 0.86500007
-0.43579528 0.028833335 0.86500007
-0.43414766 0.028833335 0.86500007
-0.43250003 0.028833335 0.86500007
-0.43085241 0.028833335 0.86500007
-0.37717718 0.024102859 0.68400002
-0.37697336 0.024173334 0.68600005
-0.37566668 0.024173334 0.68600005
-0.37490574 0.024208574 0.68700004
-0.37468478 0.024279049 0.68900001
-0.37337241 0.024279049 0.68900001
-0.37314004 0.024349526 0.69100004
-0.37666669 0.024666669 0.70000005
-0.37533337 0.024666669 0.70000005
-0.37400001 0.024666669 0.70000005
-0.37426382 0.024772383 0.70300001
-0.37345526 0.024807621 0.70400006
-0.37581432 0.025054287 0.71100003
-0.37604001 0.025160002 0.71400005
-0.37572956 0.025230478 0.71600002
-0.37436575 0.025230478 0.71600002
-0.37196001 0.025160002 0.71400005
-0.43100002 0.03037524 0.86200005
-0.37717718 0.025405716 0.68400002
-0.37587431 0.025405716 0.68400002
-0.37566668 0.025480002 0.68600005
-0.37490574 0.025517145 0.68700004
-0.37359717 0.025517145 0.68700004
-0.37228858 0.025517145 0.68700004
-0.37314004 0.025665715 0.69100004
-0.3755905 0.025925716 0.69800001
-0.37533337 0.026000002 0.70000005
-0.37400001 0.026000002 0.70000005
-0.37426382 0.02611143 0.70300001
-0.37292477 0.02611143 0.70300001
-0.37687147 0.02648286 0.71300006
-0.37604001 0.026520003 0.71400005
-0.37572956 0.026594287 0.71600002
-0.37436575 0.026594287 0.71600002
-0.37792668 0.026669526 0.68300003
-0.37662575 0.026669526 0.68300003
-0.37587431 0.026708573 0.68400002
-0.37566668 0.026786668 0.68600005
-0.37436002 0.026786668 0.68600005
-0.37359717 0.026825717 0.68700004
-0.37337241 0.026903812 0.68900001
-0.37314004 0.026981907 0.69100004
-0.37505239 0.027216192 0.69700003
-0.37426099 0.027255239 0.69800001
-0.37400001 0.027333336 0.70000005
-0.37426382 0.027450478 0.70300001
-0.37345526 0.027489526 0.70400006
-0.37581432 0.027762858 0.71100003
-0.37551335 0.027840953 0.71300006
-0.37468001 0.027880002 0.71400005
-0.37571335 0.027806668 0.67900002
-0.37662575 0.027970478 0.68300003
-0.37587431 0.02801143 0.68400002
-0.37566668 0.028093334 0.68600005
-0.37436002 0.028093334 0.68600005
-0.37359717 0.028134288 0.68700004
-0.37337241 0.028216192 0.68900001
-0.37314004 0.028298097 0.69100004
-0.37666669 0.028666668 0.70000005
-0.37533337 0.028666668 0.70000005
-0.37453431 0.028707622 0.70100003
-0.37426382 0.028789526 0.70300001
-0.37292477 0.028789526 0.70300001
-0.37528574 0.029076193 0.71000004
-0.37551335 0.029199049 0.71300006
-0.37468001 0.029240001 0.71400005
-0.37737337 0.029228574 0.68200004
-0.37662575 0.029271431 0.68300003
-0.37532479 0.029271431 0.68300003
-0.37402382 0.029271431 0.68300003
-0.3732686 0.029314287 0.68400002
-0.37359717 0.02944286 0.68700004
-0.37337241 0.029528573 0.68900001
-0.37314004 0.029614288 0.69100004
-0.37666669 0.030000001 0.70000005
-0.37533337 0.030000001 0.70000005
-0.37453431 0.030042859 0.70100003
-0.37426382 0.030128574 0.70300001
-0.37292477 0.030128574 0.70300001
-0.37158573 0.030128574 0.70300001
-0.44280955 0.036428574 0.85000002
-0.44119051 0.036428574 0.85000002
-0.3771143 0.029990477 0.67000002
-0.37527716 0.029945716 0.66900003
-0.37400287 0.029945716 0.66900003
-0.37256479 0.030035241 0.671
-0.37571335 0.030393336 0.67900002
-0.37662575 0.030572383 0.68300003
-0.37532479 0.030572383 0.68300003
-0.37402382 0.030572383 0.68300003
-0.37272289 0.030572383 0.68300003
-0.37305337 0.030706668 0.68600005
-0.3739143 0.030885717 0.69000006
-0.37314004 0.030930478 0.69100004
-0.37666669 0.031333335 0.70000005
-0.37533337 0.031333335 0.70000005
-0.37400001 0.031333335 0.70000005
-0.37319908 0.031378098 0.70100003
-0.37292477 0.03146762 0.70300001
-0.37158573 0.03146762 0.70300001
-0.37655145 0.031220002 0.66900003
-0.37527716 0.031220002 0.66900003
-0.37288478 0.031126669 0.66700006
-0.37272859 0.031220002 0.66900003
-0.3714543 0.031220002 0.66900003
-0.37571335 0.031686667 0.67900002
-0.37607431 0.031826667 0.68200004
-0.37532479 0.031873334 0.68300003
-0.37402382 0.031873334 0.68300003
-0.3732686 0.031920001 0.68400002
-0.37305337 0.032013334 0.68600005
-0.3739143 0.032200001 0.69000006
-0.37422001 0.032340001 0.69300002
-0.37666669 0.032666668 0.70000005
-0.37533337 0.032666668 0.70000005
-0.37400001 0.032666668 0.70000005
-0.37319908 0.032713335 0.70100003
-0.37292477 0.032806668 0.70300001
-0.37158573 0.032806668 0.70300001
-0.37910002 0.032494288 0.66900003
-0.37669623 0.032397144 0.66700006
-0.37655145 0.032494288 0.66900003
-0.37415525 0.032397144 0.66700006
-0.37288478 0.032397144 0.66700006
-0.37050003 0.032300003 0.66500002
-0.36923337 0.032300003 0.66500002
-0.37516004 0.032931432 0.67800003
-0.37497145 0.033028573 0.68000001
-0.37477526 0.033125717 0.68200004
-0.37347621 0.033125717 0.68200004
-0.3732686 0.033222858 0.68400002
-0.37359717 0.033368573 0.68700004
-0.37445623 0.033562858 0.69100004
-0.37422001 0.033660002 0.69300002
-0.3739762 0.033757146 0.69500005
-0.37372479 0.033854287 0.69700003
-0.37293145 0.033902861 0.69800001
-0.37266669 0.034000002 0.70000005
-0.37186384 0.034048572 0.70100003
-0.43274003 0.040945716 0.84300005
-0.42952859 0.040945716 0.84300005
-0.38094288 0.03381905 0.67000002
-0.37910002 0.033768572 0.66900003
-0.37669623 0.03366762 0.66700006
-0.37542573 0.03366762 0.66700006
-0.37415525 0.03366762 0.66700006
-0.37288478 0.03366762 0.66700006
-0.37105715 0.033617146 0.66600001
-0.36923337 0.033566669 0.66500002
-0.37073335 0.03381905 0.67000002
-0.37442002 0.034273334 0.67900002
-0.37532479 0.034475241 0.68300003
-0.37402382 0.034475241 0.68300003
-0.3732686 0.034525715 0.68400002
-0.37359717 0.034677144 0.68700004
-0.37445623 0.034879051 0.69100004
-0.37422001 0.034980003 0.69300002
-0.37343812 0.035030477 0.69400001
-0.37265241 0.035080954 0.69500005
-0.37239715 0.035181906 0.69700003
-0.37266669 0.035333335 0.70000005
-0.37186384 0.035383813 0.70100003
-0.43171337 0.04245048 0.84100002
-0.43011147 0.04245048 0.84100002
-0.42850956 0.04245048 0.84100002
-0.3779667 0.034938097 0.66700006
-0.37613145 0.034885716 0.66600001
-0.37486288 0.034885716 0.66600001
-0.37359431 0.034885716 0.66600001
-0.37232575 0.034885716 0.66600001
-0.37105715 0.034885716 0.66600001
-0.36923337 0.034833334 0.66500002
-0.37350002 0.035357144 0.67500001
-0.37442002 0.035566669 0.67900002
-0.37532479 0.035776194 0.68300003
-0.37402382 0.035776194 0.68300003
-0.3732686 0.035828575 0.68400002
-0.37468478 0.036090478 0.68900001
-0.37445623 0.036195241 0.69100004
-0.37314004 0.036195241 0.69100004
-0.37290004 0.036300004 0.69300002
-0.37211621 0.036352385 0.69400001
-0.37239715 0.036509525 0.69700003
-0.37266669 0.036666669 0.70000005
-0.37186384 0.03671905 0.70100003
-0.37683335 0.036100004 0.66500002
-0.37556669 0.036100004 0.66500002
-0.37486288 0.036154289 0.66600001
-0.37359431 0.036154289 0.66600001
-0.37232575 0.036154289 0.66600001
-0.37105715 0.036154289 0.66600001
-0.36978859 0.036154289 0.66600001
-0.37350002 0.036642861 0.67500001
-0.37386858 0.036805715 0.67800003
-0.37367621 0.036914289 0.68000001
-0.37402382 0.037077144 0.68300003
-0.3732686 0.037131432 0.68400002
-0.37359717 0.037294287 0.68700004
-0.3739143 0.037457146 0.69000006
-0.37314004 0.037511431 0.69100004
-0.37290004 0.037620004 0.69300002
-0.37158003 0.037620004 0.69300002
-0.37132859 0.037728574 0.69500005
-0.37160194 0.037891433 0.69800001
-0.37133336 0.038000003 0.70000005
-0.42386192 0.045328576 0.83500004
-0.37556669 0.03736667 0.66500002
-0.37430003 0.03736667 0.66500002
-0.37359431 0.037422858 0.66600001
-0.37400287 0.037591431 0.66900003
-0.37328574 0.03764762 0.67000002
-0.37312001 0.037760001 0.67200005
-0.37294668 0.037872385 0.67400002
-0.37221432 0.037928574 0.67500001
-0.37312669 0.038153335 0.67900002
-0.37402382 0.038378097 0.68300003
-0.37272289 0.038378097 0.68300003
-0.37305337 0.03854667 0.68600005
-0.3739143 0.038771432 0.69000006
-0.37260002 0.038771432 0.69000006
-0.37182385 0.03882762 0.69100004
-0.37158003 0.038940001 0.69300002
-0.37239715 0.039164763 0.69700003
-0.37266669 0.039333336 0.70000005
-0.3702724 0.039220955 0.69800001
-0.4228467 0.046806671 0.83300006
-0.37556669 0.038633335 0.66500002
-0.37486288 0.038691431 0.66600001
-0.37359431 0.038691431 0.66600001
-0.37400287 0.038865715 0.66900003
-0.37272859 0.038865715 0.66900003
-0.37312001 0.039040003 0.67200005
-0.37294668 0.039156195 0.67400002
-0.37221432 0.039214287 0.67500001
-0.37257716 0.039388575 0.67800003
-0.37347621 0.039620955 0.68200004
-0.37272289 0.03967905 0.68300003
-0.37305337 0.039853334 0.68600005
-0.3739143 0.040085718 0.69000006
-0.37314004 0.040143814 0.69100004
-0.44027907 0.048044764 0.82700002
-0.43764287 0.047928575 0.82500005
-0.4371286 0.048044764 0.82700002
-0.43660671 0.048160955 0.82900006
-0.43187907 0.047812384 0.82300001
-0.37613145 0.039960004 0.66600001
-0.37486288 0.039960004 0.66600001
-0.37415525 0.040020004 0.66700006
-0.37400287 0.040140003 0.66900003
-0.37272859 0.040140003 0.66900003
-0.37256479 0.040260002 0.671
-0.37294668 0.040440004 0.67400002
-0.37221432 0.040500004 0.67500001
-0.37147811 0.040560003 0.67600006
-0.37238097 0.040800001 0.68000001
-0.37217715 0.040920004 0.68200004
-0.37196574 0.041040003 0.68400002
-0.37066287 0.041040003 0.68400002
-0.44027907 0.049620003 0.82700002
-0.43870384 0.049620003 0.82700002
-0.4371286 0.049620003 0.82700002
-0.43450004 0.049500003 0.82500005
-0.43187907 0.049380004 0.82300001
-0.43031147 0.049380004 0.82300001
-0.37683335 0.041166671 0.66500002
-0.37556669 0.041166671 0.66500002
-0.37486288 0.041228574 0.66600001
-0.37415525 0.041290481 0.66700006
-0.37400287 0.041414287 0.66900003
-0.37328574 0.041476194 0.67000002
-0.37256479 0.041538097 0.671
-0.37294668 0.041723814 0.67400002
-0.37166288 0.041723814 0.67400002
-0.37037906 0.041723814 0.67400002
-0.36964288 0.041785717 0.67500001
-0.43450004 0.051071431 0.82500005
-0.43187907 0.050947621 0.82300001
-0.43031147 0.050947621 0.82300001
-0.42978573 0.051071431 0.82500005
-0.37556669 0.042433336 0.66500002
-0.37486288 0.042497147 0.66600001
-0.37527716 0.042688575 0.66900003
-0.37456194 0.042752385 0.67000002
-0.37328574 0.042752385 0.67000002
-0.37256479 0.042816192 0.671
-0.37294668 0.043007623 0.67400002
-0.37166288 0.043007623 0.67400002
-0.37092859 0.04307143 0.67500001
-0.36964288 0.04307143 0.67500001
-0.37443715 0.043568574 0.66300005
-0.37430003 0.043700002 0.66500002
-0.37303334 0.043700002 0.66500002
-0.37512097 0.044094287 0.671
-0.3738429 0.044094287 0.671
-0.37312001 0.044160005 0.67200005
-0.37294668 0.044291433 0.67400002
-0.37166288 0.044291433 0.67400002
-0.37092859 0.044357147 0.67500001
-0.37486288 0.045034289 0.66600001
-0.37583813 0.045304764 0.67000002
-0.37512097 0.045372386 0.671
-0.37440002 0.045440003 0.67200005
-0.37312001 0.045440003 0.67200005
-0.37184003 0.045440003 0.67200005
-0.37166288 0.045575242 0.67400002
-0.37037906 0.045575242 0.67400002
-0.4271743 0.055244766 0.81700003
-0.41939336 0.055244766 0.81700003
-0.41783717 0.055244766 0.81700003
-0.41628098 0.055244766 0.81700003
-0.4147248 0.055244766 0.81700003
-0.41316861 0.055244766 0.81700003
-0.41060477 0.055109527 0.81500006
-0.4090524 0.055109527 0.81500006
-0.37613145 0.046302859 0.66600001
-0.37486288 0.046302859 0.66600001
-0.37359431 0.046302859 0.66600001
-0.37400287 0.04651143 0.66900003
-0.37328574 0.046580955 0.67000002
-0.37256479 0.04665048 0.671
-0.37073335 0.046580955 0.67000002
-0.36945716 0.046580955 0.67000002
-0.37910002 0.047785718 0.66900003
-0.37542573 0.047642861 0.66700006
-0.37415525 0.047642861 0.66700006
-0.3745324 0.066461906 0.82100004
-0.37387717 0.066623814 0.82300001
-0.40807146 0.079404764 0.72500002
-0.40669051 0.079404764 0.72500002
-0.40863431 0.080897145 0.72600001
-0.40725145 0.080897145 0.72600001
-0.40586859 0.080897145 0.72600001
-0.40727144 0.081454292 0.73100001
-0.40863431 0.082280003 0.72600001
-0.40725145 0.082280003 0.72600001
-0.40586859 0.082280003 0.72600001
-0.40500766 0.083201908 0.72200006
-0.40530956 0.083547622 0.72500002
-0.40392861 0.083547622 0.72500002
-0.41245431 0.084694289 0.72300005
-0.41221431 0.08492858 0.72500002
-0.40970004 0.084694289 0.72300005
-0.40832287 0.084694289 0.72300005
-0.40638289 0.084577151 0.72200006
-0.40500766 0.084577151 0.72200006
-0.4036324 0.084577151 0.72200006
-0.41245431 0.086071432 0.72300005
-0.41107717 0.086071432 0.72300005
-0.40913337 0.085952386 0.72200006
-0.40775812 0.085952386 0.72200006
-0.40525717 0.085714288 0.72000003
-0.40500766 0.085952386 0.72200006
-0.4036324 0.085952386 0.72200006
-0.35624003 0.087142862 0.73200005
-0.35484573 0.087142862 0.73200005
-0.41245431 0.087448575 0.72300005
-0.40970004 0.087448575 0.72300005
-0.40775812 0.087327622 0.72200006
-0.40525717 0.087085716 0.72000003
-0.40725145 0.087811433 0.72600001
-0.40586859 0.087811433 0.72600001
-0.40392861 0.08769048 0.72500002
-0.40143716 0.087448575 0.72300005
-0.39813146 0.087327622 0.72200006
-0.39730573 0.087448575 0.72300005
-0.35624003 0.088537149 0.73200005
-0.35484573 0.088537149 0.73200005
-0.40970004 0.088825718 0.72300005
-0.40775812 0.088702865 0.72200006
-0.40525717 0.088457152 0.72000003
-0.40392861 0.089071438 0.72500002
-0.40143716 0.088825718 0.72300005
-0.40006003 0.088825718 0.72300005
-0.39813146 0.088702865 0.72200006
-0.39730573 0.088825718 0.72300005
-0.39592859 0.088825718 0.72300005
-0.39154288 0.088457152 0.72000003
-0.35624003 0.089931436 0.73200005
-0.35484573 0.089931436 0.73200005
-0.3529686 0.089808576 0.73100001
-0.35205716 0.089931436 0.73200005
-0.35066289 0.089931436 0.73200005
-0.40088192 0.090078101 0.72200006
-0.39950669 0.090078101 0.72200006
-0.3970286 0.089828581 0.72000003
-0.3967562 0.090078101 0.72200006
-0.39428574 0.089828581 0.72000003
-0.39291432 0.089828581 0.72000003
-0.39099908 0.089703813 0.71900004
-0.38880002 0.089828581 0.72000003
-0.38605717 0.089828581 0.72000003
-0.38468572 0.089828581 0.72000003
-0.38331431 0.089828581 0.72000003
-0.38141242 0.089703813 0.71900004
-0.38004288 0.089703813 0.71900004
-0.37867334 0.089703813 0.71900004
-0.37730384 0.089703813 0.71900004
-0.35575336 0.091200955 0.73100001
-0.35436097 0.091200955 0.73100001
-0.35200289 0.090951435 0.72900003
-0.35157621 0.091200955 0.73100001
-0.35018384 0.091200955 0.73100001
-0.34926859 0.091325723 0.73200005
-0.40088192 0.091453336 0.72200006
-0.3970286 0.091200009 0.72000003
-0.39565718 0.091200009 0.72000003
-0.39428574 0.091200009 0.72000003
-0.39291432 0.091200009 0.72000003
-0.39099908 0.091073342 0.71900004
-0.38962954 0.091073342 0.71900004
-0.38880002 0.091200009 0.72000003
-0.38742861 0.091200009 0.72000003
-0.38605717 0.091200009 0.72000003
-0.38468572 0.091200009 0.72000003
-0.38331431 0.091200009 0.72000003
-0.38141242 0.091073342 0.71900004
-0.38004288 0.091073342 0.71900004
-0.37867334 0.091073342 0.71900004
-0.37730384 0.091073342 0.71900004
-0.3561686 0.092340007 0.72900003
-0.35478002 0.092340007 0.72900003
-0.35339144 0.092340007 0.72900003
-0.35152003 0.09221334 0.72800004
-0.35061431 0.092340007 0.72900003
-0.34922573 0.092340007 0.72900003
-0.34783718 0.092340007 0.72900003
-0.34597334 0.09221334 0.72800004
-0.34367144 0.092340007 0.72900003
-0.34228289 0.092340007 0.72900003
-0.34089431 0.092340007 0.72900003
-0.33765337 0.09221334 0.72800004
-0.3362667 0.09221334 0.72800004
-0.33257717 0.091960005 0.72600001
-0.39647716 0.092442863 0.71900004
-0.39400861 0.092185721 0.71700001
-0.39264289 0.092185721 0.71700001
-0.39127716 0.092185721 0.71700001
-0.38936764 0.092057146 0.71600002
-0.38800383 0.092057146 0.71600002
-0.38718003 0.092185721 0.71700001
-0.38581431 0.092185721 0.71700001
-0.38444859 0.092185721 0.71700001
-0.3825486 0.092057146 0.71600002
-0.38118479 0.092057146 0.71600002
-0.37982097 0.092057146 0.71600002
-0.37845716 0.092057146 0.71600002
-0.37604001 0.091800004 0.71400005
-0.37468001 0.091800004 0.71400005
-0.37332001 0.091800004 0.71400005
-0.37196001 0.091800004 0.71400005
-0.37060001 0.091800004 0.71400005
-0.36924002 0.091800004 0.71400005
-0.36788002 0.091800004 0.71400005
-0.3660067 0.091671437 0.71300006
-0.36464858 0.091671437 0.71300006
-0.35429335 0.093600005 0.72800004
-0.35193717 0.093342863 0.72600001
-0.35007146 0.093214288 0.72500002
-0.34917146 0.093342863 0.72600001
-0.34730956 0.093214288 0.72500002
-0.34592858 0.093214288 0.72500002
-0.34454763 0.093214288 0.72500002
-0.34316668 0.093214288 0.72500002
-0.34178573 0.093214288 0.72500002
-0.34087431 0.093342863 0.72600001
-0.33949146 0.093342863 0.72600001
-0.3381086 0.093342863 0.72600001
-0.33672574 0.093342863 0.72600001
-0.33534288 0.093342863 0.72600001
-0.33396003 0.093342863 0.72600001
-0.33257717 0.093342863 0.72600001
-0.33119431 0.093342863 0.72600001
-0.32935718 0.093214288 0.72500002
-0.38828003 0.093160003 0.71400005
-0.38637811 0.093029529 0.71300006
-0.38556004 0.093160003 0.71400005
-0.38527623 0.09342096 0.71600002
-0.38391241 0.09342096 0.71600002
-0.3825486 0.09342096 0.71600002
-0.38118479 0.09342096 0.71600002
-0.37876001 0.093160003 0.71400005
-0.37740001 0.093160003 0.71400005
-0.37604001 0.093160003 0.71400005
-0.37415525 0.093029529 0.71300006
-0.37332001 0.093160003 0.71400005
-0.37143907 0.093029529 0.71300006
-0.37008098 0.093029529 0.71300006
-0.36872289 0.093029529 0.71300006
-0.36736479 0.093029529 0.71300006
-0.3660067 0.093029529 0.71300006
-0.36362574 0.09276858 0.71100003
-0.35429335 0.09498667 0.72800004
-0.35193717 0.094725721 0.72600001
-0.35007146 0.094595246 0.72500002
-0.34772858 0.094334289 0.72300005
-0.34635144 0.094334289 0.72300005
-0.34497431 0.094334289 0.72300005
-0.34359717 0.094334289 0.72300005
-0.34316668 0.094595246 0.72500002
-0.34178573 0.094595246 0.72500002
-0.34040478 0.094595246 0.72500002
-0.33949146 0.094725721 0.72600001
-0.33764288 0.094595246 0.72500002
-0.33626193 0.094595246 0.72500002
-0.33534288 0.094725721 0.72600001
-0.33350003 0.094595246 0.72500002
-0.33211908 0.094595246 0.72500002
-0.33073813 0.094595246 0.72500002
-0.32935718 0.094595246 0.72500002
-0.32707146 0.094334289 0.72300005
-0.38964003 0.094520003 0.71400005
-0.38828003 0.094520003 0.71400005
-0.38800383 0.094784766 0.71600002
-0.38664001 0.094784766 0.71600002
-0.38527623 0.094784766 0.71600002
-0.38284004 0.094520003 0.71400005
-0.38148004 0.094520003 0.71400005
-0.38012004 0.094520003 0.71400005
-0.37876001 0.094520003 0.71400005
-0.37740001 0.094520003 0.71400005
-0.37551335 0.094387628 0.71300006
-0.37415525 0.094387628 0.71300006
-0.37279716 0.094387628 0.71300006
-0.37143907 0.094387628 0.71300006
-0.37008098 0.094387628 0.71300006
-0.3676886 0.094122864 0.71100003
-0.36736479 0.094387628 0.71300006
-0.36498001 0.094122864 0.71100003
-0.36362574 0.094122864 0.71100003
-0.35470289 0.096108578 0.72600001
-0.35332003 0.096108578 0.72600001
-0.35145241 0.095976196 0.72500002
-0.35007146 0.095976196 0.72500002
-0.34724763 0.09557905 0.72200006
-0.3458724 0.09557905 0.72200006
-0.34449717 0.09557905 0.72200006
-0.34359717 0.095711432 0.72300005
-0.34222001 0.095711432 0.72300005
-0.34084287 0.095711432 0.72300005
-0.33946574 0.095711432 0.72300005
-0.33902383 0.095976196 0.72500002
-0.33764288 0.095976196 0.72500002
-0.33626193 0.095976196 0.72500002
-0.33488098 0.095976196 0.72500002
-0.33350003 0.095976196 0.72500002
-0.33120286 0.095711432 0.72300005
-0.32982573 0.095711432 0.72300005
-0.38828003 0.095880009 0.71400005
-0.38692003 0.095880009 0.71400005
-0.38556004 0.095880009 0.71400005
-0.38420004 0.095880009 0.71400005
-0.38284004 0.095880009 0.71400005
-0.38148004 0.095880009 0.71400005
-0.37958765 0.09574572 0.71300006
-0.37876001 0.095880009 0.71400005
-0.37687147 0.09574572 0.71300006
-0.37446001 0.095477149 0.71100003
-0.37310573 0.095477149 0.71100003
-0.37279716 0.09574572 0.71300006
-0.37143907 0.09574572 0.71300006
-0.37008098 0.09574572 0.71300006
-0.3676886 0.095477149 0.71100003
-0.36633432 0.095477149 0.71100003
-0.36498001 0.095477149 0.71100003
-0.36362574 0.095477149 0.71100003
-0.35421431 0.097357146 0.72500002
-0.35283336 0.097357146 0.72500002
-0.35048288 0.097088575 0.72300005
-0.34862289 0.096954294 0.72200006
-0.34628573 0.096685722 0.72000003
-0.34491432 0.096685722 0.72000003
-0.34354287 0.096685722 0.72000003
-0.34217146 0.096685722 0.72000003
-0.34080002 0.096685722 0.72000003
-0.34037146 0.096954294 0.72200006
-0.3389962 0.096954294 0.72200006
-0.3380886 0.097088575 0.72300005
-0.33671144 0.097088575 0.72300005
-0.33626193 0.097357146 0.72500002
-0.33395717 0.097088575 0.72300005
-0.33258003 0.097088575 0.72300005
-0.33074477 0.096954294 0.72200006
-0.32936954 0.096954294 0.72200006
-0.3877143 0.096422866 0.708
-0.38636574 0.096422866 0.708
-0.38501716 0.096422866 0.708
-0.3836686 0.096422866 0.708
-0.38232002 0.096422866 0.708
-0.38204765 0.096695244 0.71000004
-0.38069525 0.096695244 0.71000004
-0.37934288 0.096695244 0.71000004
-0.37852287 0.096831433 0.71100003
-0.3771686 0.096831433 0.71100003
-0.37581432 0.096831433 0.71100003
-0.37446001 0.096831433 0.71100003
-0.37310573 0.096831433 0.71100003
-0.37175146 0.096831433 0.71100003
-0.37039718 0.096831433 0.71100003
-0.36904287 0.096831433 0.71100003
-0.36717147 0.096695244 0.71000004
-0.36478859 0.096422866 0.708
-0.35177144 0.098057151 0.72000003
-0.35040003 0.098057151 0.72000003
-0.34902859 0.098057151 0.72000003
-0.34717432 0.097920962 0.71900004
-0.34580478 0.097920962 0.71900004
-0.34443527 0.097920962 0.71900004
-0.34306574 0.097920962 0.71900004
-0.34074575 0.097648576 0.71700001
-0.3403267 0.097920962 0.71900004
-0.3394286 0.098057151 0.72000003
-0.33805716 0.098057151 0.72000003
-0.33762097 0.098329529 0.72200006
-0.33624575 0.098329529 0.72200006
-0.33626193 0.098738104 0.72500002
-0.33488098 0.098738104 0.72500002
-0.33350003 0.098738104 0.72500002
-0.32982859 0.098057151 0.72000003
-0.32936954 0.098329529 0.72200006
-0.32708573 0.098057151 0.72000003
-0.3915143 0.098047629 0.71000004
-0.39016193 0.098047629 0.71000004
-0.3877143 0.097771436 0.708
-0.38582003 0.097633339 0.70700002
-0.38447335 0.097633339 0.70700002
-0.38312671 0.097633339 0.70700002
-0.38178003 0.097633339 0.70700002
-0.38043335 0.097633339 0.70700002
-0.3790867 0.097633339 0.70700002
-0.37827432 0.097771436 0.708
-0.37692574 0.097771436 0.708
-0.37663811 0.098047629 0.71000004
-0.37528574 0.098047629 0.71000004
-0.37393335 0.098047629 0.71000004
-0.37258098 0.098047629 0.71000004
-0.37122861 0.098047629 0.71000004
-0.36987621 0.098047629 0.71000004
-0.36852384 0.098047629 0.71000004
-0.36613718 0.097771436 0.708
-0.36478859 0.097771436 0.708
-0.34845334 0.098876201 0.71600002
-0.34708956 0.098876201 0.71600002
-0.3462086 0.09901429 0.71700001
-0.34484288 0.09901429 0.71700001
-0.34347716 0.09901429 0.71700001
-0.34211144 0.09901429 0.71700001
-0.34027049 0.098876201 0.71600002
-0.33938003 0.09901429 0.71700001
-0.3394286 0.099428579 0.72000003
-0.33805716 0.099428579 0.72000003
-0.3353143 0.099428579 0.72000003
-0.3353343 0.099842861 0.72300005
-0.33349526 0.099704765 0.72200006
-0.33258003 0.099842861 0.72300005
-0.3293705 0.099290483 0.71900004
-0.32572287 0.09901429 0.71700001
-0.39421907 0.099400006 0.71000004
-0.39176002 0.099120006 0.708
-0.39041147 0.099120006 0.708
-0.38906288 0.099120006 0.708
-0.3877143 0.099120006 0.708
-0.38582003 0.09898001 0.70700002
-0.38447335 0.09898001 0.70700002
-0.38204288 0.098700009 0.70500004
-0.38070002 0.098700009 0.70500004
-0.37935716 0.098700009 0.70500004
-0.3780143 0.098700009 0.70500004
-0.37774003 0.09898001 0.70700002
-0.37692574 0.099120006 0.708
-0.37557718 0.099120006 0.708
-0.3742286 0.099120006 0.708
-0.37288001 0.099120006 0.708
-0.37258098 0.099400006 0.71000004
-0.35265145 0.099120006 0.708
-0.35130289 0.099120006 0.708
-0.34946004 0.09898001 0.70700002
-0.34542003 0.09898001 0.70700002
-0.34602001 0.09954001 0.71100003
-0.34466574 0.09954001 0.71100003
-0.34476003 0.099960007 0.71400005
-0.34340003 0.099960007 0.71400005
-0.34204003 0.099960007 0.71400005
-0.34068003 0.099960007 0.71400005
-0.34027049 0.10024001 0.71600002
-0.33347908 0.10066 0.71900004
-0.39041147 0.10046858 0.708
-0.38906288 0.10046858 0.708
-0.38607144 0.10004286 0.70500004
-0.38472861 0.10004286 0.70500004
-0.38338575 0.10004286 0.70500004
-0.38204288 0.10004286 0.70500004
-0.38016003 0.099900961 0.70400006
-0.37881908 0.099900961 0.70400006
-0.37747812 0.099900961 0.70400006
-0.37667146 0.10004286 0.70500004
-0.37639335 0.10032667 0.70700002
-0.3750467 0.10032667 0.70700002
-0.3742286 0.10046858 0.708
-0.37288001 0.10046858 0.708
-0.37258098 0.10075239 0.71000004
-0.35500002 0.10075239 0.71000004
-0.35265145 0.10046858 0.708
-0.35130289 0.10046858 0.708
-0.34946004 0.10032667 0.70700002
-0.34811336 0.10032667 0.70700002
-0.34578574 0.10004286 0.70500004
-0.34542003 0.10032667 0.70700002
-0.34456003 0.10046858 0.708
-0.34321144 0.10046858 0.708
-0.34186289 0.10046858 0.708
-0.3414762 0.10075239 0.71000004
-0.34060287 0.10089429 0.71100003
-0.33877146 0.10075239 0.71000004
-0.33789432 0.10089429 0.71100003
-0.38986003 0.10167334 0.70700002
-0.38741431 0.10138572 0.70500004
-0.38607144 0.10138572 0.70500004
-0.38418287 0.10124191 0.70400006
-0.38284194 0.10124191 0.70400006
-0.38150099 0.10124191 0.70400006
-0.38016003 0.10124191 0.70400006
-0.37828097 0.10109811 0.70300001
-0.37694192 0.10109811 0.70300001
-0.37613717 0.10124191 0.70400006
-0.37479621 0.10124191 0.70400006
-0.37398574 0.10138572 0.70500004
-0.37370002 0.10167334 0.70700002
-0.37288001 0.10181715 0.708
-0.35400003 0.10181715 0.708
-0.35265145 0.10181715 0.708
-0.35080668 0.10167334 0.70700002
-0.34847146 0.10138572 0.70500004
-0.3471286 0.10138572 0.70500004
-0.34578574 0.10138572 0.70500004
-0.34542003 0.10167334 0.70700002
-0.34456003 0.10181715 0.708
-0.34272668 0.10167334 0.70700002
-0.34186289 0.10181715 0.708
-0.3414762 0.10210477 0.71000004
-0.34012383 0.10210477 0.71000004
-0.33781716 0.10181715 0.708
-0.38741431 0.10272858 0.70500004
-0.38552383 0.10258286 0.70400006
-0.38418287 0.10258286 0.70400006
-0.38284194 0.10258286 0.70400006
-0.38150099 0.10258286 0.70400006
-0.38016003 0.10258286 0.70400006
-0.37828097 0.10243715 0.70300001
-0.37747812 0.10258286 0.70400006
-0.37613717 0.10258286 0.70400006
-0.37479621 0.10258286 0.70400006
-0.37398574 0.10272858 0.70500004
-0.37370002 0.10302 0.70700002
-0.37235335 0.10302 0.70700002
-0.3710067 0.10302 0.70700002
-0.35400003 0.10316572 0.708
-0.35215336 0.10302 0.70700002
-0.35080668 0.10302 0.70700002
-0.34847146 0.10272858 0.70500004
-0.3471286 0.10272858 0.70500004
-0.34578574 0.10272858 0.70500004
-0.34542003 0.10302 0.70700002
-0.34407336 0.10302 0.70700002
-0.34321144 0.10316572 0.708
-0.34186289 0.10316572 0.708
-0.3405143 0.10316572 0.708
-0.34012383 0.10345715 0.71000004
-0.33781716 0.10316572 0.708
-0.33741906 0.10345715 0.71000004
-0.38497621 0.10377619 0.70300001
-0.38363716 0.10377619 0.70300001
-0.38229811 0.10377619 0.70300001
-0.38150099 0.10392382 0.70400006
-0.37962002 0.10377619 0.70300001
-0.37828097 0.10377619 0.70300001
-0.37694192 0.10377619 0.70300001
-0.37560287 0.10377619 0.70300001
-0.37426382 0.10377619 0.70300001
-0.37292477 0.10377619 0.70300001
-0.37158573 0.10377619 0.70300001
-0.37024668 0.10377619 0.70300001
-0.36785811 0.10348096 0.70100003
-0.35350001 0.10436668 0.70700002
-0.35215336 0.10436668 0.70700002
-0.3498143 0.10407144 0.70500004
-0.34847146 0.10407144 0.70500004
-0.34614384 0.10377619 0.70300001
-0.34480479 0.10377619 0.70300001
-0.34346575 0.10377619 0.70300001
-0.3421267 0.10377619 0.70300001
-0.34175718 0.10407144 0.70500004
-0.34041432 0.10407144 0.70500004
-0.34003335 0.10436668 0.70700002
-0.33916575 0.10451429 0.708
-0.33734003 0.10436668 0.70700002
-0.38521621 0.1048162 0.70100003
-0.38497621 0.10511524 0.70300001
-0.37319908 0.1048162 0.70100003
-0.37292477 0.10511524 0.70300001
-0.37052861 0.1048162 0.70100003
-0.36919335 0.1048162 0.70100003
-0.36785811 0.1048162 0.70100003
-0.36600003 0.10466667 0.70000005
-0.34797716 0.10526477 0.70400006
-0.34515908 0.1048162 0.70100003
-0.34382382 0.1048162 0.70100003
-0.34200001 0.10466667 0.70000005
-0.34066668 0.10466667 0.70000005
-0.34078765 0.10511524 0.70300001
-0.3394486 0.10511524 0.70300001
-0.3385905 0.10526477 0.70400006
-0.33724955 0.10526477 0.70400006
-0.32387334 0.10571334 0.70700002
-0.31620002 0.10676001 0.71400005
-0.37319908 0.10615144 0.70100003
-0.37292477 0.10645429 0.70300001
-0.37052861 0.10615144 0.70100003
-0.36919335 0.10615144 0.70100003
-0.36785811 0.10615144 0.70100003
-0.36600003 0.10600001 0.70000005
-0.34847146 0.10675715 0.70500004
-0.34614384 0.10645429 0.70300001
-0.34480479 0.10645429 0.70300001
-0.34248859 0.10615144 0.70100003
-0.34115335 0.10615144 0.70100003
-0.34078765 0.10645429 0.70300001
-0.3394486 0.10645429 0.70300001
-0.33810955 0.10645429 0.70300001
-0.3367705 0.10645429 0.70300001
-0.32295716 0.10675715 0.70500004
-0.31620002 0.10812001 0.71400005
-0.37319908 0.10748667 0.70100003
-0.37292477 0.10779334 0.70300001
-0.37052861 0.10748667 0.70100003
-0.36919335 0.10748667 0.70100003
-0.36785811 0.10748667 0.70100003
-0.36600003 0.10733334 0.70000005
-0.34515908 0.10748667 0.70100003
-0.34382382 0.10748667 0.70100003
-0.34200001 0.10733334 0.70000005
-0.34066668 0.10733334 0.70000005
-0.33933336 0.10733334 0.70000005
-0.33655146 0.10687334 0.69700003
-0.33522382 0.10687334 0.69700003
-0.3303867 0.10702667 0.69800001
-0.32858574 0.10687334 0.69700003
-0.32725811 0.10687334 0.69700003
-0.32593051 0.10687334 0.69700003
-0.32460287 0.10687334 0.69700003
-0.32379526 0.10748667 0.70100003
-0.32246003 0.10748667 0.70100003
-0.32249907 0.10794667 0.70400006
-0.32070193 0.10779334 0.70300001
-0.31936288 0.10779334 0.70300001
-0.37292477 0.10913239 0.70300001
-0.37052861 0.10882191 0.70100003
-0.36761335 0.1083562 0.69800001
-0.36733335 0.10866667 0.70000005
-0.36600003 0.10866667 0.70000005
-0.35734573 0.10726953 0.69100004
-0.34466669 0.10866667 0.70000005
-0.34333336 0.10866667 0.70000005
-0.34102288 0.1083562 0.69800001
-0.33969337 0.1083562 0.69800001
-0.33522382 0.10820096 0.69700003
-0.33314192 0.10882191 0.70100003
-0.32991335 0.10820096 0.69700003
-0.32858574 0.10820096 0.69700003
-0.32631907 0.10789049 0.69500005
-0.32593051 0.10820096 0.69700003
-0.32506859 0.1083562 0.69800001
-0.32373908 0.1083562 0.69800001
-0.32379526 0.10882191 0.70100003
-0.32246003 0.10882191 0.70100003
-0.32112479 0.10882191 0.70100003
-0.31978956 0.10882191 0.70100003
-0.3184543 0.10882191 0.70100003
-0.36603335 0.10921429 0.69500005
-0.36575907 0.10952858 0.69700003
-0.36443144 0.10952858 0.69700003
-0.36206192 0.10921429 0.69500005
-0.35814288 0.10842858 0.69000006
-0.35734573 0.10858572 0.69100004
-0.34368193 0.10968572 0.69800001
-0.34235239 0.10968572 0.69800001
-0.3405343 0.10952858 0.69700003
-0.3392067 0.10952858 0.69700003
-0.33690953 0.10921429 0.69500005
-0.33655146 0.10952858 0.69700003
-0.33522382 0.10952858 0.69700003
-0.3329381 0.10921429 0.69500005
-0.33161432 0.10921429 0.69500005
-0.33124098 0.10952858 0.69700003
-0.32991335 0.10952858 0.69700003
-0.32858574 0.10952858 0.69700003
-0.32631907 0.10921429 0.69500005
-0.32593051 0.10952858 0.69700003
-0.32506859 0.10968572 0.69800001
-0.32466668 0.11000001 0.70000005
-0.32379526 0.11015715 0.70100003
-0.32246003 0.11015715 0.70100003
-0.32112479 0.11015715 0.70100003
-0.31978956 0.11015715 0.70100003
-0.31800002 0.11000001 0.70000005
-0.36392668 0.10990191 0.69100004
-0.36366004 0.11022001 0.69300002
-0.35945717 0.10974286 0.69000006
-0.35658574 0.10926572 0.68700004
-0.3568286 0.10974286 0.69000006
-0.34318954 0.1108562 0.69700003
-0.34186193 0.1108562 0.69700003
-0.33955717 0.1105381 0.69500005
-0.33823335 0.1105381 0.69500005
-0.33690953 0.1105381 0.69500005
-0.33558574 0.1105381 0.69500005
-0.33426192 0.1105381 0.69500005
-0.33245906 0.11037906 0.69400001
-0.33113715 0.11037906 0.69400001
-0.3302905 0.1105381 0.69500005
-0.32896668 0.1105381 0.69500005
-0.32717144 0.11037906 0.69400001
-0.32584953 0.11037906 0.69400001
-0.32499525 0.1105381 0.69500005
-0.32460287 0.1108562 0.69700003
-0.32327527 0.1108562 0.69700003
-0.32333335 0.11133334 0.70000005
-0.32108003 0.11101525 0.69800001
-0.3206667 0.11133334 0.70000005
-0.31933334 0.11133334 0.70000005
-0.31709144 0.11101525 0.69800001
-0.31530955 0.1108562 0.69700003
-0.31398192 0.1108562 0.69700003
-0.36340001 0.11105715 0.69000006
-0.3550286 0.11009143 0.68400002
-0.35631144 0.1108962 0.68900001
-0.34318954 0.11218382 0.69700003
-0.34235239 0.11234477 0.69800001
-0.33955717 0.11186191 0.69500005
-0.33823335 0.11186191 0.69500005
-0.33690953 0.11186191 0.69500005
-0.33378097 0.11170096 0.69400001
-0.33198002 0.11154 0.69300002
-0.33066002 0.11154 0.69300002
-0.32981527 0.11170096 0.69400001
-0.32896668 0.11186191 0.69500005
-0.32717144 0.11170096 0.69400001
-0.32584953 0.11170096 0.69400001
-0.32452765 0.11170096 0.69400001
-0.32367146 0.11186191 0.69500005
-0.32234764 0.11186191 0.69500005
-0.32194763 0.11218382 0.69700003
-0.32062003 0.11218382 0.69700003
-0.31837621 0.11186191 0.69500005
-0.31796479 0.11218382 0.69700003
-0.31663716 0.11218382 0.69700003
-0.31440479 0.11186191 0.69500005
-0.3126305 0.11170096 0.69400001
-0.31130859 0.11170096 0.69400001
-0.3560667 0.11172001 0.68600005
-0.35476002 0.11172001 0.68600005
-0.33102193 0.11253429 0.69100004
-0.33066002 0.11286001 0.69300002
-0.32981527 0.11302286 0.69400001
-0.32849336 0.11302286 0.69400001
-0.32670003 0.11286001 0.69300002
-0.32538003 0.11286001 0.69300002
-0.32406002 0.11286001 0.69300002
-0.32320574 0.11302286 0.69400001
-0.32142001 0.11286001 0.69300002
-0.32102382 0.11318572 0.69500005
-0.31924003 0.11302286 0.69400001
-0.31746003 0.11286001 0.69300002
-0.31705239 0.11318572 0.69500005
-0.3157286 0.11318572 0.69500005
-0.31395242 0.11302286 0.69400001
-0.3126305 0.11302286 0.69400001
