# .PCD v0.7 - Point Cloud Data file format
VERSION 0.7
FIELDS x y z
SIZE 4 4 4
TYPE F F F
COUNT 1 1 1
WIDTH 1358
HEIGHT 1
VIEWPOINT 0 0 0 1 0 0 0
POINTS 1358
DATA ascii
-0.016071429 0.071357146 0.67500001
-0.014785715 0.071357146 0.67500001
-0.013500001 0.071357146 0.67500001
-0.012214286 0.071357146 0.67500001
-0.010912382 0.07125143 0.67400002
-0.0096285725 0.07125143 0.67400002
-0.008344762 0.07125143 0.67400002
-0.007060953 0.07125143 0.67400002
-0.0057600006 0.071040004 0.67200005
-0.0044800001 0.071040004 0.67200005
-0.0032000002 0.071040004 0.67200005
-0.001917143 0.070934288 0.671
-0.00063904765 0.070934288 0.671
0.00063904765 0.070934288 0.671
0.001917143 0.070934288 0.671
0.0031952383 0.070934288 0.671
0.0044666668 0.070828579 0.67000002
0.0057428577 0.070828579 0.67000002
0.0070190481 0.070828579 0.67000002
0.0082952389 0.070828579 0.67000002
0.0095714293 0.070828579 0.67000002
0.01084762 0.070828579 0.67000002
0.01212381 0.070828579 0.67000002
0.013400001 0.070828579 0.67000002
0.014676192 0.070828579 0.67000002
0.015952382 0.070828579 0.67000002
0.017202858 0.070722863 0.66900003
0.018504763 0.070828579 0.67000002
0.019810477 0.070934288 0.671
0.021120001 0.071040004 0.67200005
0.022466669 0.07125143 0.67400002
0.023785716 0.071357146 0.67500001
0.025108574 0.071462862 0.67600006
0.026474288 0.071674287 0.67800003
0.027765715 0.071674287 0.67800003
0.029100003 0.071780004 0.67900002
0.030438097 0.07188572 0.68000001
0.031733334 0.07188572 0.68000001
0.032980002 0.071780004 0.67900002
0.034273334 0.071780004 0.67900002
0.035566669 0.071780004 0.67900002
0.036860004 0.071780004 0.67900002
0.038153335 0.071780004 0.67900002
0.039446671 0.071780004 0.67900002
0.040740002 0.071780004 0.67900002
0.042033337 0.071780004 0.67900002
0.043390479 0.07188572 0.68000001
0.044685718 0.07188572 0.68000001
0.045913335 0.071780004 0.67900002
-0.10882191 0.075440958 0.70100003
-0.10748667 0.075440958 0.70100003
-0.10615144 0.075440958 0.70100003
-0.1048162 0.075440958 0.70100003
-0.10348096 0.075440958 0.70100003
-0.10200001 0.075333342 0.70000005
-0.10066667 0.075333342 0.70000005
-0.099049531 0.075118102 0.69800001
-0.097720005 0.075118102 0.69800001
-0.096252389 0.075010478 0.69700003
-0.09492477 0.075010478 0.69700003
-0.09332858 0.074795246 0.69500005
-0.092004769 0.074795246 0.69500005
-0.090680957 0.074795246 0.69500005
-0.089228578 0.074687622 0.69400001
-0.087906674 0.074687622 0.69400001
-0.086584769 0.074687622 0.69400001
-0.085140005 0.074580006 0.69300002
-0.083578102 0.074364766 0.69100004
-0.082261913 0.074364766 0.69100004
-0.080945723 0.074364766 0.69100004
-0.079629526 0.074364766 0.69100004
-0.078313336 0.074364766 0.69100004
-0.076997146 0.074364766 0.69100004
-0.075680956 0.074364766 0.69100004
-0.074364766 0.074364766 0.69100004
-0.07294286 0.07425715 0.69000006
-0.071628578 0.07425715 0.69000006
-0.070314288 0.07425715 0.69000006
-0.068900004 0.074149527 0.68900001
-0.067587622 0.074149527 0.68900001
-0.066082865 0.073934294 0.68700004
-0.06477429 0.073934294 0.68700004
-0.063373335 0.073826671 0.68600005
-0.062066671 0.073826671 0.68600005
-0.060760003 0.073826671 0.68600005
-0.059453338 0.073826671 0.68600005
-0.05814667 0.073826671 0.68600005
-0.056840003 0.073826671 0.68600005
-0.055533338 0.073826671 0.68600005
-0.05422667 0.073826671 0.68600005
-0.052920002 0.073826671 0.68600005
-0.051462859 0.073611431 0.68400002
-0.050160002 0.073611431 0.68400002
-0.048857145 0.073611431 0.68400002
-0.047554288 0.073611431 0.68400002
-0.046251431 0.073611431 0.68400002
-0.044948574 0.073611431 0.68400002
-0.043581907 0.073503815 0.68300003
-0.042280953 0.073503815 0.68300003
-0.040920004 0.073396198 0.68200004
-0.039620955 0.073396198 0.68200004
-0.038209528 0.073180959 0.68000001
-0.036914289 0.073180959 0.68000001
-0.035566669 0.073073335 0.67900002
-0.034273334 0.073073335 0.67900002
-0.032980002 0.073073335 0.67900002
-0.031640001 0.072965719 0.67800003
-0.030348573 0.072965719 0.67800003
-0.02897143 0.072750479 0.67600006
-0.027683811 0.072750479 0.67600006
-0.026396193 0.072750479 0.67600006
-0.025108574 0.072750479 0.67600006
-0.023785716 0.072642863 0.67500001
-0.022500001 0.072642863 0.67500001
-0.021245716 0.072750479 0.67600006
-0.019958096 0.072750479 0.67600006
-0.018670477 0.072750479 0.67600006
-0.017357145 0.072642863 0.67500001
-0.016071429 0.072642863 0.67500001
-0.014785715 0.072642863 0.67500001
-0.013500001 0.072642863 0.67500001
-0.012214286 0.072642863 0.67500001
-0.010912382 0.072535239 0.67400002
-0.0096285725 0.072535239 0.67400002
-0.008344762 0.072535239 0.67400002
-0.0070400005 0.072320007 0.67200005
-0.0057600006 0.072320007 0.67200005
-0.0044800001 0.072320007 0.67200005
-0.0031952383 0.072212383 0.671
-0.0019142858 0.072104767 0.67000002
-0.00063904765 0.072212383 0.671
0.00063904765 0.072212383 0.671
0.001917143 0.072212383 0.671
0.0031904764 0.072104767 0.67000002
0.0044666668 0.072104767 0.67000002
0.0057428577 0.072104767 0.67000002
0.0070190481 0.072104767 0.67000002
0.0082952389 0.072104767 0.67000002
0.0095714293 0.072104767 0.67000002
0.01084762 0.072104767 0.67000002
0.01212381 0.072104767 0.67000002
0.013400001 0.072104767 0.67000002
0.014676192 0.072104767 0.67000002
0.015952382 0.072104767 0.67000002
0.017228572 0.072104767 0.67000002
0.018504763 0.072104767 0.67000002
0.019810477 0.072212383 0.671
0.021120001 0.072320007 0.67200005
0.022466669 0.072535239 0.67400002
0.023785716 0.072642863 0.67500001
0.025108574 0.072750479 0.67600006
0.026474288 0.072965719 0.67800003
0.027765715 0.072965719 0.67800003
0.029100003 0.073073335 0.67900002
0.030393336 0.073073335 0.67900002
0.031686667 0.073073335 0.67900002
0.032980002 0.073073335 0.67900002
0.034273334 0.073073335 0.67900002
0.035566669 0.073073335 0.67900002
0.036860004 0.073073335 0.67900002
0.038153335 0.073073335 0.67900002
0.039446671 0.073073335 0.67900002
0.040740002 0.073073335 0.67900002
0.042033337 0.073073335 0.67900002
0.043326668 0.073073335 0.67900002
0.044620004 0.073073335 0.67900002
0.045845717 0.072965719 0.67800003
-0.10882191 0.076776199 0.70100003
-0.10748667 0.076776199 0.70100003
-0.10615144 0.076776199 0.70100003
-0.1048162 0.076776199 0.70100003
-0.10348096 0.076776199 0.70100003
-0.10214572 0.076776199 0.70100003
-0.10081048 0.076776199 0.70100003
-0.099333338 0.076666668 0.70000005
-0.098000005 0.076666668 0.70000005
-0.096390486 0.076447621 0.69800001
-0.09492477 0.076338097 0.69700003
-0.093597151 0.076338097 0.69700003
-0.092269532 0.076338097 0.69700003
-0.090680957 0.07611905 0.69500005
-0.089357145 0.07611905 0.69500005
-0.088033341 0.07611905 0.69500005
-0.086709529 0.07611905 0.69500005
-0.085262865 0.076009527 0.69400001
-0.08394096 0.076009527 0.69400001
-0.082619056 0.076009527 0.69400001
-0.081180006 0.075900003 0.69300002
-0.079860002 0.075900003 0.69300002
-0.078540005 0.075900003 0.69300002
-0.076997146 0.075680956 0.69100004
-0.075680956 0.075680956 0.69100004
-0.074364766 0.075680956 0.69100004
-0.073048577 0.075680956 0.69100004
-0.071732387 0.075680956 0.69100004
-0.070314288 0.075571433 0.69000006
-0.069000006 0.075571433 0.69000006
-0.067685716 0.075571433 0.69000006
-0.066371433 0.075571433 0.69000006
-0.064962864 0.075461909 0.68900001
-0.063650481 0.075461909 0.68900001
-0.062157147 0.075242862 0.68700004
-0.060848575 0.075242862 0.68700004
-0.059540004 0.075242862 0.68700004
-0.05814667 0.075133339 0.68600005
-0.056840003 0.075133339 0.68600005
-0.055533338 0.075133339 0.68600005
-0.05422667 0.075133339 0.68600005
-0.052920002 0.075133339 0.68600005
-0.051613338 0.075133339 0.68600005
-0.05030667 0.075133339 0.68600005
-0.049000002 0.075133339 0.68600005
-0.047554288 0.074914292 0.68400002
-0.046251431 0.074914292 0.68400002
-0.044948574 0.074914292 0.68400002
-0.043581907 0.074804768 0.68300003
-0.042280953 0.074804768 0.68300003
-0.040980004 0.074804768 0.68300003
-0.039620955 0.074695244 0.68200004
-0.038321909 0.074695244 0.68200004
-0.037022859 0.074695244 0.68200004
-0.035566669 0.074366674 0.67900002
-0.034273334 0.074366674 0.67900002
-0.032980002 0.074366674 0.67900002
-0.031640001 0.07425715 0.67800003
-0.03025905 0.074038103 0.67600006
-0.02897143 0.074038103 0.67600006
-0.027683811 0.074038103 0.67600006
-0.026396193 0.074038103 0.67600006
-0.025108574 0.074038103 0.67600006
-0.023785716 0.07392858 0.67500001
-0.022500001 0.07392858 0.67500001
-0.021245716 0.074038103 0.67600006
-0.019958096 0.074038103 0.67600006
-0.018642858 0.07392858 0.67500001
-0.017357145 0.07392858 0.67500001
-0.016071429 0.07392858 0.67500001
-0.014785715 0.07392858 0.67500001
-0.013500001 0.07392858 0.67500001
-0.012214286 0.07392858 0.67500001
-0.010912382 0.073819056 0.67400002
-0.0096285725 0.073819056 0.67400002
-0.008344762 0.073819056 0.67400002
-0.0070400005 0.073600002 0.67200005
-0.0057600006 0.073600002 0.67200005
-0.0044800001 0.073600002 0.67200005
-0.0031952383 0.073490478 0.671
-0.001917143 0.073490478 0.671
-0.00063904765 0.073490478 0.671
0.00063904765 0.073490478 0.671
0.001917143 0.073490478 0.671
0.0031904764 0.073380955 0.67000002
0.0044666668 0.073380955 0.67000002
0.0057428577 0.073380955 0.67000002
0.0070190481 0.073380955 0.67000002
0.0082952389 0.073380955 0.67000002
0.0095714293 0.073380955 0.67000002
0.01084762 0.073380955 0.67000002
0.01212381 0.073380955 0.67000002
0.013400001 0.073380955 0.67000002
0.014676192 0.073380955 0.67000002
0.015976192 0.073490478 0.671
0.017228572 0.073380955 0.67000002
0.018532382 0.073490478 0.671
0.019810477 0.073490478 0.671
0.021120001 0.073600002 0.67200005
0.022466669 0.073819056 0.67400002
0.023785716 0.07392858 0.67500001
0.025108574 0.074038103 0.67600006
0.026474288 0.07425715 0.67800003
0.027765715 0.07425715 0.67800003
0.029100003 0.074366674 0.67900002
0.030393336 0.074366674 0.67900002
0.031686667 0.074366674 0.67900002
0.032980002 0.074366674 0.67900002
0.034273334 0.074366674 0.67900002
0.035514288 0.07425715 0.67800003
0.036805715 0.07425715 0.67800003
0.038153335 0.074366674 0.67900002
0.039446671 0.074366674 0.67900002
0.040740002 0.074366674 0.67900002
0.042033337 0.074366674 0.67900002
0.043262862 0.07425715 0.67800003
0.044554289 0.07425715 0.67800003
-0.10882191 0.078111432 0.70100003
-0.10748667 0.078111432 0.70100003
-0.10615144 0.078111432 0.70100003
-0.1048162 0.078111432 0.70100003
-0.10348096 0.078111432 0.70100003
-0.10214572 0.078111432 0.70100003
-0.10081048 0.078111432 0.70100003
-0.099475242 0.078111432 0.70100003
-0.098140009 0.078111432 0.70100003
-0.096666671 0.078000002 0.70000005
-0.095060959 0.077777147 0.69800001
-0.093597151 0.077665716 0.69700003
-0.092269532 0.077665716 0.69700003
-0.090941913 0.077665716 0.69700003
-0.089614294 0.077665716 0.69700003
-0.088286676 0.077665716 0.69700003
-0.086709529 0.077442862 0.69500005
-0.085385717 0.077442862 0.69500005
-0.084061913 0.077442862 0.69500005
-0.082619056 0.077331431 0.69400001
-0.081297152 0.077331431 0.69400001
-0.079860002 0.077220008 0.69300002
-0.078540005 0.077220008 0.69300002
-0.077220008 0.077220008 0.69300002
-0.075900003 0.077220008 0.69300002
-0.074364766 0.076997146 0.69100004
-0.073048577 0.076997146 0.69100004
-0.071732387 0.076997146 0.69100004
-0.070416197 0.076997146 0.69100004
-0.069100007 0.076997146 0.69100004
-0.067685716 0.076885723 0.69000006
-0.066371433 0.076885723 0.69000006
-0.065057144 0.076885723 0.69000006
-0.063650481 0.076774292 0.68900001
-0.062338099 0.076774292 0.68900001
-0.060848575 0.07655143 0.68700004
-0.059540004 0.07655143 0.68700004
-0.058231432 0.07655143 0.68700004
-0.056840003 0.076440006 0.68600005
-0.055533338 0.076440006 0.68600005
-0.05422667 0.076440006 0.68600005
-0.052920002 0.076440006 0.68600005
-0.051613338 0.076440006 0.68600005
-0.05030667 0.076440006 0.68600005
-0.049000002 0.076440006 0.68600005
-0.047554288 0.076217145 0.68400002
-0.046251431 0.076217145 0.68400002
-0.044948574 0.076217145 0.68400002
-0.043581907 0.076105721 0.68300003
-0.042280953 0.076105721 0.68300003
-0.040980004 0.076105721 0.68300003
-0.039620955 0.07599429 0.68200004
-0.038321909 0.07599429 0.68200004
-0.037022859 0.07599429 0.68200004
-0.03561905 0.075771436 0.68000001
-0.034323812 0.075771436 0.68000001
-0.032980002 0.075660005 0.67900002
-0.031640001 0.075548574 0.67800003
-0.030348573 0.075548574 0.67800003
-0.02897143 0.07532572 0.67600006
-0.027683811 0.07532572 0.67600006
-0.026396193 0.07532572 0.67600006
-0.025108574 0.07532572 0.67600006
-0.023820953 0.07532572 0.67600006
-0.022533335 0.07532572 0.67600006
-0.021245716 0.07532572 0.67600006
-0.019958096 0.07532572 0.67600006
-0.018670477 0.07532572 0.67600006
-0.017357145 0.075214289 0.67500001
-0.016071429 0.075214289 0.67500001
-0.014785715 0.075214289 0.67500001
-0.013500001 0.075214289 0.67500001
-0.012214286 0.075214289 0.67500001
-0.010912382 0.075102866 0.67400002
-0.0096285725 0.075102866 0.67400002
-0.008344762 0.075102866 0.67400002
-0.0070400005 0.074880004 0.67200005
-0.0057600006 0.074880004 0.67200005
-0.0044800001 0.074880004 0.67200005
-0.0031952383 0.074768573 0.671
-0.001917143 0.074768573 0.671
-0.00063904765 0.074768573 0.671
0.00063904765 0.074768573 0.671
0.0019142858 0.07465715 0.67000002
0.0031904764 0.07465715 0.67000002
0.0044666668 0.07465715 0.67000002
0.0057428577 0.07465715 0.67000002
0.0070190481 0.07465715 0.67000002
0.0082952389 0.07465715 0.67000002
0.0095571438 0.074545719 0.66900003
0.01083143 0.074545719 0.66900003
0.01212381 0.07465715 0.67000002
0.013400001 0.07465715 0.67000002
0.014676192 0.07465715 0.67000002
0.015976192 0.074768573 0.671
0.017228572 0.07465715 0.67000002
0.018532382 0.074768573 0.671
0.019810477 0.074768573 0.671
0.021120001 0.074880004 0.67200005
0.022466669 0.075102866 0.67400002
0.023785716 0.075214289 0.67500001
0.025108574 0.07532572 0.67600006
0.026474288 0.075548574 0.67800003
0.027765715 0.075548574 0.67800003
0.029100003 0.075660005 0.67900002
0.030393336 0.075660005 0.67900002
0.031686667 0.075660005 0.67900002
0.032980002 0.075660005 0.67900002
0.034273334 0.075660005 0.67900002
0.035566669 0.075660005 0.67900002
0.036860004 0.075660005 0.67900002
0.038153335 0.075660005 0.67900002
0.039388575 0.075548574 0.67800003
0.040680002 0.075548574 0.67800003
0.04197143 0.075548574 0.67800003
0.043262862 0.075548574 0.67800003
0.044554289 0.075548574 0.67800003
-0.10928763 0.079786673 0.70400006
-0.10794667 0.079786673 0.70400006
-0.10645429 0.079673335 0.70300001
-0.10511524 0.079673335 0.70300001
-0.10377619 0.079673335 0.70300001
-0.10243715 0.079673335 0.70300001
-0.10081048 0.079446673 0.70100003
-0.099475242 0.079446673 0.70100003
-0.098140009 0.079446673 0.70100003
-0.096666671 0.079333335 0.70000005
-0.095333338 0.079333335 0.70000005
-0.093731433 0.079106674 0.69800001
-0.092401914 0.079106674 0.69800001
-0.090941913 0.078993335 0.69700003
-0.089614294 0.078993335 0.69700003
-0.088286676 0.078993335 0.69700003
-0.086959057 0.078993335 0.69700003
-0.085385717 0.078766674 0.69500005
-0.084061913 0.078766674 0.69500005
-0.082738101 0.078766674 0.69500005
-0.08141429 0.078766674 0.69500005
-0.07997524 0.078653336 0.69400001
-0.078653336 0.078653336 0.69400001
-0.077331431 0.078653336 0.69400001
-0.075900003 0.078540005 0.69300002
-0.074580006 0.078540005 0.69300002
-0.073260002 0.078540005 0.69300002
-0.071732387 0.078313336 0.69100004
-0.070416197 0.078313336 0.69100004
-0.069100007 0.078313336 0.69100004
-0.067783818 0.078313336 0.69100004
-0.066371433 0.078200005 0.69000006
-0.065057144 0.078200005 0.69000006
-0.063742861 0.078200005 0.69000006
-0.062428575 0.078200005 0.69000006
-0.061114289 0.078200005 0.69000006
-0.059713338 0.078086674 0.68900001
-0.058231432 0.077860005 0.68700004
-0.05692286 0.077860005 0.68700004
-0.055533338 0.077746674 0.68600005
-0.05422667 0.077746674 0.68600005
-0.052920002 0.077746674 0.68600005
-0.051613338 0.077746674 0.68600005
-0.05030667 0.077746674 0.68600005
-0.049000002 0.077746674 0.68600005
-0.047554288 0.077520005 0.68400002
-0.046251431 0.077520005 0.68400002
-0.044948574 0.077520005 0.68400002
-0.043581907 0.077406675 0.68300003
-0.042280953 0.077406675 0.68300003
-0.040980004 0.077406675 0.68300003
-0.039620955 0.077293336 0.68200004
-0.038321909 0.077293336 0.68200004
-0.037022859 0.077293336 0.68200004
-0.03561905 0.077066675 0.68000001
-0.034323812 0.077066675 0.68000001
-0.032980002 0.076953337 0.67900002
-0.031686667 0.076953337 0.67900002
-0.030348573 0.076840006 0.67800003
-0.029057145 0.076840006 0.67800003
-0.027765715 0.076840006 0.67800003
-0.026474288 0.076840006 0.67800003
-0.025182858 0.076840006 0.67800003
-0.023820953 0.076613337 0.67600006
-0.022533335 0.076613337 0.67600006
-0.021245716 0.076613337 0.67600006
-0.019958096 0.076613337 0.67600006
-0.018670477 0.076613337 0.67600006
-0.017382858 0.076613337 0.67600006
-0.01609524 0.076613337 0.67600006
-0.014785715 0.076500006 0.67500001
-0.013500001 0.076500006 0.67500001
-0.012214286 0.076500006 0.67500001
-0.010928572 0.076500006 0.67500001
-0.0096285725 0.076386675 0.67400002
-0.008344762 0.076386675 0.67400002
-0.0070400005 0.076160006 0.67200005
-0.0057600006 0.076160006 0.67200005
-0.0044800001 0.076160006 0.67200005
-0.0031952383 0.076046668 0.671
-0.001917143 0.076046668 0.671
-0.00064000004 0.076160006 0.67200005
0.00063904765 0.076046668 0.671
0.001917143 0.076046668 0.671
0.0031904764 0.075933337 0.67000002
0.0044666668 0.075933337 0.67000002
0.0057428577 0.075933337 0.67000002
0.0070190481 0.075933337 0.67000002
0.0082952389 0.075933337 0.67000002
0.0095714293 0.075933337 0.67000002
0.01083143 0.075820006 0.66900003
0.01212381 0.075933337 0.67000002
0.013400001 0.075933337 0.67000002
0.014676192 0.075933337 0.67000002
0.015976192 0.076046668 0.671
0.017228572 0.075933337 0.67000002
0.018532382 0.076046668 0.671
0.019840002 0.076160006 0.67200005
0.021120001 0.076160006 0.67200005
0.022466669 0.076386675 0.67400002
0.023785716 0.076500006 0.67500001
0.025108574 0.076613337 0.67600006
0.026474288 0.076840006 0.67800003
0.027765715 0.076840006 0.67800003
0.029100003 0.076953337 0.67900002
0.030393336 0.076953337 0.67900002
0.031686667 0.076953337 0.67900002
0.032980002 0.076953337 0.67900002
0.03422286 0.076840006 0.67800003
0.035566669 0.076953337 0.67900002
0.036860004 0.076953337 0.67900002
0.038153335 0.076953337 0.67900002
0.039388575 0.076840006 0.67800003
0.040680002 0.076840006 0.67800003
0.04197143 0.076840006 0.67800003
0.043326668 0.076953337 0.67900002
0.044620004 0.076953337 0.67900002
0.045845717 0.076840006 0.67800003
-0.10779334 0.081012383 0.70300001
-0.10645429 0.081012383 0.70300001
-0.10511524 0.081012383 0.70300001
-0.10377619 0.081012383 0.70300001
-0.10243715 0.081012383 0.70300001
-0.10109811 0.081012383 0.70300001
-0.099475242 0.080781907 0.70100003
-0.098140009 0.080781907 0.70100003
-0.096804768 0.080781907 0.70100003
-0.095333338 0.080666669 0.70000005
-0.094000004 0.080666669 0.70000005
-0.092401914 0.080436192 0.69800001
-0.091072388 0.080436192 0.69800001
-0.089742862 0.080436192 0.69800001
-0.088286676 0.080320954 0.69700003
-0.086959057 0.080320954 0.69700003
-0.085631438 0.080320954 0.69700003
-0.084303819 0.080320954 0.69700003
-0.082976192 0.080320954 0.69700003
-0.081648573 0.080320954 0.69700003
-0.080090478 0.080090478 0.69500005
-0.078766674 0.080090478 0.69500005
-0.077442862 0.080090478 0.69500005
-0.07611905 0.080090478 0.69500005
-0.074687622 0.07997524 0.69400001
-0.073365718 0.07997524 0.69400001
-0.071940005 0.079860002 0.69300002
-0.070620008 0.079860002 0.69300002
-0.069100007 0.079629526 0.69100004
-0.067783818 0.079629526 0.69100004
-0.066371433 0.079514287 0.69000006
-0.065057144 0.079514287 0.69000006
-0.063742861 0.079514287 0.69000006
-0.062428575 0.079514287 0.69000006
-0.061114289 0.079514287 0.69000006
-0.059713338 0.079399049 0.68900001
-0.058231432 0.079168573 0.68700004
-0.05692286 0.079168573 0.68700004
-0.055533338 0.079053335 0.68600005
-0.05422667 0.079053335 0.68600005
-0.052920002 0.079053335 0.68600005
-0.051613338 0.079053335 0.68600005
-0.05030667 0.079053335 0.68600005
-0.049000002 0.079053335 0.68600005
-0.047554288 0.078822859 0.68400002
-0.046251431 0.078822859 0.68400002
-0.044948574 0.078822859 0.68400002
-0.043645717 0.078822859 0.68400002
-0.042280953 0.078707621 0.68300003
-0.040980004 0.078707621 0.68300003
-0.03967905 0.078707621 0.68300003
-0.038321909 0.07859239 0.68200004
-0.037022859 0.07859239 0.68200004
-0.03561905 0.078361914 0.68000001
-0.034323812 0.078361914 0.68000001
-0.033028573 0.078361914 0.68000001
-0.031686667 0.078246675 0.67900002
-0.030393336 0.078246675 0.67900002
-0.029100003 0.078246675 0.67900002
-0.027806668 0.078246675 0.67900002
-0.026474288 0.078131437 0.67800003
-0.025182858 0.078131437 0.67800003
-0.02389143 0.078131437 0.67800003
-0.022600001 0.078131437 0.67800003
-0.021308573 0.078131437 0.67800003
-0.020017143 0.078131437 0.67800003
-0.018725716 0.078131437 0.67800003
-0.017382858 0.077900961 0.67600006
-0.01609524 0.077900961 0.67600006
-0.01480762 0.077900961 0.67600006
-0.013500001 0.077785723 0.67500001
-0.012214286 0.077785723 0.67500001
-0.010928572 0.077785723 0.67500001
-0.0096285725 0.077670485 0.67400002
-0.008344762 0.077670485 0.67400002
-0.007060953 0.077670485 0.67400002
-0.0057600006 0.077440009 0.67200005
-0.0044800001 0.077440009 0.67200005
-0.0032000002 0.077440009 0.67200005
-0.0019200002 0.077440009 0.67200005
-0.00064000004 0.077440009 0.67200005
0.00063904765 0.07732477 0.671
0.001917143 0.07732477 0.671
0.0031904764 0.077209532 0.67000002
0.0044666668 0.077209532 0.67000002
0.0057428577 0.077209532 0.67000002
0.0070190481 0.077209532 0.67000002
0.0082952389 0.077209532 0.67000002
0.0095571438 0.077094294 0.66900003
0.01084762 0.077209532 0.67000002
0.01212381 0.077209532 0.67000002
0.013400001 0.077209532 0.67000002
0.014698097 0.07732477 0.671
0.015976192 0.07732477 0.671
0.017254287 0.07732477 0.671
0.018532382 0.07732477 0.671
0.019840002 0.077440009 0.67200005
0.021120001 0.077440009 0.67200005
0.022466669 0.077670485 0.67400002
0.023785716 0.077785723 0.67500001
0.025108574 0.077900961 0.67600006
0.026474288 0.078131437 0.67800003
0.027765715 0.078131437 0.67800003
0.029100003 0.078246675 0.67900002
0.030393336 0.078246675 0.67900002
0.031686667 0.078246675 0.67900002
0.032980002 0.078246675 0.67900002
0.03422286 0.078131437 0.67800003
0.035514288 0.078131437 0.67800003
0.036860004 0.078246675 0.67900002
0.038097147 0.078131437 0.67800003
0.039388575 0.078131437 0.67800003
0.040680002 0.078131437 0.67800003
0.04197143 0.078131437 0.67800003
0.043262862 0.078131437 0.67800003
0.044554289 0.078131437 0.67800003
0.045845717 0.078131437 0.67800003
0.047137145 0.078131437 0.67800003
-0.10975334 0.082820006 0.70700002
-0.10794667 0.082468577 0.70400006
-0.10660572 0.082468577 0.70400006
-0.10526477 0.082468577 0.70400006
-0.10392382 0.082468577 0.70400006
-0.10243715 0.082351431 0.70300001
-0.10109811 0.082351431 0.70300001
-0.099475242 0.082117148 0.70100003
-0.098420009 0.082351431 0.70300001
-0.096804768 0.082117148 0.70100003
-0.095469527 0.082117148 0.70100003
-0.094000004 0.082000002 0.70000005
-0.092666671 0.082000002 0.70000005
-0.091072388 0.081765719 0.69800001
-0.090000004 0.082000002 0.70000005
-0.088413343 0.081765719 0.69800001
-0.087083817 0.081765719 0.69800001
-0.08575429 0.081765719 0.69800001
-0.084303819 0.081648573 0.69700003
-0.082976192 0.081648573 0.69700003
-0.081648573 0.081648573 0.69700003
-0.080090478 0.08141429 0.69500005
-0.078766674 0.08141429 0.69500005
-0.077442862 0.08141429 0.69500005
-0.07611905 0.08141429 0.69500005
-0.074795246 0.08141429 0.69500005
-0.073365718 0.081297152 0.69400001
-0.072043814 0.081297152 0.69400001
-0.070620008 0.081180006 0.69300002
-0.069300003 0.081180006 0.69300002
-0.067783818 0.080945723 0.69100004
-0.06646762 0.080945723 0.69100004
-0.065151431 0.080945723 0.69100004
-0.063742861 0.080828577 0.69000006
-0.062428575 0.080828577 0.69000006
-0.061114289 0.080828577 0.69000006
-0.059713338 0.080711432 0.68900001
-0.058400955 0.080711432 0.68900001
-0.057088576 0.080711432 0.68900001
-0.055614289 0.080477148 0.68700004
-0.054305717 0.080477148 0.68700004
-0.052997146 0.080477148 0.68700004
-0.051688574 0.080477148 0.68700004
-0.05030667 0.080360003 0.68600005
-0.049000002 0.080360003 0.68600005
-0.047693338 0.080360003 0.68600005
-0.046251431 0.080125719 0.68400002
-0.044948574 0.080125719 0.68400002
-0.043645717 0.080125719 0.68400002
-0.042280953 0.080008574 0.68300003
-0.040980004 0.080008574 0.68300003
-0.03967905 0.080008574 0.68300003
-0.038378097 0.080008574 0.68300003
-0.037022859 0.079891436 0.68200004
-0.035723813 0.079891436 0.68200004
-0.034323812 0.079657145 0.68000001
-0.033028573 0.079657145 0.68000001
-0.031733334 0.079657145 0.68000001
-0.030393336 0.079540007 0.67900002
-0.029100003 0.079540007 0.67900002
-0.027806668 0.079540007 0.67900002
-0.026513334 0.079540007 0.67900002
-0.025220001 0.079540007 0.67900002
-0.02389143 0.079422861 0.67800003
-0.022600001 0.079422861 0.67800003
-0.021308573 0.079422861 0.67800003
-0.020017143 0.079422861 0.67800003
-0.018725716 0.079422861 0.67800003
-0.017382858 0.079188578 0.67600006
-0.01609524 0.079188578 0.67600006
-0.01480762 0.079188578 0.67600006
-0.013520001 0.079188578 0.67600006
-0.012232382 0.079188578 0.67600006
-0.010928572 0.079071432 0.67500001
-0.0096285725 0.078954294 0.67400002
-0.008344762 0.078954294 0.67400002
-0.007060953 0.078954294 0.67400002
-0.0057600006 0.078720003 0.67200005
-0.0044800001 0.078720003 0.67200005
-0.0032000002 0.078720003 0.67200005
-0.0019200002 0.078720003 0.67200005
-0.00064000004 0.078720003 0.67200005
0.00063904765 0.078602865 0.671
0.001917143 0.078602865 0.671
0.0031952383 0.078602865 0.671
0.0044666668 0.07848572 0.67000002
0.0057428577 0.07848572 0.67000002
0.0070190481 0.07848572 0.67000002
0.0082952389 0.07848572 0.67000002
0.0095571438 0.078368574 0.66900003
0.01084762 0.07848572 0.67000002
0.01212381 0.07848572 0.67000002
0.013400001 0.07848572 0.67000002
0.014698097 0.078602865 0.671
0.015976192 0.078602865 0.671
0.017254287 0.078602865 0.671
0.018560002 0.078720003 0.67200005
0.019840002 0.078720003 0.67200005
0.021182859 0.078954294 0.67400002
0.022466669 0.078954294 0.67400002
0.023785716 0.079071432 0.67500001
0.025108574 0.079188578 0.67600006
0.026474288 0.079422861 0.67800003
0.027806668 0.079540007 0.67900002
0.029100003 0.079540007 0.67900002
0.030393336 0.079540007 0.67900002
0.031686667 0.079540007 0.67900002
0.032980002 0.079540007 0.67900002
0.034273334 0.079540007 0.67900002
0.035566669 0.079540007 0.67900002
0.036860004 0.079540007 0.67900002
0.038097147 0.079422861 0.67800003
0.039388575 0.079422861 0.67800003
0.040740002 0.079540007 0.67900002
0.042033337 0.079540007 0.67900002
0.043326668 0.079540007 0.67900002
0.044620004 0.079540007 0.67900002
0.045913335 0.079540007 0.67900002
0.04720667 0.079540007 0.67900002
0.048500001 0.079540007 0.67900002
0.049426671 0.078954294 0.67400002
0.050710481 0.078954294 0.67400002
0.062819049 0.079657145 0.68000001
-0.10975334 0.084166676 0.70700002
-0.10840667 0.084166676 0.70700002
-0.10675715 0.083928578 0.70500004
-0.10541429 0.083928578 0.70500004
-0.10407144 0.083928578 0.70500004
-0.10258286 0.083809532 0.70400006
-0.10124191 0.083809532 0.70400006
-0.099759057 0.083690479 0.70300001
-0.098560005 0.083809532 0.70400006
-0.097080961 0.083690479 0.70300001
-0.095469527 0.083452389 0.70100003
-0.094134293 0.083452389 0.70100003
-0.092799053 0.083452389 0.70100003
-0.091333337 0.083333336 0.70000005
-0.090128578 0.083452389 0.70100003
-0.08866667 0.083333336 0.70000005
-0.087333336 0.083333336 0.70000005
-0.08575429 0.083095245 0.69800001
-0.084424764 0.083095245 0.69800001
-0.082976192 0.082976192 0.69700003
-0.081648573 0.082976192 0.69700003
-0.080320954 0.082976192 0.69700003
-0.078993335 0.082976192 0.69700003
-0.077442862 0.082738101 0.69500005
-0.076338097 0.082976192 0.69700003
-0.074795246 0.082738101 0.69500005
-0.073471434 0.082738101 0.69500005
-0.072043814 0.082619056 0.69400001
-0.070721909 0.082619056 0.69400001
-0.069400005 0.082619056 0.69400001
-0.067980006 0.082500003 0.69300002
-0.066660002 0.082500003 0.69300002
-0.065151431 0.082261913 0.69100004
-0.063835241 0.082261913 0.69100004
-0.062519051 0.082261913 0.69100004
-0.061114289 0.08214286 0.69000006
-0.059800003 0.08214286 0.69000006
-0.058400955 0.082023814 0.68900001
-0.057088576 0.082023814 0.68900001
-0.055776194 0.082023814 0.68900001
-0.054463815 0.082023814 0.68900001
-0.052997146 0.081785716 0.68700004
-0.051688574 0.081785716 0.68700004
-0.05030667 0.081666671 0.68600005
-0.049000002 0.081666671 0.68600005
-0.047693338 0.081666671 0.68600005
-0.04638667 0.081666671 0.68600005
-0.044948574 0.08142858 0.68400002
-0.043645717 0.08142858 0.68400002
-0.04234286 0.08142858 0.68400002
-0.040980004 0.081309527 0.68300003
-0.03967905 0.081309527 0.68300003
-0.038378097 0.081309527 0.68300003
-0.037022859 0.081190482 0.68200004
-0.035723813 0.081190482 0.68200004
-0.034424763 0.081190482 0.68200004
-0.033028573 0.080952384 0.68000001
-0.031733334 0.080952384 0.68000001
-0.030438097 0.080952384 0.68000001
-0.029100003 0.080833338 0.67900002
-0.027806668 0.080833338 0.67900002
-0.026513334 0.080833338 0.67900002
-0.025220001 0.080833338 0.67900002
-0.02389143 0.080714293 0.67800003
-0.022600001 0.080714293 0.67800003
-0.021308573 0.080714293 0.67800003
-0.020017143 0.080714293 0.67800003
-0.018725716 0.080714293 0.67800003
-0.017434286 0.080714293 0.67800003
-0.016142858 0.080714293 0.67800003
-0.01480762 0.080476195 0.67600006
-0.013520001 0.080476195 0.67600006
-0.012232382 0.080476195 0.67600006
-0.010928572 0.080357149 0.67500001
-0.0096285725 0.080238104 0.67400002
-0.008344762 0.080238104 0.67400002
-0.007060953 0.080238104 0.67400002
-0.0057600006 0.080000006 0.67200005
-0.0044800001 0.080000006 0.67200005
-0.0032000002 0.080000006 0.67200005
-0.0019200002 0.080000006 0.67200005
-0.00064000004 0.080000006 0.67200005
0.00064000004 0.080000006 0.67200005
0.001917143 0.07988096 0.671
0.0031952383 0.07988096 0.671
0.0044733337 0.07988096 0.671
0.0057428577 0.079761907 0.67000002
0.0070190481 0.079761907 0.67000002
0.0082952389 0.079761907 0.67000002
0.0095714293 0.079761907 0.67000002
0.01084762 0.079761907 0.67000002
0.01212381 0.079761907 0.67000002
0.013400001 0.079761907 0.67000002
0.014698097 0.07988096 0.671
0.015976192 0.07988096 0.671
0.017254287 0.07988096 0.671
0.018560002 0.080000006 0.67200005
0.019840002 0.080000006 0.67200005
0.021182859 0.080238104 0.67400002
0.022466669 0.080238104 0.67400002
0.023820953 0.080476195 0.67600006
0.025182858 0.080714293 0.67800003
0.026474288 0.080714293 0.67800003
0.027806668 0.080833338 0.67900002
0.029100003 0.080833338 0.67900002
0.030393336 0.080833338 0.67900002
0.031686667 0.080833338 0.67900002
0.032980002 0.080833338 0.67900002
0.034273334 0.080833338 0.67900002
0.035566669 0.080833338 0.67900002
0.036860004 0.080833338 0.67900002
0.038153335 0.080833338 0.67900002
0.039388575 0.080714293 0.67800003
0.040740002 0.080833338 0.67900002
0.042033337 0.080833338 0.67900002
0.043326668 0.080833338 0.67900002
0.044620004 0.080833338 0.67900002
0.045913335 0.080833338 0.67900002
0.04720667 0.080833338 0.67900002
0.048500001 0.080833338 0.67900002
0.049426671 0.080238104 0.67400002
0.050710481 0.080238104 0.67400002
0.062819049 0.080952384 0.68000001
-0.10975334 0.085513338 0.70700002
-0.10840667 0.085513338 0.70700002
-0.10706001 0.085513338 0.70700002
-0.10541429 0.085271433 0.70500004
-0.10407144 0.085271433 0.70500004
-0.10272858 0.085271433 0.70500004
-0.10138572 0.085271433 0.70500004
-0.099900961 0.08515048 0.70400006
-0.098560005 0.08515048 0.70400006
-0.097080961 0.085029528 0.70300001
-0.095741913 0.085029528 0.70300001
-0.094402865 0.085029528 0.70300001
-0.092799053 0.084787622 0.70100003
-0.091463819 0.084787622 0.70100003
-0.090128578 0.084787622 0.70100003
-0.088793337 0.084787622 0.70100003
-0.087333336 0.084666669 0.70000005
-0.086000003 0.084666669 0.70000005
-0.084424764 0.084424764 0.69800001
-0.083095245 0.084424764 0.69800001
-0.081765719 0.084424764 0.69800001
-0.080320954 0.084303819 0.69700003
-0.078993335 0.084303819 0.69700003
-0.077665716 0.084303819 0.69700003
-0.076338097 0.084303819 0.69700003
-0.075010478 0.084303819 0.69700003
-0.073471434 0.084061913 0.69500005
-0.072147623 0.084061913 0.69500005
-0.070721909 0.08394096 0.69400001
-0.069400005 0.08394096 0.69400001
-0.068078101 0.08394096 0.69400001
-0.066660002 0.083820008 0.69300002
-0.065340005 0.083820008 0.69300002
-0.063835241 0.083578102 0.69100004
-0.062519051 0.083578102 0.69100004
-0.061202861 0.083578102 0.69100004
-0.059800003 0.08345715 0.69000006
-0.058485717 0.08345715 0.69000006
-0.057171434 0.08345715 0.69000006
-0.055776194 0.083336197 0.68900001
-0.054463815 0.083336197 0.68900001
-0.053151432 0.083336197 0.68900001
-0.051688574 0.083094291 0.68700004
-0.050380003 0.083094291 0.68700004
-0.049071431 0.083094291 0.68700004
-0.047693338 0.082973339 0.68600005
-0.04638667 0.082973339 0.68600005
-0.045080002 0.082973339 0.68600005
-0.043645717 0.082731433 0.68400002
-0.04234286 0.082731433 0.68400002
-0.040980004 0.08261048 0.68300003
-0.03967905 0.08261048 0.68300003
-0.038378097 0.08261048 0.68300003
-0.037022859 0.082489528 0.68200004
-0.035776194 0.08261048 0.68300003
-0.034323812 0.082247622 0.68000001
-0.033028573 0.082247622 0.68000001
-0.031733334 0.082247622 0.68000001
-0.030438097 0.082247622 0.68000001
-0.029100003 0.08212667 0.67900002
-0.027806668 0.08212667 0.67900002
-0.026513334 0.08212667 0.67900002
-0.025220001 0.08212667 0.67900002
-0.02389143 0.082005717 0.67800003
-0.022600001 0.082005717 0.67800003
-0.021308573 0.082005717 0.67800003
-0.020046668 0.08212667 0.67900002
-0.018753335 0.08212667 0.67900002
-0.017434286 0.082005717 0.67800003
-0.016142858 0.082005717 0.67800003
-0.014851429 0.082005717 0.67800003
-0.013560001 0.082005717 0.67800003
-0.012232382 0.081763811 0.67600006
-0.010928572 0.081642866 0.67500001
-0.0096428581 0.081642866 0.67500001
-0.008344762 0.081521913 0.67400002
-0.007060953 0.081521913 0.67400002
-0.0057771434 0.081521913 0.67400002
-0.0044933334 0.081521913 0.67400002
-0.0032095241 0.081521913 0.67400002
-0.0019257144 0.081521913 0.67400002
-0.00064190483 0.081521913 0.67400002
0.00064000004 0.081280008 0.67200005
0.0019200002 0.081280008 0.67200005
0.0032000002 0.081280008 0.67200005
0.0044733337 0.081159055 0.671
0.0057514291 0.081159055 0.671
0.0070295241 0.081159055 0.671
0.0082952389 0.081038103 0.67000002
0.0095714293 0.081038103 0.67000002
0.01084762 0.081038103 0.67000002
0.01212381 0.081038103 0.67000002
0.013400001 0.081038103 0.67000002
0.014698097 0.081159055 0.671
0.015976192 0.081159055 0.671
0.017254287 0.081159055 0.671
0.018560002 0.081280008 0.67200005
0.01989905 0.081521913 0.67400002
0.021182859 0.081521913 0.67400002
0.022500001 0.081642866 0.67500001
0.023820953 0.081763811 0.67600006
0.025182858 0.082005717 0.67800003
0.026513334 0.08212667 0.67900002
0.027806668 0.08212667 0.67900002
0.029100003 0.08212667 0.67900002
0.030393336 0.08212667 0.67900002
0.031686667 0.08212667 0.67900002
0.032980002 0.08212667 0.67900002
0.034273334 0.08212667 0.67900002
0.035566669 0.08212667 0.67900002
0.036860004 0.08212667 0.67900002
0.038153335 0.08212667 0.67900002
0.039388575 0.082005717 0.67800003
0.040740002 0.08212667 0.67900002
0.042033337 0.08212667 0.67900002
0.043326668 0.08212667 0.67900002
0.044620004 0.08212667 0.67900002
0.045980956 0.082247622 0.68000001
0.047276195 0.082247622 0.68000001
0.04857143 0.082247622 0.68000001
0.049866669 0.082247622 0.68000001
0.061433338 0.08212667 0.67900002
0.062726669 0.08212667 0.67900002
0.063925721 0.082005717 0.67800003
-0.10856001 0.086982861 0.708
-0.10706001 0.086860009 0.70700002
-0.10571334 0.086860009 0.70700002
-0.10436668 0.086860009 0.70700002
-0.10316572 0.086982861 0.708
-0.10167334 0.086860009 0.70700002
-0.10032667 0.086860009 0.70700002
-0.09898001 0.086860009 0.70700002
-0.097357146 0.086614288 0.70500004
-0.095878102 0.086491436 0.70400006
-0.094402865 0.086368576 0.70300001
-0.093063816 0.086368576 0.70300001
-0.091724768 0.086368576 0.70300001
-0.09038572 0.086368576 0.70300001
-0.088793337 0.086122863 0.70100003
-0.087458104 0.086122863 0.70100003
-0.086122863 0.086122863 0.70100003
-0.084666669 0.086000003 0.70000005
-0.083333336 0.086000003 0.70000005
-0.082000002 0.086000003 0.70000005
-0.080436192 0.08575429 0.69800001
-0.079106674 0.08575429 0.69800001
-0.077777147 0.08575429 0.69800001
-0.076447621 0.08575429 0.69800001
-0.075010478 0.085631438 0.69700003
-0.07368286 0.085631438 0.69700003
-0.072355241 0.085631438 0.69700003
-0.070823811 0.085385717 0.69500005
-0.069500007 0.085385717 0.69500005
-0.068078101 0.085262865 0.69400001
-0.066756196 0.085262865 0.69400001
-0.065340005 0.085140005 0.69300002
-0.064020008 0.085140005 0.69300002
-0.062519051 0.084894292 0.69100004
-0.061202861 0.084894292 0.69100004
-0.059886672 0.084894292 0.69100004
-0.058485717 0.084771432 0.69000006
-0.057171434 0.084771432 0.69000006
-0.055857148 0.084771432 0.69000006
-0.054542862 0.084771432 0.69000006
-0.053151432 0.084648579 0.68900001
-0.05183905 0.084648579 0.68900001
-0.050380003 0.084402859 0.68700004
-0.049071431 0.084402859 0.68700004
-0.047693338 0.084280007 0.68600005
-0.04638667 0.084280007 0.68600005
-0.045080002 0.084280007 0.68600005
-0.043773334 0.084280007 0.68600005
-0.04234286 0.084034294 0.68400002
-0.041040003 0.084034294 0.68400002
-0.03967905 0.083911434 0.68300003
-0.038378097 0.083911434 0.68300003
-0.037077144 0.083911434 0.68300003
-0.035776194 0.083911434 0.68300003
-0.034323812 0.083542861 0.68000001
-0.033028573 0.083542861 0.68000001
-0.031733334 0.083542861 0.68000001
-0.030438097 0.083542861 0.68000001
-0.029100003 0.083420008 0.67900002
-0.027806668 0.083420008 0.67900002
-0.026513334 0.083420008 0.67900002
-0.025220001 0.083420008 0.67900002
-0.023926668 0.083420008 0.67900002
-0.022633335 0.083420008 0.67900002
-0.021340001 0.083420008 0.67900002
-0.020046668 0.083420008 0.67900002
-0.018753335 0.083420008 0.67900002
-0.017460002 0.083420008 0.67900002
-0.016142858 0.083297148 0.67800003
-0.014851429 0.083297148 0.67800003
-0.013560001 0.083297148 0.67800003
-0.012268572 0.083297148 0.67800003
-0.010928572 0.082928576 0.67500001
-0.0096428581 0.082928576 0.67500001
-0.008344762 0.082805723 0.67400002
-0.007060953 0.082805723 0.67400002
-0.0057771434 0.082805723 0.67400002
-0.0044933334 0.082805723 0.67400002
-0.0032095241 0.082805723 0.67400002
-0.0019257144 0.082805723 0.67400002
-0.00064190483 0.082805723 0.67400002
0.00064000004 0.082560003 0.67200005
0.0019200002 0.082560003 0.67200005
0.0032000002 0.082560003 0.67200005
0.0044800001 0.082560003 0.67200005
0.0057514291 0.08243715 0.671
0.0070295241 0.08243715 0.671
0.00830762 0.08243715 0.671
0.0095714293 0.08231429 0.67000002
0.01084762 0.08231429 0.67000002
0.01212381 0.08231429 0.67000002
0.013400001 0.08231429 0.67000002
0.014698097 0.08243715 0.671
0.016000001 0.082560003 0.67200005
0.017254287 0.08243715 0.671
0.018560002 0.082560003 0.67200005
0.01989905 0.082805723 0.67400002
0.021214288 0.082928576 0.67500001
0.022500001 0.082928576 0.67500001
0.02389143 0.083297148 0.67800003
0.025182858 0.083297148 0.67800003
0.026513334 0.083420008 0.67900002
0.027806668 0.083420008 0.67900002
0.029100003 0.083420008 0.67900002
0.030438097 0.083542861 0.68000001
0.031686667 0.083420008 0.67900002
0.032980002 0.083420008 0.67900002
0.034273334 0.083420008 0.67900002
0.035566669 0.083420008 0.67900002
0.036860004 0.083420008 0.67900002
0.038153335 0.083420008 0.67900002
0.039388575 0.083297148 0.67800003
0.040740002 0.083420008 0.67900002
0.04209524 0.083542861 0.68000001
0.043390479 0.083542861 0.68000001
0.044685718 0.083542861 0.68000001
0.045980956 0.083542861 0.68000001
0.047415242 0.083788574 0.68200004
0.048714288 0.083788574 0.68200004
0.049866669 0.083542861 0.68000001
0.051086672 0.083420008 0.67900002
0.061433338 0.083420008 0.67900002
0.062726669 0.083420008 0.67900002
0.063925721 0.083297148 0.67800003
-0.10856001 0.088331431 0.708
-0.10721143 0.088331431 0.708
-0.10571334 0.088206671 0.70700002
-0.10451429 0.088331431 0.708
-0.10316572 0.088331431 0.708
-0.10181715 0.088331431 0.708
-0.10032667 0.088206671 0.70700002
-0.09898001 0.088206671 0.70700002
-0.097633339 0.088206671 0.70700002
-0.096014291 0.087957151 0.70500004
-0.094537146 0.087832384 0.70400006
-0.093196198 0.087832384 0.70400006
-0.091855243 0.087832384 0.70400006
-0.090514295 0.087832384 0.70400006
-0.089046672 0.087707624 0.70300001
-0.087707624 0.087707624 0.70300001
-0.086122863 0.087458104 0.70100003
-0.084787622 0.087458104 0.70100003
-0.083452389 0.087458104 0.70100003
-0.082117148 0.087458104 0.70100003
-0.080666669 0.087333336 0.70000005
-0.079106674 0.087083817 0.69800001
-0.077777147 0.087083817 0.69800001
-0.076447621 0.087083817 0.69800001
-0.075118102 0.087083817 0.69800001
-0.07368286 0.086959057 0.69700003
-0.072355241 0.086959057 0.69700003
-0.070823811 0.086709529 0.69500005
-0.069500007 0.086709529 0.69500005
-0.068176195 0.086709529 0.69500005
-0.066852383 0.086709529 0.69500005
-0.065434292 0.086584769 0.69400001
-0.064112388 0.086584769 0.69400001
-0.062790483 0.086584769 0.69400001
-0.061380003 0.086460009 0.69300002
-0.060060006 0.086460009 0.69300002
-0.058570482 0.086210482 0.69100004
-0.057254288 0.086210482 0.69100004
-0.055857148 0.086085722 0.69000006
-0.054542862 0.086085722 0.69000006
-0.053228576 0.086085722 0.69000006
-0.05183905 0.085960954 0.68900001
-0.050526671 0.085960954 0.68900001
-0.049071431 0.085711434 0.68700004
-0.04776286 0.085711434 0.68700004
-0.04638667 0.085586675 0.68600005
-0.045080002 0.085586675 0.68600005
-0.043773334 0.085586675 0.68600005
-0.04234286 0.085337147 0.68400002
-0.041040003 0.085337147 0.68400002
-0.039737146 0.085337147 0.68400002
-0.038434289 0.085337147 0.68400002
-0.037077144 0.085212387 0.68300003
-0.035776194 0.085212387 0.68300003
-0.034424763 0.085087627 0.68200004
-0.033125717 0.085087627 0.68200004
-0.031733334 0.0848381 0.68000001
-0.030438097 0.0848381 0.68000001
-0.029142858 0.0848381 0.68000001
-0.027847622 0.0848381 0.68000001
-0.026513334 0.08471334 0.67900002
-0.025220001 0.08471334 0.67900002
-0.023926668 0.08471334 0.67900002
-0.022633335 0.08471334 0.67900002
-0.021340001 0.08471334 0.67900002
-0.020046668 0.08471334 0.67900002
-0.018753335 0.08471334 0.67900002
-0.017460002 0.08471334 0.67900002
-0.016166668 0.08471334 0.67900002
-0.014851429 0.08458858 0.67800003
-0.013560001 0.08458858 0.67800003
-0.012268572 0.08458858 0.67800003
-0.010928572 0.084214292 0.67500001
-0.0096428581 0.084214292 0.67500001
-0.008357143 0.084214292 0.67500001
-0.007060953 0.084089532 0.67400002
-0.0057771434 0.084089532 0.67400002
-0.0044933334 0.084089532 0.67400002
-0.0032095241 0.084089532 0.67400002
-0.0019257144 0.084089532 0.67400002
-0.00064190483 0.084089532 0.67400002
0.00064190483 0.084089532 0.67400002
0.0019257144 0.084089532 0.67400002
0.0032000002 0.083840005 0.67200005
0.0044800001 0.083840005 0.67200005
0.0057600006 0.083840005 0.67200005
0.0070400005 0.083840005 0.67200005
0.00830762 0.083715245 0.671
0.0095714293 0.083590485 0.67000002
0.01086381 0.083715245 0.671
0.012141906 0.083715245 0.671
0.013420001 0.083715245 0.671
0.014720001 0.083840005 0.67200005
0.016000001 0.083840005 0.67200005
0.017280001 0.083840005 0.67200005
0.018560002 0.083840005 0.67200005
0.01989905 0.084089532 0.67400002
0.021214288 0.084214292 0.67500001
0.022533335 0.084339052 0.67600006
0.02389143 0.08458858 0.67800003
0.025182858 0.08458858 0.67800003
0.026513334 0.08471334 0.67900002
0.027806668 0.08471334 0.67900002
0.029142858 0.0848381 0.68000001
0.030438097 0.0848381 0.68000001
0.031733334 0.0848381 0.68000001
0.033028573 0.0848381 0.68000001
0.034323812 0.0848381 0.68000001
0.03561905 0.0848381 0.68000001
0.036860004 0.08471334 0.67900002
0.038153335 0.08471334 0.67900002
0.039446671 0.08471334 0.67900002
0.040800001 0.0848381 0.68000001
0.04209524 0.0848381 0.68000001
0.043390479 0.0848381 0.68000001
0.044685718 0.0848381 0.68000001
0.045980956 0.0848381 0.68000001
0.047415242 0.085087627 0.68200004
0.048714288 0.085087627 0.68200004
0.049866669 0.0848381 0.68000001
0.051161908 0.0848381 0.68000001
0.052457146 0.0848381 0.68000001
0.061523814 0.0848381 0.68000001
0.062819049 0.0848381 0.68000001
0.064020008 0.08471334 0.67900002
-0.10856001 0.089680009 0.708
-0.10721143 0.089680009 0.708
-0.10616191 0.089933336 0.71000004
-0.10451429 0.089680009 0.708
-0.10316572 0.089680009 0.708
-0.10181715 0.089680009 0.708
-0.10046858 0.089680009 0.708
-0.099120006 0.089680009 0.708
-0.097771436 0.089680009 0.708
-0.096286669 0.089553341 0.70700002
-0.094671436 0.089300007 0.70500004
-0.093196198 0.089173339 0.70400006
-0.091855243 0.089173339 0.70400006
-0.090514295 0.089173339 0.70400006
-0.089046672 0.089046672 0.70300001
-0.087707624 0.089046672 0.70300001
-0.086368576 0.089046672 0.70300001
-0.085029528 0.089046672 0.70300001
-0.083452389 0.088793337 0.70100003
-0.082117148 0.088793337 0.70100003
-0.080781907 0.088793337 0.70100003
-0.079333335 0.08866667 0.70000005
-0.078000002 0.08866667 0.70000005
-0.076666668 0.08866667 0.70000005
-0.075118102 0.088413343 0.69800001
-0.073788576 0.088413343 0.69800001
-0.072355241 0.088286676 0.69700003
-0.071027622 0.088286676 0.69700003
-0.069700003 0.088286676 0.69700003
-0.068176195 0.088033341 0.69500005
-0.066852383 0.088033341 0.69500005
-0.065528579 0.088033341 0.69500005
-0.064204767 0.088033341 0.69500005
-0.062790483 0.087906674 0.69400001
-0.061468575 0.087906674 0.69400001
-0.060060006 0.087780006 0.69300002
-0.058570482 0.087526672 0.69100004
-0.057254288 0.087526672 0.69100004
-0.055938099 0.087526672 0.69100004
-0.054542862 0.087400004 0.69000006
-0.053228576 0.087400004 0.69000006
-0.05183905 0.087273337 0.68900001
-0.050526671 0.087273337 0.68900001
-0.049214289 0.087273337 0.68900001
-0.047901906 0.087273337 0.68900001
-0.046454288 0.087020002 0.68700004
-0.045080002 0.086893342 0.68600005
-0.043773334 0.086893342 0.68600005
-0.04246667 0.086893342 0.68600005
-0.041040003 0.086640008 0.68400002
-0.039737146 0.086640008 0.68400002
-0.038434289 0.086640008 0.68400002
-0.037131432 0.086640008 0.68400002
-0.035828575 0.086640008 0.68400002
-0.034475241 0.08651334 0.68300003
-0.033125717 0.086386673 0.68200004
-0.031826667 0.086386673 0.68200004
-0.030527622 0.086386673 0.68200004
-0.029142858 0.086133339 0.68000001
-0.027847622 0.086133339 0.68000001
-0.026552383 0.086133339 0.68000001
-0.025257144 0.086133339 0.68000001
-0.023926668 0.086006671 0.67900002
-0.022633335 0.086006671 0.67900002
-0.021340001 0.086006671 0.67900002
-0.020046668 0.086006671 0.67900002
-0.018753335 0.086006671 0.67900002
-0.017460002 0.086006671 0.67900002
-0.016166668 0.086006671 0.67900002
-0.014873334 0.086006671 0.67900002
-0.013580001 0.086006671 0.67900002
-0.012268572 0.085880004 0.67800003
-0.010944762 0.085626669 0.67600006
-0.0096428581 0.085500002 0.67500001
-0.008357143 0.085500002 0.67500001
-0.0070714289 0.085500002 0.67500001
-0.0057771434 0.085373342 0.67400002
-0.0044933334 0.085373342 0.67400002
-0.0032095241 0.085373342 0.67400002
-0.0019257144 0.085373342 0.67400002
-0.00064190483 0.085373342 0.67400002
0.00064190483 0.085373342 0.67400002
0.0019257144 0.085373342 0.67400002
0.0032095241 0.085373342 0.67400002
0.0044933334 0.085373342 0.67400002
0.0057600006 0.085120007 0.67200005
0.0070400005 0.085120007 0.67200005
0.008320001 0.085120007 0.67200005
0.0095857149 0.08499334 0.671
0.01086381 0.08499334 0.671
0.012141906 0.08499334 0.671
0.013420001 0.08499334 0.671
0.014720001 0.085120007 0.67200005
0.016000001 0.085120007 0.67200005
0.017280001 0.085120007 0.67200005
0.018560002 0.085120007 0.67200005
0.01989905 0.085373342 0.67400002
0.021214288 0.085500002 0.67500001
0.022533335 0.085626669 0.67600006
0.02389143 0.085880004 0.67800003
0.025220001 0.086006671 0.67900002
0.026513334 0.086006671 0.67900002
