# .PCD v0.7 - Point Cloud Data file format
VERSION 0.7
FIELDS x y z
SIZE 4 4 4
TYPE F F F
COUNT 1 1 1
WIDTH 1356
HEIGHT 1
VIEWPOINT 0 0 0 1 0 0 0
POINTS 1356
DATA ascii
-0.39850289 -0.15384763 0.78800005
-0.39599431 -0.15345715 0.78600001
-0.39528003 -0.14616001 0.75600004
-0.39488193 -0.14654668 0.75800002
-0.39447621 -0.14693335 0.76000005
-0.39302859 -0.14693335 0.76000005
-0.39158097 -0.14693335 0.76000005
-0.3906467 -0.14712667 0.76100004
-0.39277717 -0.14848001 0.76800001
-0.39844763 -0.15118667 0.78200006
-0.3989886 -0.15196002 0.78600001
-0.39749146 -0.15196002 0.78600001
-0.39599431 -0.15196002 0.78600001
-0.39449716 -0.15196002 0.78600001
-0.39528003 -0.14472 0.75600004
-0.39592382 -0.14548573 0.76000005
-0.39447621 -0.14548573 0.76000005
-0.39354575 -0.14567715 0.76100004
-0.39209622 -0.14567715 0.76100004
-0.39167336 -0.14606 0.76300001
-0.39635718 -0.14835715 0.77500004
-0.39844763 -0.14969715 0.78200006
-0.3989886 -0.15046287 0.78600001
-0.39749146 -0.15046287 0.78600001
-0.39599431 -0.15046287 0.78600001
-0.39449716 -0.15046287 0.78600001
-0.39300004 -0.15046287 0.78600001
-0.39528003 -0.14328001 0.75600004
-0.39592382 -0.14403811 0.76000005
-0.39499527 -0.14422762 0.76100004
-0.39354575 -0.14422762 0.76100004
-0.39209622 -0.14422762 0.76100004
-0.39270002 -0.14498572 0.76500005
-0.39635718 -0.14688097 0.77500004
-0.39691907 -0.14763905 0.77900004
-0.39695811 -0.14820763 0.78200006
-0.39648002 -0.14858668 0.78400004
-0.39498669 -0.14858668 0.78400004
-0.39449716 -0.14896573 0.78600001
-0.39300004 -0.14896573 0.78600001
-0.39150289 -0.14896573 0.78600001
-0.39499527 -0.1427781 0.76100004
-0.39458004 -0.14315334 0.76300001
-0.3931267 -0.14315334 0.76300001
-0.39270002 -0.14352858 0.76500005
-0.3948229 -0.14484191 0.77200001
-0.39590004 -0.14578001 0.77700001
-0.39695811 -0.1467181 0.78200006
-0.39546859 -0.1467181 0.78200006
-0.39498669 -0.14709334 0.78400004
-0.39349335 -0.14709334 0.78400004
-0.39300004 -0.14746858 0.78600001
-0.39415717 -0.14207144 0.76500005
-0.39424002 -0.14262858 0.76800001
-0.3948229 -0.14337143 0.77200001
-0.39590004 -0.14430001 0.77700001
-0.39543527 -0.14467144 0.77900004
-0.39546859 -0.14522858 0.78200006
-0.39498669 -0.14560001 0.78400004
-0.39349335 -0.14560001 0.78400004
-0.39300004 -0.14597143 0.78600001
-0.39150289 -0.14597143 0.78600001
-0.39518765 -0.14098191 0.76700002
-0.39424002 -0.14116572 0.76800001
-0.3948229 -0.14190096 0.77200001
-0.39590004 -0.14282002 0.77700001
-0.39543527 -0.14318763 0.77900004
-0.39395145 -0.14318763 0.77900004
-0.39397907 -0.14373906 0.78200006
-0.39349335 -0.14410667 0.78400004
-0.39300004 -0.1444743 0.78600001
-0.39518765 -0.13952096 0.76700002
-0.39424002 -0.13970287 0.76800001
-0.3948229 -0.14043048 0.77200001
-0.39488098 -0.14097621 0.77500004
-0.39543527 -0.14170381 0.77900004
-0.39395145 -0.14170381 0.77900004
-0.39297146 -0.14188573 0.78000003
-0.39449716 -0.14297715 0.78600001
-0.39450002 -0.14352287 0.78900003
-0.39399335 -0.14388667 0.79100001
-0.39518765 -0.13806 0.76700002
-0.39424002 -0.13824001 0.76800001
-0.39635718 -0.13950001 0.77500004
-0.39590004 -0.13986 0.77700001
-0.39543527 -0.14022002 0.77900004
-0.39395145 -0.14022002 0.77900004
-0.39297146 -0.14040001 0.78000003
-0.39449716 -0.14148001 0.78600001
-0.39450002 -0.14202 0.78900003
-0.39498955 -0.14274001 0.79300004
-0.39424002 -0.13677715 0.76800001
-0.39738002 -0.13838001 0.77700001
-0.39590004 -0.13838001 0.77700001
-0.39543527 -0.1387362 0.77900004
-0.39395145 -0.1387362 0.77900004
-0.39297146 -0.1389143 0.78000003
-0.39248955 -0.13927048 0.78200006
-0.39450002 -0.14051715 0.78900003
-0.39498955 -0.14122954 0.79300004
-0.39840287 -0.13725239 0.77900004
-0.39590004 -0.13690001 0.77700001
-0.39543527 -0.13725239 0.77900004
-0.39445716 -0.13742858 0.78000003
-0.39397907 -0.13778096 0.78200006
-0.39349335 -0.13813335 0.78400004
-0.39550003 -0.13936667 0.79100001
-0.39498955 -0.13971905 0.79300004
-0.39840287 -0.13576858 0.77900004
-0.39691907 -0.13576858 0.77900004
-0.3959429 -0.13594286 0.78000003
-0.39648002 -0.13664001 0.78400004
-0.39498669 -0.13664001 0.78400004
-0.39600289 -0.13751143 0.78900003
-0.39550003 -0.13786002 0.79100001
-0.39498955 -0.13820858 0.79300004
-0.39447147 -0.13855715 0.79500002
-0.39891431 -0.13445716 0.78000003
-0.3974286 -0.13445716 0.78000003
-0.39797336 -0.13514668 0.78400004
-0.3990086 -0.13600858 0.78900003
-0.39750573 -0.13600858 0.78900003
-0.39700669 -0.13635334 0.79100001
-0.39650002 -0.1366981 0.79300004
-0.39598575 -0.13704287 0.79500002
-0.39447147 -0.13704287 0.79500002
-0.39891431 -0.13297144 0.78000003
-0.39946669 -0.13365334 0.78400004
-0.3989886 -0.1339943 0.78600001
-0.3990086 -0.13450572 0.78900003
-0.39750573 -0.13450572 0.78900003
-0.39700669 -0.13484667 0.79100001
-0.39550003 -0.13484667 0.79100001
-0.39498955 -0.13518763 0.79300004
-0.39447147 -0.13552858 0.79500002
-0.39891431 -0.13148572 0.78000003
-0.39691907 -0.13131715 0.77900004
-0.3989886 -0.13249715 0.78600001
-0.39850289 -0.1328343 0.78800005
-0.39750573 -0.13300286 0.78900003
-0.39600289 -0.13300286 0.78900003
-0.39550003 -0.13334002 0.79100001
-0.39498955 -0.13367715 0.79300004
-0.39347908 -0.13367715 0.79300004
-0.39840287 -0.12983334 0.77900004
-0.39386192 -0.12883334 0.77300006
-0.39238954 -0.12883334 0.77300006
-0.39749146 -0.13100001 0.78600001
-0.39700192 -0.13133334 0.78800005
-0.39600289 -0.13150001 0.78900003
-0.39450002 -0.13150001 0.78900003
-0.39399335 -0.13183334 0.79100001
-0.39248669 -0.13183334 0.79100001
-0.39335242 -0.12719619 0.77200001
-0.39188194 -0.12719619 0.77200001
-0.39041147 -0.12719619 0.77200001
-0.39750573 -0.12999715 0.78900003
-0.39600289 -0.12999715 0.78900003
-0.39550003 -0.13032667 0.79100001
-0.39399335 -0.13032667 0.79100001
-0.39347908 -0.1306562 0.79300004
-0.39526668 -0.12540001 0.77000004
-0.39380002 -0.12540001 0.77000004
-0.39335242 -0.12572572 0.77200001
-0.39188194 -0.12572572 0.77200001
-0.39750573 -0.12849429 0.78900003
-0.39600289 -0.12849429 0.78900003
-0.39550003 -0.12882 0.79100001
-0.39399335 -0.12882 0.79100001
-0.39347908 -0.12914573 0.79300004
-0.39570287 -0.12361144 0.76800001
-0.39526668 -0.12393335 0.77000004
-0.39380002 -0.12393335 0.77000004
-0.39335242 -0.12425525 0.77200001
-0.39188194 -0.12425525 0.77200001
-0.39091718 -0.1244162 0.77300006
-0.3894448 -0.1244162 0.77300006
-0.39700669 -0.12731335 0.79100001
-0.39550003 -0.12731335 0.79100001
-0.39399335 -0.12731335 0.79100001
-0.39248669 -0.12731335 0.79100001
-0.39561433 -0.12167144 0.76500005
-0.39518765 -0.12198953 0.76700002
-0.39526668 -0.12246668 0.77000004
-0.39277717 -0.12214858 0.76800001
-0.39335242 -0.12278477 0.77200001
-0.39188194 -0.12278477 0.77200001
-0.39091718 -0.12294382 0.77300006
-0.3894448 -0.12294382 0.77300006
-0.39449716 -0.12501144 0.78600001
-0.39450002 -0.12548858 0.78900003
-0.39299718 -0.12548858 0.78900003
-0.3914943 -0.12548858 0.78900003
-0.39444003 -0.12692001 0.79800004
-0.39561433 -0.12021429 0.76500005
-0.39518765 -0.12052858 0.76700002
-0.39424002 -0.12068572 0.76800001
-0.39226574 -0.12052858 0.76700002
-0.39233336 -0.12100001 0.77000004
-0.39188194 -0.12131429 0.77200001
-0.39091718 -0.12147143 0.77300006
-0.38894099 -0.12131429 0.77200001
-0.38747051 -0.12131429 0.77200001
-0.39400002 -0.12382858 0.78800005
-0.39249906 -0.12382858 0.78800005
-0.3914943 -0.12398572 0.78900003
-0.39444003 -0.12540001 0.79800004
-0.39518765 -0.11906762 0.76700002
-0.39424002 -0.11922286 0.76800001
-0.39226574 -0.11906762 0.76700002
-0.39233336 -0.11953334 0.77000004
-0.3908667 -0.11953334 0.77000004
-0.39041147 -0.11984382 0.77200001
-0.38894099 -0.11984382 0.77200001
-0.38747051 -0.11984382 0.77200001
-0.39424002 -0.11776001 0.76800001
-0.39226574 -0.11760668 0.76700002
-0.39233336 -0.11806668 0.77000004
-0.39188194 -0.11837334 0.77200001
-0.39192858 -0.11883334 0.77500004
-0.38894099 -0.11837334 0.77200001
-0.38747051 -0.11837334 0.77200001
-0.39372671 -0.11614572 0.76700002
-0.39226574 -0.11614572 0.76700002
-0.39233336 -0.11660001 0.77000004
-0.39340478 -0.11735715 0.77500004
-0.39294001 -0.11766001 0.77700001
-0.39146003 -0.11766001 0.77700001
-0.39098385 -0.11796287 0.77900004
-0.38950002 -0.11796287 0.77900004
-0.39226574 -0.11468477 0.76700002
-0.39590004 -0.11618001 0.77700001
-0.39442003 -0.11618001 0.77700001
-0.39395145 -0.11647905 0.77900004
-0.39246765 -0.11647905 0.77900004
-0.39098385 -0.11647905 0.77900004
-0.38950002 -0.11647905 0.77900004
-0.39590004 -0.1147 0.77700001
-0.39442003 -0.1147 0.77700001
-0.39395145 -0.11499525 0.77900004
-0.39246765 -0.11499525 0.77900004
-0.39098385 -0.11499525 0.77900004
-0.38950002 -0.11499525 0.77900004
-0.38851431 -0.11514287 0.78000003
-0.38901335 -0.11573334 0.78400004
-0.39196861 -0.11706191 0.79300004
-0.39590004 -0.11322001 0.77700001
-0.39543527 -0.11351144 0.77900004
-0.39395145 -0.11351144 0.77900004
-0.39246765 -0.11351144 0.77900004
-0.39098385 -0.11351144 0.77900004
-0.38950002 -0.11351144 0.77900004
-0.38801622 -0.11351144 0.77900004
-0.3865324 -0.11351144 0.77900004
-0.39295718 -0.11584286 0.79500002
-0.39543527 -0.11202762 0.77900004
-0.39395145 -0.11202762 0.77900004
-0.39297146 -0.11217143 0.78000003
-0.39098385 -0.11202762 0.77900004
-0.39000002 -0.11217143 0.78000003
-0.38851431 -0.11217143 0.78000003
-0.3870286 -0.11217143 0.78000003
-0.39196861 -0.11404096 0.79300004
-0.3959429 -0.11068572 0.78000003
-0.39445716 -0.11068572 0.78000003
-0.39397907 -0.11096953 0.78200006
-0.39148575 -0.11068572 0.78000003
-0.39100003 -0.11096953 0.78200006
-0.38951051 -0.11096953 0.78200006
-0.38901335 -0.11125334 0.78400004
-0.38999146 -0.11196286 0.78900003
-0.3959429 -0.10920001 0.78000003
-0.39546859 -0.10948001 0.78200006
-0.39397907 -0.10948001 0.78200006
-0.39248955 -0.10948001 0.78200006
-0.39200002 -0.10976001 0.78400004
-0.39050668 -0.10976001 0.78400004
-0.39000574 -0.11004001 0.78600001
-0.3959429 -0.1077143 0.78000003
-0.39546859 -0.10799048 0.78200006
-0.39397907 -0.10799048 0.78200006
-0.39248955 -0.10799048 0.78200006
-0.39200002 -0.10826667 0.78400004
-0.39050668 -0.10826667 0.78400004
-0.38901335 -0.10826667 0.78400004
-0.38949716 -0.10881905 0.78800005
-0.39797336 -0.10677334 0.78400004
-0.39648002 -0.10677334 0.78400004
-0.39498669 -0.10677334 0.78400004
-0.39349335 -0.10677334 0.78400004
-0.39200002 -0.10677334 0.78400004
-0.39050668 -0.10677334 0.78400004
-0.38901335 -0.10677334 0.78400004
-0.38850859 -0.10704572 0.78600001
-0.39797336 -0.10528 0.78400004
-0.39648002 -0.10528 0.78400004
-0.39498669 -0.10528 0.78400004
-0.39349335 -0.10528 0.78400004
-0.39200002 -0.10528 0.78400004
-0.39050668 -0.10528 0.78400004
-0.38901335 -0.10528 0.78400004
-0.38850859 -0.10554858 0.78600001
-0.38799623 -0.10581715 0.78800005
-0.39797336 -0.10378668 0.78400004
-0.39648002 -0.10378668 0.78400004
-0.39498669 -0.10378668 0.78400004
-0.39349335 -0.10378668 0.78400004
-0.39200002 -0.10378668 0.78400004
-0.39050668 -0.10378668 0.78400004
-0.39000574 -0.10405143 0.78600001
-0.38752002 -0.10378668 0.78400004
-0.38799623 -0.1043162 0.78800005
-0.3989886 -0.10255429 0.78600001
-0.39648002 -0.10229334 0.78400004
-0.39498669 -0.10229334 0.78400004
-0.39349335 -0.10229334 0.78400004
-0.39300004 -0.10255429 0.78600001
-0.39150289 -0.10255429 0.78600001
-0.39000574 -0.10255429 0.78600001
-0.38850859 -0.10255429 0.78600001
-0.38799623 -0.10281525 0.78800005
-0.38698575 -0.10294572 0.78900003
-0.38646004 -0.10320667 0.79100001
-0.39648002 -0.10080001 0.78400004
-0.39397907 -0.10054287 0.78200006
-0.39349335 -0.10080001 0.78400004
-0.39300004 -0.10105715 0.78600001
-0.39150289 -0.10105715 0.78600001
-0.39000574 -0.10105715 0.78600001
-0.38850859 -0.10105715 0.78600001
-0.38799623 -0.10131429 0.78800005
-0.38698575 -0.10144287 0.78900003
-0.38646004 -0.10170001 0.79100001
-0.39249906 -0.099813342 0.78800005
-0.3914943 -0.099940009 0.78900003
-0.39098004 -0.10019334 0.79100001
-0.39045811 -0.10044667 0.79300004
-0.38894764 -0.10044667 0.79300004
-0.38841432 -0.10070001 0.79500002
-0.38787335 -0.10095334 0.79700005
-0.39299718 -0.098437153 0.78900003
-0.39248669 -0.098686673 0.79100001
-0.39098004 -0.098686673 0.79100001
-0.39045811 -0.0989362 0.79300004
-0.38894764 -0.0989362 0.79300004
-0.38841432 -0.09918572 0.79500002
-0.38787335 -0.099435247 0.79700005
-0.38635525 -0.099435247 0.79700005
-0.39299718 -0.096934289 0.78900003
-0.39248669 -0.097180009 0.79100001
-0.39098004 -0.097180009 0.79100001
-0.39045811 -0.097425722 0.79300004
-0.38894764 -0.097425722 0.79300004
-0.38841432 -0.097671434 0.79500002
-0.38787335 -0.097917147 0.79700005
-0.38684002 -0.098040007 0.79800004
-0.39399335 -0.095673338 0.79100001
-0.39347908 -0.095915243 0.79300004
-0.39196861 -0.095915243 0.79300004
-0.39045811 -0.095915243 0.79300004
-0.38992861 -0.096157148 0.79500002
-0.38939145 -0.096399054 0.79700005
-0.38836002 -0.096520007 0.79800004
-0.38684002 -0.096520007 0.79800004
-0.38628575 -0.096761912 0.80000001
-0.39550003 -0.094166674 0.79100001
-0.39399335 -0.094166674 0.79100001
-0.39347908 -0.094404764 0.79300004
-0.39196861 -0.094404764 0.79300004
-0.39045811 -0.094404764 0.79300004
-0.38894764 -0.094404764 0.79300004
-0.38841432 -0.094642863 0.79500002
-0.38787335 -0.094880961 0.79700005
-0.38684002 -0.095000006 0.79800004
-0.39498955 -0.092894293 0.79300004
-0.39347908 -0.092894293 0.79300004
-0.39098004 -0.092660002 0.79100001
-0.39045811 -0.092894293 0.79300004
-0.38894764 -0.092894293 0.79300004
-0.38743716 -0.092894293 0.79300004
-0.38787335 -0.09336286 0.79700005
-0.38684002 -0.093480006 0.79800004
-0.38532004 -0.093480006 0.79800004
-0.39053336 -0.095120005 0.81200004
-0.39399335 -0.091153339 0.79100001
-0.39347908 -0.091383815 0.79300004
-0.39098004 -0.091153339 0.79100001
-0.39045811 -0.091383815 0.79300004
-0.38992861 -0.091614291 0.79500002
-0.38939145 -0.091844767 0.79700005
-0.38836002 -0.091960005 0.79800004
-0.38780954 -0.092190482 0.80000001
-0.39111432 -0.093342863 0.81000006
-0.38957146 -0.093342863 0.81000006
-0.38898671 -0.093573339 0.81200004
-0.38744003 -0.093573339 0.81200004
-0.39299718 -0.089420006 0.78900003
-0.39248669 -0.089646675 0.79100001
-0.39098004 -0.089646675 0.79100001
-0.38947335 -0.089646675 0.79100001
-0.38894764 -0.089873336 0.79300004
-0.38939145 -0.090326674 0.79700005
-0.38836002 -0.090440005 0.79800004
-0.38877907 -0.090893336 0.80200005
-0.39111432 -0.091800004 0.81000006
-0.38957146 -0.091800004 0.81000006
-0.38802859 -0.091800004 0.81000006
-0.38744003 -0.092026673 0.81200004
-0.38589334 -0.092026673 0.81200004
-0.39299718 -0.087917149 0.78900003
-0.39248669 -0.088140003 0.79100001
-0.38999146 -0.087917149 0.78900003
-0.38947335 -0.088140003 0.79100001
-0.38796669 -0.088140003 0.79100001
-0.38841432 -0.088585719 0.79500002
-0.38836002 -0.088920005 0.79800004
-0.39071813 -0.089811437 0.80600005
-0.39208004 -0.090480007 0.81200004
-0.39053336 -0.090480007 0.81200004
-0.38898671 -0.090480007 0.81200004
-0.38839433 -0.090702862 0.81400001
-0.38731906 -0.090814292 0.81500006
-0.39248669 -0.08663334 0.79100001
-0.39098004 -0.08663334 0.79100001
-0.38947335 -0.08663334 0.79100001
-0.38796669 -0.08663334 0.79100001
-0.38841432 -0.087071434 0.79500002
-0.38690004 -0.087071434 0.79500002
-0.39168763 -0.088495247 0.80800003
-0.39304575 -0.089152388 0.81400001
-0.39053336 -0.088933341 0.81200004
-0.38994479 -0.089152388 0.81400001
-0.38887146 -0.089261912 0.81500006
-0.38826954 -0.089480959 0.81700003
-0.38671336 -0.089480959 0.81700003
-0.39248669 -0.085126676 0.79100001
-0.39098004 -0.085126676 0.79100001
-0.38947335 -0.085126676 0.79100001
-0.38796669 -0.085126676 0.79100001
-0.38743716 -0.085341908 0.79300004
-0.38592669 -0.085341908 0.79300004
-0.39071813 -0.086740956 0.80600005
-0.39304575 -0.087601908 0.81400001
-0.39149526 -0.087601908 0.81400001
-0.39138192 -0.087924771 0.81700003
-0.39078003 -0.088140003 0.81900007
-0.39017051 -0.088355243 0.82100004
-0.38766003 -0.088140003 0.81900007
-0.38704288 -0.088355243 0.82100004
-0.39248669 -0.083620004 0.79100001
-0.39098004 -0.083620004 0.79100001
-0.39045811 -0.083831437 0.79300004
-0.38894764 -0.083831437 0.79300004
-0.38939145 -0.084254295 0.79700005
-0.38690004 -0.084042862 0.79500002
-0.38877907 -0.084782861 0.80200005
-0.39111432 -0.085628577 0.81000006
-0.39149526 -0.086051434 0.81400001
-0.39234003 -0.086580008 0.81900007
-0.3917343 -0.086791433 0.82100004
-0.39017051 -0.086791433 0.82100004
-0.3886067 -0.086791433 0.82100004
-0.38704288 -0.086791433 0.82100004
-0.39347908 -0.082320958 0.79300004
-0.39196861 -0.082320958 0.79300004
-0.39045811 -0.082320958 0.79300004
-0.38992861 -0.082528576 0.79500002
-0.38988003 -0.082840003 0.79800004
-0.38836002 -0.082840003 0.79800004
-0.3897486 -0.083462864 0.80400002
-0.39111432 -0.084085718 0.81000006
-0.39197621 -0.08460477 0.81500006
-0.39234003 -0.085020006 0.81900007
-0.39078003 -0.085020006 0.81900007
-0.39017051 -0.085227624 0.82100004
-0.3886067 -0.085227624 0.82100004
-0.38704288 -0.085227624 0.82100004
-0.39399335 -0.080606669 0.79100001
-0.39347908 -0.08081048 0.79300004
-0.39196861 -0.08081048 0.79300004
-0.39045811 -0.08081048 0.79300004
-0.38992861 -0.08101429 0.79500002
-0.38988003 -0.081320003 0.79800004
-0.38933337 -0.081523813 0.80000001
-0.38780954 -0.081523813 0.80000001
-0.39111432 -0.082542859 0.81000006
-0.39197621 -0.083052389 0.81500006
-0.39138192 -0.083256193 0.81700003
-0.39078003 -0.083460003 0.81900007
-0.39017051 -0.083663814 0.82100004
-0.3886067 -0.083663814 0.82100004
-0.38704288 -0.083663814 0.82100004
-0.39347908 -0.079300009 0.79300004
-0.39196861 -0.079300009 0.79300004
-0.39045811 -0.079300009 0.79300004
-0.39090955 -0.079700008 0.79700005
-0.39085716 -0.080000006 0.80000001
-0.38933337 -0.080000006 0.80000001
-0.38780954 -0.080000006 0.80000001
-0.39014861 -0.080800004 0.80800003
-0.39293811 -0.081700005 0.81700003
-0.39234003 -0.081900008 0.81900007
-0.39078003 -0.081900008 0.81900007
-0.39017051 -0.082100004 0.82100004
-0.3886067 -0.082100004 0.82100004
-0.38798574 -0.082300007 0.82300001
-0.39447147 -0.077985719 0.79500002
-0.39295718 -0.077985719 0.79500002
-0.39144289 -0.077985719 0.79500002
-0.39140004 -0.078280002 0.79800004
-0.39085716 -0.078476198 0.80000001
-0.38933337 -0.078476198 0.80000001
-0.38780954 -0.078476198 0.80000001
-0.38628575 -0.078476198 0.80000001
-0.39197621 -0.079947621 0.81500006
-0.39138192 -0.080143817 0.81700003
-0.38982573 -0.080143817 0.81700003
-0.38826954 -0.080143817 0.81700003
-0.39447147 -0.076471433 0.79500002
-0.39295718 -0.076471433 0.79500002
-0.39144289 -0.076471433 0.79500002
-0.39090955 -0.076663814 0.79700005
-0.39085716 -0.076952383 0.80000001
-0.38933337 -0.076952383 0.80000001
-0.38780954 -0.076952383 0.80000001
-0.39111432 -0.07791429 0.81000006
-0.39149526 -0.078299053 0.81400001
-0.39042383 -0.07839524 0.81500006
-0.38839433 -0.078299053 0.81400001
-0.38826954 -0.078587621 0.81700003
-0.39546382 -0.075145721 0.79700005
-0.39394575 -0.075145721 0.79700005
-0.39242765 -0.075145721 0.79700005
-0.39140004 -0.075240009 0.79800004
-0.39085716 -0.075428575 0.80000001
-0.38933337 -0.075428575 0.80000001
-0.38780954 -0.075428575 0.80000001
-0.39014861 -0.076182865 0.80800003
-0.39053336 -0.076560006 0.81200004
-0.38994479 -0.07674858 0.81400001
-0.38744003 -0.076560006 0.81200004
-0.38731906 -0.076842859 0.81500006
-0.39394575 -0.073627621 0.79700005
-0.39242765 -0.073627621 0.79700005
-0.39140004 -0.073720008 0.79800004
-0.39085716 -0.073904768 0.80000001
-0.38933337 -0.073904768 0.80000001
-0.38877907 -0.074089527 0.80200005
-0.39014861 -0.074643813 0.80800003
-0.39053336 -0.07501334 0.81200004
-0.38994479 -0.075198099 0.81400001
-0.38744003 -0.07501334 0.81200004
-0.38731906 -0.075290479 0.81500006
-0.39140004 -0.072200008 0.79800004
-0.39085716 -0.07238096 0.80000001
-0.39030668 -0.072561912 0.80200005
-0.39362669 -0.073466673 0.81200004
-0.39208004 -0.073466673 0.81200004
-0.39149526 -0.073647626 0.81400001
-0.38994479 -0.073647626 0.81400001
-0.38839433 -0.073647626 0.81400001
-0.38826954 -0.07391905 0.81700003
-0.39128003 -0.071211435 0.80400002
-0.39362669 -0.071920007 0.81200004
-0.39208004 -0.071920007 0.81200004
-0.39149526 -0.072097145 0.81400001
-0.39042383 -0.072185718 0.81500006
-0.38887146 -0.072185718 0.81500006
-0.38731906 -0.072185718 0.81500006
-0.39362669 -0.070373341 0.81200004
-0.39208004 -0.070373341 0.81200004
-0.39149526 -0.070546672 0.81400001
-0.38994479 -0.070546672 0.81400001
-0.38887146 -0.070633337 0.81500006
-0.38826954 -0.070806675 0.81700003
-0.38766003 -0.070980005 0.81900007
-0.38829622 -0.071673341 0.82700002
-0.39208004 -0.068826668 0.81200004
-0.39053336 -0.068826668 0.81200004
-0.38994479 -0.068996198 0.81400001
-0.38887146 -0.069080956 0.81500006
-0.38922003 -0.069420002 0.81900007
-0.38766003 -0.069420002 0.81900007
-0.38829622 -0.070098102 0.82700002
-0.39046192 -0.070776194 0.83500004
-0.38887146 -0.070776194 0.83500004
-0.39225337 -0.066782862 0.80600005
-0.39265716 -0.067114294 0.81000006
-0.39111432 -0.067114294 0.81000006
-0.38957146 -0.067114294 0.81000006
-0.38994479 -0.067445718 0.81400001
-0.38887146 -0.067528576 0.81500006
-0.38922003 -0.067860007 0.81900007
-0.3886067 -0.068025716 0.82100004
-0.38798574 -0.068191431 0.82300001
-0.38923526 -0.068688579 0.82900006
-0.39225337 -0.065247625 0.80600005
-0.39265716 -0.065571435 0.81000006
-0.39111432 -0.065571435 0.81000006
-0.38957146 -0.065571435 0.81000006
-0.38994479 -0.065895244 0.81400001
-0.38887146 -0.065976195 0.81500006
-0.38922003 -0.066300005 0.81900007
-0.3886067 -0.066461906 0.82100004
-0.38798574 -0.066623814 0.82300001
-0.38923526 -0.067109525 0.82900006
-0.39046192 -0.067595243 0.83500004
-0.39322668 -0.063870482 0.80800003
-0.39265716 -0.064028576 0.81000006
-0.39111432 -0.064028576 0.81000006
-0.39053336 -0.06418667 0.81200004
-0.39042383 -0.064423814 0.81500006
-0.38982573 -0.064581908 0.81700003
-0.39017051 -0.064898096 0.82100004
-0.3886067 -0.064898096 0.82100004
-0.38798574 -0.065056197 0.82300001
-0.38923526 -0.065530479 0.82900006
-0.39225337 -0.062177148 0.80600005
-0.39168763 -0.062331434 0.80800003
-0.39111432 -0.062485717 0.81000006
-0.38957146 -0.062485717 0.81000006
-0.38994479 -0.06279429 0.81400001
-0.38982573 -0.06302572 0.81700003
-0.39017051 -0.063334286 0.82100004
-0.3886067 -0.063334286 0.82100004
-0.38798574 -0.063488573 0.82300001
-0.39322668 -0.060792387 0.80800003
-0.39168763 -0.060792387 0.80800003
-0.39014861 -0.060792387 0.80800003
-0.38957146 -0.060942862 0.81000006
-0.38898671 -0.061093338 0.81200004
-0.38887146 -0.061319053 0.81500006
-0.39017051 -0.06177048 0.82100004
-0.3886067 -0.06177048 0.82100004
-0.38798574 -0.061920956 0.82300001
-0.39265716 -0.059400003 0.81000006
-0.39208004 -0.059546672 0.81200004
-0.39149526 -0.059693336 0.81400001
-0.38994479 -0.059693336 0.81400001
-0.38887146 -0.059766669 0.81500006
-0.39017051 -0.06020667 0.82100004
-0.38955337 -0.060353339 0.82300001
-0.38892859 -0.060500003 0.82500005
-0.39672002 -0.058000002 0.81200004
-0.39517337 -0.058000002 0.81200004
-0.39362669 -0.058000002 0.81200004
-0.39208004 -0.058000002 0.81200004
-0.39149526 -0.058142859 0.81400001
-0.38994479 -0.058142859 0.81400001
-0.38887146 -0.058214288 0.81500006
-0.39112097 -0.058785718 0.82300001
-0.38955337 -0.058785718 0.82300001
-0.38892859 -0.058928575 0.82500005
-0.39769718 -0.056592386 0.81400001
-0.39614668 -0.056592386 0.81400001
-0.39459622 -0.056592386 0.81400001
-0.39304575 -0.056592386 0.81400001
-0.39149526 -0.056592386 0.81400001
-0.38994479 -0.056592386 0.81400001
-0.38839433 -0.056592386 0.81400001
-0.39112097 -0.057218097 0.82300001
-0.38955337 -0.057218097 0.82300001
-0.38892859 -0.057357147 0.82500005
-0.39818573 -0.055109527 0.81500006
-0.39663336 -0.055109527 0.81500006
-0.39459622 -0.055041909 0.81400001
-0.39352861 -0.055109527 0.81500006
-0.39197621 -0.055109527 0.81500006
-0.39042383 -0.055109527 0.81500006
-0.38887146 -0.055109527 0.81500006
-0.39017051 -0.055515241 0.82100004
-0.3886067 -0.055515241 0.82100004
-0.38798574 -0.05565048 0.82300001
-0.39663336 -0.053557146 0.81500006
-0.39459622 -0.053491432 0.81400001
-0.39352861 -0.053557146 0.81500006
-0.39197621 -0.053557146 0.81500006
-0.39042383 -0.053557146 0.81500006
-0.38887146 -0.053557146 0.81500006
-0.39017051 -0.053951431 0.82100004
-0.38766003 -0.053820003 0.81900007
-0.39769718 -0.051940955 0.81400001
-0.39663336 -0.052004766 0.81500006
-0.39508098 -0.052004766 0.81500006
-0.39304575 -0.051940955 0.81400001
-0.39197621 -0.052004766 0.81500006
-0.39042383 -0.052004766 0.81500006
-0.38887146 -0.052004766 0.81500006
-0.38826954 -0.052132383 0.81700003
-0.38671336 -0.052132383 0.81700003
-0.39663336 -0.050452385 0.81500006
-0.39508098 -0.050452385 0.81500006
-0.39352861 -0.050452385 0.81500006
-0.39197621 -0.050452385 0.81500006
-0.39138192 -0.050576195 0.81700003
-0.38982573 -0.050576195 0.81700003
-0.38922003 -0.050700005 0.81900007
-0.38766003 -0.050700005 0.81900007
-0.39605051 -0.049020004 0.81700003
-0.39352861 -0.048900004 0.81500006
-0.39293811 -0.049020004 0.81700003
-0.39138192 -0.049020004 0.81700003
-0.38982573 -0.049020004 0.81700003
-0.38922003 -0.049140003 0.81900007
-0.38766003 -0.049140003 0.81900007
-0.38704288 -0.049260002 0.82100004
-0.39449432 -0.047463812 0.81700003
-0.39293811 -0.047463812 0.81700003
-0.39138192 -0.047463812 0.81700003
-0.38982573 -0.047463812 0.81700003
-0.38922003 -0.047580004 0.81900007
-0.38766003 -0.047580004 0.81900007
-0.38610002 -0.047580004 0.81900007
-0.38360098 -0.047463812 0.81700003
-0.39352861 -0.04579524 0.81500006
-0.39293811 -0.04590762 0.81700003
-0.39138192 -0.04590762 0.81700003
-0.39078003 -0.046020001 0.81900007
-0.38922003 -0.046020001 0.81900007
-0.38766003 -0.046020001 0.81900007
-0.38704288 -0.046132386 0.82100004
-0.38454002 -0.046020001 0.81900007
-0.38298002 -0.046020001 0.81900007
-0.39208004 -0.044080004 0.81200004
-0.39293811 -0.044351432 0.81700003
-0.39234003 -0.044460002 0.81900007
-0.39078003 -0.044460002 0.81900007
-0.39017051 -0.044568576 0.82100004
-0.3886067 -0.044568576 0.82100004
-0.38704288 -0.044568576 0.82100004
-0.38547906 -0.044568576 0.82100004
-0.38298002 -0.044460002 0.81900007
-0.43904763 -0.054285716 1
-0.43714288 -0.054285716 1
-0.43523812 -0.054285716 1
-0.43333337 -0.054285716 1
-0.39111432 -0.042428575 0.81000006
-0.39197621 -0.042690478 0.81500006
-0.39042383 -0.042690478 0.81500006
-0.38982573 -0.042795241 0.81700003
-0.39017051 -0.043004766 0.82100004
-0.3886067 -0.043004766 0.82100004
-0.38704288 -0.043004766 0.82100004
-0.38454002 -0.042900003 0.81900007
-0.38204479 -0.042795241 0.81700003
-0.43904763 -0.052380957 1
-0.43714288 -0.052380957 1
-0.43523812 -0.052380957 1
-0.43333337 -0.052380957 1
-0.43142861 -0.052380957 1
-0.42952383 -0.052380957 1
-0.39333335 -0.052380957 1
-0.39142859 -0.052380957 1
-0.38952383 -0.052380957 1
-0.38761908 -0.052380957 1
-0.38571432 -0.052380957 1
-0.39014861 -0.040784765 0.80800003
-0.39149526 -0.04108762 0.81400001
-0.39042383 -0.041138098 0.81500006
-0.38982573 -0.041239049 0.81700003
-0.39017051 -0.041440956 0.82100004
-0.3886067 -0.041440956 0.82100004
-0.38704288 -0.041440956 0.82100004
-0.38547906 -0.041440956 0.82100004
-0.38298002 -0.041340001 0.81900007
-0.3804886 -0.041239049 0.81700003
-0.43904763 -0.050476193 1
-0.43714288 -0.050476193 1
-0.43523812 -0.050476193 1
-0.43333337 -0.050476193 1
-0.43142861 -0.050476193 1
-0.42952383 -0.050476193 1
-0.42761907 -0.050476193 1
-0.39333335 -0.050476193 1
-0.39142859 -0.050476193 1
-0.38952383 -0.050476193 1
-0.38761908 -0.050476193 1
-0.38571432 -0.050476193 1
-0.39140004 -0.038760003 0.79800004
-0.39085716 -0.038857147 0.80000001
-0.39030668 -0.038954288 0.80200005
-0.39071813 -0.039148573 0.80600005
-0.3891829 -0.039148573 0.80600005
-0.38860956 -0.039245717 0.80800003
-0.38802859 -0.039342858 0.81000006
-0.38839433 -0.039537147 0.81400001
-0.38922003 -0.039780002 0.81900007
-0.3886067 -0.039877146 0.82100004
-0.38704288 -0.039877146 0.82100004
-0.38547906 -0.039877146 0.82100004
-0.38391528 -0.039877146 0.82100004
-0.38235146 -0.039877146 0.82100004
-0.38171527 -0.039974287 0.82300001
-0.37414289 -0.039342858 0.81000006
-0.37168002 -0.039245717 0.80800003
-0.37105715 -0.039342858 0.81000006
-0.44095242 -0.04857143 1
-0.43904763 -0.04857143 1
-0.43714288 -0.04857143 1
-0.43523812 -0.04857143 1
-0.43333337 -0.04857143 1
-0.43013433 -0.048425719 0.99700004
-0.42952383 -0.04857143 1
-0.42761907 -0.04857143 1
-0.42380956 -0.04857143 1
-0.39333335 -0.04857143 1
-0.39142859 -0.04857143 1
-0.38952383 -0.04857143 1
-0.38761908 -0.04857143 1
-0.39238098 -0.037333336 0.80000001
-0.39085716 -0.037333336 0.80000001
-0.39030668 -0.037426669 0.80200005
-0.3897486 -0.037520003 0.80400002
-0.38821718 -0.037520003 0.80400002
-0.38860956 -0.037706669 0.80800003
-0.38802859 -0.037800003 0.81000006
-0.38839433 -0.03798667 0.81400001
-0.38826954 -0.03812667 0.81700003
-0.3886067 -0.038313337 0.82100004
-0.38704288 -0.038313337 0.82100004
-0.38547906 -0.038313337 0.82100004
-0.3848505 -0.03840667 0.82300001
-0.38421431 -0.038500004 0.82500005
-0.38171527 -0.03840667 0.82300001
-0.37599051 -0.03798667 0.81400001
-0.37352002 -0.037893336 0.81200004
-0.37197337 -0.037893336 0.81200004
-0.43904763 -0.046666671 1
-0.43714288 -0.046666671 1
-0.43523812 -0.046666671 1
-0.43333337 -0.046666671 1
-0.43013433 -0.04652667 0.99700004
-0.42823526 -0.04652667 0.99700004
-0.42633623 -0.04652667 0.99700004
-0.42571431 -0.046666671 1
-0.42380956 -0.046666671 1
-0.39140004 -0.035720002 0.79800004
-0.39085716 -0.035809524 0.80000001
-0.38933337 -0.035809524 0.80000001
-0.38780954 -0.035809524 0.80000001
-0.38821718 -0.035988573 0.80400002
-0.38764766 -0.036078099 0.80600005
-0.38707051 -0.036167622 0.80800003
-0.38744003 -0.03634667 0.81200004
-0.38731906 -0.036480956 0.81500006
-0.38766003 -0.036660001 0.81900007
-0.38798574 -0.036839049 0.82300001
-0.38641813 -0.036839049 0.82300001
-0.38578573 -0.036928575 0.82500005
-0.38421431 -0.036928575 0.82500005
-0.38264289 -0.036928575 0.82500005
-0.37645242 -0.036480956 0.81500006
-0.37444001 -0.036436193 0.81400001
-0.37288955 -0.036436193 0.81400001
-0.43904763 -0.044761907 1
-0.43714288 -0.044761907 1
-0.43393242 -0.044627622 0.99700004
-0.43333337 -0.044761907 1
-0.42884004 -0.044493336 0.99400002
-0.42823526 -0.044627622 0.99700004
-0.42633623 -0.044627622 0.99700004
-0.42571431 -0.044761907 1
-0.42253813 -0.044627622 0.99700004
-0.4219048 -0.044761907 1
-0.39140004 -0.034200002 0.79800004
-0.38988003 -0.034200002 0.79800004
-0.38836002 -0.034200002 0.79800004
-0.38684002 -0.034200002 0.79800004
-0.38725147 -0.034371432 0.80200005
-0.38764766 -0.034542859 0.80600005
-0.38802859 -0.034714289 0.81000006
-0.38744003 -0.0348 0.81200004
-0.38826954 -0.035014287 0.81700003
-0.38766003 -0.035100002 0.81900007
-0.38798574 -0.035271432 0.82300001
-0.38641813 -0.035271432 0.82300001
-0.38578573 -0.035357144 0.82500005
-0.38421431 -0.035357144 0.82500005
-0.37893242 -0.035014287 0.81700003
-0.37645242 -0.034928575 0.81500006
-0.37444001 -0.034885716 0.81400001
-0.43773049 -0.042728573 0.99700004
-0.43583146 -0.042728573 0.99700004
-0.43393242 -0.042728573 0.99700004
-0.43073335 -0.042600002 0.99400002
-0.42884004 -0.042600002 0.99400002
-0.4269467 -0.042600002 0.99400002
-0.42633623 -0.042728573 0.99700004
-0.42443717 -0.042728573 0.99700004
-0.42253813 -0.042728573 0.99700004
-0.39090955 -0.032639049 0.79700005
-0.38988003 -0.032680001 0.79800004
-0.38836002 -0.032680001 0.79800004
-0.38684002 -0.032680001 0.79800004
-0.38725147 -0.032843813 0.80200005
-0.38764766 -0.033007622 0.80600005
-0.38802859 -0.03317143 0.81000006
-0.38744003 -0.033253334 0.81200004
-0.38684383 -0.033335239 0.81400001
-0.38766003 -0.033540003 0.81900007
-0.38704288 -0.033621907 0.82100004
-0.38641813 -0.033703811 0.82300001
-0.38578573 -0.033785716 0.82500005
-0.38514575 -0.03386762 0.82700002
-0.43452004 -0.040706668 0.99400002
-0.43262669 -0.040706668 0.99400002
-0.43073335 -0.040706668 0.99400002
-0.39196861 -0.030964764 0.79300004
-0.39144289 -0.031042859 0.79500002
-0.39090955 -0.031120954 0.79700005
-0.38988003 -0.031160003 0.79800004
-0.38836002 -0.031160003 0.79800004
-0.38780954 -0.031238098 0.80000001
-0.38725147 -0.031316191 0.80200005
-0.38764766 -0.031472381 0.80600005
-0.38707051 -0.031550478 0.80800003
-0.38648573 -0.031628575 0.81000006
-0.38766003 -0.03198 0.81900007
-0.38798574 -0.032136194 0.82300001
-0.38641813 -0.032136194 0.82300001
-0.38578573 -0.032214288 0.82500005
-0.39098004 -0.029380001 0.79100001
-0.38947335 -0.029380001 0.79100001
-0.38796669 -0.029380001 0.79100001
-0.38841432 -0.029528573 0.79500002
-0.38787335 -0.029602859 0.79700005
-0.38780954 -0.029714288 0.80000001
-0.38725147 -0.029788574 0.80200005
-0.38668573 -0.029862858 0.80400002
-0.38611239 -0.029937144 0.80600005
-0.38648573 -0.030085716 0.81000006
-0.38684383 -0.030234288 0.81400001
-0.38671336 -0.030345716 0.81700003
-0.38798574 -0.030568574 0.82300001
-0.38641813 -0.030568574 0.82300001
-0.38504192 -0.027556192 0.78200006
-0.38257146 -0.027485715 0.78000003
-0.38548288 -0.027802859 0.78900003
-0.38592669 -0.02794381 0.79300004
-0.38635525 -0.028084764 0.79700005
-0.38532004 -0.028120002 0.79800004
-0.38668573 -0.028331431 0.80400002
-0.38611239 -0.028401908 0.80600005
-0.38648573 -0.028542859 0.81000006
-0.38589334 -0.028613335 0.81200004
-0.38434669 -0.028613335 0.81200004
-0.38554004 -0.025900003 0.77700001
-0.3850486 -0.025966669 0.77900004
-0.38405716 -0.026000002 0.78000003
-0.38257146 -0.026000002 0.78000003
-0.38349336 -0.026266668 0.78800005
-0.38441622 -0.026433336 0.79300004
-0.38387147 -0.026500002 0.79500002
-0.38611239 -0.026866669 0.80600005
-0.38553146 -0.026933335 0.80800003
-0.3839924 -0.026933335 0.80800003
-0.45686385 -0.03256667 0.97700006
-0.38454765 -0.024357144 0.77500004
-0.38307145 -0.024357144 0.77500004
-0.38405716 -0.024514288 0.78000003
-0.38208097 -0.024482859 0.77900004
-0.38304001 -0.024640001 0.78400004
-0.38441622 -0.024922859 0.79300004
-0.38387147 -0.024985716 0.79500002
-0.38235718 -0.024985716 0.79500002
-0.4610267 -0.030611431 0.97400004
-0.45822859 -0.030548573 0.97200006
-0.4549686 -0.030454287 0.96900004
-0.45686385 -0.030705716 0.97700006
-0.38452956 -0.022792382 0.77200001
-0.38305908 -0.022792382 0.77200001
-0.38208288 -0.022821907 0.77300006
-0.38258001 -0.022940002 0.77700001
-0.38110003 -0.022940002 0.77700001
-0.38059717 -0.022999048 0.77900004
-0.38252002 -0.023205716 0.78600001
-0.38247716 -0.023294287 0.78900003
-0.38049147 -0.023264764 0.78800005
-0.3789905 -0.023264764 0.78800005
-0.45866004 -0.028608574 0.96900004
-0.45681432 -0.028608574 0.96900004
-0.45215145 -0.02843143 0.96300006
-0.45312288 -0.028608574 0.96900004
-0.38194954 -0.021018097 0.76100004
-0.38150004 -0.021073334 0.76300001
-0.38203907 -0.021183811 0.76700002
-0.3820667 -0.021266667 0.77000004
-0.38158861 -0.021321906 0.77200001
-0.38258001 -0.021460002 0.77700001
-0.38208097 -0.021515239 0.77900004
-0.38304001 -0.021653336 0.78400004
-0.38349336 -0.021763811 0.78800005
-0.38344669 -0.021846669 0.79100001
-0.38049147 -0.021763811 0.78800005
-0.38139525 -0.021901906 0.79300004
-0.45866004 -0.026762858 0.96900004
-0.45681432 -0.026762858 0.96900004
-0.38295335 -0.019620001 0.76300001
-0.38150004 -0.019620001 0.76300001
-0.38253716 -0.019748572 0.76800001
-0.3820667 -0.019800002 0.77000004
-0.38158861 -0.019851429 0.77200001
-0.3835648 -0.02003143 0.77900004
-0.3835524 -0.020108573 0.78200006
-0.38401717 -0.02021143 0.78600001
-0.38349336 -0.020262858 0.78800005
-0.3819924 -0.020262858 0.78800005
-0.38049147 -0.020262858 0.78800005
-0.38043335 -0.020340001 0.79100001
-0.45724002 -0.024840001 0.96600002
-0.45540002 -0.024840001 0.96600002
-0.44804004 -0.024840001 0.96600002
-0.38339907 -0.018119048 0.76100004
-0.38194954 -0.018119048 0.76100004
-0.38150004 -0.018166669 0.76300001
-0.38104287 -0.018214287 0.76500005
-0.38305908 -0.018380953 0.77200001
-0.38158861 -0.018380953 0.77200001
-0.3835524 -0.018619049 0.78200006
-0.38304001 -0.018666668 0.78400004
-0.38349336 -0.018761907 0.78800005
-0.38247716 -0.018785715 0.78900003
-0.38049147 -0.018761907 0.78800005
-0.38043335 -0.018833335 0.79100001
-0.38434288 -0.01664762 0.76000005
-0.38339907 -0.016669525 0.76100004
-0.38194954 -0.016669525 0.76100004
-0.38150004 -0.016713334 0.76300001
-0.38104287 -0.016757144 0.76500005
-0.38305908 -0.016910477 0.77200001
-0.38208288 -0.016932381 0.77300006
-0.38453335 -0.017173335 0.78400004
-0.38304001 -0.017173335 0.78400004
-0.38349336 -0.017260954 0.78800005
-0.38247716 -0.017282858 0.78900003
-0.38194004 -0.017326668 0.79100001
-0.38139525 -0.017370477 0.79300004
-0.38621908 -0.015160001 0.75800002
-0.38477525 -0.015160001 0.75800002
-0.38333145 -0.015160001 0.75800002
-0.38339907 -0.015220001 0.76100004
-0.38194954 -0.015220001 0.76100004
-0.38050002 -0.015220001 0.76100004
-0.38104287 -0.015300001 0.76500005
-0.3820667 -0.015400001 0.77000004
-0.38208288 -0.015460001 0.77300006
-0.38453335 -0.01568 0.78400004
-0.38304001 -0.01568 0.78400004
-0.38349336 -0.015760001 0.78800005
-0.38247716 -0.015780002 0.78900003
-0.38097432 -0.015780002 0.78900003
-0.38139525 -0.015860001 0.79300004
0.20070001 -0.018900001 0.94500005
-0.38621908 -0.013716191 0.75800002
-0.38477525 -0.013716191 0.75800002
-0.38333145 -0.013716191 0.75800002
-0.38289526 -0.013752382 0.76000005
-0.38144764 -0.013752382 0.76000005
-0.38050002 -0.013770477 0.76100004
-0.38104287 -0.013842858 0.76500005
-0.38158861 -0.013969525 0.77200001
-0.38258001 -0.014060001 0.77700001
-0.38453335 -0.014186667 0.78400004
-0.38304001 -0.014186667 0.78400004
-0.38349336 -0.014259049 0.78800005
-0.3819924 -0.014259049 0.78800005
-0.38097432 -0.014277143 0.78900003
-0.38043335 -0.014313335 0.79100001
-0.38621908 -0.012272382 0.75800002
-0.38477525 -0.012272382 0.75800002
-0.38333145 -0.012272382 0.75800002
-0.38289526 -0.012304762 0.76000005
-0.38144764 -0.012304762 0.76000005
-0.38000003 -0.012304762 0.76000005
-0.38104287 -0.012385715 0.76500005
-0.38208288 -0.012515238 0.77300006
-0.3835648 -0.012612382 0.77900004
-0.3835524 -0.012660953 0.78200006
-0.38304001 -0.012693334 0.78400004
-0.38252002 -0.012725716 0.78600001
-0.3819924 -0.012758096 0.78800005
-0.37952575 -0.012725716 0.78600001
-0.3780286 -0.012725716 0.78600001
-0.38477525 -0.010828572 0.75800002
-0.38333145 -0.010828572 0.75800002
-0.38188764 -0.010828572 0.75800002
-0.38044384 -0.010828572 0.75800002
-0.38000003 -0.010857143 0.76000005
-0.38203907 -0.010957143 0.76700002
-0.38208288 -0.011042858 0.77300006
-0.3835648 -0.011128572 0.77900004
-0.3835524 -0.011171429 0.78200006
-0.38304001 -0.011200001 0.78400004
-0.38252002 -0.011228573 0.78600001
-0.38102287 -0.011228573 0.78600001
-0.37952575 -0.011228573 0.78600001
-0.38376004 -0.0093600005 0.75600004
-0.38232002 -0.0093600005 0.75600004
-0.38188764 -0.0093847625 0.75800002
-0.38044384 -0.0093847625 0.75800002
-0.38000003 -0.0094095245 0.76000005
-0.38104287 -0.0094714295 0.76500005
-0.38158861 -0.0095580956 0.77200001
-0.38258001 -0.0096200006 0.77700001
-0.3835524 -0.0096819056 0.78200006
-0.38304001 -0.0097066676 0.78400004
-0.38252002 -0.0097314296 0.78600001
-0.38102287 -0.0097314296 0.78600001
-0.38214287 -0.0078571429 0.75000006
-0.38172954 -0.0078780958 0.75200003
-0.38080287 -0.0078885723 0.75300002
-0.38088003 -0.0079200007 0.75600004
-0.38044384 -0.0079409527 0.75800002
-0.38000003 -0.0079619056 0.76000005
-0.3800467 -0.007993334 0.76300001
-0.37958574 -0.0080142859 0.76500005
-0.38060004 -0.0080666672 0.77000004
-0.3835648 -0.0081609525 0.77900004
-0.38208097 -0.0081609525 0.77900004
-0.3811343 -0.0063171433 0.73700005
-0.38089335 -0.0063600005 0.74200004
-0.38101432 -0.0063857147 0.74500006
-0.38112384 -0.006411429 0.74800003
-0.3807143 -0.0064285719 0.75000006
-0.38029715 -0.0064457147 0.75200003
-0.38037622 -0.006471429 0.75500005
-0.37944004 -0.0064800004 0.75600004
-0.38000003 -0.0065142862 0.76000005
-0.37905049 -0.0065228576 0.76100004
-0.37859336 -0.0065400004 0.76300001
-0.38258001 -0.0066600004 0.77700001
-0.37925336 -0.0048533338 0.72800004
-0.37994289 -0.0048800004 0.73200005
-0.3811343 -0.0049133338 0.73700005
-0.38127622 -0.0049333335 0.74000001
-0.38089335 -0.0049466668 0.74200004
-0.38101432 -0.0049666669 0.74500006
-0.38061431 -0.0049800002 0.74700004
-0.37969908 -0.0049866671 0.74800003
-0.37928575 -0.0050000004 0.75000006
-0.3793686 -0.0050200005 0.75300002
-0.38000003 -0.0050666672 0.76000005
-0.37905049 -0.0050733336 0.76100004
-0.45221907 -0.0061466671 0.92200005
-0.44948575 -0.0061333338 0.92000002
-0.38201907 -0.0035047622 0.73600006
-0.38216859 -0.0035190478 0.73900002
-0.38076097 -0.0035190478 0.73900002
-0.37986669 -0.0035238098 0.74000001
-0.37948003 -0.0035333335 0.74200004
-0.37959525 -0.0035476193 0.74500006
-0.37919146 -0.003557143 0.74700004
-0.37827432 -0.0035619049 0.74800003
-0.3793686 -0.0035857146 0.75300002
-0.37944004 -0.0036000002 0.75600004
-0.37900004 -0.0036095241 0.75800002
-0.37855241 -0.0036190478 0.76000005
-0.45467147 -0.004414286 0.92700005
-0.45192862 -0.0044047623 0.92500007
-0.38201907 -0.0021028572 0.73600006
-0.38216859 -0.0021114287 0.73900002
-0.38076097 -0.0021114287 0.73900002
-0.37986669 -0.0021142859 0.74000001
-0.37948003 -0.0021200001 0.74200004
-0.37959525 -0.0021285715 0.74500006
-0.37817621 -0.0021285715 0.74500006
-0.37827432 -0.0021371429 0.74800003
-0.3793686 -0.0021514287 0.75300002
-0.37944004 -0.0021600001 0.75600004
-0.37900004 -0.0021657145 0.75800002
-0.37905049 -0.0021742859 0.76100004
-0.45192862 -0.0026428574 0.92500007
0.17864287 -0.0026142858 0.91500002
0.1856143 -0.0026142858 0.91500002
-0.38342097 -0.00070095243 0.73600006
-0.38253811 -0.00070190482 0.73700005
-0.38216859 -0.00070380955 0.73900002
-0.38076097 -0.00070380955 0.73900002
-0.37986669 -0.00070476194 0.74000001
-0.37948003 -0.00070666673 0.74200004
-0.37959525 -0.00070952385 0.74500006
-0.37919146 -0.00071142864 0.74700004
-0.37827432 -0.00071238098 0.74800003
-0.3793686 -0.00071714289 0.75300002
-0.37944004 -0.00072000007 0.75600004
-0.37900004 -0.0007219048 0.75800002
-0.37855241 -0.00072380959 0.76000005
-0.38552096 0.00068476197 0.71900004
-0.38415146 0.00068476197 0.71900004
-0.38394192 0.00070190482 0.73700005
-0.38253811 0.00070190482 0.73700005
-0.38216859 0.00070380955 0.73900002
-0.38076097 0.00070380955 0.73900002
-0.37935334 0.00070380955 0.73900002
-0.37845716 0.00070476194 0.74000001
-0.37857622 0.00070761907 0.74300003
-0.37919146 0.00071142864 0.74700004
-0.37827432 0.00071238098 0.74800003
-0.3793686 0.00071714289 0.75300002
-0.37944004 0.00072000007 0.75600004
-0.37900004 0.0007219048 0.75800002
-0.37855241 0.00072380959 0.76000005
-0.38581431 0.0020485716 0.71700001
-0.38391241 0.0020457145 0.71600002
-0.3830829 0.0020485716 0.71700001
-0.38171718 0.0020485716 0.71700001
-0.38133717 0.0020914287 0.73200005
-0.38098097 0.0020971431 0.73400003
-0.3811343 0.0021057145 0.73700005
-0.38076097 0.0021114287 0.73900002
-0.37935334 0.0021114287 0.73900002
-0.37794575 0.0021114287 0.73900002
-0.37806669 0.0021200001 0.74200004
-0.37919146 0.0021342859 0.74700004
-0.37827432 0.0021371429 0.74800003
-0.3793686 0.0021514287 0.75300002
-0.37944004 0.0021600001 0.75600004
-0.37800002 0.0021600001 0.75600004
-0.3775562 0.0021657145 0.75800002
-0.38391241 0.003409524 0.71600002
-0.3825486 0.003409524 0.71600002
-0.38118479 0.003409524 0.71600002
-0.37876001 0.0034000003 0.71400005
-0.37740001 0.0034000003 0.71400005
-0.37709334 0.003409524 0.71600002
-0.38133717 0.0034857146 0.73200005
-0.38098097 0.0034952383 0.73400003
-0.3811343 0.003509524 0.73700005
-0.37973049 0.003509524 0.73700005
-0.37832668 0.003509524 0.73700005
-0.37794575 0.0035190478 0.73900002
-0.37857622 0.0035380954 0.74300003
-0.37919146 0.003557143 0.74700004
-0.37886479 0.0035809525 0.75200003
-0.37944004 0.0036000002 0.75600004
-0.37800002 0.0036000002 0.75600004
-0.37905049 0.0036238097 0.76100004
0.17974001 0.0043000001 0.90300006
0.18146001 0.0043000001 0.90300006
-0.38148004 0.0047600004 0.71400005
-0.38012004 0.0047600004 0.71400005
-0.37876001 0.0047600004 0.71400005
-0.37740001 0.0047600004 0.71400005
-0.37709334 0.0047733337 0.71600002
-0.37625432 0.0047800005 0.71700001
-0.3748886 0.0047800005 0.71700001
-0.3797743 0.0048600002 0.72900003
-0.37994289 0.0048800004 0.73200005
-0.38061717 0.0049066669 0.73600006
-0.37973049 0.0049133338 0.73700005
-0.37832668 0.0049133338 0.73700005
-0.37794575 0.0049266671 0.73900002
-0.37806669 0.0049466668 0.74200004
-0.37817621 0.0049666669 0.74500006
-0.37776861 0.0049800002 0.74700004
-0.37886479 0.0050133336 0.75200003
-0.37893811 0.0050333338 0.75500005
-0.38150004 0.0050866669 0.76300001
-0.3800467 0.0050866669 0.76300001
-0.37859336 0.0050866669 0.76300001
0.16904478 0.0060066669 0.90100002
-0.38094574 0.0061114291 0.71300006
-0.38012004 0.0061200005 0.71400005
-0.37876001 0.0061200005 0.71400005
-0.37740001 0.0061200005 0.71400005
-0.37709334 0.0061371434 0.71600002
-0.37625432 0.0061457148 0.71700001
-0.3759343 0.0061628576 0.71900004
-0.37612763 0.0061885719 0.72200006
-0.37942383 0.0062657148 0.73100001
-0.37958288 0.006291429 0.73400003
-0.37921527 0.0063085719 0.73600006
-0.37832668 0.0063171433 0.73700005
-0.37692288 0.0063171433 0.73700005
-0.37806669 0.0063600005 0.74200004
-0.37817621 0.0063857147 0.74500006
-0.37827432 0.006411429 0.74800003
-0.37886479 0.0064457147 0.75200003
-0.37893811 0.006471429 0.75500005
-0.38150004 0.0065400004 0.76300001
-0.3800467 0.0065400004 0.76300001
-0.37859336 0.0065400004 0.76300001
-0.44215718 0.0077571436 0.90500003
0.17190287 0.0076971436 0.89800006
-0.37987718 0.0074485717 0.71100003
-0.37958765 0.0074695242 0.71300006
-0.37876001 0.0074800006 0.71400005
-0.37740001 0.0074800006 0.71400005
-0.37762001 0.007511429 0.71700001
-0.37730384 0.0075323815 0.71900004
-0.3759343 0.0075323815 0.71900004
-0.37508574 0.0075428574 0.72000003
-0.37682861 0.0076057147 0.72600001
-0.37803146 0.0076580956 0.73100001
-0.3781848 0.0076895244 0.73400003
-0.37832668 0.0077209529 0.73700005
-0.37794575 0.0077419053 0.73900002
-0.37806669 0.0077733337 0.74200004
-0.37716097 0.0077838101 0.74300003
-0.37675717 0.0078047626 0.74500006
-0.37886479 0.0078780958 0.75200003
-0.38295335 0.007993334 0.76300001
-0.38150004 0.007993334 0.76300001
-0.3800467 0.007993334 0.76300001
-0.37859336 0.007993334 0.76300001
-0.44290003 0.0094600003 0.90300006
-0.44118002 0.0094600003 0.90300006
-0.37958765 0.0088276193 0.71300006
-0.37822956 0.0088276193 0.71300006
-0.37740001 0.0088400003 0.71400005
-0.37867334 0.0089019053 0.71900004
-0.37730384 0.0089019053 0.71900004
-0.37645715 0.0089142863 0.72000003
-0.37612763 0.0089390483 0.72200006
-0.37682861 0.0089885723 0.72600001
-0.37803146 0.0090504764 0.73100001
-0.3781848 0.0090876194 0.73400003
-0.37781337 0.0091123814 0.73600006
-0.37692288 0.0091247624 0.73700005
-0.37704766 0.0091619054 0.74000001
-0.37716097 0.0091990484 0.74300003
-0.37574574 0.0091990484 0.74300003
-0.38295335 0.0094466675 0.76300001
-0.38150004 0.0094466675 0.76300001
-0.44189146 0.011068572 0.89400005
-0.44117337 0.011093334 0.89600003
-0.43946669 0.011093334 0.89600003
-0.43873718 0.011118096 0.89800006
-0.37852287 0.010157144 0.71100003
-0.37822956 0.010185715 0.71300006
-0.37740001 0.0102 0.71400005
-0.37762001 0.010242858 0.71700001
-0.37730384 0.010271429 0.71900004
-0.3759343 0.010271429 0.71900004
-0.37612763 0.010314287 0.72200006
-0.37682861 0.010371429 0.72600001
-0.37803146 0.010442858 0.73100001
-0.3781848 0.010485715 0.73400003
-0.37781337 0.010514286 0.73600006
-0.37692288 0.010528572 0.73700005
-0.37704766 0.01057143 0.74000001
-0.37716097 0.010614286 0.74300003
-0.44350004 0.01267143 0.88700002
-0.44280669 0.012700001 0.88900006
-0.44210574 0.012728572 0.89100003
-0.44040859 0.012728572 0.89100003
-0.44018859 0.012771429 0.89400005
-0.43848574 0.012771429 0.89400005
-0.37799051 0.011495239 0.71000004
-0.37822956 0.01154381 0.71300006
-0.37740001 0.01156 0.71400005
-0.37762001 0.011608572 0.71700001
-0.37730384 0.011640953 0.71900004
-0.3759343 0.011640953 0.71900004
-0.37508574 0.011657144 0.72000003
-0.37630954 0.011738096 0.72500002
