# .PCD v0.7 - Point Cloud Data file format
VERSION 0.7
FIELDS x y z
SIZE 4 4 4
TYPE F F F
COUNT 1 1 1
WIDTH 1352
HEIGHT 1
VIEWPOINT 0 0 0 1 0 0 0
POINTS 1352
DATA ascii
-0.39632574 -0.14799048 0.75800002
-0.39488193 -0.14799048 0.75800002
-0.39447621 -0.14838096 0.76000005
-0.39302859 -0.14838096 0.76000005
-0.39209622 -0.1485762 0.76100004
-0.3906467 -0.1485762 0.76100004
-0.3953343 -0.15091906 0.77300006
-0.39590004 -0.1517 0.77700001
-0.39797336 -0.15306668 0.78400004
-0.39648002 -0.15306668 0.78400004
-0.39498669 -0.15306668 0.78400004
-0.39349335 -0.15306668 0.78400004
-0.39300004 -0.15345715 0.78600001
-0.39050668 -0.15306668 0.78400004
-0.38901335 -0.15306668 0.78400004
-0.39658004 -0.14558001 0.75300002
-0.39672002 -0.14616001 0.75600004
-0.39528003 -0.14616001 0.75600004
-0.39488193 -0.14654668 0.75800002
-0.39447621 -0.14693335 0.76000005
-0.39302859 -0.14693335 0.76000005
-0.39209622 -0.14712667 0.76100004
-0.39167336 -0.14751334 0.76300001
-0.3953343 -0.14944668 0.77300006
-0.39488098 -0.14983334 0.77500004
-0.39695811 -0.15118667 0.78200006
-0.39546859 -0.15118667 0.78200006
-0.39498669 -0.15157335 0.78400004
-0.39349335 -0.15157335 0.78400004
-0.39200002 -0.15157335 0.78400004
-0.39050668 -0.15157335 0.78400004
-0.38901335 -0.15157335 0.78400004
-0.39632574 -0.14510287 0.75800002
-0.39488193 -0.14510287 0.75800002
-0.39499527 -0.14567715 0.76100004
-0.39354575 -0.14567715 0.76100004
-0.39209622 -0.14567715 0.76100004
-0.39270002 -0.14644286 0.76500005
-0.3953343 -0.1479743 0.77300006
-0.39488098 -0.14835715 0.77500004
-0.39543527 -0.14912286 0.77900004
-0.39546859 -0.14969715 0.78200006
-0.39498669 -0.15008001 0.78400004
-0.39349335 -0.15008001 0.78400004
-0.39200002 -0.15008001 0.78400004
-0.39050668 -0.15008001 0.78400004
-0.38901335 -0.15008001 0.78400004
-0.39776954 -0.14365906 0.75800002
-0.39632574 -0.14365906 0.75800002
-0.39488193 -0.14365906 0.75800002
-0.39499527 -0.14422762 0.76100004
-0.39458004 -0.14460668 0.76300001
-0.3931267 -0.14460668 0.76300001
-0.39424002 -0.14555429 0.76800001
-0.39635718 -0.14688097 0.77500004
-0.39488098 -0.14688097 0.77500004
-0.39543527 -0.14763905 0.77900004
-0.39395145 -0.14763905 0.77900004
-0.39397907 -0.14820763 0.78200006
-0.39349335 -0.14858668 0.78400004
-0.39200002 -0.14858668 0.78400004
-0.39050668 -0.14858668 0.78400004
-0.39000574 -0.14896573 0.78600001
-0.39488193 -0.14221525 0.75800002
-0.39603335 -0.14315334 0.76300001
-0.39561433 -0.14352858 0.76500005
-0.39415717 -0.14352858 0.76500005
-0.39526668 -0.14446668 0.77000004
-0.3953343 -0.14502953 0.77300006
-0.39488098 -0.14540477 0.77500004
-0.39543527 -0.14615525 0.77900004
-0.39445716 -0.14634287 0.78000003
-0.39397907 -0.1467181 0.78200006
-0.39349335 -0.14709334 0.78400004
-0.39200002 -0.14709334 0.78400004
-0.39150289 -0.14746858 0.78600001
-0.39099813 -0.14784382 0.78800005
-0.39561433 -0.14207144 0.76500005
-0.39518765 -0.14244287 0.76700002
-0.39526668 -0.14300001 0.77000004
-0.3948229 -0.14337143 0.77200001
-0.39488098 -0.14392859 0.77500004
-0.39442003 -0.14430001 0.77700001
-0.39445716 -0.14485715 0.78000003
-0.39397907 -0.14522858 0.78200006
-0.39349335 -0.14560001 0.78400004
-0.39200002 -0.14560001 0.78400004
-0.39150289 -0.14597143 0.78600001
-0.39664859 -0.14098191 0.76700002
-0.39518765 -0.14098191 0.76700002
-0.39424002 -0.14116572 0.76800001
-0.3948229 -0.14190096 0.77200001
-0.39590004 -0.14282002 0.77700001
-0.39442003 -0.14282002 0.77700001
-0.39395145 -0.14318763 0.77900004
-0.39297146 -0.14337143 0.78000003
-0.39248955 -0.14373906 0.78200006
-0.39200002 -0.14410667 0.78400004
-0.39150289 -0.1444743 0.78600001
-0.39561433 -0.13915715 0.76500005
-0.39518765 -0.13952096 0.76700002
-0.39424002 -0.13970287 0.76800001
-0.3948229 -0.14043048 0.77200001
-0.39488098 -0.14097621 0.77500004
-0.39340478 -0.14097621 0.77500004
-0.39395145 -0.14170381 0.77900004
-0.39297146 -0.14188573 0.78000003
-0.39349335 -0.14261334 0.78400004
-0.39300004 -0.14297715 0.78600001
-0.39299718 -0.14352287 0.78900003
-0.39248669 -0.14388667 0.79100001
-0.39570287 -0.13824001 0.76800001
-0.39526668 -0.13860001 0.77000004
-0.3953343 -0.13914001 0.77300006
-0.39590004 -0.13986 0.77700001
-0.39442003 -0.13986 0.77700001
-0.39395145 -0.14022002 0.77900004
-0.39297146 -0.14040001 0.78000003
-0.39349335 -0.14112002 0.78400004
-0.39400002 -0.14184001 0.78800005
-0.39399335 -0.14238001 0.79100001
-0.39248669 -0.14238001 0.79100001
-0.39570287 -0.13677715 0.76800001
-0.39526668 -0.13713335 0.77000004
-0.3953343 -0.13766763 0.77300006
-0.39590004 -0.13838001 0.77700001
-0.39442003 -0.13838001 0.77700001
-0.39395145 -0.1387362 0.77900004
-0.39297146 -0.1389143 0.78000003
-0.39349335 -0.13962668 0.78400004
-0.39400002 -0.14033906 0.78800005
-0.39299718 -0.14051715 0.78900003
-0.39248669 -0.14087334 0.79100001
-0.39570287 -0.1353143 0.76800001
-0.39526668 -0.13566667 0.77000004
-0.39738002 -0.13690001 0.77700001
-0.39590004 -0.13690001 0.77700001
-0.39543527 -0.13725239 0.77900004
-0.39395145 -0.13725239 0.77900004
-0.39397907 -0.13778096 0.78200006
-0.39349335 -0.13813335 0.78400004
-0.39450002 -0.13901429 0.78900003
-0.39399335 -0.13936667 0.79100001
-0.39248669 -0.13936667 0.79100001
-0.39415717 -0.13332859 0.76500005
-0.39270002 -0.13332859 0.76500005
-0.39738002 -0.13542001 0.77700001
-0.39590004 -0.13542001 0.77700001
-0.39543527 -0.13576858 0.77900004
-0.39445716 -0.13594286 0.78000003
-0.39599431 -0.13698858 0.78600001
-0.39550099 -0.13733715 0.78800005
-0.39550003 -0.13786002 0.79100001
-0.39399335 -0.13786002 0.79100001
-0.39248669 -0.13786002 0.79100001
-0.39098004 -0.13786002 0.79100001
-0.39691907 -0.13428476 0.77900004
-0.39543527 -0.13428476 0.77900004
-0.3990086 -0.13600858 0.78900003
-0.39750573 -0.13600858 0.78900003
-0.39600289 -0.13600858 0.78900003
-0.39550003 -0.13635334 0.79100001
-0.39498955 -0.1366981 0.79300004
-0.39248669 -0.13635334 0.79100001
-0.39098004 -0.13635334 0.79100001
-0.39590004 -0.13246001 0.77700001
-0.39695811 -0.13331239 0.78200006
-0.39850289 -0.13433525 0.78800005
-0.39700192 -0.13433525 0.78800005
-0.39600289 -0.13450572 0.78900003
-0.39550003 -0.13484667 0.79100001
-0.39399335 -0.13484667 0.79100001
-0.39248669 -0.13484667 0.79100001
-0.39098004 -0.13484667 0.79100001
-0.39590004 -0.13098001 0.77700001
-0.39543527 -0.13131715 0.77900004
-0.39749146 -0.13249715 0.78600001
-0.39700192 -0.1328343 0.78800005
-0.39600289 -0.13300286 0.78900003
-0.39550003 -0.13334002 0.79100001
-0.39399335 -0.13334002 0.79100001
-0.39248669 -0.13334002 0.79100001
-0.39098004 -0.13334002 0.79100001
-0.39635718 -0.12916668 0.77500004
-0.39335242 -0.12866667 0.77200001
-0.39188194 -0.12866667 0.77200001
-0.39546859 -0.13033335 0.78200006
-0.39599431 -0.13100001 0.78600001
-0.39550099 -0.13133334 0.78800005
-0.39450002 -0.13150001 0.78900003
-0.39299718 -0.13150001 0.78900003
-0.3914943 -0.13150001 0.78900003
-0.39098004 -0.13183334 0.79100001
-0.39424002 -0.12653714 0.76800001
-0.39380002 -0.12686667 0.77000004
-0.39233336 -0.12686667 0.77000004
-0.38985145 -0.12653714 0.76800001
-0.3883886 -0.12653714 0.76800001
-0.39750573 -0.12999715 0.78900003
-0.39600289 -0.12999715 0.78900003
-0.39550003 -0.13032667 0.79100001
-0.39399335 -0.13032667 0.79100001
-0.39248669 -0.13032667 0.79100001
-0.39098004 -0.13032667 0.79100001
-0.38947335 -0.13032667 0.79100001
-0.39673337 -0.12540001 0.77000004
-0.39526668 -0.12540001 0.77000004
-0.3948229 -0.12572572 0.77200001
-0.39233336 -0.12540001 0.77000004
-0.3908667 -0.12540001 0.77000004
-0.38940004 -0.12540001 0.77000004
-0.38793337 -0.12540001 0.77000004
-0.39700669 -0.12882 0.79100001
-0.39550003 -0.12882 0.79100001
-0.39299718 -0.12849429 0.78900003
-0.39248669 -0.12882 0.79100001
-0.39196861 -0.12914573 0.79300004
-0.39673337 -0.12393335 0.77000004
-0.39629337 -0.12425525 0.77200001
-0.3948229 -0.12425525 0.77200001
-0.39335242 -0.12425525 0.77200001
-0.39188194 -0.12425525 0.77200001
-0.38940004 -0.12393335 0.77000004
-0.38793337 -0.12393335 0.77000004
-0.38646668 -0.12393335 0.77000004
-0.39400002 -0.12683049 0.78800005
-0.39249906 -0.12683049 0.78800005
-0.3914943 -0.12699144 0.78900003
-0.39716575 -0.12214858 0.76800001
-0.39570287 -0.12214858 0.76800001
-0.39629337 -0.12278477 0.77200001
-0.39380002 -0.12246668 0.77000004
-0.39335242 -0.12278477 0.77200001
-0.39188194 -0.12278477 0.77200001
-0.39041147 -0.12278477 0.77200001
-0.38894099 -0.12278477 0.77200001
-0.38747051 -0.12278477 0.77200001
-0.38600004 -0.12278477 0.77200001
-0.39150289 -0.12501144 0.78600001
-0.39000574 -0.12501144 0.78600001
-0.39570287 -0.12068572 0.76800001
-0.39424002 -0.12068572 0.76800001
-0.39226574 -0.12052858 0.76700002
-0.39335242 -0.12131429 0.77200001
-0.39188194 -0.12131429 0.77200001
-0.39041147 -0.12131429 0.77200001
-0.38894099 -0.12131429 0.77200001
-0.38747051 -0.12131429 0.77200001
-0.38600004 -0.12131429 0.77200001
-0.39150289 -0.12351429 0.78600001
-0.38901335 -0.12320001 0.78400004
-0.39570287 -0.11922286 0.76800001
-0.39424002 -0.11922286 0.76800001
-0.39226574 -0.11906762 0.76700002
-0.39233336 -0.11953334 0.77000004
-0.39188194 -0.11984382 0.77200001
-0.38940004 -0.11953334 0.77000004
-0.38793337 -0.11953334 0.77000004
-0.38646668 -0.11953334 0.77000004
-0.38500002 -0.11953334 0.77000004
-0.39424002 -0.11776001 0.76800001
-0.39226574 -0.11760668 0.76700002
-0.39233336 -0.11806668 0.77000004
-0.39188194 -0.11837334 0.77200001
-0.39041147 -0.11837334 0.77200001
-0.38894099 -0.11837334 0.77200001
-0.38747051 -0.11837334 0.77200001
-0.38750002 -0.11883334 0.77500004
-0.39526668 -0.11660001 0.77000004
-0.39277717 -0.11629715 0.76800001
-0.3913143 -0.11629715 0.76800001
-0.39188194 -0.11690287 0.77200001
-0.39091718 -0.11705429 0.77300006
-0.39045241 -0.11735715 0.77500004
-0.38897622 -0.11735715 0.77500004
-0.38750002 -0.11735715 0.77500004
-0.38801622 -0.11796287 0.77900004
-0.3865324 -0.11796287 0.77900004
-0.39380002 -0.11513334 0.77000004
-0.39386192 -0.11558191 0.77300006
-0.39442003 -0.11618001 0.77700001
-0.39294001 -0.11618001 0.77700001
-0.39146003 -0.11618001 0.77700001
-0.38998002 -0.11618001 0.77700001
-0.38850003 -0.11618001 0.77700001
-0.38801622 -0.11647905 0.77900004
-0.3865324 -0.11647905 0.77900004
-0.39277717 -0.11337144 0.76800001
-0.39386192 -0.11410953 0.77300006
-0.39442003 -0.1147 0.77700001
-0.39294001 -0.1147 0.77700001
-0.39246765 -0.11499525 0.77900004
-0.39098385 -0.11499525 0.77900004
-0.38950002 -0.11499525 0.77900004
-0.38801622 -0.11499525 0.77900004
-0.3870286 -0.11514287 0.78000003
-0.39590004 -0.11322001 0.77700001
-0.39442003 -0.11322001 0.77700001
-0.39395145 -0.11351144 0.77900004
-0.39246765 -0.11351144 0.77900004
-0.39098385 -0.11351144 0.77900004
-0.38950002 -0.11351144 0.77900004
-0.38801622 -0.11351144 0.77900004
-0.39442003 -0.11174001 0.77700001
-0.39395145 -0.11202762 0.77900004
-0.39246765 -0.11202762 0.77900004
-0.39098385 -0.11202762 0.77900004
-0.38950002 -0.11202762 0.77900004
-0.38702002 -0.11174001 0.77700001
-0.39543527 -0.11054382 0.77900004
-0.39445716 -0.11068572 0.78000003
-0.39297146 -0.11068572 0.78000003
-0.39098385 -0.11054382 0.77900004
-0.38950002 -0.11054382 0.77900004
-0.38801622 -0.11054382 0.77900004
-0.3959429 -0.10920001 0.78000003
-0.39546859 -0.10948001 0.78200006
-0.39397907 -0.10948001 0.78200006
-0.39148575 -0.10920001 0.78000003
-0.39000002 -0.10920001 0.78000003
-0.38951051 -0.10948001 0.78200006
-0.38901335 -0.10976001 0.78400004
-0.39546859 -0.10799048 0.78200006
-0.39397907 -0.10799048 0.78200006
-0.39248955 -0.10799048 0.78200006
-0.39100003 -0.10799048 0.78200006
-0.38951051 -0.10799048 0.78200006
-0.38901335 -0.10826667 0.78400004
-0.39648002 -0.10677334 0.78400004
-0.39498669 -0.10677334 0.78400004
-0.39248955 -0.10650096 0.78200006
-0.39200002 -0.10677334 0.78400004
-0.39050668 -0.10677334 0.78400004
-0.38901335 -0.10677334 0.78400004
-0.38752002 -0.10677334 0.78400004
-0.39797336 -0.10528 0.78400004
-0.39648002 -0.10528 0.78400004
-0.39498669 -0.10528 0.78400004
-0.39248955 -0.10501143 0.78200006
-0.39200002 -0.10528 0.78400004
-0.39050668 -0.10528 0.78400004
-0.38901335 -0.10528 0.78400004
-0.38752002 -0.10528 0.78400004
-0.39797336 -0.10378668 0.78400004
-0.39648002 -0.10378668 0.78400004
-0.39498669 -0.10378668 0.78400004
-0.39349335 -0.10378668 0.78400004
-0.39200002 -0.10378668 0.78400004
-0.39050668 -0.10378668 0.78400004
-0.38901335 -0.10378668 0.78400004
-0.38752002 -0.10378668 0.78400004
-0.3989886 -0.10255429 0.78600001
-0.39648002 -0.10229334 0.78400004
-0.39498669 -0.10229334 0.78400004
-0.39349335 -0.10229334 0.78400004
-0.39200002 -0.10229334 0.78400004
-0.39150289 -0.10255429 0.78600001
-0.39000574 -0.10255429 0.78600001
-0.38850859 -0.10255429 0.78600001
-0.39648002 -0.10080001 0.78400004
-0.39498669 -0.10080001 0.78400004
-0.39349335 -0.10080001 0.78400004
-0.39200002 -0.10080001 0.78400004
-0.39150289 -0.10105715 0.78600001
-0.39000574 -0.10105715 0.78600001
-0.38850859 -0.10105715 0.78600001
-0.38799623 -0.10131429 0.78800005
-0.39449716 -0.099560007 0.78600001
-0.39300004 -0.099560007 0.78600001
-0.39249906 -0.099813342 0.78800005
-0.39099813 -0.099813342 0.78800005
-0.38949716 -0.099813342 0.78800005
-0.38947335 -0.10019334 0.79100001
-0.38992861 -0.10070001 0.79500002
-0.38939145 -0.10095334 0.79700005
-0.39449716 -0.098062865 0.78600001
-0.39400002 -0.098312385 0.78800005
-0.39249906 -0.098312385 0.78800005
-0.3914943 -0.098437153 0.78900003
-0.38999146 -0.098437153 0.78900003
-0.39045811 -0.0989362 0.79300004
-0.38992861 -0.09918572 0.79500002
-0.38988003 -0.099560007 0.79800004
-0.38933337 -0.099809527 0.80000001
-0.38877907 -0.10005905 0.80200005
-0.39550099 -0.096811436 0.78800005
-0.39400002 -0.096811436 0.78800005
-0.39299718 -0.096934289 0.78900003
-0.39248669 -0.097180009 0.79100001
-0.39098004 -0.097180009 0.79100001
-0.39045811 -0.097425722 0.79300004
-0.38992861 -0.097671434 0.79500002
-0.38988003 -0.098040007 0.79800004
-0.38933337 -0.09828572 0.80000001
-0.38780954 -0.09828572 0.80000001
-0.39400002 -0.095310479 0.78800005
-0.39399335 -0.095673338 0.79100001
-0.39347908 -0.095915243 0.79300004
-0.39196861 -0.095915243 0.79300004
-0.39144289 -0.096157148 0.79500002
-0.38992861 -0.096157148 0.79500002
-0.38988003 -0.096520007 0.79800004
-0.38933337 -0.096761912 0.80000001
-0.38780954 -0.096761912 0.80000001
-0.39450002 -0.093928576 0.78900003
-0.39399335 -0.094166674 0.79100001
-0.39347908 -0.094404764 0.79300004
-0.39196861 -0.094404764 0.79300004
-0.39045811 -0.094404764 0.79300004
-0.38894764 -0.094404764 0.79300004
-0.38939145 -0.094880961 0.79700005
-0.38836002 -0.095000006 0.79800004
-0.38780954 -0.095238104 0.80000001
-0.3891829 -0.095952384 0.80600005
-0.39399335 -0.092660002 0.79100001
-0.39347908 -0.092894293 0.79300004
-0.39196861 -0.092894293 0.79300004
-0.39045811 -0.092894293 0.79300004
-0.38992861 -0.093128577 0.79500002
-0.38939145 -0.09336286 0.79700005
-0.38836002 -0.093480006 0.79800004
-0.38780954 -0.093714289 0.80000001
-0.39014861 -0.094651438 0.80800003
-0.38957146 -0.094885722 0.81000006
-0.38898671 -0.095120005 0.81200004
-0.38839433 -0.095354289 0.81400001
-0.39399335 -0.091153339 0.79100001
-0.39347908 -0.091383815 0.79300004
-0.39196861 -0.091383815 0.79300004
-0.39144289 -0.091614291 0.79500002
-0.39090955 -0.091844767 0.79700005
-0.38988003 -0.091960005 0.79800004
-0.38933337 -0.092190482 0.80000001
-0.38780954 -0.092190482 0.80000001
-0.39014861 -0.093112387 0.80800003
-0.38957146 -0.093342863 0.81000006
-0.38898671 -0.093573339 0.81200004
-0.38839433 -0.093803816 0.81400001
-0.39248669 -0.089646675 0.79100001
-0.39098004 -0.089646675 0.79100001
-0.39045811 -0.089873336 0.79300004
-0.38992861 -0.090100005 0.79500002
-0.38939145 -0.090326674 0.79700005
-0.38836002 -0.090440005 0.79800004
-0.38877907 -0.090893336 0.80200005
-0.39014861 -0.091573343 0.80800003
-0.38957146 -0.091800004 0.81000006
-0.38802859 -0.091800004 0.81000006
-0.38839433 -0.092253342 0.81400001
-0.38731906 -0.092366673 0.81500006
-0.39248669 -0.088140003 0.79100001
-0.39098004 -0.088140003 0.79100001
-0.39045811 -0.088362865 0.79300004
-0.38894764 -0.088362865 0.79300004
-0.38939145 -0.088808574 0.79700005
-0.38836002 -0.088920005 0.79800004
-0.3897486 -0.089588575 0.80400002
-0.39111432 -0.090257145 0.81000006
-0.39053336 -0.090480007 0.81200004
-0.38898671 -0.090480007 0.81200004
-0.38839433 -0.090702862 0.81400001
-0.38826954 -0.091037147 0.81700003
-0.39347908 -0.086852387 0.79300004
-0.39196861 -0.086852387 0.79300004
-0.39045811 -0.086852387 0.79300004
-0.38894764 -0.086852387 0.79300004
-0.38841432 -0.087071434 0.79500002
-0.38787335 -0.087290481 0.79700005
-0.38877907 -0.087838098 0.80200005
-0.39304575 -0.089152388 0.81400001
-0.39149526 -0.089152388 0.81400001
-0.38994479 -0.089152388 0.81400001
-0.38982573 -0.089480959 0.81700003
-0.38922003 -0.089700006 0.81900007
-0.38766003 -0.089700006 0.81900007
-0.39399335 -0.085126676 0.79100001
-0.39347908 -0.085341908 0.79300004
-0.39098004 -0.085126676 0.79100001
-0.39045811 -0.085341908 0.79300004
-0.38894764 -0.085341908 0.79300004
-0.38743716 -0.085341908 0.79300004
-0.38592669 -0.085341908 0.79300004
-0.38441622 -0.085341908 0.79300004
-0.39208004 -0.087386675 0.81200004
-0.39149526 -0.087601908 0.81400001
-0.39042383 -0.087709531 0.81500006
-0.38982573 -0.087924771 0.81700003
-0.38922003 -0.088140003 0.81900007
-0.3886067 -0.088355243 0.82100004
-0.39399335 -0.083620004 0.79100001
-0.39347908 -0.083831437 0.79300004
-0.39196861 -0.083831437 0.79300004
-0.39045811 -0.083831437 0.79300004
-0.38894764 -0.083831437 0.79300004
-0.38841432 -0.084042862 0.79500002
-0.38690004 -0.084042862 0.79500002
-0.38635525 -0.084254295 0.79700005
-0.39111432 -0.085628577 0.81000006
-0.39293811 -0.086368576 0.81700003
-0.39138192 -0.086368576 0.81700003
-0.39078003 -0.086580008 0.81900007
-0.39017051 -0.086791433 0.82100004
-0.38955337 -0.087002866 0.82300001
-0.39498955 -0.082320958 0.79300004
-0.39347908 -0.082320958 0.79300004
-0.39196861 -0.082320958 0.79300004
-0.39045811 -0.082320958 0.79300004
-0.38894764 -0.082320958 0.79300004
-0.38841432 -0.082528576 0.79500002
-0.38787335 -0.082736194 0.79700005
-0.38538575 -0.082528576 0.79500002
-0.39208004 -0.084293336 0.81200004
-0.39293811 -0.084812388 0.81700003
-0.39234003 -0.085020006 0.81900007
-0.3917343 -0.085227624 0.82100004
-0.39017051 -0.085227624 0.82100004
-0.38955337 -0.085435241 0.82300001
-0.39550003 -0.080606669 0.79100001
-0.39498955 -0.08081048 0.79300004
-0.39347908 -0.08081048 0.79300004
-0.39196861 -0.08081048 0.79300004
-0.39045811 -0.08081048 0.79300004
-0.38894764 -0.08081048 0.79300004
-0.38939145 -0.081218101 0.79700005
-0.38836002 -0.081320003 0.79800004
-0.3897486 -0.081931435 0.80400002
-0.39111432 -0.082542859 0.81000006
-0.39293811 -0.083256193 0.81700003
-0.39234003 -0.083460003 0.81900007
-0.39078003 -0.083460003 0.81900007
-0.39017051 -0.083663814 0.82100004
-0.38955337 -0.083867624 0.82300001
-0.39650002 -0.079300009 0.79300004
-0.39498955 -0.079300009 0.79300004
-0.39347908 -0.079300009 0.79300004
-0.39295718 -0.079500005 0.79500002
-0.39045811 -0.079300009 0.79300004
-0.38992861 -0.079500005 0.79500002
-0.38939145 -0.079700008 0.79700005
-0.38836002 -0.079800002 0.79800004
-0.39071813 -0.080600008 0.80600005
-0.39014861 -0.080800004 0.80800003
-0.39293811 -0.081700005 0.81700003
-0.39234003 -0.081900008 0.81900007
-0.39650002 -0.07778953 0.79300004
-0.39598575 -0.077985719 0.79500002
-0.39447147 -0.077985719 0.79500002
-0.39295718 -0.077985719 0.79500002
-0.39144289 -0.077985719 0.79500002
-0.38992861 -0.077985719 0.79500002
-0.38939145 -0.078181908 0.79700005
-0.38836002 -0.078280002 0.79800004
-0.39071813 -0.079064764 0.80600005
-0.39014861 -0.07926096 0.80800003
-0.38860956 -0.07926096 0.80800003
-0.38707051 -0.07926096 0.80800003
-0.39598575 -0.076471433 0.79500002
-0.39447147 -0.076471433 0.79500002
-0.39295718 -0.076471433 0.79500002
-0.39144289 -0.076471433 0.79500002
-0.38992861 -0.076471433 0.79500002
-0.38939145 -0.076663814 0.79700005
-0.38836002 -0.076760001 0.79800004
-0.3897486 -0.077337146 0.80400002
-0.39014861 -0.077721909 0.80800003
-0.38860956 -0.077721909 0.80800003
-0.39698192 -0.075145721 0.79700005
-0.39546382 -0.075145721 0.79700005
-0.39394575 -0.075145721 0.79700005
-0.39242765 -0.075145721 0.79700005
-0.39090955 -0.075145721 0.79700005
-0.38988003 -0.075240009 0.79800004
-0.38836002 -0.075240009 0.79800004
-0.38780954 -0.075428575 0.80000001
-0.3891829 -0.07599429 0.80600005
-0.38764766 -0.07599429 0.80600005
-0.38994479 -0.07674858 0.81400001
-0.39447147 -0.073442861 0.79500002
-0.39394575 -0.073627621 0.79700005
-0.39144289 -0.073442861 0.79500002
-0.39090955 -0.073627621 0.79700005
-0.38988003 -0.073720008 0.79800004
-0.38933337 -0.073904768 0.80000001
-0.3897486 -0.074274294 0.80400002
-0.39014861 -0.074643813 0.80800003
-0.38957146 -0.07482858 0.81000006
-0.38994479 -0.075198099 0.81400001
-0.38839433 -0.075198099 0.81400001
-0.39447147 -0.071928576 0.79500002
-0.39394575 -0.072109528 0.79700005
-0.39242765 -0.072109528 0.79700005
-0.39090955 -0.072109528 0.79700005
-0.39085716 -0.07238096 0.80000001
-0.38933337 -0.07238096 0.80000001
-0.39071813 -0.072923817 0.80600005
-0.39111432 -0.073285721 0.81000006
-0.39149526 -0.073647626 0.81400001
-0.38994479 -0.073647626 0.81400001
-0.38982573 -0.07391905 0.81700003
-0.38922003 -0.074100003 0.81900007
-0.3886067 -0.074280955 0.82100004
-0.38892859 -0.074642859 0.82500005
-0.39394575 -0.070591435 0.79700005
-0.39144289 -0.07041429 0.79500002
-0.38992861 -0.07041429 0.79500002
-0.38743716 -0.070237145 0.79300004
-0.38836002 -0.070680007 0.79800004
-0.39265716 -0.071742862 0.81000006
-0.39111432 -0.071742862 0.81000006
-0.39053336 -0.071920007 0.81200004
-0.38994479 -0.072097145 0.81400001
-0.38887146 -0.072185718 0.81500006
-0.38731906 -0.072185718 0.81500006
-0.38766003 -0.072540008 0.81900007
-0.38798574 -0.07289429 0.82300001
-0.38829622 -0.073248573 0.82700002
-0.38859147 -0.073602863 0.83100003
-0.39390478 -0.069333337 0.80000001
-0.39140004 -0.069160007 0.79800004
-0.39085716 -0.069333337 0.80000001
-0.38933337 -0.069333337 0.80000001
-0.39168763 -0.070026673 0.80800003
-0.39111432 -0.070200004 0.81000006
-0.39053336 -0.070373341 0.81200004
-0.38994479 -0.070546672 0.81400001
-0.38982573 -0.070806675 0.81700003
-0.38826954 -0.070806675 0.81700003
-0.38766003 -0.070980005 0.81900007
-0.38798574 -0.071326673 0.82300001
-0.38829622 -0.071673341 0.82700002
-0.38765621 -0.071846671 0.82900006
-0.39322668 -0.068487622 0.80800003
-0.39265716 -0.068657145 0.81000006
-0.39111432 -0.068657145 0.81000006
-0.39053336 -0.068826668 0.81200004
-0.38994479 -0.068996198 0.81400001
-0.38982573 -0.069250479 0.81700003
-0.38922003 -0.069420002 0.81900007
-0.38766003 -0.069420002 0.81900007
-0.38798574 -0.069759049 0.82300001
-0.38829622 -0.070098102 0.82700002
-0.38859147 -0.070437148 0.83100003
-0.38700861 -0.070437148 0.83100003
-0.39168763 -0.066948578 0.80800003
-0.39111432 -0.067114294 0.81000006
-0.38957146 -0.067114294 0.81000006
-0.38994479 -0.067445718 0.81400001
-0.38982573 -0.067694291 0.81700003
-0.38922003 -0.067860007 0.81900007
-0.38766003 -0.067860007 0.81900007
-0.38798574 -0.068191431 0.82300001
-0.38829622 -0.068522863 0.82700002
-0.39322668 -0.065409526 0.80800003
-0.39265716 -0.065571435 0.81000006
-0.39208004 -0.065733336 0.81200004
-0.39053336 -0.065733336 0.81200004
-0.38994479 -0.065895244 0.81400001
-0.38982573 -0.066138096 0.81700003
-0.38922003 -0.066300005 0.81900007
-0.3886067 -0.066461906 0.82100004
-0.38892859 -0.066785716 0.82500005
-0.38829622 -0.066947624 0.82700002
-0.39322668 -0.063870482 0.80800003
-0.39265716 -0.064028576 0.81000006
-0.39111432 -0.064028576 0.81000006
-0.39053336 -0.06418667 0.81200004
-0.38994479 -0.064344764 0.81400001
-0.38982573 -0.064581908 0.81700003
-0.38922003 -0.064740002 0.81900007
-0.3886067 -0.064898096 0.82100004
-0.38798574 -0.065056197 0.82300001
-0.39630479 -0.062331434 0.80800003
-0.39476573 -0.062331434 0.80800003
-0.39322668 -0.062331434 0.80800003
-0.39168763 -0.062331434 0.80800003
-0.39111432 -0.062485717 0.81000006
-0.38957146 -0.062485717 0.81000006
-0.38994479 -0.06279429 0.81400001
-0.38982573 -0.06302572 0.81700003
-0.38922003 -0.063180007 0.81900007
-0.3886067 -0.063334286 0.82100004
-0.38798574 -0.063488573 0.82300001
-0.39630479 -0.060792387 0.80800003
-0.39476573 -0.060792387 0.80800003
-0.39225337 -0.060641907 0.80600005
-0.39168763 -0.060792387 0.80800003
-0.39111432 -0.060942862 0.81000006
-0.38957146 -0.060942862 0.81000006
-0.38898671 -0.061093338 0.81200004
-0.38887146 -0.061319053 0.81500006
-0.39017051 -0.06177048 0.82100004
-0.3886067 -0.06177048 0.82100004
-0.38798574 -0.061920956 0.82300001
-0.39574289 -0.059400003 0.81000006
-0.39420003 -0.059400003 0.81000006
-0.39265716 -0.059400003 0.81000006
-0.39111432 -0.059400003 0.81000006
-0.39053336 -0.059546672 0.81200004
-0.38994479 -0.059693336 0.81400001
-0.38982573 -0.059913337 0.81700003
-0.39017051 -0.06020667 0.82100004
-0.38955337 -0.060353339 0.82300001
-0.38798574 -0.060353339 0.82300001
-0.39574289 -0.057857148 0.81000006
-0.39420003 -0.057857148 0.81000006
-0.39362669 -0.058000002 0.81200004
-0.39208004 -0.058000002 0.81200004
-0.39053336 -0.058000002 0.81200004
-0.38994479 -0.058142859 0.81400001
-0.38982573 -0.058357146 0.81700003
-0.39112097 -0.058785718 0.82300001
-0.38955337 -0.058785718 0.82300001
-0.38892859 -0.058928575 0.82500005
-0.39630479 -0.056175243 0.80800003
-0.39476573 -0.056175243 0.80800003
-0.39322668 -0.056175243 0.80800003
-0.39362669 -0.056453336 0.81200004
-0.39111432 -0.05631429 0.81000006
-0.39053336 -0.056453336 0.81200004
-0.38994479 -0.056592386 0.81400001
-0.38887146 -0.056661908 0.81500006
-0.39017051 -0.057079051 0.82100004
-0.38955337 -0.057218097 0.82300001
-0.38892859 -0.057357147 0.82500005
-0.39459622 -0.055041909 0.81400001
-0.39208004 -0.05490667 0.81200004
-0.39149526 -0.055041909 0.81400001
-0.39042383 -0.055109527 0.81500006
-0.38887146 -0.055109527 0.81500006
-0.38922003 -0.055380005 0.81900007
-0.3886067 -0.055515241 0.82100004
-0.38798574 -0.05565048 0.82300001
-0.39459622 -0.053491432 0.81400001
-0.39304575 -0.053491432 0.81400001
-0.39149526 -0.053491432 0.81400001
-0.39042383 -0.053557146 0.81500006
-0.38887146 -0.053557146 0.81500006
-0.38922003 -0.053820003 0.81900007
-0.3886067 -0.053951431 0.82100004
-0.38798574 -0.054082859 0.82300001
-0.39459622 -0.051940955 0.81400001
-0.39304575 -0.051940955 0.81400001
-0.39149526 -0.051940955 0.81400001
-0.39042383 -0.052004766 0.81500006
-0.38887146 -0.052004766 0.81500006
-0.38826954 -0.052132383 0.81700003
-0.38766003 -0.052260004 0.81900007
-0.38798574 -0.052515242 0.82300001
-0.38641813 -0.052515242 0.82300001
-0.39459622 -0.050390478 0.81400001
-0.39304575 -0.050390478 0.81400001
-0.39149526 -0.050390478 0.81400001
-0.39042383 -0.050452385 0.81500006
-0.38887146 -0.050452385 0.81500006
-0.38826954 -0.050576195 0.81700003
-0.38766003 -0.050700005 0.81900007
-0.38704288 -0.050823811 0.82100004
-0.38547906 -0.050823811 0.82100004
-0.39304575 -0.048840005 0.81400001
-0.39197621 -0.048900004 0.81500006
-0.39042383 -0.048900004 0.81500006
-0.38887146 -0.048900004 0.81500006
-0.38826954 -0.049020004 0.81700003
-0.38766003 -0.049140003 0.81900007
-0.38610002 -0.049140003 0.81900007
-0.38360098 -0.049020004 0.81700003
-0.39304575 -0.047289528 0.81400001
-0.39149526 -0.047289528 0.81400001
-0.39042383 -0.047347624 0.81500006
-0.38887146 -0.047347624 0.81500006
-0.38826954 -0.047463812 0.81700003
-0.38766003 -0.047580004 0.81900007
-0.38610002 -0.047580004 0.81900007
-0.38360098 -0.047463812 0.81700003
-0.38204479 -0.047463812 0.81700003
-0.39304575 -0.045739051 0.81400001
-0.39149526 -0.045739051 0.81400001
-0.39042383 -0.04579524 0.81500006
-0.38887146 -0.04579524 0.81500006
-0.38826954 -0.04590762 0.81700003
-0.38766003 -0.046020001 0.81900007
-0.38610002 -0.046020001 0.81900007
-0.38360098 -0.04590762 0.81700003
-0.38204479 -0.04590762 0.81700003
-0.39168763 -0.043862861 0.80800003
-0.39111432 -0.043971431 0.81000006
-0.39197621 -0.044242859 0.81500006
-0.39042383 -0.044242859 0.81500006
-0.38982573 -0.044351432 0.81700003
-0.38922003 -0.044460002 0.81900007
-0.3886067 -0.044568576 0.82100004
-0.38704288 -0.044568576 0.82100004
-0.38454002 -0.044460002 0.81900007
-0.38298002 -0.044460002 0.81900007
-0.39168763 -0.042323813 0.80800003
-0.39014861 -0.042323813 0.80800003
-0.39053336 -0.042533334 0.81200004
-0.39042383 -0.042690478 0.81500006
-0.38887146 -0.042690478 0.81500006
-0.38922003 -0.042900003 0.81900007
-0.38766003 -0.042900003 0.81900007
-0.38610002 -0.042900003 0.81900007
-0.38360098 -0.042795241 0.81700003
-0.38204479 -0.042795241 0.81700003
-0.43073335 -0.052066669 0.99400002
-0.43142861 -0.052380957 1
-0.42952383 -0.052380957 1
-0.42761907 -0.052380957 1
-0.42571431 -0.052380957 1
-0.39225337 -0.040683813 0.80600005
-0.39071813 -0.040683813 0.80600005
-0.39014861 -0.040784765 0.80800003
-0.39053336 -0.040986668 0.81200004
-0.38994479 -0.04108762 0.81400001
-0.38887146 -0.041138098 0.81500006
-0.38922003 -0.041340001 0.81900007
-0.3886067 -0.041440956 0.82100004
-0.38704288 -0.041440956 0.82100004
-0.38454002 -0.041340001 0.81900007
-0.38391528 -0.041440956 0.82100004
-0.38607717 -0.041844763 0.82900006
-0.43393242 -0.050324764 0.99700004
-0.43203336 -0.050324764 0.99700004
-0.43142861 -0.050476193 1
-0.42952383 -0.050476193 1
-0.42761907 -0.050476193 1
-0.42571431 -0.050476193 1
-0.38952383 -0.050476193 1
-0.39140004 -0.038760003 0.79800004
-0.38988003 -0.038760003 0.79800004
-0.38933337 -0.038857147 0.80000001
-0.39071813 -0.039148573 0.80600005
-0.3891829 -0.039148573 0.80600005
-0.38860956 -0.039245717 0.80800003
-0.38994479 -0.039537147 0.81400001
-0.38839433 -0.039537147 0.81400001
-0.38826954 -0.039682861 0.81700003
-0.38766003 -0.039780002 0.81900007
-0.38704288 -0.039877146 0.82100004
-0.38547906 -0.039877146 0.82100004
-0.38391528 -0.039877146 0.82100004
-0.38421431 -0.040071432 0.82500005
-0.38171527 -0.039974287 0.82300001
-0.38014764 -0.039974287 0.82300001
-0.37168002 -0.039245717 0.80800003
-0.37197337 -0.039440002 0.81200004
-0.44095242 -0.04857143 1
-0.43773049 -0.048425719 0.99700004
-0.43583146 -0.048425719 0.99700004
-0.43262669 -0.048280004 0.99400002
-0.43203336 -0.048425719 0.99700004
-0.43013433 -0.048425719 0.99700004
-0.42952383 -0.04857143 1
-0.42761907 -0.04857143 1
-0.42571431 -0.04857143 1
-0.42380956 -0.04857143 1
-0.4219048 -0.04857143 1
-0.41809526 -0.04857143 1
-0.41619051 -0.04857143 1
-0.39142859 -0.04857143 1
-0.38952383 -0.04857143 1
-0.39238098 -0.037333336 0.80000001
-0.39378861 -0.037613336 0.80600005
-0.39128003 -0.037520003 0.80400002
-0.39071813 -0.037613336 0.80600005
-0.3891829 -0.037613336 0.80600005
-0.38860956 -0.037706669 0.80800003
-0.38898671 -0.037893336 0.81200004
-0.38744003 -0.037893336 0.81200004
-0.38731906 -0.038033336 0.81500006
-0.38766003 -0.038220003 0.81900007
-0.38704288 -0.038313337 0.82100004
-0.38547906 -0.038313337 0.82100004
-0.3848505 -0.03840667 0.82300001
-0.38328287 -0.03840667 0.82300001
-0.38171527 -0.03840667 0.82300001
-0.37645242 -0.038033336 0.81500006
-0.37352002 -0.037893336 0.81200004
-0.37288955 -0.03798667 0.81400001
-0.44476193 -0.046666671 1
-0.44285718 -0.046666671 1
-0.44095242 -0.046666671 1
-0.43773049 -0.04652667 0.99700004
-0.43583146 -0.04652667 0.99700004
-0.43262669 -0.04638667 0.99400002
-0.43073335 -0.04638667 0.99400002
-0.43013433 -0.04652667 0.99700004
-0.42823526 -0.04652667 0.99700004
-0.42761907 -0.046666671 1
-0.42571431 -0.046666671 1
-0.42253813 -0.04652667 0.99700004
-0.4219048 -0.046666671 1
-0.41809526 -0.046666671 1
-0.41428575 -0.046666671 1
-0.41238099 -0.046666671 1
-0.39140004 -0.035720002 0.79800004
-0.39085716 -0.035809524 0.80000001
-0.38933337 -0.035809524 0.80000001
-0.38877907 -0.035899051 0.80200005
-0.38821718 -0.035988573 0.80400002
-0.38764766 -0.036078099 0.80600005
-0.38802859 -0.036257144 0.81000006
-0.38744003 -0.03634667 0.81200004
-0.38684383 -0.036436193 0.81400001
-0.38766003 -0.036660001 0.81900007
-0.38704288 -0.036749527 0.82100004
-0.38547906 -0.036749527 0.82100004
-0.3848505 -0.036839049 0.82300001
-0.38328287 -0.036839049 0.82300001
-0.38171527 -0.036839049 0.82300001
-0.37645242 -0.036480956 0.81500006
-0.37444001 -0.036436193 0.81400001
-0.37288955 -0.036436193 0.81400001
-0.43773049 -0.044627622 0.99700004
-0.43452004 -0.044493336 0.99400002
-0.43262669 -0.044493336 0.99400002
-0.43073335 -0.044493336 0.99400002
-0.42884004 -0.044493336 0.99400002
-0.42823526 -0.044627622 0.99700004
-0.42633623 -0.044627622 0.99700004
-0.42443717 -0.044627622 0.99700004
-0.42253813 -0.044627622 0.99700004
-0.39090955 -0.034157146 0.79700005
-0.38988003 -0.034200002 0.79800004
-0.38933337 -0.034285717 0.80000001
-0.38780954 -0.034285717 0.80000001
-0.38725147 -0.034371432 0.80200005
-0.38860956 -0.034628574 0.80800003
-0.38898671 -0.0348 0.81200004
-0.38744003 -0.0348 0.81200004
-0.38731906 -0.034928575 0.81500006
-0.38766003 -0.035100002 0.81900007
-0.38704288 -0.035185717 0.82100004
-0.38547906 -0.035185717 0.82100004
-0.3848505 -0.035271432 0.82300001
-0.38328287 -0.035271432 0.82300001
-0.37986001 -0.035100002 0.81900007
-0.37645242 -0.034928575 0.81500006
-0.37444001 -0.034885716 0.81400001
-0.37288955 -0.034885716 0.81400001
-0.43262669 -0.042600002 0.99400002
-0.42884004 -0.042600002 0.99400002
-0.39045811 -0.032475241 0.79300004
-0.39090955 -0.032639049 0.79700005
-0.38988003 -0.032680001 0.79800004
-0.38933337 -0.032761905 0.80000001
-0.38780954 -0.032761905 0.80000001
-0.38725147 -0.032843813 0.80200005
-0.38764766 -0.033007622 0.80600005
-0.38802859 -0.03317143 0.81000006
-0.38744003 -0.033253334 0.81200004
-0.38731906 -0.033376191 0.81500006
-0.38671336 -0.033458099 0.81700003
-0.38610002 -0.033540003 0.81900007
-0.38547906 -0.033621907 0.82100004
-0.3848505 -0.033703811 0.82300001
-0.38421431 -0.033785716 0.82500005
-0.39045811 -0.030964764 0.79300004
-0.38992861 -0.031042859 0.79500002
-0.38988003 -0.031160003 0.79800004
-0.38933337 -0.031238098 0.80000001
-0.38780954 -0.031238098 0.80000001
-0.38725147 -0.031316191 0.80200005
-0.38764766 -0.031472381 0.80600005
-0.38707051 -0.031550478 0.80800003
-0.38648573 -0.031628575 0.81000006
-0.38684383 -0.031784765 0.81400001
-0.38766003 -0.03198 0.81900007
-0.38704288 -0.032058097 0.82100004
-0.38547906 -0.032058097 0.82100004
-0.3848505 -0.032136194 0.82300001
-0.38947335 -0.029380001 0.79100001
-0.38796669 -0.029380001 0.79100001
-0.38841432 -0.029528573 0.79500002
-0.38836002 -0.029640002 0.79800004
-0.38684002 -0.029640002 0.79800004
-0.38628575 -0.029714288 0.80000001
-0.38668573 -0.029862858 0.80400002
-0.38611239 -0.029937144 0.80600005
-0.38553146 -0.03001143 0.80800003
-0.38494289 -0.030085716 0.81000006
-0.38766003 -0.030420002 0.81900007
-0.38798574 -0.030568574 0.82300001
-0.38641813 -0.030568574 0.82300001
-0.3865324 -0.027450478 0.77900004
-0.3850486 -0.027450478 0.77900004
-0.38799623 -0.027767621 0.78800005
-0.38551432 -0.027697144 0.78600001
-0.38743716 -0.02794381 0.79300004
-0.38690004 -0.028014287 0.79500002
-0.38684002 -0.028120002 0.79800004
-0.38628575 -0.028190479 0.80000001
-0.38668573 -0.028331431 0.80400002
-0.38611239 -0.028401908 0.80600005
-0.38457716 -0.028401908 0.80600005
-0.3839924 -0.028472383 0.80800003
-0.38245335 -0.028472383 0.80800003
-0.3666667 -0.035238098 1
-0.36285716 -0.035238098 1
-0.36095241 -0.035238098 1
-0.35904765 -0.035238098 1
-0.3571429 -0.035238098 1
-0.35523811 -0.035238098 1
-0.34761906 -0.035238098 1
-0.34190479 -0.035238098 1
-0.34000003 -0.035238098 1
-0.33809525 -0.035238098 1
-0.33619049 -0.035238098 1
-0.38702002 -0.025900003 0.77700001
-0.38454765 -0.025833335 0.77500004
-0.38406003 -0.025900003 0.77700001
-0.38602668 -0.026133334 0.78400004
-0.38257146 -0.026000002 0.78000003
-0.38401717 -0.026200002 0.78600001
-0.38592669 -0.026433336 0.79300004
-0.38635525 -0.026566667 0.79700005
-0.38532004 -0.026600001 0.79800004
-0.38668573 -0.026800001 0.80400002
-0.38611239 -0.026866669 0.80600005
-0.38457716 -0.026866669 0.80600005
-0.38304192 -0.026866669 0.80600005
-0.38702002 -0.024420002 0.77700001
-0.38454765 -0.024357144 0.77500004
-0.38406003 -0.024420002 0.77700001
-0.38504192 -0.024577145 0.78200006
-0.38257146 -0.024514288 0.78000003
-0.3849943 -0.024765715 0.78800005
-0.38495335 -0.024860002 0.79100001
-0.38635525 -0.025048573 0.79700005
-0.38483718 -0.025048573 0.79700005
-0.38572383 -0.025205716 0.80200005
-0.38611239 -0.02533143 0.80600005
-0.45822859 -0.030548573 0.97200006
-0.33882764 -0.031145716 0.99100006
-0.38395718 -0.022585716 0.76500005
-0.38250002 -0.022585716 0.76500005
-0.38452956 -0.022792382 0.77200001
-0.38305908 -0.022792382 0.77200001
-0.38208288 -0.022821907 0.77300006
-0.38258001 -0.022940002 0.77700001
-0.3835524 -0.023087621 0.78200006
-0.38398004 -0.023294287 0.78900003
-0.38635525 -0.023530478 0.79700005
-0.38483718 -0.023530478 0.79700005
-0.38476193 -0.023619048 0.80000001
-0.45866004 -0.028608574 0.96900004
-0.45681432 -0.028608574 0.96900004
-0.4549686 -0.028608574 0.96900004
-0.38395718 -0.021128573 0.76500005
-0.38350004 -0.021183811 0.76700002
-0.38353336 -0.021266667 0.77000004
-0.3820667 -0.021266667 0.77000004
-0.38158861 -0.021321906 0.77200001
-0.3835648 -0.021515239 0.77900004
-0.3835524 -0.021598097 0.78200006
-0.38349336 -0.021763811 0.78800005
-0.38441622 -0.021901906 0.79300004
-0.38483718 -0.022012383 0.79700005
-0.38476193 -0.022095239 0.80000001
-0.38419622 -0.022150477 0.80200005
-0.38266858 -0.022150477 0.80200005
-0.3854143 -0.019671429 0.76500005
-0.38395718 -0.019671429 0.76500005
-0.38350004 -0.019722858 0.76700002
-0.38253716 -0.019748572 0.76800001
-0.3820667 -0.019800002 0.77000004
-0.38158861 -0.019851429 0.77200001
-0.38257146 -0.020057144 0.78000003
-0.38401717 -0.02021143 0.78600001
-0.38495335 -0.020340001 0.79100001
-0.38538575 -0.020442858 0.79500002
-0.38483718 -0.020494288 0.79700005
-0.38380003 -0.020520002 0.79800004
-0.38323811 -0.020571429 0.80000001
-0.38484859 -0.018119048 0.76100004
-0.3854143 -0.018214287 0.76500005
-0.38395718 -0.018214287 0.76500005
-0.38250002 -0.018214287 0.76500005
-0.38253716 -0.018285716 0.76800001
-0.3820667 -0.018333334 0.77000004
-0.38208288 -0.018404763 0.77300006
-0.3835524 -0.018619049 0.78200006
-0.38304001 -0.018666668 0.78400004
-0.38398004 -0.018785715 0.78900003
-0.38247716 -0.018785715 0.78900003
-0.38483718 -0.018976191 0.79700005
-0.38331908 -0.018976191 0.79700005
-0.38180098 -0.018976191 0.79700005
-0.38484859 -0.016669525 0.76100004
-0.3854143 -0.016757144 0.76500005
-0.38395718 -0.016757144 0.76500005
-0.38150004 -0.016713334 0.76300001
-0.38203907 -0.016800953 0.76700002
-0.38107431 -0.016822858 0.76800001
-0.38158861 -0.016910477 0.77200001
-0.38453335 -0.017173335 0.78400004
-0.38304001 -0.017173335 0.78400004
-0.38349336 -0.017260954 0.78800005
-0.38247716 -0.017282858 0.78900003
-0.38194004 -0.017326668 0.79100001
-0.38235718 -0.017414287 0.79500002
-0.38084289 -0.017414287 0.79500002
-0.38434288 -0.015200001 0.76000005
-0.38440669 -0.015260001 0.76300001
-0.38395718 -0.015300001 0.76500005
-0.38150004 -0.015260001 0.76300001
-0.38253716 -0.015360001 0.76800001
-0.3820667 -0.015400001 0.77000004
-0.38208288 -0.015460001 0.77300006
-0.38258001 -0.015540001 0.77700001
-0.38453335 -0.01568 0.78400004
-0.38304001 -0.01568 0.78400004
-0.38349336 -0.015760001 0.78800005
-0.3819924 -0.015760001 0.78800005
-0.38194004 -0.01582 0.79100001
-0.38139525 -0.015860001 0.79300004
-0.37988478 -0.015860001 0.79300004
-0.37837431 -0.015860001 0.79300004
-0.38723812 -0.013752382 0.76000005
-0.3857905 -0.013752382 0.76000005
-0.38434288 -0.013752382 0.76000005
-0.38289526 -0.013752382 0.76000005
-0.38144764 -0.013752382 0.76000005
-0.38150004 -0.013806667 0.76300001
-0.38253716 -0.013897143 0.76800001
-0.3820667 -0.013933334 0.77000004
-0.38208288 -0.01398762 0.77300006
-0.3835524 -0.014150477 0.78200006
-0.38304001 -0.014186667 0.78400004
-0.38252002 -0.014222858 0.78600001
-0.38102287 -0.014222858 0.78600001
-0.37952575 -0.014222858 0.78600001
-0.38043335 -0.014313335 0.79100001
-0.38098097 -0.01188381 0.73400003
-0.37509337 -0.011786668 0.72800004
-0.38723812 -0.012304762 0.76000005
-0.3857905 -0.012304762 0.76000005
-0.38434288 -0.012304762 0.76000005
-0.38289526 -0.012304762 0.76000005
-0.38144764 -0.012304762 0.76000005
-0.38050002 -0.012320953 0.76100004
-0.38353336 -0.012466667 0.77000004
-0.38305908 -0.012499048 0.77200001
-0.38307145 -0.01254762 0.77500004
-0.38258001 -0.012580001 0.77700001
-0.3835524 -0.012660953 0.78200006
-0.38304001 -0.012693334 0.78400004
-0.38252002 -0.012725716 0.78600001
-0.38102287 -0.012725716 0.78600001
-0.37952575 -0.012725716 0.78600001
-0.3780286 -0.012725716 0.78600001
-0.37994289 -0.010457143 0.73200005
-0.37854859 -0.010457143 0.73200005
-0.37560859 -0.010414287 0.72900003
-0.37422001 -0.010414287 0.72900003
-0.38723812 -0.010857143 0.76000005
-0.3857905 -0.010857143 0.76000005
-0.38434288 -0.010857143 0.76000005
-0.38188764 -0.010828572 0.75800002
-0.38144764 -0.010857143 0.76000005
-0.38000003 -0.010857143 0.76000005
-0.38253716 -0.010971429 0.76800001
-0.3820667 -0.011000001 0.77000004
-0.38307145 -0.01107143 0.77500004
-0.38258001 -0.011100001 0.77700001
-0.38257146 -0.011142858 0.78000003
-0.38304001 -0.011200001 0.78400004
-0.38252002 -0.011228573 0.78600001
-0.38102287 -0.011228573 0.78600001
-0.37854859 -0.0090628574 0.73200005
-0.37663907 -0.0090504764 0.73100001
-0.3752467 -0.0090504764 0.73100001
-0.38621908 -0.0093847625 0.75800002
-0.38477525 -0.0093847625 0.75800002
-0.38333145 -0.0093847625 0.75800002
-0.38188764 -0.0093847625 0.75800002
-0.38044384 -0.0093847625 0.75800002
-0.38000003 -0.0094095245 0.76000005
-0.38253716 -0.0095085725 0.76800001
-0.3820667 -0.0095333336 0.77000004
-0.38208288 -0.0095704766 0.77300006
-0.38258001 -0.0096200006 0.77700001
-0.38208097 -0.0096447626 0.77900004
-0.38304001 -0.0097066676 0.78400004
-0.38098097 -0.0076895244 0.73400003
-0.37958288 -0.0076895244 0.73400003
-0.37715432 -0.007668572 0.73200005
-0.37576002 -0.007668572 0.73200005
-0.37692288 -0.0077209529 0.73700005
-0.38520002 -0.0079200007 0.75600004
-0.38376004 -0.0079200007 0.75600004
-0.38333145 -0.0079409527 0.75800002
-0.38188764 -0.0079409527 0.75800002
-0.38044384 -0.0079409527 0.75800002
-0.38000003 -0.0079619056 0.76000005
-0.37855241 -0.0079619056 0.76000005
-0.37710479 -0.0079619056 0.76000005
-0.38307145 -0.0081190486 0.77500004
-0.3835648 -0.0081609525 0.77900004
-0.38257146 -0.0081714289 0.78000003
-0.38098097 -0.006291429 0.73400003
-0.38061717 -0.0063085719 0.73600006
-0.37973049 -0.0063171433 0.73700005
-0.37935334 -0.0063342862 0.73900002
-0.37948003 -0.0063600005 0.74200004
-0.37959525 -0.0063857147 0.74500006
-0.37919146 -0.0064028576 0.74700004
-0.3818143 -0.006471429 0.75500005
-0.38088003 -0.0064800004 0.75600004
-0.37944004 -0.0064800004 0.75600004
-0.37900004 -0.0064971433 0.75800002
-0.3775562 -0.0064971433 0.75800002
-0.45123813 -0.007885715 0.92000002
-0.44948575 -0.007885715 0.92000002
-0.38237908 -0.0048933337 0.73400003
-0.38201907 -0.0049066669 0.73600006
-0.3811343 -0.0049133338 0.73700005
-0.38076097 -0.0049266671 0.73900002
-0.37986669 -0.0049333335 0.74000001
-0.37948003 -0.0049466668 0.74200004
-0.37959525 -0.0049666669 0.74500006
-0.37817621 -0.0049666669 0.74500006
-0.38088003 -0.0050400002 0.75600004
-0.38044384 -0.0050533335 0.75800002
-0.37900004 -0.0050533335 0.75800002
-0.37855241 -0.0050666672 0.76000005
-0.45123813 -0.0061333338 0.92000002
-0.44948575 -0.0061333338 0.92000002
-0.38133717 -0.0034857146 0.73200005
-0.38201907 -0.0035047622 0.73600006
-0.38216859 -0.0035190478 0.73900002
-0.38076097 -0.0035190478 0.73900002
-0.37986669 -0.0035238098 0.74000001
-0.37999144 -0.0035380954 0.74300003
-0.37959525 -0.0035476193 0.74500006
-0.37817621 -0.0035476193 0.74500006
-0.38037622 -0.0035952383 0.75500005
-0.38044384 -0.0036095241 0.75800002
-0.37900004 -0.0036095241 0.75800002
-0.3775562 -0.0036095241 0.75800002
-0.45123813 -0.0043809526 0.92000002
-0.44948575 -0.0043809526 0.92000002
-0.38216859 -0.0021114287 0.73900002
-0.38127622 -0.0021142859 0.74000001
-0.38089335 -0.0021200001 0.74200004
-0.37999144 -0.0021228574 0.74300003
-0.37959525 -0.0021285715 0.74500006
-0.37919146 -0.0021342859 0.74700004
-0.37928575 -0.0021428573 0.75000006
-0.37944004 -0.0021600001 0.75600004
-0.37800002 -0.0021600001 0.75600004
-0.3775562 -0.0021657145 0.75800002
-0.45046288 -0.0026342859 0.92200005
-0.38268575 -0.00070476194 0.74000001
-0.38230669 -0.00070666673 0.74200004
-0.38089335 -0.00070666673 0.74200004
-0.37999144 -0.00070761907 0.74300003
-0.37959525 -0.00070952385 0.74500006
-0.37919146 -0.00071142864 0.74700004
-0.37928575 -0.00071428576 0.75000006
-0.38037622 -0.00071904768 0.75500005
-0.37944004 -0.00072000007 0.75600004
-0.37800002 -0.00072000007 0.75600004
-0.37656003 -0.00072000007 0.75600004
-0.31611907 -0.00089047622 0.93500006
-0.31433812 -0.00089047622 0.93500006
-0.31255716 -0.00089047622 0.93500006
-0.38268575 0.00070476194 0.74000001
-0.38230669 0.00070666673 0.74200004
-0.37986669 0.00070476194 0.74000001
-0.37999144 0.00070761907 0.74300003
-0.37959525 0.00070952385 0.74500006
-0.37919146 0.00071142864 0.74700004
-0.37827432 0.00071238098 0.74800003
-0.37886479 0.00071619055 0.75200003
-0.37944004 0.00072000007 0.75600004
-0.37800002 0.00072000007 0.75600004
-0.3775562 0.0007219048 0.75800002
-0.31510478 0.0008876191 0.93200004
-0.31155431 0.0008876191 0.93200004
-0.37994289 0.0020914287 0.73200005
-0.38216859 0.0021114287 0.73900002
-0.38127622 0.0021142859 0.74000001
-0.37986669 0.0021142859 0.74000001
-0.37948003 0.0021200001 0.74200004
-0.37959525 0.0021285715 0.74500006
-0.37919146 0.0021342859 0.74700004
-0.37827432 0.0021371429 0.74800003
-0.3793686 0.0021514287 0.75300002
-0.37793431 0.0021514287 0.75300002
-0.37750003 0.0021571431 0.75500005
-0.37656003 0.0021600001 0.75600004
-0.37994289 0.0034857146 0.73200005
-0.3811343 0.003509524 0.73700005
-0.38076097 0.0035190478 0.73900002
-0.37935334 0.0035190478 0.73900002
-0.37845716 0.0035238098 0.74000001
-0.37857622 0.0035380954 0.74300003
-0.37919146 0.003557143 0.74700004
-0.37928575 0.0035714288 0.75000006
-0.3793686 0.0035857146 0.75300002
-0.37793431 0.0035857146 0.75300002
-0.37750003 0.0035952383 0.75500005
-0.37656003 0.0036000002 0.75600004
-0.37740001 0.0047600004 0.71400005
-0.38201907 0.0049066669 0.73600006
-0.38061717 0.0049066669 0.73600006
-0.37973049 0.0049133338 0.73700005
-0.37935334 0.0049266671 0.73900002
-0.37794575 0.0049266671 0.73900002
-0.37806669 0.0049466668 0.74200004
-0.37817621 0.0049666669 0.74500006
-0.37776861 0.0049800002 0.74700004
-0.37886479 0.0050133336 0.75200003
-0.37893811 0.0050333338 0.75500005
-0.37750003 0.0050333338 0.75500005
-0.37606192 0.0050333338 0.75500005
-0.37462384 0.0050333338 0.75500005
-0.37982097 0.0061371434 0.71600002
-0.37740001 0.0061200005 0.71400005
-0.37709334 0.0061371434 0.71600002
-0.37572956 0.0061371434 0.71600002
-0.3748886 0.0061457148 0.71700001
-0.37508574 0.0061714291 0.72000003
-0.37682861 0.0062228576 0.72600001
-0.37958288 0.006291429 0.73400003
-0.37921527 0.0063085719 0.73600006
-0.37832668 0.0063171433 0.73700005
-0.37794575 0.0063342862 0.73900002
-0.37806669 0.0063600005 0.74200004
-0.37969908 0.006411429 0.74800003
-0.37827432 0.006411429 0.74800003
-0.37886479 0.0064457147 0.75200003
-0.37893811 0.006471429 0.75500005
-0.37800002 0.0064800004 0.75600004
-0.37656003 0.0064800004 0.75600004
-0.38012004 0.0074800006 0.71400005
-0.37982097 0.007500953 0.71600002
-0.37845716 0.007500953 0.71600002
-0.37762001 0.007511429 0.71700001
-0.37730384 0.0075323815 0.71900004
-0.3759343 0.0075323815 0.71900004
-0.37612763 0.0075638099 0.72200006
-0.37630954 0.0075952387 0.72500002
-0.37803146 0.0076580956 0.73100001
-0.37921527 0.0077104769 0.73600006
-0.37832668 0.0077209529 0.73700005
-0.37794575 0.0077419053 0.73900002
-0.37857622 0.0077838101 0.74300003
-0.37817621 0.0078047626 0.74500006
-0.37776861 0.0078257145 0.74700004
-0.37886479 0.0078780958 0.75200003
