# .PCD v0.7 - Point Cloud Data file format
VERSION 0.7
FIELDS x y z
SIZE 4 4 4
TYPE F F F
COUNT 1 1 1
WIDTH 1364
HEIGHT 1
VIEWPOINT 0 0 0 1 0 0 0
POINTS 1364
DATA ascii
-0.39071813 -0.060641907 0.80600005
-0.39111432 -0.060942862 0.81000006
-0.38957146 -0.060942862 0.81000006
-0.38802859 -0.060942862 0.81000006
-0.38839433 -0.061243813 0.81400001
-0.38731906 -0.061319053 0.81500006
-0.3886067 -0.06177048 0.82100004
-0.39265716 -0.059400003 0.81000006
-0.39208004 -0.059546672 0.81200004
-0.39053336 -0.059546672 0.81200004
-0.38994479 -0.059693336 0.81400001
-0.38839433 -0.059693336 0.81400001
-0.38826954 -0.059913337 0.81700003
-0.38766003 -0.060060006 0.81900007
-0.38798574 -0.060353339 0.82300001
-0.39420003 -0.057857148 0.81000006
-0.39362669 -0.058000002 0.81200004
-0.39208004 -0.058000002 0.81200004
-0.39149526 -0.058142859 0.81400001
-0.38994479 -0.058142859 0.81400001
-0.38839433 -0.058142859 0.81400001
-0.38826954 -0.058357146 0.81700003
-0.3886067 -0.058642861 0.82100004
-0.38798574 -0.058785718 0.82300001
-0.39769718 -0.056592386 0.81400001
-0.39420003 -0.05631429 0.81000006
-0.39265716 -0.05631429 0.81000006
-0.39208004 -0.056453336 0.81200004
-0.39053336 -0.056453336 0.81200004
-0.38898671 -0.056453336 0.81200004
-0.38839433 -0.056592386 0.81400001
-0.38826954 -0.056800958 0.81700003
-0.38955337 -0.057218097 0.82300001
-0.38892859 -0.057357147 0.82500005
-0.39818573 -0.055109527 0.81500006
-0.39614668 -0.055041909 0.81400001
-0.39459622 -0.055041909 0.81400001
-0.39304575 -0.055041909 0.81400001
-0.39149526 -0.055041909 0.81400001
-0.39042383 -0.055109527 0.81500006
-0.38887146 -0.055109527 0.81500006
-0.38826954 -0.055244766 0.81700003
-0.38766003 -0.055380005 0.81900007
-0.39614668 -0.053491432 0.81400001
-0.39459622 -0.053491432 0.81400001
-0.39304575 -0.053491432 0.81400001
-0.39149526 -0.053491432 0.81400001
-0.39042383 -0.053557146 0.81500006
-0.38887146 -0.053557146 0.81500006
-0.38826954 -0.053688575 0.81700003
-0.38671336 -0.053688575 0.81700003
-0.38798574 -0.054082859 0.82300001
-0.39508098 -0.052004766 0.81500006
-0.39304575 -0.051940955 0.81400001
-0.39149526 -0.051940955 0.81400001
-0.39042383 -0.052004766 0.81500006
-0.38887146 -0.052004766 0.81500006
-0.38826954 -0.052132383 0.81700003
-0.38671336 -0.052132383 0.81700003
-0.39508098 -0.050452385 0.81500006
-0.39352861 -0.050452385 0.81500006
-0.39197621 -0.050452385 0.81500006
-0.39042383 -0.050452385 0.81500006
-0.38887146 -0.050452385 0.81500006
-0.38826954 -0.050576195 0.81700003
-0.38671336 -0.050576195 0.81700003
-0.38610002 -0.050700005 0.81900007
-0.39605051 -0.049020004 0.81700003
-0.39352861 -0.048900004 0.81500006
-0.39197621 -0.048900004 0.81500006
-0.39138192 -0.049020004 0.81700003
-0.38982573 -0.049020004 0.81700003
-0.38922003 -0.049140003 0.81900007
-0.38671336 -0.049020004 0.81700003
-0.38610002 -0.049140003 0.81900007
-0.39352861 -0.047347624 0.81500006
-0.39197621 -0.047347624 0.81500006
-0.39138192 -0.047463812 0.81700003
-0.38982573 -0.047463812 0.81700003
-0.38922003 -0.047580004 0.81900007
-0.38766003 -0.047580004 0.81900007
-0.38704288 -0.047696192 0.82100004
-0.38641813 -0.047812384 0.82300001
-0.39352861 -0.04579524 0.81500006
-0.39197621 -0.04579524 0.81500006
-0.39138192 -0.04590762 0.81700003
-0.38982573 -0.04590762 0.81700003
-0.38922003 -0.046020001 0.81900007
-0.38766003 -0.046020001 0.81900007
-0.38704288 -0.046132386 0.82100004
-0.38641813 -0.046244767 0.82300001
-0.39459622 -0.044188574 0.81400001
-0.39304575 -0.044188574 0.81400001
-0.39197621 -0.044242859 0.81500006
-0.39138192 -0.044351432 0.81700003
-0.38982573 -0.044351432 0.81700003
-0.38922003 -0.044460002 0.81900007
-0.3886067 -0.044568576 0.82100004
-0.38798574 -0.044677146 0.82300001
-0.38735718 -0.044785716 0.82500005
-0.38672099 -0.044894289 0.82700002
-0.41433242 -0.053797148 0.99100006
-0.4124448 -0.053797148 0.99100006
-0.39459622 -0.042638097 0.81400001
-0.39304575 -0.042638097 0.81400001
-0.39149526 -0.042638097 0.81400001
-0.39042383 -0.042690478 0.81500006
-0.38887146 -0.042690478 0.81500006
-0.38922003 -0.042900003 0.81900007
-0.3886067 -0.043004766 0.82100004
-0.38798574 -0.043109525 0.82300001
-0.38829622 -0.04331905 0.82700002
-0.38672099 -0.04331905 0.82700002
-0.41558668 -0.052066669 0.99400002
-0.41369337 -0.052066669 0.99400002
-0.41304287 -0.052223813 0.99700004
-0.39362669 -0.040986668 0.81200004
-0.39208004 -0.040986668 0.81200004
-0.39149526 -0.04108762 0.81400001
-0.38994479 -0.04108762 0.81400001
-0.38887146 -0.041138098 0.81500006
-0.38922003 -0.041340001 0.81900007
-0.3886067 -0.041440956 0.82100004
-0.38704288 -0.041440956 0.82100004
-0.38641813 -0.041541908 0.82300001
-0.38672099 -0.041743811 0.82700002
-0.42633623 -0.050324764 0.99700004
-0.41748002 -0.050173335 0.99400002
-0.41558668 -0.050173335 0.99400002
-0.41494194 -0.050324764 0.99700004
-0.41304287 -0.050324764 0.99700004
-0.39378861 -0.039148573 0.80600005
-0.39030668 -0.038954288 0.80200005
-0.39071813 -0.039148573 0.80600005
-0.3891829 -0.039148573 0.80600005
-0.38860956 -0.039245717 0.80800003
-0.38898671 -0.039440002 0.81200004
-0.38839433 -0.039537147 0.81400001
-0.38731906 -0.039585717 0.81500006
-0.38766003 -0.039780002 0.81900007
-0.38704288 -0.039877146 0.82100004
-0.38641813 -0.039974287 0.82300001
-0.38578573 -0.040071432 0.82500005
-0.38421431 -0.040071432 0.82500005
-0.42952383 -0.04857143 1
-0.42761907 -0.04857143 1
-0.42380956 -0.04857143 1
-0.4219048 -0.04857143 1
-0.41874003 -0.048425719 0.99700004
-0.41684097 -0.048425719 0.99700004
-0.41494194 -0.048425719 0.99700004
-0.41304287 -0.048425719 0.99700004
-0.41114384 -0.048425719 0.99700004
-0.41047621 -0.04857143 1
-0.40857145 -0.04857143 1
-0.38952383 -0.04857143 1
-0.39378861 -0.037613336 0.80600005
-0.39030668 -0.037426669 0.80200005
-0.38877907 -0.037426669 0.80200005
-0.38821718 -0.037520003 0.80400002
-0.38860956 -0.037706669 0.80800003
-0.38802859 -0.037800003 0.81000006
-0.38744003 -0.037893336 0.81200004
-0.38684383 -0.03798667 0.81400001
-0.3886067 -0.038313337 0.82100004
-0.38704288 -0.038313337 0.82100004
-0.38547906 -0.038313337 0.82100004
-0.38578573 -0.038500004 0.82500005
-0.38421431 -0.038500004 0.82500005
-0.38078764 -0.038313337 0.82100004
-0.37197337 -0.037893336 0.81200004
-0.43714288 -0.046666671 1
-0.43523812 -0.046666671 1
-0.43333337 -0.046666671 1
-0.43142861 -0.046666671 1
-0.42823526 -0.04652667 0.99700004
-0.42761907 -0.046666671 1
-0.42380956 -0.046666671 1
-0.4219048 -0.046666671 1
-0.42000002 -0.046666671 1
-0.41684097 -0.04652667 0.99700004
-0.41619051 -0.046666671 1
-0.41428575 -0.046666671 1
-0.41114384 -0.04652667 0.99700004
-0.41047621 -0.046666671 1
-0.40857145 -0.046666671 1
-0.4066667 -0.046666671 1
-0.40476194 -0.046666671 1
-0.4009524 -0.046666671 1
-0.39904764 -0.046666671 1
-0.39085716 -0.035809524 0.80000001
-0.38933337 -0.035809524 0.80000001
-0.38877907 -0.035899051 0.80200005
-0.38821718 -0.035988573 0.80400002
-0.38764766 -0.036078099 0.80600005
-0.38802859 -0.036257144 0.81000006
-0.38744003 -0.03634667 0.81200004
-0.38684383 -0.036436193 0.81400001
-0.38766003 -0.036660001 0.81900007
-0.38704288 -0.036749527 0.82100004
-0.38641813 -0.036839049 0.82300001
-0.38578573 -0.036928575 0.82500005
-0.38421431 -0.036928575 0.82500005
-0.38171527 -0.036839049 0.82300001
-0.37645242 -0.036480956 0.81500006
-0.37444001 -0.036436193 0.81400001
-0.37288955 -0.036436193 0.81400001
-0.43013433 -0.044627622 0.99700004
-0.42823526 -0.044627622 0.99700004
-0.41114384 -0.044627622 0.99700004
-0.38988003 -0.034200002 0.79800004
-0.38933337 -0.034285717 0.80000001
-0.38780954 -0.034285717 0.80000001
-0.38725147 -0.034371432 0.80200005
-0.38764766 -0.034542859 0.80600005
-0.38802859 -0.034714289 0.81000006
-0.38839433 -0.034885716 0.81400001
-0.38731906 -0.034928575 0.81500006
-0.38766003 -0.035100002 0.81900007
-0.38704288 -0.035185717 0.82100004
-0.38547906 -0.035185717 0.82100004
-0.3848505 -0.035271432 0.82300001
-0.38514575 -0.035442859 0.82700002
-0.37893242 -0.035014287 0.81700003
-0.37645242 -0.034928575 0.81500006
-0.37444001 -0.034885716 0.81400001
-0.37288955 -0.034885716 0.81400001
-0.38988003 -0.032680001 0.79800004
-0.38836002 -0.032680001 0.79800004
-0.38780954 -0.032761905 0.80000001
-0.38725147 -0.032843813 0.80200005
-0.38764766 -0.033007622 0.80600005
-0.38898671 -0.033253334 0.81200004
-0.38839433 -0.033335239 0.81400001
-0.38731906 -0.033376191 0.81500006
-0.38766003 -0.033540003 0.81900007
-0.38610002 -0.033540003 0.81900007
-0.38547906 -0.033621907 0.82100004
-0.3848505 -0.033703811 0.82300001
-0.38514575 -0.03386762 0.82700002
-0.38998002 -0.030340003 0.77700001
-0.38950002 -0.030418098 0.77900004
-0.38801622 -0.030418098 0.77900004
-0.3865324 -0.030418098 0.77900004
-0.3850486 -0.030418098 0.77900004
-0.3835648 -0.030418098 0.77900004
-0.38939145 -0.031120954 0.79700005
-0.38836002 -0.031160003 0.79800004
-0.38780954 -0.031238098 0.80000001
-0.38725147 -0.031316191 0.80200005
-0.38764766 -0.031472381 0.80600005
-0.38707051 -0.031550478 0.80800003
-0.38744003 -0.031706668 0.81200004
-0.38684383 -0.031784765 0.81400001
-0.38766003 -0.03198 0.81900007
-0.38704288 -0.032058097 0.82100004
-0.38547906 -0.032058097 0.82100004
-0.3848505 -0.032136194 0.82300001
-0.38998002 -0.028860003 0.77700001
-0.38850003 -0.028860003 0.77700001
-0.38702002 -0.028860003 0.77700001
-0.3865324 -0.028934287 0.77900004
-0.3850486 -0.028934287 0.77900004
-0.38405716 -0.02897143 0.78000003
-0.38257146 -0.02897143 0.78000003
-0.38787335 -0.029602859 0.79700005
-0.38684002 -0.029640002 0.79800004
-0.38532004 -0.029640002 0.79800004
-0.38668573 -0.029862858 0.80400002
-0.38611239 -0.029937144 0.80600005
-0.38648573 -0.030085716 0.81000006
-0.38826954 -0.030345716 0.81700003
-0.38766003 -0.030420002 0.81900007
-0.38798574 -0.030568574 0.82300001
-0.38641813 -0.030568574 0.82300001
-0.38998002 -0.027380003 0.77700001
-0.38850003 -0.027380003 0.77700001
-0.38702002 -0.027380003 0.77700001
-0.38554004 -0.027380003 0.77700001
-0.3850486 -0.027450478 0.77900004
-0.38405716 -0.027485715 0.78000003
-0.38257146 -0.027485715 0.78000003
-0.38304001 -0.027626669 0.78400004
-0.38495335 -0.027873335 0.79100001
-0.38635525 -0.028084764 0.79700005
-0.38483718 -0.028084764 0.79700005
-0.38668573 -0.028331431 0.80400002
-0.38707051 -0.028472383 0.80800003
-0.38553146 -0.028472383 0.80800003
-0.38684383 -0.028683811 0.81400001
-0.38529336 -0.028683811 0.81400001
-0.37047622 -0.035238098 1
-0.36857146 -0.035238098 1
-0.3666667 -0.035238098 1
-0.36285716 -0.035238098 1
-0.36095241 -0.035238098 1
-0.35904765 -0.035238098 1
-0.3571429 -0.035238098 1
-0.35523811 -0.035238098 1
-0.34761906 -0.035238098 1
-0.34000003 -0.035238098 1
-0.33809525 -0.035238098 1
-0.38998002 -0.025900003 0.77700001
-0.38850003 -0.025900003 0.77700001
-0.38702002 -0.025900003 0.77700001
-0.38554004 -0.025900003 0.77700001
-0.38406003 -0.025900003 0.77700001
-0.3835648 -0.025966669 0.77900004
-0.38257146 -0.026000002 0.78000003
-0.38401717 -0.026200002 0.78600001
-0.38441622 -0.026433336 0.79300004
-0.38290575 -0.026433336 0.79300004
-0.38668573 -0.026800001 0.80400002
-0.38707051 -0.026933335 0.80800003
-0.38553146 -0.026933335 0.80800003
-0.3839924 -0.026933335 0.80800003
-0.45452574 -0.032400001 0.97200006
-0.38998002 -0.024420002 0.77700001
-0.38850003 -0.024420002 0.77700001
-0.38602385 -0.024357144 0.77500004
-0.38454765 -0.024357144 0.77500004
-0.38406003 -0.024420002 0.77700001
-0.3835648 -0.024482859 0.77900004
-0.38257146 -0.024514288 0.78000003
-0.38401717 -0.024702858 0.78600001
-0.38495335 -0.024860002 0.79100001
-0.38441622 -0.024922859 0.79300004
-0.38387147 -0.024985716 0.79500002
-0.38476193 -0.02514286 0.80000001
-0.4610267 -0.030611431 0.97400004
-0.38395718 -0.022585716 0.76500005
-0.38400003 -0.022674287 0.76800001
-0.38452956 -0.022792382 0.77200001
-0.38355526 -0.022821907 0.77300006
-0.38208288 -0.022821907 0.77300006
-0.38258001 -0.022940002 0.77700001
-0.38208097 -0.022999048 0.77900004
-0.38108575 -0.023028573 0.78000003
-0.38349336 -0.023264764 0.78800005
-0.38441622 -0.023412382 0.79300004
-0.38290575 -0.023412382 0.79300004
-0.38139525 -0.023412382 0.79300004
-0.38180098 -0.023530478 0.79700005
-0.38395718 -0.021128573 0.76500005
-0.38350004 -0.021183811 0.76700002
-0.38452956 -0.021321906 0.77200001
-0.38305908 -0.021321906 0.77200001
-0.38208288 -0.021349525 0.77300006
-0.38258001 -0.021460002 0.77700001
-0.38208097 -0.021515239 0.77900004
-0.38401717 -0.021708572 0.78600001
-0.38441622 -0.021901906 0.79300004
-0.38387147 -0.021957144 0.79500002
-0.38331908 -0.022012383 0.79700005
-0.38323811 -0.022095239 0.80000001
-0.38171431 -0.022095239 0.80000001
-0.38295335 -0.019620001 0.76300001
-0.38250002 -0.019671429 0.76500005
-0.38253716 -0.019748572 0.76800001
-0.3820667 -0.019800002 0.77000004
-0.38158861 -0.019851429 0.77200001
-0.38258001 -0.019980002 0.77700001
-0.38208097 -0.02003143 0.77900004
-0.38401717 -0.02021143 0.78600001
-0.38349336 -0.020262858 0.78800005
-0.38441622 -0.020391431 0.79300004
-0.38387147 -0.020442858 0.79500002
-0.38331908 -0.020494288 0.79700005
-0.38376004 -0.018000001 0.75600004
-0.38333145 -0.01804762 0.75800002
-0.38289526 -0.01809524 0.76000005
-0.38194954 -0.018119048 0.76100004
-0.38050002 -0.018119048 0.76100004
-0.38104287 -0.018214287 0.76500005
-0.38107431 -0.018285716 0.76800001
-0.38158861 -0.018380953 0.77200001
-0.3835648 -0.018547621 0.77900004
-0.38304001 -0.018666668 0.78400004
-0.38398004 -0.018785715 0.78900003
-0.38344669 -0.018833335 0.79100001
-0.38290575 -0.018880954 0.79300004
-0.38235718 -0.018928573 0.79500002
-0.38621908 -0.016603811 0.75800002
-0.38477525 -0.016603811 0.75800002
-0.38434288 -0.01664762 0.76000005
-0.38289526 -0.01664762 0.76000005
-0.38194954 -0.016669525 0.76100004
-0.38050002 -0.016669525 0.76100004
-0.38104287 -0.016757144 0.76500005
-0.38158861 -0.016910477 0.77200001
-0.38258001 -0.017020002 0.77700001
-0.38304001 -0.017173335 0.78400004
-0.38349336 -0.017260954 0.78800005
-0.38344669 -0.017326668 0.79100001
-0.38290575 -0.017370477 0.79300004
-0.38139525 -0.017370477 0.79300004
-0.37988478 -0.017370477 0.79300004
-0.38723812 -0.015200001 0.76000005
-0.3857905 -0.015200001 0.76000005
-0.38434288 -0.015200001 0.76000005
-0.38289526 -0.015200001 0.76000005
-0.38144764 -0.015200001 0.76000005
-0.38000003 -0.015200001 0.76000005
-0.38203907 -0.015340001 0.76700002
-0.3820667 -0.015400001 0.77000004
-0.38258001 -0.015540001 0.77700001
-0.3835524 -0.015640002 0.78200006
-0.38304001 -0.01568 0.78400004
-0.38349336 -0.015760001 0.78800005
-0.38247716 -0.015780002 0.78900003
-0.38194004 -0.01582 0.79100001
-0.38139525 -0.015860001 0.79300004
-0.37988478 -0.015860001 0.79300004
0.20070001 -0.018900001 0.94500005
-0.38766289 -0.013716191 0.75800002
-0.38621908 -0.013716191 0.75800002
-0.38477525 -0.013716191 0.75800002
-0.38333145 -0.013716191 0.75800002
-0.38188764 -0.013716191 0.75800002
-0.38044384 -0.013716191 0.75800002
-0.38000003 -0.013752382 0.76000005
-0.38104287 -0.013842858 0.76500005
-0.3820667 -0.013933334 0.77000004
-0.38258001 -0.014060001 0.77700001
-0.3835524 -0.014150477 0.78200006
-0.38401717 -0.014222858 0.78600001
-0.38349336 -0.014259049 0.78800005
-0.38247716 -0.014277143 0.78900003
-0.38097432 -0.014277143 0.78900003
-0.37947145 -0.014277143 0.78900003
-0.38868573 -0.012304762 0.76000005
-0.38723812 -0.012304762 0.76000005
-0.3857905 -0.012304762 0.76000005
-0.38434288 -0.012304762 0.76000005
-0.38289526 -0.012304762 0.76000005
-0.38044384 -0.012272382 0.75800002
-0.38000003 -0.012304762 0.76000005
-0.38104287 -0.012385715 0.76500005
-0.38158861 -0.012499048 0.77200001
-0.38258001 -0.012580001 0.77700001
-0.3835524 -0.012660953 0.78200006
-0.38304001 -0.012693334 0.78400004
-0.38252002 -0.012725716 0.78600001
-0.38102287 -0.012725716 0.78600001
-0.37952575 -0.012725716 0.78600001
-0.38723812 -0.010857143 0.76000005
-0.38477525 -0.010828572 0.75800002
-0.38333145 -0.010828572 0.75800002
-0.38188764 -0.010828572 0.75800002
-0.38044384 -0.010828572 0.75800002
-0.38000003 -0.010857143 0.76000005
-0.38104287 -0.010928572 0.76500005
-0.38158861 -0.011028572 0.77200001
-0.38258001 -0.011100001 0.77700001
-0.38257146 -0.011142858 0.78000003
-0.38304001 -0.011200001 0.78400004
-0.38252002 -0.011228573 0.78600001
-0.38102287 -0.011228573 0.78600001
-0.37952575 -0.011228573 0.78600001
-0.38621908 -0.0093847625 0.75800002
-0.38477525 -0.0093847625 0.75800002
-0.38333145 -0.0093847625 0.75800002
-0.38188764 -0.0093847625 0.75800002
-0.38044384 -0.0093847625 0.75800002
-0.38000003 -0.0094095245 0.76000005
-0.3800467 -0.0094466675 0.76300001
-0.38057813 -0.0094961915 0.76700002
-0.38158861 -0.0095580956 0.77200001
-0.38258001 -0.0096200006 0.77700001
-0.38208097 -0.0096447626 0.77900004
-0.38059717 -0.0096447626 0.77900004
-0.32651907 -0.011823811 0.95500004
-0.32470003 -0.011823811 0.95500004
-0.38367146 -0.0078885723 0.75300002
-0.38325241 -0.0079095243 0.75500005
-0.38333145 -0.0079409527 0.75800002
-0.38188764 -0.0079409527 0.75800002
-0.38044384 -0.0079409527 0.75800002
-0.38000003 -0.0079619056 0.76000005
-0.37905049 -0.0079723811 0.76100004
-0.37760097 -0.0079723811 0.76100004
-0.37961146 -0.0080457143 0.76800001
-0.38258001 -0.0081400005 0.77700001
-0.38208097 -0.0081609525 0.77900004
-0.38101432 -0.0063857147 0.74500006
-0.38112384 -0.006411429 0.74800003
-0.3807143 -0.0064285719 0.75000006
-0.38080287 -0.0064542862 0.75300002
-0.38088003 -0.0064800004 0.75600004
-0.37944004 -0.0064800004 0.75600004
-0.37900004 -0.0064971433 0.75800002
-0.37855241 -0.0065142862 0.76000005
-0.3811343 -0.0049133338 0.73700005
-0.38127622 -0.0049333335 0.74000001
-0.38089335 -0.0049466668 0.74200004
-0.38101432 -0.0049666669 0.74500006
-0.38061431 -0.0049800002 0.74700004
-0.37919146 -0.0049800002 0.74700004
-0.37928575 -0.0050000004 0.75000006
-0.38037622 -0.0050333338 0.75500005
-0.37944004 -0.0050400002 0.75600004
-0.38000003 -0.0050666672 0.76000005
-0.37905049 -0.0050733336 0.76100004
-0.45123813 -0.0061333338 0.92000002
-0.38216859 -0.0035190478 0.73900002
-0.38230669 -0.0035333335 0.74200004
-0.38089335 -0.0035333335 0.74200004
-0.37999144 -0.0035380954 0.74300003
-0.37959525 -0.0035476193 0.74500006
-0.37919146 -0.003557143 0.74700004
-0.37886479 -0.0035809525 0.75200003
-0.37944004 -0.0036000002 0.75600004
-0.37900004 -0.0036095241 0.75800002
-0.37456766 -0.0035809525 0.75200003
-0.45221907 -0.0043904763 0.92200005
-0.44948575 -0.0043809526 0.92000002
-0.38216859 -0.0021114287 0.73900002
-0.38230669 -0.0021200001 0.74200004
-0.38089335 -0.0021200001 0.74200004
-0.38101432 -0.0021285715 0.74500006
-0.37959525 -0.0021285715 0.74500006
-0.37919146 -0.0021342859 0.74700004
-0.37928575 -0.0021428573 0.75000006
-0.3793686 -0.0021514287 0.75300002
-0.37893811 -0.0021571431 0.75500005
-0.37650001 -0.0021514287 0.75300002
-0.38372001 -0.00070666673 0.74200004
-0.38230669 -0.00070666673 0.74200004
-0.38089335 -0.00070666673 0.74200004
-0.37999144 -0.00070761907 0.74300003
-0.37959525 -0.00070952385 0.74500006
-0.37817621 -0.00070952385 0.74500006
-0.37928575 -0.00071428576 0.75000006
-0.38037622 -0.00071904768 0.75500005
-0.37893811 -0.00071904768 0.75500005
-0.37750003 -0.00071904768 0.75500005
-0.31611907 -0.00089047622 0.93500006
-0.31433812 -0.00089047622 0.93500006
-0.31255716 -0.00089047622 0.93500006
-0.38372001 0.00070666673 0.74200004
-0.38230669 0.00070666673 0.74200004
-0.38089335 0.00070666673 0.74200004
-0.37948003 0.00070666673 0.74200004
-0.37959525 0.00070952385 0.74500006
-0.37919146 0.00071142864 0.74700004
-0.37928575 0.00071428576 0.75000006
-0.38037622 0.00071904768 0.75500005
-0.37944004 0.00072000007 0.75600004
-0.37800002 0.00072000007 0.75600004
-0.31155431 0.0008876191 0.93200004
-0.37994289 0.0020914287 0.73200005
-0.3811343 0.0021057145 0.73700005
-0.38076097 0.0021114287 0.73900002
-0.37935334 0.0021114287 0.73900002
-0.37845716 0.0021142859 0.74000001
-0.37857622 0.0021228574 0.74300003
-0.37919146 0.0021342859 0.74700004
-0.37827432 0.0021371429 0.74800003
-0.37886479 0.0021485717 0.75200003
-0.37893811 0.0021571431 0.75500005
-0.37750003 0.0021571431 0.75500005
-0.3830829 0.0034142858 0.71700001
-0.38171718 0.0034142858 0.71700001
-0.37982097 0.003409524 0.71600002
-0.37845716 0.003409524 0.71600002
-0.37994289 0.0034857146 0.73200005
-0.3811343 0.003509524 0.73700005
-0.37973049 0.003509524 0.73700005
-0.37935334 0.0035190478 0.73900002
-0.37794575 0.0035190478 0.73900002
-0.37806669 0.0035333335 0.74200004
-0.37817621 0.0035476193 0.74500006
-0.37827432 0.0035619049 0.74800003
-0.38037622 0.0035952383 0.75500005
-0.37893811 0.0035952383 0.75500005
-0.37800002 0.0036000002 0.75600004
-0.37656003 0.0036000002 0.75600004
-0.38415146 0.0047933338 0.71900004
-0.38118479 0.0047733337 0.71600002
-0.37982097 0.0047733337 0.71600002
-0.37845716 0.0047733337 0.71600002
-0.37709334 0.0047733337 0.71600002
-0.37572956 0.0047733337 0.71600002
-0.3797743 0.0048600002 0.72900003
-0.37994289 0.0048800004 0.73200005
-0.37958288 0.0048933337 0.73400003
-0.37921527 0.0049066669 0.73600006
-0.37832668 0.0049133338 0.73700005
-0.37794575 0.0049266671 0.73900002
-0.37817621 0.0049666669 0.74500006
-0.37776861 0.0049800002 0.74700004
-0.38037622 0.0050333338 0.75500005
-0.37944004 0.0050400002 0.75600004
-0.37800002 0.0050400002 0.75600004
-0.37656003 0.0050400002 0.75600004
-0.37958574 0.0051000002 0.76500005
-0.38118479 0.0061371434 0.71600002
-0.37982097 0.0061371434 0.71600002
-0.37845716 0.0061371434 0.71600002
-0.37709334 0.0061371434 0.71600002
-0.37625432 0.0061457148 0.71700001
-0.3748886 0.0061457148 0.71700001
-0.37508574 0.0061714291 0.72000003
-0.37942383 0.0062657148 0.73100001
-0.37958288 0.006291429 0.73400003
-0.3781848 0.006291429 0.73400003
-0.37832668 0.0063171433 0.73700005
-0.37692288 0.0063171433 0.73700005
-0.37857622 0.0063685719 0.74300003
-0.37817621 0.0063857147 0.74500006
-0.37776861 0.0064028576 0.74700004
-0.3793686 0.0064542862 0.75300002
-0.37944004 0.0064800004 0.75600004
-0.37800002 0.0064800004 0.75600004
-0.38104287 0.0065571433 0.76500005
-0.37958574 0.0065571433 0.76500005
-0.38012004 0.0074800006 0.71400005
-0.37982097 0.007500953 0.71600002
-0.37898573 0.007511429 0.71700001
-0.37762001 0.007511429 0.71700001
-0.37625432 0.007511429 0.71700001
-0.3759343 0.0075323815 0.71900004
-0.37508574 0.0075428574 0.72000003
-0.37786669 0.0076266672 0.72800004
-0.37854859 0.007668572 0.73200005
-0.3781848 0.0076895244 0.73400003
-0.37832668 0.0077209529 0.73700005
-0.37794575 0.0077419053 0.73900002
-0.37806669 0.0077733337 0.74200004
-0.37716097 0.0077838101 0.74300003
-0.37675717 0.0078047626 0.74500006
-0.3793686 0.0078885723 0.75300002
-0.37944004 0.0079200007 0.75600004
-0.37800002 0.0079200007 0.75600004
-0.3800467 0.007993334 0.76300001
-0.37859336 0.007993334 0.76300001
-0.37958765 0.0088276193 0.71300006
-0.37876001 0.0088400003 0.71400005
-0.37898573 0.0088771433 0.71700001
-0.37867334 0.0089019053 0.71900004
-0.37730384 0.0089019053 0.71900004
-0.3759343 0.0089019053 0.71900004
-0.37612763 0.0089390483 0.72200006
-0.37786669 0.0090133343 0.72800004
-0.37803146 0.0090504764 0.73100001
-0.3781848 0.0090876194 0.73400003
-0.37832668 0.0091247624 0.73700005
-0.37692288 0.0091247624 0.73700005
-0.37704766 0.0091619054 0.74000001
-0.37716097 0.0091990484 0.74300003
-0.37574574 0.0091990484 0.74300003
-0.44380289 0.011031429 0.89100003
-0.44210574 0.011031429 0.89100003
-0.44189146 0.011068572 0.89400005
-0.44117337 0.011093334 0.89600003
-0.43946669 0.011093334 0.89600003
-0.37852287 0.010157144 0.71100003
-0.37822956 0.010185715 0.71300006
-0.37740001 0.0102 0.71400005
-0.37762001 0.010242858 0.71700001
-0.37730384 0.010271429 0.71900004
-0.3759343 0.010271429 0.71900004
-0.37612763 0.010314287 0.72200006
-0.37786669 0.010400001 0.72800004
-0.37803146 0.010442858 0.73100001
-0.3781848 0.010485715 0.73400003
-0.37781337 0.010514286 0.73600006
-0.37794575 0.010557144 0.73900002
-0.37704766 0.01057143 0.74000001
-0.37716097 0.010614286 0.74300003
-0.44350004 0.01267143 0.88700002
-0.44280669 0.012700001 0.88900006
-0.44210574 0.012728572 0.89100003
-0.44040859 0.012728572 0.89100003
-0.44018859 0.012771429 0.89400005
-0.43848574 0.012771429 0.89400005
-0.37799051 0.011495239 0.71000004
-0.37822956 0.01154381 0.71300006
-0.37740001 0.01156 0.71400005
-0.37762001 0.011608572 0.71700001
-0.37730384 0.011640953 0.71900004
-0.3759343 0.011640953 0.71900004
-0.37612763 0.011689524 0.72200006
-0.37682861 0.011754286 0.72600001
-0.37699717 0.011802858 0.72900003
-0.3781848 0.01188381 0.73400003
-0.37832668 0.011932381 0.73700005
-0.37794575 0.011964763 0.73900002
-0.37806669 0.012013334 0.74200004
-0.44518957 0.014360953 0.88700002
-0.44350004 0.014360953 0.88700002
-0.44181052 0.014360953 0.88700002
-0.44210574 0.014425715 0.89100003
-0.44040859 0.014425715 0.89100003
-0.37667146 0.012757144 0.70500004
-0.37692574 0.01281143 0.708
-0.37557718 0.01281143 0.708
-0.37687147 0.012901906 0.71300006
-0.37867334 0.013010477 0.71900004
-0.37730384 0.013010477 0.71900004
-0.37645715 0.013028572 0.72000003
-0.37612763 0.013064763 0.72200006
-0.37682861 0.013137144 0.72600001
-0.37699717 0.01319143 0.72900003
-0.37715432 0.013245715 0.73200005
-0.37781337 0.013318096 0.73600006
-0.37794575 0.013372382 0.73900002
-0.44687909 0.016050477 0.88700002
-0.44518957 0.016050477 0.88700002
-0.44181052 0.016050477 0.88700002
-0.37935716 0.014100001 0.70500004
-0.3780143 0.014100001 0.70500004
-0.37667146 0.014100001 0.70500004
-0.37692574 0.014160001 0.708
-0.37557718 0.014160001 0.708
-0.37528574 0.014200001 0.71000004
-0.37762001 0.014340001 0.71700001
-0.37730384 0.014380001 0.71900004
-0.3759343 0.014380001 0.71900004
-0.37612763 0.014440001 0.72200006
-0.37682861 0.014520001 0.72600001
-0.37699717 0.014580001 0.72900003
-0.37715432 0.014640001 0.73200005
-0.37781337 0.014720001 0.73600006
-0.37692288 0.014740001 0.73700005
-0.37935716 0.015442858 0.70500004
-0.3780143 0.015442858 0.70500004
-0.37667146 0.015442858 0.70500004
-0.37639335 0.015486668 0.70700002
-0.37398574 0.015442858 0.70500004
-0.3742286 0.015508573 0.708
-0.37762001 0.015705716 0.71700001
-0.37730384 0.015749525 0.71900004
-0.3759343 0.015749525 0.71900004
-0.37612763 0.015815239 0.72200006
-0.37682861 0.015902858 0.72600001
-0.37699717 0.015968572 0.72900003
-0.37715432 0.016034286 0.73200005
-0.37781337 0.016121905 0.73600006
-0.37692288 0.01614381 0.73700005
-0.37881908 0.016761906 0.70400006
-0.37747812 0.016761906 0.70400006
-0.37613717 0.016761906 0.70400006
-0.3753286 0.016785715 0.70500004
-0.37398574 0.016785715 0.70500004
-0.37370002 0.016833335 0.70700002
-0.37709334 0.017047619 0.71600002
-0.37625432 0.01707143 0.71700001
-0.3759343 0.017119048 0.71900004
-0.37508574 0.017142858 0.72000003
-0.37630954 0.017261906 0.72500002
-0.37663907 0.017404763 0.73100001
-0.30396003 0.021285716 0.89400005
-0.29885146 0.021285716 0.89400005
-0.37828097 0.018077144 0.70300001
-0.37694192 0.018077144 0.70300001
-0.37613717 0.018102858 0.70400006
-0.37479621 0.018102858 0.70400006
-0.37398574 0.018128572 0.70500004
-0.37762001 0.018437143 0.71700001
-0.37625432 0.018437143 0.71700001
-0.3759343 0.018488573 0.71900004
-0.37508574 0.018514287 0.72000003
-0.37527144 0.01859143 0.72300005
-0.3738943 0.01859143 0.72300005
-0.37720478 0.019360954 0.70100003
-0.37586954 0.019360954 0.70100003
-0.37560287 0.019416193 0.70300001
-0.37426382 0.019416193 0.70300001
-0.37345526 0.01944381 0.70400006
-0.37762001 0.019802859 0.71700001
-0.37625432 0.019802859 0.71700001
-0.3759343 0.019858096 0.71900004
-0.37508574 0.019885715 0.72000003
-0.3747524 0.019940954 0.72200006
-0.37337717 0.019940954 0.72200006
-0.37720478 0.020696191 0.70100003
-0.37586954 0.020696191 0.70100003
-0.37560287 0.020755239 0.70300001
-0.37426382 0.020755239 0.70300001
-0.37345526 0.020784764 0.70400006
-0.37551335 0.021050477 0.71300006
-0.37572956 0.02113905 0.71600002
-0.37436575 0.02113905 0.71600002
-0.3745648 0.021227621 0.71900004
-0.37319526 0.021227621 0.71900004
-0.37337717 0.021316191 0.72200006
-0.44340861 0.025597144 0.86700004
-0.44175717 0.025597144 0.86700004
-0.44112098 0.025656192 0.86900002
-0.43946573 0.025656192 0.86900002
-0.37666669 0.022000002 0.70000005
-0.37586954 0.02203143 0.70100003
-0.37560287 0.022094287 0.70300001
-0.37479621 0.022125715 0.70400006
-0.37345526 0.022125715 0.70400006
-0.37604001 0.022440001 0.71400005
-0.37625432 0.022534287 0.71700001
-0.37436575 0.022502858 0.71600002
-0.37352288 0.022534287 0.71700001
-0.37215716 0.022534287 0.71700001
-0.44238573 0.027185716 0.86500007
-0.44073811 0.027185716 0.86500007
-0.44010574 0.027248573 0.86700004
-0.4384543 0.027248573 0.86700004
-0.43515146 0.027248573 0.86700004
-0.37359717 0.022900002 0.68700004
-0.37228858 0.022900002 0.68700004
-0.37666669 0.023333335 0.70000005
-0.37533337 0.023333335 0.70000005
-0.37560287 0.023433335 0.70300001
-0.37479621 0.023466669 0.70400006
-0.37345526 0.023466669 0.70400006
-0.37551335 0.023766669 0.71300006
-0.37468001 0.023800002 0.71400005
-0.3748886 0.023900002 0.71700001
-0.37300193 0.023866668 0.71600002
-0.44403335 0.028833335 0.86500007
-0.44238573 0.028833335 0.86500007
-0.44073811 0.028833335 0.86500007
-0.43909049 0.028833335 0.86500007
-0.4374429 0.028833335 0.86500007
-0.37436002 0.024173334 0.68600005
-0.37468478 0.024279049 0.68900001
-0.37337241 0.024279049 0.68900001
-0.37422001 0.024420002 0.69300002
-0.3755905 0.024596192 0.69800001
-0.37533337 0.024666669 0.70000005
-0.37453431 0.024701906 0.70100003
-0.37479621 0.024807621 0.70400006
-0.37345526 0.024807621 0.70400006
-0.37370002 0.024913335 0.70700002
-0.37446001 0.025054287 0.71100003
-0.37468001 0.025160002 0.71400005
-0.37436575 0.025230478 0.71600002
-0.37196001 0.025160002 0.71400005
-0.37717718 0.025405716 0.68400002
-0.37587431 0.025405716 0.68400002
-0.37457144 0.025405716 0.68400002
-0.37436002 0.025480002 0.68600005
-0.37468478 0.025591429 0.68900001
-0.37337241 0.025591429 0.68900001
-0.37314004 0.025665715 0.69100004
-0.37505239 0.025888573 0.69700003
-0.37533337 0.026000002 0.70000005
-0.37453431 0.026037145 0.70100003
-0.37479621 0.026148573 0.70400006
-0.37398574 0.026185716 0.70500004
-0.3742286 0.026297145 0.708
-0.37446001 0.026408574 0.71100003
-0.37468001 0.026520003 0.71400005
-0.37756193 0.026552383 0.68000001
-0.37792668 0.026669526 0.68300003
-0.37662575 0.026669526 0.68300003
-0.37532479 0.026669526 0.68300003
-0.37457144 0.026708573 0.68400002
-0.37436002 0.026786668 0.68600005
-0.37359717 0.026825717 0.68700004
-0.37337241 0.026903812 0.68900001
-0.37314004 0.026981907 0.69100004
-0.37505239 0.027216192 0.69700003
-0.37533337 0.027333336 0.70000005
-0.37560287 0.027450478 0.70300001
-0.3753286 0.027528573 0.70500004
-0.37398574 0.027528573 0.70500004
-0.3742286 0.027645716 0.708
-0.37446001 0.027762858 0.71100003
-0.37415525 0.027840953 0.71300006
-0.37571335 0.027806668 0.67900002
-0.37662575 0.027970478 0.68300003
-0.37532479 0.027970478 0.68300003
-0.37457144 0.02801143 0.68400002
-0.37436002 0.028093334 0.68600005
-0.37359717 0.028134288 0.68700004
-0.37337241 0.028216192 0.68900001
-0.37314004 0.028298097 0.69100004
-0.3755905 0.028584763 0.69800001
-0.37533337 0.028666668 0.70000005
-0.37560287 0.028789526 0.70300001
-0.37479621 0.028830478 0.70400006
-0.37398574 0.02887143 0.70500004
-0.37370002 0.028953334 0.70700002
-0.37446001 0.029117145 0.71100003
-0.37415525 0.029199049 0.71300006
-0.37662575 0.029271431 0.68300003
-0.37587431 0.029314287 0.68400002
-0.37402382 0.029271431 0.68300003
-0.3732686 0.029314287 0.68400002
-0.37359717 0.02944286 0.68700004
-0.37337241 0.029528573 0.68900001
-0.37314004 0.029614288 0.69100004
-0.37666669 0.030000001 0.70000005
-0.37586954 0.030042859 0.70100003
-0.37560287 0.030128574 0.70300001
-0.37479621 0.03017143 0.70400006
-0.37345526 0.03017143 0.70400006
-0.3721143 0.03017143 0.70400006
-0.44280955 0.036428574 0.85000002
-0.44119051 0.036428574 0.85000002
-0.37717718 0.030617144 0.68400002
-0.37587431 0.030617144 0.68400002
-0.37457144 0.030617144 0.68400002
-0.3732686 0.030617144 0.68400002
-0.37305337 0.030706668 0.68600005
-0.37228858 0.030751431 0.68700004
-0.37314004 0.030930478 0.69100004
-0.37720478 0.031378098 0.70100003
-0.37586954 0.031378098 0.70100003
-0.37560287 0.03146762 0.70300001
-0.37426382 0.03146762 0.70300001
-0.37345526 0.031512383 0.70400006
-0.3721143 0.031512383 0.70400006
-0.37717718 0.031920001 0.68400002
-0.37587431 0.031920001 0.68400002
-0.37457144 0.031920001 0.68400002
-0.37436002 0.032013334 0.68600005
-0.37305337 0.032013334 0.68600005
-0.37337241 0.032153334 0.68900001
-0.37260002 0.032200001 0.69000006
-0.37666669 0.032666668 0.70000005
-0.37533337 0.032666668 0.70000005
-0.37453431 0.032713335 0.70100003
-0.37426382 0.032806668 0.70300001
-0.37292477 0.032806668 0.70300001
-0.3721143 0.032853335 0.70400006
-0.37359431 0.032348573 0.66600001
-0.37176669 0.032300003 0.66500002
-0.37050003 0.032300003 0.66500002
-0.36923337 0.032300003 0.66500002
-0.36796668 0.032300003 0.66500002
-0.37532479 0.033174288 0.68300003
-0.37402382 0.033174288 0.68300003
-0.37436002 0.033320002 0.68600005
-0.37359717 0.033368573 0.68700004
-0.3739143 0.033514287 0.69000006
-0.37260002 0.033514287 0.69000006
-0.37290004 0.033660002 0.69300002
-0.37265241 0.033757146 0.69500005
-0.37293145 0.033902861 0.69800001
-0.37266669 0.034000002 0.70000005
-0.37292477 0.034145717 0.70300001
-0.37542573 0.03366762 0.66700006
-0.37359431 0.033617146 0.66600001
-0.37232575 0.033617146 0.66600001
-0.37050003 0.033566669 0.66500002
-0.36923337 0.033566669 0.66500002
-0.36796668 0.033566669 0.66500002
-0.37587431 0.034525715 0.68400002
-0.37457144 0.034525715 0.68400002
-0.37436002 0.03462667 0.68600005
-0.37359717 0.034677144 0.68700004
-0.3739143 0.034828573 0.69000006
-0.37260002 0.034828573 0.69000006
-0.37182385 0.034879051 0.69100004
-0.37158003 0.034980003 0.69300002
-0.37400001 0.035333335 0.70000005
-0.37319908 0.035383813 0.70100003
-0.37292477 0.035484765 0.70300001
-0.37613145 0.034885716 0.66600001
-0.37542573 0.034938097 0.66700006
-0.37359431 0.034885716 0.66600001
-0.37232575 0.034885716 0.66600001
-0.37050003 0.034833334 0.66500002
-0.36923337 0.034833334 0.66500002
-0.36852002 0.034885716 0.66600001
-0.37587431 0.035828575 0.68400002
-0.37457144 0.035828575 0.68400002
-0.37436002 0.035933334 0.68600005
-0.37305337 0.035933334 0.68600005
-0.37337241 0.036090478 0.68900001
-0.37260002 0.03614286 0.69000006
-0.37182385 0.036195241 0.69100004
-0.37158003 0.036300004 0.69300002
-0.37400001 0.036666669 0.70000005
-0.37319908 0.03671905 0.70100003
-0.37292477 0.036823813 0.70300001
-0.42487717 0.04384286 0.83700001
-0.37556669 0.036100004 0.66500002
-0.37430003 0.036100004 0.66500002
-0.37303334 0.036100004 0.66500002
-0.37176669 0.036100004 0.66500002
-0.37050003 0.036100004 0.66500002
-0.36923337 0.036100004 0.66500002
-0.36796668 0.036100004 0.66500002
-0.37828001 0.037240002 0.68600005
-0.37697336 0.037240002 0.68600005
-0.37566668 0.037240002 0.68600005
-0.37436002 0.037240002 0.68600005
-0.37359717 0.037294287 0.68700004
-0.37337241 0.037402861 0.68900001
-0.37206003 0.037402861 0.68900001
-0.37182385 0.037511431 0.69100004
-0.37400001 0.038000003 0.70000005
-0.37266669 0.038000003 0.70000005
-0.37186384 0.038054287 0.70100003
-0.37443715 0.037254289 0.66300005
-0.37430003 0.03736667 0.66500002
-0.37303334 0.03736667 0.66500002
-0.37232575 0.037422858 0.66600001
-0.37105715 0.037422858 0.66600001
-0.36978859 0.037422858 0.66600001
-0.36852002 0.037422858 0.66600001
-0.37697336 0.03854667 0.68600005
-0.37566668 0.03854667 0.68600005
-0.37436002 0.03854667 0.68600005
-0.37305337 0.03854667 0.68600005
-0.37337241 0.03871524 0.68900001
-0.37098002 0.038602859 0.68700004
-0.37128574 0.038771432 0.69000006
-0.37400001 0.039333336 0.70000005
-0.37266669 0.039333336 0.70000005
-0.37186384 0.039389525 0.70100003
-0.37052861 0.039389525 0.70100003
-0.43291146 0.04669429 0.83100003
-0.43132859 0.04669429 0.83100003
-0.37430003 0.038633335 0.66500002
-0.37303334 0.038633335 0.66500002
-0.37232575 0.038691431 0.66600001
-0.37105715 0.038691431 0.66600001
-0.36978859 0.038691431 0.66600001
-0.36852002 0.038691431 0.66600001
-0.37000859 0.038981907 0.671
-0.36873052 0.038981907 0.671
-0.37566668 0.039853334 0.68600005
-0.37436002 0.039853334 0.68600005
-0.37359717 0.03991143 0.68700004
-0.37337241 0.040027622 0.68900001
-0.37206003 0.040027622 0.68900001
-0.37128574 0.040085718 0.69000006
-0.37265241 0.040376194 0.69500005
-0.37132859 0.040376194 0.69500005
-0.37106955 0.040492382 0.69700003
-0.36974192 0.040492382 0.69700003
-0.36841431 0.040492382 0.69700003
-0.43186957 0.048160955 0.82900006
-0.37317431 0.039780002 0.66300005
-0.37303334 0.039900001 0.66500002
-0.37400287 0.040140003 0.66900003
-0.37272859 0.040140003 0.66900003
-0.3714543 0.040140003 0.66900003
-0.37128669 0.040260002 0.671
-0.37000859 0.040260002 0.671
-0.36873052 0.040260002 0.671
-0.37238097 0.040800001 0.68000001
-0.37108573 0.040800001 0.68000001
-0.37305337 0.041160002 0.68600005
-0.37174669 0.041160002 0.68600005
-0.37098002 0.041220002 0.68700004
-0.37372479 0.041820005 0.69700003
-0.37239715 0.041820005 0.69700003
-0.37160194 0.041880004 0.69800001
-0.36974192 0.041820005 0.69700003
-0.36841431 0.041820005 0.69700003
-0.37443715 0.041042861 0.66300005
-0.37317431 0.041042861 0.66300005
-0.37303334 0.041166671 0.66500002
-0.37400287 0.041414287 0.66900003
-0.37272859 0.041414287 0.66900003
-0.36978859 0.041228574 0.66600001
-0.36852002 0.041228574 0.66600001
-0.37221432 0.041785717 0.67500001
-0.37183335 0.042033337 0.67900002
-0.37054002 0.042033337 0.67900002
-0.37196574 0.04234286 0.68400002
-0.37066287 0.04234286 0.68400002
-0.37044004 0.04246667 0.68600005
-0.37372479 0.043147624 0.69700003
-0.37239715 0.043147624 0.69700003
-0.37266669 0.043333337 0.70000005
-0.37133336 0.043333337 0.70000005
-0.42926574 0.050823811 0.82100004
-0.37317431 0.042305715 0.66300005
-0.37303334 0.042433336 0.66500002
-0.37400287 0.042688575 0.66900003
-0.37272859 0.042688575 0.66900003
-0.37200955 0.042752385 0.67000002
-0.37294668 0.043007623 0.67400002
-0.37221432 0.04307143 0.67500001
-0.36999431 0.043262862 0.67800003
-0.37012097 0.043581907 0.68300003
-0.37132859 0.044347622 0.69500005
-0.37160194 0.044539049 0.69800001
-0.36974192 0.044475242 0.69700003
-0.42926574 0.052387621 0.82100004
-0.37486288 0.043765716 0.66600001
-0.37415525 0.04383143 0.66700006
-0.37400287 0.043962859 0.66900003
-0.37272859 0.043962859 0.66900003
-0.37200955 0.044028573 0.67000002
-0.37128669 0.044094287 0.671
-0.37000859 0.044094287 0.671
-0.37132859 0.045671433 0.69500005
-0.37160194 0.045868576 0.69800001
-0.3702724 0.045868576 0.69800001
-0.4271743 0.053688575 0.81700003
-0.37782574 0.045237146 0.66900003
-0.37486288 0.045034289 0.66600001
-0.37415525 0.045101907 0.66700006
-0.37400287 0.045237146 0.66900003
-0.37272859 0.045237146 0.66900003
-0.3714543 0.045237146 0.66900003
-0.37073335 0.045304764 0.67000002
-0.36945716 0.045304764 0.67000002
-0.37265241 0.046995241 0.69500005
-0.3707943 0.046927623 0.69400001
-0.36947241 0.046927623 0.69400001
-0.4261286 0.055109527 0.81500006
-0.37556669 0.046233337 0.66500002
-0.37430003 0.046233337 0.66500002
-0.37359431 0.046302859 0.66600001
-0.37288478 0.046372384 0.66700006
-0.37161431 0.046372384 0.66700006
-0.3714543 0.04651143 0.66900003
-0.37073335 0.046580955 0.67000002
-0.36945716 0.046580955 0.67000002
-0.37556669 0.047500003 0.66500002
-0.37430003 0.047500003 0.66500002
-0.37359431 0.047571432 0.66600001
-0.37288478 0.047642861 0.66700006
-0.37161431 0.047642861 0.66700006
-0.3714543 0.047785718 0.66900003
-0.37018001 0.047785718 0.66900003
-0.36945716 0.047857147 0.67000002
-0.37443715 0.048620004 0.66300005
-0.37317431 0.048620004 0.66300005
-0.37191147 0.048620004 0.66300005
-0.37176669 0.048766669 0.66500002
-0.37105715 0.048840005 0.66600001
-0.37034383 0.048913337 0.66700006
-0.37018001 0.049060002 0.66900003
-0.37443715 0.049882859 0.66300005
-0.37317431 0.049882859 0.66300005
-0.37303334 0.050033338 0.66500002
-0.37232575 0.050108574 0.66600001
-0.37161431 0.050183814 0.66700006
-0.37034383 0.050183814 0.66700006
-0.37018001 0.05033429 0.66900003
-0.37443715 0.051145718 0.66300005
-0.37317431 0.051145718 0.66300005
-0.37303334 0.051300004 0.66500002
-0.37176669 0.051300004 0.66500002
-0.37105715 0.051377147 0.66600001
-0.37034383 0.051454291 0.66700006
-0.36907336 0.051454291 0.66700006
-0.37344953 0.051064767 0.64600003
-0.37221909 0.051064767 0.64600003
-0.37156287 0.051143814 0.64700001
-0.37033051 0.051143814 0.64700001
-0.37443715 0.052408576 0.66300005
-0.37430003 0.05256667 0.66500002
-0.37303334 0.05256667 0.66500002
-0.37232575 0.052645717 0.66600001
-0.37161431 0.052724764 0.66700006
-0.3714543 0.052882861 0.66900003
-0.37018001 0.052882861 0.66900003
-0.37766004 0.064898096 0.82100004
-0.37518004 0.064740002 0.81900007
-0.37362003 0.064740002 0.81900007
-0.37296858 0.064898096 0.82100004
-0.37337145 0.052457146 0.648
-0.37213716 0.052457146 0.648
-0.37204763 0.052619051 0.65000004
-0.37080956 0.052619051 0.65000004
-0.37525716 0.053428575 0.66000003
-0.37400001 0.053428575 0.66000003
-0.37274289 0.053428575 0.66000003
-0.37317431 0.053671431 0.66300005
-0.37303334 0.053833336 0.66500002
-0.37232575 0.05391429 0.66600001
-0.37161431 0.05399524 0.66700006
-0.3714543 0.054157145 0.66900003
-0.37018001 0.054157145 0.66900003
-0.37344953 0.053525716 0.64600003
-0.37221909 0.053525716 0.64600003
-0.37213716 0.053691432 0.648
-0.3709029 0.053691432 0.648
-0.37080956 0.053857148 0.65000004
-0.36957145 0.053857148 0.65000004
-0.37286669 0.054520003 0.65800005
-0.37161335 0.054520003 0.65800005
-0.37317431 0.054934289 0.66300005
-0.37303334 0.055100005 0.66500002
-0.37232575 0.055182859 0.66600001
-0.37161431 0.055265717 0.66700006
-0.3714543 0.055431433 0.66900003
-0.37018001 0.055431433 0.66900003
-0.37287146 0.054671433 0.64500004
-0.37164289 0.054671433 0.64500004
-0.37156287 0.054840956 0.64700001
-0.3709029 0.054925717 0.648
-0.3696686 0.054925717 0.648
-0.37127715 0.055349529 0.65300006
-0.37230003 0.055688575 0.65700001
-0.37161335 0.055773336 0.65800005
-0.37317431 0.056197148 0.66300005
-0.37303334 0.056366671 0.66500002
-0.37232575 0.056451432 0.66600001
-0.37161431 0.056536194 0.66700006
-0.37034383 0.056536194 0.66700006
-0.37287146 0.055900004 0.64500004
-0.37164289 0.055900004 0.64500004
-0.37156287 0.056073338 0.64700001
-0.37033051 0.056073338 0.64700001
-0.3696686 0.056160003 0.648
-0.36957145 0.056333337 0.65000004
-0.37230003 0.056940004 0.65700001
-0.3710486 0.056940004 0.65700001
-0.36979717 0.056940004 0.65700001
-0.37303334 0.057633337 0.66500002
-0.37176669 0.057633337 0.66500002
-0.37161431 0.057806671 0.66700006
-0.37034383 0.057806671 0.66700006
-0.37018001 0.057980005 0.66900003
-0.37229335 0.057040002 0.64400005
-0.37164289 0.057128575 0.64500004
-0.37156287 0.05730572 0.64700001
-0.3709029 0.057394288 0.648
-0.37080956 0.057571433 0.65000004
-0.36957145 0.057571433 0.65000004
-0.36833337 0.057571433 0.65000004
-0.3710486 0.058191434 0.65700001
-0.37036002 0.058280002 0.65800005
-0.37156287 0.058538098 0.64700001
-0.3709029 0.058628574 0.648
-0.37080956 0.058809526 0.65000004
-0.36957145 0.058809526 0.65000004
-0.37080956 0.060047623 0.65000004
-0.3696686 0.061097145 0.648
-0.36843431 0.061097145 0.648
-0.36909813 0.062235244 0.64700001
-0.36909813 0.063467622 0.64700001
-0.39202192 0.079530485 0.73900002
-0.3906143 0.079530485 0.73900002
-0.38920668 0.079530485 0.73900002
-0.38674954 0.079315245 0.73700005
-0.38534573 0.079315245 0.73700005
-0.39096099 0.080719054 0.73700005
-0.38955718 0.080719054 0.73700005
-0.38815334 0.080719054 0.73700005
-0.38674954 0.080719054 0.73700005
-0.38534573 0.080719054 0.73700005
-0.38394192 0.080719054 0.73700005
-0.38762668 0.082011431 0.73600006
-0.38622478 0.082011431 0.73600006
-0.38482288 0.082011431 0.73600006
-0.38552001 0.082960002 0.73200005
-0.38412574 0.082960002 0.73200005
-0.38377717 0.083186671 0.73400003
-0.38133717 0.082960002 0.73200005
-0.35165432 0.083526671 0.73700005
-0.35120097 0.08375334 0.73900002
-0.34979334 0.08375334 0.73900002
-0.34838575 0.08375334 0.73900002
-0.38499334 0.084239051 0.73100001
-0.38360098 0.084239051 0.73100001
-0.38273147 0.084354289 0.73200005
-0.38081622 0.084239051 0.73100001
-0.35165432 0.08493048 0.73700005
-0.35025051 0.08493048 0.73700005
-0.3488467 0.08493048 0.73700005
-0.34838575 0.085160956 0.73900002
-0.38394001 0.085397147 0.72900003
-0.38255146 0.085397147 0.72900003
-0.38220859 0.085631438 0.73100001
-0.35165432 0.086334288 0.73700005
-0.35025051 0.086334288 0.73700005
-0.3488467 0.086334288 0.73700005
-0.34838575 0.086568579 0.73900002
-0.34744763 0.086685717 0.74000001
-0.38341334 0.086666673 0.72800004
-0.3820267 0.086666673 0.72800004
-0.38064003 0.086666673 0.72800004
-0.35162097 0.087380961 0.73400003
-0.35117716 0.087619051 0.73600006
-0.34977525 0.087619051 0.73600006
-0.3488467 0.087738104 0.73700005
-0.34838575 0.087976195 0.73900002
-0.38236001 0.087811433 0.72600001
-0.38097715 0.087811433 0.72600001
-0.35066289 0.088537149 0.73200005
-0.35022289 0.088779055 0.73400003
-0.3488248 0.088779055 0.73400003
-0.34837335 0.08902096 0.73600006
-0.34744287 0.089141913 0.73700005
-0.38236001 0.08919429 0.72600001
-0.38097715 0.08919429 0.72600001
-0.37612763 0.088702865 0.72200006
-0.3747524 0.088702865 0.72200006
-0.3738943 0.088825718 0.72300005
-0.37251717 0.088825718 0.72300005
-0.35436097 0.089808576 0.73100001
-0.35345146 0.089931436 0.73200005
-0.35157621 0.089808576 0.73100001
-0.35066289 0.089931436 0.73200005
-0.34926859 0.089931436 0.73200005
-0.34787431 0.089931436 0.73200005
-0.34837335 0.090422861 0.73600006
-0.34697145 0.090422861 0.73600006
-0.38880002 0.089828581 0.72000003
-0.38437906 0.090078101 0.72200006
-0.38300383 0.090078101 0.72200006
-0.3816286 0.090078101 0.72200006
-0.38078001 0.090202861 0.72300005
-0.37940288 0.090202861 0.72300005
-0.37750289 0.090078101 0.72200006
-0.37508574 0.089828581 0.72000003
-0.3747524 0.090078101 0.72200006
-0.37337717 0.090078101 0.72200006
-0.37200192 0.090078101 0.72200006
-0.37062669 0.090078101 0.72200006
-0.36940479 0.090452388 0.72500002
-0.36853147 0.090577148 0.72600001
-0.35436097 0.091200955 0.73100001
-0.3529686 0.091200955 0.73100001
-0.35157621 0.091200955 0.73100001
-0.35018384 0.091200955 0.73100001
-0.34879145 0.091200955 0.73100001
-0.34739906 0.091200955 0.73100001
-0.34837335 0.09182477 0.73600006
-0.34744287 0.09194953 0.73700005
-0.38880002 0.091200009 0.72000003
-0.38468572 0.091200009 0.72000003
-0.38437906 0.091453336 0.72200006
-0.38194287 0.091200009 0.72000003
-0.38057145 0.091200009 0.72000003
-0.38025334 0.091453336 0.72200006
-0.37887812 0.091453336 0.72200006
-0.37750289 0.091453336 0.72200006
-0.37508574 0.091200009 0.72000003
-0.3737143 0.091200009 0.72000003
-0.37337717 0.091453336 0.72200006
-0.37200192 0.091453336 0.72200006
-0.36960003 0.091200009 0.72000003
-0.36822858 0.091200009 0.72000003
-0.3678762 0.091453336 0.72200006
-0.36802384 0.091833338 0.72500002
-0.36664289 0.091833338 0.72500002
-0.35339144 0.092340007 0.72900003
-0.35200289 0.092340007 0.72900003
-0.35061431 0.092340007 0.72900003
-0.34922573 0.092340007 0.72900003
-0.34783718 0.092340007 0.72900003
-0.3464486 0.092340007 0.72900003
-0.34600669 0.092593342 0.73100001
-0.34508574 0.092720009 0.73200005
-0.34369144 0.092720009 0.73200005
-0.34229717 0.092720009 0.73200005
-0.34090286 0.092720009 0.73200005
-0.33811715 0.092340007 0.72900003
-0.33396003 0.091960005 0.72600001
-0.33211908 0.091833338 0.72500002
-0.33073813 0.091833338 0.72500002
-0.39017147 0.092571437 0.72000003
-0.38880002 0.092571437 0.72000003
-0.38742861 0.092571437 0.72000003
-0.38605717 0.092571437 0.72000003
-0.38468572 0.092571437 0.72000003
-0.38331431 0.092571437 0.72000003
-0.38141242 0.092442863 0.71900004
-0.38004288 0.092442863 0.71900004
-0.37867334 0.092442863 0.71900004
-0.37625432 0.092185721 0.71700001
-0.3748886 0.092185721 0.71700001
-0.37352288 0.092185721 0.71700001
