# .PCD v0.7 - Point Cloud Data file format
VERSION 0.7
FIELDS x y z
SIZE 4 4 4
TYPE F F F
COUNT 1 1 1
WIDTH 1365
HEIGHT 1
VIEWPOINT 0 0 0 1 0 0 0
POINTS 1365
DATA ascii
-0.020814287 0.04364286 0.70500004
-0.019526668 0.04376667 0.70700002
-0.018180002 0.04376667 0.70700002
-0.016833335 0.04376667 0.70700002
-0.015486668 0.04376667 0.70700002
-0.014140001 0.04376667 0.70700002
-0.012793334 0.04376667 0.70700002
-0.011462858 0.043828573 0.708
-0.010142858 0.043952383 0.71000004
-0.0087904772 0.043952383 0.71000004
-0.0074380958 0.043952383 0.71000004
-0.0060942862 0.04401429 0.71100003
-0.0047400002 0.04401429 0.71100003
-0.0033857145 0.04401429 0.71100003
-0.0020314287 0.04401429 0.71100003
-0.00067714287 0.04401429 0.71100003
0.00067714287 0.04401429 0.71100003
0.0020314287 0.04401429 0.71100003
0.0033952384 0.0441381 0.71300006
0.0047533335 0.0441381 0.71300006
0.0061114291 0.0441381 0.71300006
0.0074695242 0.0441381 0.71300006
0.0088276193 0.0441381 0.71300006
0.010185715 0.0441381 0.71300006
0.01156 0.044200003 0.71400005
0.012956192 0.044323813 0.71600002
0.014320001 0.044323813 0.71600002
0.015705716 0.044385716 0.71700001
0.01707143 0.044385716 0.71700001
0.018437143 0.044385716 0.71700001
0.019802859 0.044385716 0.71700001
0.021227621 0.044509526 0.71900004
0.022597143 0.044509526 0.71900004
0.023966668 0.044509526 0.71900004
0.025336193 0.044509526 0.71900004
0.026705716 0.044509526 0.71900004
0.028114287 0.044571433 0.72000003
0.029485716 0.044571433 0.72000003
0.030942859 0.04469524 0.72200006
0.032318097 0.04469524 0.72200006
0.033693336 0.04469524 0.72200006
0.035068575 0.04469524 0.72200006
0.036494289 0.044757146 0.72300005
0.037871432 0.044757146 0.72300005
0.039357144 0.044880956 0.72500002
0.040738098 0.044880956 0.72500002
0.042119049 0.044880956 0.72500002
0.043500002 0.044880956 0.72500002
0.04494286 0.04494286 0.72600001
0.046325717 0.04494286 0.72600001
0.047840003 0.04506667 0.72800004
0.049294289 0.045128573 0.72900003
0.050682861 0.045128573 0.72900003
0.052071434 0.045128573 0.72900003
0.053460002 0.045128573 0.72900003
0.05499905 0.045252383 0.73100001
0.056391433 0.045252383 0.73100001
0.057783812 0.045252383 0.73100001
0.059176195 0.045252383 0.73100001
0.060982861 0.045561906 0.73600006
0.062384766 0.045561906 0.73600006
0.063786671 0.045561906 0.73600006
0.065277144 0.045623813 0.73700005
0.06668096 0.045623813 0.73700005
0.068084769 0.045623813 0.73700005
0.069488578 0.045623813 0.73700005
0.070892386 0.045623813 0.73700005
-0.06669905 0.046070479 0.72200006
-0.065142862 0.045942862 0.72000003
-0.063505717 0.04575143 0.71700001
-0.062053338 0.045687623 0.71600002
-0.060520004 0.045560002 0.71400005
-0.059160005 0.045560002 0.71400005
-0.057719052 0.045496192 0.71300006
-0.056202862 0.045368575 0.71100003
-0.054848574 0.045368575 0.71100003
-0.053193338 0.045113336 0.70700002
-0.051700003 0.044985719 0.70500004
-0.050357144 0.044985719 0.70500004
-0.048944764 0.044921909 0.70400006
-0.047603812 0.044921909 0.70400006
-0.04626286 0.044921909 0.70400006
-0.044921909 0.044921909 0.70400006
-0.04351905 0.044858098 0.70300001
-0.042180002 0.044858098 0.70300001
-0.040840954 0.044858098 0.70300001
-0.039501909 0.044858098 0.70300001
-0.038162861 0.044858098 0.70300001
-0.036876194 0.044921909 0.70400006
-0.035535239 0.044921909 0.70400006
-0.034194287 0.044921909 0.70400006
-0.032853335 0.044921909 0.70400006
-0.031557146 0.044985719 0.70500004
-0.030214287 0.044985719 0.70500004
-0.02887143 0.044985719 0.70500004
-0.027489526 0.044921909 0.70400006
-0.026148573 0.044921909 0.70400006
-0.024842858 0.044985719 0.70500004
-0.023500001 0.044985719 0.70500004
-0.022157144 0.044985719 0.70500004
-0.020814287 0.044985719 0.70500004
-0.019471429 0.044985719 0.70500004
-0.018128572 0.044985719 0.70500004
-0.016833335 0.045113336 0.70700002
-0.015486668 0.045113336 0.70700002
-0.014140001 0.045113336 0.70700002
-0.012793334 0.045113336 0.70700002
-0.011462858 0.045177147 0.708
-0.010114286 0.045177147 0.708
-0.0087904772 0.045304764 0.71000004
-0.0074380958 0.045304764 0.71000004
-0.0060857148 0.045304764 0.71000004
-0.0047333338 0.045304764 0.71000004
-0.0033857145 0.045368575 0.71100003
-0.0020285717 0.045304764 0.71000004
-0.00067714287 0.045368575 0.71100003
0.00067714287 0.045368575 0.71100003
0.0020314287 0.045368575 0.71100003
0.0033857145 0.045368575 0.71100003
0.0047533335 0.045496192 0.71300006
0.0061114291 0.045496192 0.71300006
0.0074695242 0.045496192 0.71300006
0.0088276193 0.045496192 0.71300006
0.010185715 0.045496192 0.71300006
0.01156 0.045560002 0.71400005
0.012920001 0.045560002 0.71400005
0.014320001 0.045687623 0.71600002
0.015683811 0.045687623 0.71600002
0.01707143 0.04575143 0.71700001
0.018437143 0.04575143 0.71700001
0.019802859 0.04575143 0.71700001
0.021227621 0.045879051 0.71900004
0.022597143 0.045879051 0.71900004
0.023966668 0.045879051 0.71900004
0.025336193 0.045879051 0.71900004
0.026705716 0.045879051 0.71900004
0.028114287 0.045942862 0.72000003
0.029485716 0.045942862 0.72000003
0.030942859 0.046070479 0.72200006
0.032318097 0.046070479 0.72200006
0.033740003 0.046134289 0.72300005
0.035117146 0.046134289 0.72300005
0.036494289 0.046134289 0.72300005
0.037976194 0.046261907 0.72500002
0.039357144 0.046261907 0.72500002
0.040738098 0.046261907 0.72500002
0.042119049 0.046261907 0.72500002
0.043500002 0.046261907 0.72500002
0.04494286 0.046325717 0.72600001
0.046325717 0.046325717 0.72600001
0.047840003 0.046453338 0.72800004
0.049294289 0.046517145 0.72900003
0.050682861 0.046517145 0.72900003
0.052071434 0.046517145 0.72900003
0.05360667 0.046644766 0.73100001
0.05499905 0.046644766 0.73100001
0.056391433 0.046644766 0.73100001
0.057783812 0.046644766 0.73100001
0.059257146 0.046708573 0.73200005
0.060982861 0.046963811 0.73600006
0.062384766 0.046963811 0.73600006
0.063873336 0.047027621 0.73700005
0.065277144 0.047027621 0.73700005
0.06668096 0.047027621 0.73700005
0.068084769 0.047027621 0.73700005
0.069488578 0.047027621 0.73700005
0.071084768 0.047155242 0.73900002
-0.067885719 0.04731429 0.72000003
-0.066514291 0.04731429 0.72000003
-0.06487143 0.047117148 0.71700001
-0.063417144 0.047051433 0.71600002
-0.062053338 0.047051433 0.71600002
-0.060520004 0.046920002 0.71400005
-0.059160005 0.046920002 0.71400005
-0.057719052 0.046854287 0.71300006
-0.056202862 0.046722859 0.71100003
-0.054771431 0.046657145 0.71000004
-0.053193338 0.046460003 0.70700002
-0.051700003 0.046328574 0.70500004
-0.050357144 0.046328574 0.70500004
-0.048944764 0.04626286 0.70400006
-0.047536194 0.046197146 0.70300001
-0.046197146 0.046197146 0.70300001
-0.044858098 0.046197146 0.70300001
-0.04351905 0.046197146 0.70300001
-0.042180002 0.046197146 0.70300001
-0.040840954 0.046197146 0.70300001
-0.039501909 0.046197146 0.70300001
-0.038162861 0.046197146 0.70300001
-0.036823813 0.046197146 0.70300001
-0.035484765 0.046197146 0.70300001
-0.034145717 0.046197146 0.70300001
-0.032806668 0.046197146 0.70300001
-0.031512383 0.04626286 0.70400006
-0.03017143 0.04626286 0.70400006
-0.028830478 0.04626286 0.70400006
-0.027450478 0.046197146 0.70300001
-0.026148573 0.04626286 0.70400006
-0.024807621 0.04626286 0.70400006
-0.023500001 0.046328574 0.70500004
-0.022157144 0.046328574 0.70500004
-0.020814287 0.046328574 0.70500004
-0.019471429 0.046328574 0.70500004
-0.018128572 0.046328574 0.70500004
-0.016833335 0.046460003 0.70700002
-0.015486668 0.046460003 0.70700002
-0.014140001 0.046460003 0.70700002
-0.012793334 0.046460003 0.70700002
-0.011446668 0.046460003 0.70700002
-0.010114286 0.046525717 0.708
-0.0087904772 0.046657145 0.71000004
-0.0074171433 0.046525717 0.708
-0.0060857148 0.046657145 0.71000004
-0.0047333338 0.046657145 0.71000004
-0.0033809526 0.046657145 0.71000004
-0.0020285717 0.046657145 0.71000004
-0.00067714287 0.046722859 0.71100003
0.00067714287 0.046722859 0.71100003
0.0020314287 0.046722859 0.71100003
0.0033857145 0.046722859 0.71100003
0.0047533335 0.046854287 0.71300006
0.0061114291 0.046854287 0.71300006
0.0074695242 0.046854287 0.71300006
0.0088276193 0.046854287 0.71300006
0.010185715 0.046854287 0.71300006
0.01156 0.046920002 0.71400005
0.012920001 0.046920002 0.71400005
0.014320001 0.047051433 0.71600002
0.015683811 0.047051433 0.71600002
0.01707143 0.047117148 0.71700001
0.018437143 0.047117148 0.71700001
0.019802859 0.047117148 0.71700001
0.021227621 0.047248576 0.71900004
0.022597143 0.047248576 0.71900004
0.023966668 0.047248576 0.71900004
0.025336193 0.047248576 0.71900004
0.026742859 0.04731429 0.72000003
0.028114287 0.04731429 0.72000003
0.029485716 0.04731429 0.72000003
0.030942859 0.047445718 0.72200006
0.03236286 0.047511432 0.72300005
0.033740003 0.047511432 0.72300005
0.035117146 0.047511432 0.72300005
0.036494289 0.047511432 0.72300005
0.037976194 0.047642861 0.72500002
0.039357144 0.047642861 0.72500002
0.040738098 0.047642861 0.72500002
0.042119049 0.047642861 0.72500002
0.043500002 0.047642861 0.72500002
0.04494286 0.047708575 0.72600001
0.046453338 0.047840003 0.72800004
0.047840003 0.047840003 0.72800004
0.049294289 0.047905717 0.72900003
0.050682861 0.047905717 0.72900003
0.052071434 0.047905717 0.72900003
0.05360667 0.048037145 0.73100001
0.05499905 0.048037145 0.73100001
0.056391433 0.048037145 0.73100001
0.057783812 0.048037145 0.73100001
0.059257146 0.048102859 0.73200005
0.060982861 0.048365716 0.73600006
0.062384766 0.048365716 0.73600006
0.063873336 0.04843143 0.73700005
0.065277144 0.04843143 0.73700005
0.066861913 0.048562862 0.73900002
0.068269528 0.048562862 0.73900002
0.069677144 0.048562862 0.73900002
0.071084768 0.048562862 0.73900002
0.072492383 0.048562862 0.73900002
-0.068968579 0.048482861 0.71700001
-0.067602858 0.048482861 0.71700001
-0.066421911 0.048618097 0.71900004
-0.06487143 0.048482861 0.71700001
-0.063417144 0.04841524 0.71600002
-0.062053338 0.04841524 0.71600002
-0.060520004 0.048280004 0.71400005
-0.059077147 0.048212383 0.71300006
-0.057557147 0.048077147 0.71100003
-0.056123812 0.048009526 0.71000004
-0.054617148 0.04787429 0.708
-0.053193338 0.047806669 0.70700002
-0.051700003 0.047671434 0.70500004
-0.050357144 0.047671434 0.70500004
-0.048944764 0.047603812 0.70400006
-0.047536194 0.047536194 0.70300001
-0.046197146 0.047536194 0.70300001
-0.044858098 0.047536194 0.70300001
-0.04351905 0.047536194 0.70300001
-0.042180002 0.047536194 0.70300001
-0.040840954 0.047536194 0.70300001
-0.039501909 0.047536194 0.70300001
-0.038162861 0.047536194 0.70300001
-0.036823813 0.047536194 0.70300001
-0.035484765 0.047536194 0.70300001
-0.034145717 0.047536194 0.70300001
-0.032806668 0.047536194 0.70300001
-0.03146762 0.047536194 0.70300001
-0.03017143 0.047603812 0.70400006
-0.028830478 0.047603812 0.70400006
-0.027450478 0.047536194 0.70300001
-0.02611143 0.047536194 0.70300001
-0.024807621 0.047603812 0.70400006
-0.023466669 0.047603812 0.70400006
-0.022157144 0.047671434 0.70500004
-0.020814287 0.047671434 0.70500004
-0.019471429 0.047671434 0.70500004
-0.018128572 0.047671434 0.70500004
-0.016785715 0.047671434 0.70500004
-0.015442858 0.047671434 0.70500004
-0.014100001 0.047671434 0.70500004
-0.012757144 0.047671434 0.70500004
-0.011446668 0.047806669 0.70700002
-0.010100001 0.047806669 0.70700002
-0.0087657152 0.04787429 0.708
-0.0074171433 0.04787429 0.708
-0.0060857148 0.048009526 0.71000004
-0.0047333338 0.048009526 0.71000004
-0.0033809526 0.048009526 0.71000004
-0.0020285717 0.048009526 0.71000004
-0.00067714287 0.048077147 0.71100003
0.00067714287 0.048077147 0.71100003
0.0020314287 0.048077147 0.71100003
0.0033857145 0.048077147 0.71100003
0.0047533335 0.048212383 0.71300006
0.0061114291 0.048212383 0.71300006
0.0074695242 0.048212383 0.71300006
0.0088276193 0.048212383 0.71300006
0.010185715 0.048212383 0.71300006
0.01156 0.048280004 0.71400005
0.012920001 0.048280004 0.71400005
0.014320001 0.04841524 0.71600002
0.015683811 0.04841524 0.71600002
0.01707143 0.048482861 0.71700001
0.018437143 0.048482861 0.71700001
0.019802859 0.048482861 0.71700001
0.021227621 0.048618097 0.71900004
0.022597143 0.048618097 0.71900004
0.023966668 0.048618097 0.71900004
0.02537143 0.048685718 0.72000003
0.026742859 0.048685718 0.72000003
0.028114287 0.048685718 0.72000003
0.029567622 0.048820954 0.72200006
0.030942859 0.048820954 0.72200006
0.03236286 0.048888575 0.72300005
0.033740003 0.048888575 0.72300005
0.035117146 0.048888575 0.72300005
0.036494289 0.048888575 0.72300005
0.037976194 0.049023814 0.72500002
0.039357144 0.049023814 0.72500002
0.040738098 0.049023814 0.72500002
0.042119049 0.049023814 0.72500002
0.043500002 0.049023814 0.72500002
0.04494286 0.049091432 0.72600001
0.046453338 0.049226671 0.72800004
0.047840003 0.049226671 0.72800004
0.049294289 0.049294289 0.72900003
0.050682861 0.049294289 0.72900003
0.052071434 0.049294289 0.72900003
0.05360667 0.049429528 0.73100001
0.05499905 0.049429528 0.73100001
0.056391433 0.049429528 0.73100001
0.057783812 0.049429528 0.73100001
0.059257146 0.049497146 0.73200005
0.060982861 0.049767621 0.73600006
0.062384766 0.049767621 0.73600006
0.063873336 0.049835242 0.73700005
0.065454289 0.049970478 0.73900002
0.066861913 0.049970478 0.73900002
0.068361908 0.050038099 0.74000001
0.069771431 0.050038099 0.74000001
0.071180955 0.050038099 0.74000001
0.072590478 0.050038099 0.74000001
-0.077871434 0.049431432 0.71100003
-0.07651715 0.049431432 0.71100003
-0.075480007 0.049640004 0.71400005
-0.074120007 0.049640004 0.71400005
-0.072760008 0.049640004 0.71400005
-0.071400002 0.049640004 0.71400005
-0.070236199 0.04977905 0.71600002
-0.068872385 0.04977905 0.71600002
-0.067508578 0.04977905 0.71600002
-0.066144764 0.04977905 0.71600002
-0.064780958 0.04977905 0.71600002
-0.063417144 0.04977905 0.71600002
-0.061880004 0.049640004 0.71400005
-0.060435243 0.049570478 0.71300006
-0.058911432 0.049431432 0.71100003
-0.057476193 0.049361907 0.71000004
-0.055965718 0.04922286 0.708
-0.054617148 0.04922286 0.708
-0.053042859 0.049014289 0.70500004
-0.051700003 0.049014289 0.70500004
-0.050285719 0.048944764 0.70400006
-0.048875242 0.048875242 0.70300001
-0.047536194 0.048875242 0.70300001
-0.046197146 0.048875242 0.70300001
-0.044858098 0.048875242 0.70300001
-0.04351905 0.048875242 0.70300001
-0.042060003 0.048736192 0.70100003
-0.040724766 0.048736192 0.70100003
-0.039389525 0.048736192 0.70100003
-0.038162861 0.048875242 0.70300001
-0.036823813 0.048875242 0.70300001
-0.035484765 0.048875242 0.70300001
-0.034145717 0.048875242 0.70300001
-0.032806668 0.048875242 0.70300001
-0.03146762 0.048875242 0.70300001
-0.030128574 0.048875242 0.70300001
-0.028789526 0.048875242 0.70300001
-0.027372383 0.048736192 0.70100003
-0.02611143 0.048875242 0.70300001
-0.024772383 0.048875242 0.70300001
-0.023433335 0.048875242 0.70300001
-0.022094287 0.048875242 0.70300001
-0.020784764 0.048944764 0.70400006
-0.01944381 0.048944764 0.70400006
-0.018102858 0.048944764 0.70400006
-0.016785715 0.049014289 0.70500004
-0.015442858 0.049014289 0.70500004
-0.014100001 0.049014289 0.70500004
-0.012757144 0.049014289 0.70500004
-0.011446668 0.049153335 0.70700002
-0.010114286 0.04922286 0.708
-0.0087657152 0.04922286 0.708
-0.0074171433 0.04922286 0.708
-0.0060685719 0.04922286 0.708
-0.0047200001 0.04922286 0.708
-0.0033714287 0.04922286 0.708
-0.0020228573 0.04922286 0.708
-0.00067619054 0.049361907 0.71000004
0.00067619054 0.049361907 0.71000004
0.0020314287 0.049431432 0.71100003
0.0033857145 0.049431432 0.71100003
0.0047400002 0.049431432 0.71100003
0.0060942862 0.049431432 0.71100003
0.0074695242 0.049570478 0.71300006
0.0088276193 0.049570478 0.71300006
0.010185715 0.049570478 0.71300006
0.01154381 0.049570478 0.71300006
0.012920001 0.049640004 0.71400005
0.014280001 0.049640004 0.71400005
0.015683811 0.04977905 0.71600002
0.017047619 0.04977905 0.71600002
0.018437143 0.049848575 0.71700001
0.019802859 0.049848575 0.71700001
0.021227621 0.049987622 0.71900004
0.022597143 0.049987622 0.71900004
0.023966668 0.049987622 0.71900004
0.02537143 0.050057147 0.72000003
0.026742859 0.050057147 0.72000003
0.028192382 0.050196193 0.72200006
0.029567622 0.050196193 0.72200006
0.030985717 0.050265718 0.72300005
0.03236286 0.050265718 0.72300005
0.033740003 0.050265718 0.72300005
0.035117146 0.050265718 0.72300005
0.03659524 0.050404765 0.72500002
0.037976194 0.050404765 0.72500002
0.039357144 0.050404765 0.72500002
0.040738098 0.050404765 0.72500002
0.042177144 0.05047429 0.72600001
0.043560002 0.05047429 0.72600001
0.04494286 0.05047429 0.72600001
0.046453338 0.050613336 0.72800004
0.047905717 0.050682861 0.72900003
0.049294289 0.050682861 0.72900003
0.050821908 0.050821908 0.73100001
0.052214291 0.050821908 0.73100001
0.05360667 0.050821908 0.73100001
0.05499905 0.050821908 0.73100001
0.056468576 0.050891433 0.73200005
0.057862859 0.050891433 0.73200005
0.059419051 0.051030479 0.73400003
0.060982861 0.051169526 0.73600006
0.062469527 0.051239051 0.73700005
0.063873336 0.051239051 0.73700005
0.065454289 0.051378097 0.73900002
0.066861913 0.051378097 0.73900002
0.068269528 0.051378097 0.73900002
0.069771431 0.051447622 0.74000001
0.071180955 0.051447622 0.74000001
0.072590478 0.051447622 0.74000001
-0.080466673 0.050714288 0.71000004
-0.079114288 0.050714288 0.71000004
-0.077871434 0.050785717 0.71100003
-0.07651715 0.050785717 0.71100003
-0.07537429 0.050928574 0.71300006
-0.074016199 0.050928574 0.71300006
-0.072760008 0.051000003 0.71400005
-0.071400002 0.051000003 0.71400005
-0.070040002 0.051000003 0.71400005
-0.068680003 0.051000003 0.71400005
-0.067320004 0.051000003 0.71400005
-0.065960005 0.051000003 0.71400005
-0.064600006 0.051000003 0.71400005
-0.063240007 0.051000003 0.71400005
-0.061793339 0.050928574 0.71300006
-0.06026572 0.050785717 0.71100003
-0.058828574 0.050714288 0.71000004
-0.057476193 0.050714288 0.71000004
-0.055965718 0.05057143 0.708
-0.054617148 0.05057143 0.708
-0.053042859 0.050357144 0.70500004
-0.051700003 0.050357144 0.70500004
-0.050285719 0.050285719 0.70400006
-0.048875242 0.050214291 0.70300001
-0.047536194 0.050214291 0.70300001
-0.046197146 0.050214291 0.70300001
-0.044730481 0.050071433 0.70100003
-0.04339524 0.050071433 0.70100003
-0.042060003 0.050071433 0.70100003
-0.040724766 0.050071433 0.70100003
-0.039389525 0.050071433 0.70100003
-0.038054287 0.050071433 0.70100003
-0.036823813 0.050214291 0.70300001
-0.035484765 0.050214291 0.70300001
-0.034145717 0.050214291 0.70300001
-0.032806668 0.050214291 0.70300001
-0.03146762 0.050214291 0.70300001
-0.030128574 0.050214291 0.70300001
-0.028789526 0.050214291 0.70300001
-0.027372383 0.050071433 0.70100003
-0.02611143 0.050214291 0.70300001
-0.024772383 0.050214291 0.70300001
-0.023433335 0.050214291 0.70300001
-0.022094287 0.050214291 0.70300001
-0.020784764 0.050285719 0.70400006
-0.01944381 0.050285719 0.70400006
-0.018102858 0.050285719 0.70400006
-0.016785715 0.050357144 0.70500004
-0.015442858 0.050357144 0.70500004
-0.014100001 0.050357144 0.70500004
-0.012757144 0.050357144 0.70500004
-0.011446668 0.050500002 0.70700002
-0.010100001 0.050500002 0.70700002
-0.0087657152 0.05057143 0.708
-0.0074171433 0.05057143 0.708
-0.0060685719 0.05057143 0.708
-0.0047200001 0.05057143 0.708
-0.0033714287 0.05057143 0.708
-0.0020228573 0.05057143 0.708
-0.00067428575 0.05057143 0.708
0.00067619054 0.050714288 0.71000004
0.0020285717 0.050714288 0.71000004
0.0033809526 0.050714288 0.71000004
0.0047400002 0.050785717 0.71100003
0.0060942862 0.050785717 0.71100003
0.0074695242 0.050928574 0.71300006
0.0088276193 0.050928574 0.71300006
0.010185715 0.050928574 0.71300006
0.01156 0.051000003 0.71400005
0.012920001 0.051000003 0.71400005
0.014320001 0.05114286 0.71600002
0.015683811 0.05114286 0.71600002
0.01707143 0.051214289 0.71700001
0.018437143 0.051214289 0.71700001
0.019802859 0.051214289 0.71700001
0.021227621 0.051357146 0.71900004
0.022597143 0.051357146 0.71900004
0.023966668 0.051357146 0.71900004
0.02537143 0.051428575 0.72000003
0.026817145 0.051571433 0.72200006
0.028192382 0.051571433 0.72200006
0.029608574 0.051642861 0.72300005
0.030985717 0.051642861 0.72300005
0.032452382 0.051785719 0.72500002
0.033833336 0.051785719 0.72500002
0.035214286 0.051785719 0.72500002
0.03659524 0.051785719 0.72500002
0.037976194 0.051785719 0.72500002
0.039357144 0.051785719 0.72500002
0.040794287 0.051857147 0.72600001
0.042177144 0.051857147 0.72600001
0.043680001 0.052000005 0.72800004
0.04506667 0.052000005 0.72800004
0.046517145 0.052071434 0.72900003
0.047905717 0.052071434 0.72900003
0.049429528 0.052214291 0.73100001
0.050821908 0.052214291 0.73100001
0.052214291 0.052214291 0.73100001
0.053680003 0.052285716 0.73200005
0.055074289 0.052285716 0.73200005
0.056622859 0.052428573 0.73400003
0.058179051 0.052571431 0.73600006
0.059580956 0.052571431 0.73600006
0.061065719 0.05264286 0.73700005
0.062469527 0.05264286 0.73700005
0.063873336 0.05264286 0.73700005
0.065720007 0.053000003 0.74200004
0.066952385 0.052857146 0.74000001
0.068361908 0.052857146 0.74000001
0.069771431 0.052857146 0.74000001
0.071373336 0.053000003 0.74200004
0.072786674 0.053000003 0.74200004
-0.080466673 0.052066669 0.71000004
-0.079114288 0.052066669 0.71000004
-0.077871434 0.052140005 0.71100003
-0.07673239 0.05228667 0.71300006
-0.07537429 0.05228667 0.71300006
-0.074016199 0.05228667 0.71300006
-0.072760008 0.052360002 0.71400005
-0.071400002 0.052360002 0.71400005
-0.070040002 0.052360002 0.71400005
-0.068680003 0.052360002 0.71400005
-0.067225717 0.05228667 0.71300006
-0.065960005 0.052360002 0.71400005
-0.064509526 0.05228667 0.71300006
-0.063151434 0.05228667 0.71300006
-0.061793339 0.05228667 0.71300006
-0.06026572 0.052140005 0.71100003
-0.058828574 0.052066669 0.71000004
-0.057476193 0.052066669 0.71000004
-0.055965718 0.051920004 0.708
-0.054617148 0.051920004 0.708
-0.053193338 0.051846672 0.70700002
-0.051700003 0.051700003 0.70500004
-0.050285719 0.051626671 0.70400006
-0.048875242 0.051553335 0.70300001
-0.047536194 0.051553335 0.70300001
-0.046197146 0.051553335 0.70300001
-0.044858098 0.051553335 0.70300001
-0.04339524 0.05140667 0.70100003
-0.042060003 0.05140667 0.70100003
-0.040724766 0.05140667 0.70100003
-0.039389525 0.05140667 0.70100003
-0.038054287 0.05140667 0.70100003
-0.03671905 0.05140667 0.70100003
-0.035383813 0.05140667 0.70100003
-0.034145717 0.051553335 0.70300001
-0.032806668 0.051553335 0.70300001
-0.03146762 0.051553335 0.70300001
-0.030128574 0.051553335 0.70300001
-0.028789526 0.051553335 0.70300001
-0.027372383 0.05140667 0.70100003
-0.026037145 0.05140667 0.70100003
-0.024701906 0.05140667 0.70100003
-0.023366667 0.05140667 0.70100003
-0.022094287 0.051553335 0.70300001
-0.020755239 0.051553335 0.70300001
-0.01944381 0.051626671 0.70400006
-0.018102858 0.051626671 0.70400006
-0.016761906 0.051626671 0.70400006
-0.015442858 0.051700003 0.70500004
-0.014100001 0.051700003 0.70500004
-0.012757144 0.051700003 0.70500004
-0.011446668 0.051846672 0.70700002
-0.010100001 0.051846672 0.70700002
-0.0087533342 0.051846672 0.70700002
-0.0074066673 0.051846672 0.70700002
-0.0060600005 0.051846672 0.70700002
-0.0047133337 0.051846672 0.70700002
-0.0033714287 0.051920004 0.708
-0.0020228573 0.051920004 0.708
-0.00067619054 0.052066669 0.71000004
0.00067619054 0.052066669 0.71000004
0.0020314287 0.052140005 0.71100003
0.0033857145 0.052140005 0.71100003
0.0047400002 0.052140005 0.71100003
0.0061114291 0.05228667 0.71300006
0.0074695242 0.05228667 0.71300006
0.0088276193 0.05228667 0.71300006
0.010185715 0.05228667 0.71300006
0.01156 0.052360002 0.71400005
0.012920001 0.052360002 0.71400005
0.014320001 0.05250667 0.71600002
0.015683811 0.05250667 0.71600002
0.01707143 0.052580003 0.71700001
0.018437143 0.052580003 0.71700001
0.019802859 0.052580003 0.71700001
0.021227621 0.052726671 0.71900004
0.022597143 0.052726671 0.71900004
0.024000002 0.052800003 0.72000003
0.02537143 0.052800003 0.72000003
0.026817145 0.052946672 0.72200006
0.028192382 0.052946672 0.72200006
0.029608574 0.053020004 0.72300005
0.030985717 0.053020004 0.72300005
0.032452382 0.053166669 0.72500002
0.033833336 0.053166669 0.72500002
0.035214286 0.053166669 0.72500002
0.03659524 0.053166669 0.72500002
0.037976194 0.053166669 0.72500002
0.039357144 0.053166669 0.72500002
0.040794287 0.053240005 0.72600001
0.042177144 0.053240005 0.72600001
0.043680001 0.05338667 0.72800004
0.04506667 0.05338667 0.72800004
0.046517145 0.053460002 0.72900003
0.047905717 0.053460002 0.72900003
0.049429528 0.05360667 0.73100001
0.050821908 0.05360667 0.73100001
0.052285716 0.053680003 0.73200005
0.053680003 0.053680003 0.73200005
0.055074289 0.053680003 0.73200005
0.056622859 0.053826671 0.73400003
0.058258098 0.054046672 0.73700005
0.05966191 0.054046672 0.73700005
0.061231434 0.054193337 0.73900002
0.06263905 0.054193337 0.73900002
0.064306669 0.054413337 0.74200004
0.065720007 0.054413337 0.74200004
0.067133337 0.054413337 0.74200004
0.068361908 0.054266669 0.74000001
0.069960006 0.054413337 0.74200004
0.071373336 0.054413337 0.74200004
0.072786674 0.054413337 0.74200004
-0.085634291 0.053268574 0.708
-0.084285721 0.053268574 0.708
-0.082937151 0.053268574 0.708
-0.081588574 0.053268574 0.708
-0.080240004 0.053268574 0.708
-0.078891434 0.053268574 0.708
-0.077542864 0.053268574 0.708
-0.07651715 0.05349429 0.71100003
-0.075162865 0.05349429 0.71100003
-0.074120007 0.053720005 0.71400005
-0.072658099 0.053644765 0.71300006
-0.071300007 0.053644765 0.71300006
-0.069941908 0.053644765 0.71300006
-0.068583816 0.053644765 0.71300006
-0.067225717 0.053644765 0.71300006
-0.065867625 0.053644765 0.71300006
-0.064328574 0.05349429 0.71100003
-0.062974289 0.05349429 0.71100003
-0.061533336 0.05341905 0.71000004
-0.060180955 0.05341905 0.71000004
-0.058662862 0.053268574 0.708
-0.057314288 0.053268574 0.708
-0.055965718 0.053268574 0.708
-0.054617148 0.053268574 0.708
-0.053042859 0.053042859 0.70500004
-0.051700003 0.053042859 0.70500004
-0.050285719 0.052967623 0.70400006
-0.048875242 0.052892383 0.70300001
-0.047400955 0.052741908 0.70100003
-0.046065718 0.052741908 0.70100003
-0.044730481 0.052741908 0.70100003
-0.04339524 0.052741908 0.70100003
-0.042060003 0.052741908 0.70100003
-0.040724766 0.052741908 0.70100003
-0.039389525 0.052741908 0.70100003
-0.038162861 0.052892383 0.70300001
-0.036823813 0.052892383 0.70300001
-0.035484765 0.052892383 0.70300001
-0.034145717 0.052892383 0.70300001
-0.032806668 0.052892383 0.70300001
-0.03146762 0.052892383 0.70300001
-0.030128574 0.052892383 0.70300001
-0.028789526 0.052892383 0.70300001
-0.027372383 0.052741908 0.70100003
-0.026037145 0.052741908 0.70100003
-0.024701906 0.052741908 0.70100003
-0.023366667 0.052741908 0.70100003
-0.022094287 0.052892383 0.70300001
-0.020755239 0.052892383 0.70300001
-0.01944381 0.052967623 0.70400006
-0.018102858 0.052967623 0.70400006
-0.016785715 0.053042859 0.70500004
-0.015442858 0.053042859 0.70500004
-0.014100001 0.053042859 0.70500004
-0.012757144 0.053042859 0.70500004
-0.011446668 0.053193338 0.70700002
-0.010100001 0.053193338 0.70700002
-0.0087533342 0.053193338 0.70700002
-0.0074066673 0.053193338 0.70700002
-0.0060600005 0.053193338 0.70700002
-0.0047200001 0.053268574 0.708
-0.0033714287 0.053268574 0.708
-0.0020285717 0.05341905 0.71000004
-0.00067619054 0.05341905 0.71000004
0.00067619054 0.05341905 0.71000004
0.0020314287 0.05349429 0.71100003
0.0033857145 0.05349429 0.71100003
0.0047400002 0.05349429 0.71100003
0.0061114291 0.053644765 0.71300006
0.0074695242 0.053644765 0.71300006
0.0088276193 0.053644765 0.71300006
0.010185715 0.053644765 0.71300006
0.01156 0.053720005 0.71400005
0.012920001 0.053720005 0.71400005
0.014320001 0.053870481 0.71600002
0.015683811 0.053870481 0.71600002
0.01707143 0.053945716 0.71700001
0.018437143 0.053945716 0.71700001
0.019802859 0.053945716 0.71700001
0.021227621 0.054096196 0.71900004
0.022597143 0.054096196 0.71900004
0.024000002 0.054171432 0.72000003
0.02537143 0.054171432 0.72000003
0.026817145 0.054321907 0.72200006
0.028231431 0.054397147 0.72300005
0.029608574 0.054397147 0.72300005
0.03107143 0.054547623 0.72500002
0.032452382 0.054547623 0.72500002
0.033833336 0.054547623 0.72500002
0.035214286 0.054547623 0.72500002
0.03659524 0.054547623 0.72500002
0.037976194 0.054547623 0.72500002
0.039411429 0.054622862 0.72600001
0.040794287 0.054622862 0.72600001
0.042293336 0.054773338 0.72800004
0.043680001 0.054773338 0.72800004
0.045128573 0.054848574 0.72900003
0.046517145 0.054848574 0.72900003
0.048037145 0.05499905 0.73100001
0.049429528 0.05499905 0.73100001
0.050891433 0.055074289 0.73200005
0.052285716 0.055074289 0.73200005
0.053826671 0.055224765 0.73400003
0.055224765 0.055224765 0.73400003
0.056777146 0.055375241 0.73600006
0.058258098 0.05545048 0.73700005
0.059823815 0.055600956 0.73900002
0.061231434 0.055600956 0.73900002
0.062723815 0.055676196 0.74000001
0.064306669 0.055826671 0.74200004
0.065808579 0.055901907 0.74300003
0.067133337 0.055826671 0.74200004
0.068546668 0.055826671 0.74200004
0.069960006 0.055826671 0.74200004
0.071373336 0.055826671 0.74200004
0.072786674 0.055826671 0.74200004
-0.084285721 0.054617148 0.708
-0.082937151 0.054617148 0.708
-0.081588574 0.054617148 0.708
-0.080240004 0.054617148 0.708
-0.078891434 0.054617148 0.708
-0.077542864 0.054617148 0.708
-0.076409526 0.054771431 0.71000004
-0.075162865 0.054848574 0.71100003
-0.073808573 0.054848574 0.71100003
-0.072658099 0.055002861 0.71300006
-0.071300007 0.055002861 0.71300006
-0.069941908 0.055002861 0.71300006
-0.068583816 0.055002861 0.71300006
-0.066942863 0.054771431 0.71000004
-0.065682858 0.054848574 0.71100003
-0.064328574 0.054848574 0.71100003
-0.062974289 0.054848574 0.71100003
-0.061533336 0.054771431 0.71000004
-0.060180955 0.054771431 0.71000004
-0.058662862 0.054617148 0.708
-0.057314288 0.054617148 0.708
-0.055965718 0.054617148 0.708
-0.054540005 0.054540005 0.70700002
-0.053042859 0.054385718 0.70500004
-0.051700003 0.054385718 0.70500004
-0.050285719 0.054308575 0.70400006
-0.048875242 0.054231431 0.70300001
-0.047400955 0.054077145 0.70100003
-0.046065718 0.054077145 0.70100003
-0.044730481 0.054077145 0.70100003
-0.04339524 0.054077145 0.70100003
-0.042060003 0.054077145 0.70100003
-0.040724766 0.054077145 0.70100003
-0.039389525 0.054077145 0.70100003
-0.038054287 0.054077145 0.70100003
-0.03671905 0.054077145 0.70100003
-0.035383813 0.054077145 0.70100003
-0.034145717 0.054231431 0.70300001
-0.032806668 0.054231431 0.70300001
-0.03146762 0.054231431 0.70300001
-0.030128574 0.054231431 0.70300001
-0.028789526 0.054231431 0.70300001
-0.027372383 0.054077145 0.70100003
-0.026037145 0.054077145 0.70100003
-0.024701906 0.054077145 0.70100003
-0.023366667 0.054077145 0.70100003
-0.02203143 0.054077145 0.70100003
-0.020755239 0.054231431 0.70300001
-0.01944381 0.054308575 0.70400006
-0.018102858 0.054308575 0.70400006
-0.016761906 0.054308575 0.70400006
-0.015442858 0.054385718 0.70500004
-0.014100001 0.054385718 0.70500004
-0.012757144 0.054385718 0.70500004
-0.011446668 0.054540005 0.70700002
-0.010100001 0.054540005 0.70700002
-0.0087533342 0.054540005 0.70700002
-0.0074066673 0.054540005 0.70700002
-0.0060600005 0.054540005 0.70700002
-0.0047200001 0.054617148 0.708
-0.0033809526 0.054771431 0.71000004
-0.0020285717 0.054771431 0.71000004
-0.00067619054 0.054771431 0.71000004
0.00067714287 0.054848574 0.71100003
0.0020314287 0.054848574 0.71100003
0.0033857145 0.054848574 0.71100003
0.0047533335 0.055002861 0.71300006
0.0061114291 0.055002861 0.71300006
0.0074695242 0.055002861 0.71300006
0.0088276193 0.055002861 0.71300006
0.0102 0.055080004 0.71400005
0.01156 0.055080004 0.71400005
0.012956192 0.055234291 0.71600002
0.014320001 0.055234291 0.71600002
0.015683811 0.055234291 0.71600002
0.01707143 0.055311434 0.71700001
0.018437143 0.055311434 0.71700001
0.019858096 0.055465717 0.71900004
0.021227621 0.055465717 0.71900004
0.022628574 0.05554286 0.72000003
0.024000002 0.05554286 0.72000003
0.025441907 0.055697147 0.72200006
0.026817145 0.055697147 0.72200006
0.028231431 0.05577429 0.72300005
0.029608574 0.05577429 0.72300005
0.03107143 0.055928577 0.72500002
0.032452382 0.055928577 0.72500002
0.033833336 0.055928577 0.72500002
0.035214286 0.055928577 0.72500002
0.03659524 0.055928577 0.72500002
0.038028575 0.056005716 0.72600001
0.039411429 0.056005716 0.72600001
0.040906668 0.056160003 0.72800004
0.042293336 0.056160003 0.72800004
0.043680001 0.056160003 0.72800004
0.045128573 0.056237146 0.72900003
0.046644766 0.056391433 0.73100001
0.048037145 0.056391433 0.73100001
0.049497146 0.056468576 0.73200005
0.051030479 0.056622859 0.73400003
0.052428573 0.056622859 0.73400003
0.053973336 0.056777146 0.73600006
0.055375241 0.056777146 0.73600006
0.056777146 0.056777146 0.73600006
0.058416195 0.057008576 0.73900002
0.059823815 0.057008576 0.73900002
0.061314289 0.057085719 0.74000001
0.062893339 0.057240006 0.74200004
0.064393334 0.057317145 0.74300003
0.065808579 0.057317145 0.74300003
0.067223817 0.057317145 0.74300003
0.068546668 0.057240006 0.74200004
0.069960006 0.057240006 0.74200004
0.071373336 0.057240006 0.74200004
-0.085513338 0.055886671 0.70700002
-0.084285721 0.055965718 0.708
-0.082937151 0.055965718 0.708
-0.081588574 0.055965718 0.708
-0.080240004 0.055965718 0.708
-0.078891434 0.055965718 0.708
-0.077542864 0.055965718 0.708
-0.076409526 0.056123812 0.71000004
-0.075162865 0.056202862 0.71100003
-0.073808573 0.056202862 0.71100003
-0.072454289 0.056202862 0.71100003
-0.071100004 0.056202862 0.71100003
-0.069745719 0.056202862 0.71100003
-0.068391435 0.056202862 0.71100003
-0.066942863 0.056123812 0.71000004
-0.065590478 0.056123812 0.71000004
-0.064238101 0.056123812 0.71000004
-0.062885717 0.056123812 0.71000004
-0.061360005 0.055965718 0.708
-0.060011432 0.055965718 0.708
-0.058662862 0.055965718 0.708
-0.057314288 0.055965718 0.708
-0.055965718 0.055965718 0.708
-0.054540005 0.055886671 0.70700002
-0.053042859 0.055728573 0.70500004
-0.051626671 0.055649526 0.70400006
-0.050214291 0.055570479 0.70300001
-0.048875242 0.055570479 0.70300001
-0.047400955 0.055412386 0.70100003
-0.046065718 0.055412386 0.70100003
-0.044730481 0.055412386 0.70100003
-0.04339524 0.055412386 0.70100003
-0.042000003 0.055333339 0.70000005
-0.040724766 0.055412386 0.70100003
-0.039389525 0.055412386 0.70100003
-0.038054287 0.055412386 0.70100003
-0.03671905 0.055412386 0.70100003
-0.035383813 0.055412386 0.70100003
-0.034048572 0.055412386 0.70100003
-0.032806668 0.055570479 0.70300001
-0.03146762 0.055570479 0.70300001
-0.030128574 0.055570479 0.70300001
-0.028789526 0.055570479 0.70300001
-0.027372383 0.055412386 0.70100003
-0.026037145 0.055412386 0.70100003
-0.024701906 0.055412386 0.70100003
-0.023366667 0.055412386 0.70100003
-0.02203143 0.055412386 0.70100003
-0.020755239 0.055570479 0.70300001
-0.01944381 0.055649526 0.70400006
-0.018102858 0.055649526 0.70400006
-0.016761906 0.055649526 0.70400006
-0.015442858 0.055728573 0.70500004
-0.014100001 0.055728573 0.70500004
-0.012757144 0.055728573 0.70500004
-0.011446668 0.055886671 0.70700002
-0.010100001 0.055886671 0.70700002
-0.0087657152 0.055965718 0.708
-0.0074171433 0.055965718 0.708
-0.0060600005 0.055886671 0.70700002
-0.0047200001 0.055965718 0.708
-0.0033714287 0.055965718 0.708
-0.0020285717 0.056123812 0.71000004
-0.00067619054 0.056123812 0.71000004
0.00067619054 0.056123812 0.71000004
0.0020314287 0.056202862 0.71100003
0.0033857145 0.056202862 0.71100003
0.0047400002 0.056202862 0.71100003
0.0061114291 0.056360956 0.71300006
0.0074695242 0.056360956 0.71300006
0.0088276193 0.056360956 0.71300006
0.0102 0.056440003 0.71400005
0.01156 0.056440003 0.71400005
0.012956192 0.056598101 0.71600002
0.014320001 0.056598101 0.71600002
0.015705716 0.056677148 0.71700001
0.01707143 0.056677148 0.71700001
0.018437143 0.056677148 0.71700001
0.019858096 0.056835242 0.71900004
0.021227621 0.056835242 0.71900004
0.022628574 0.056914289 0.72000003
0.024000002 0.056914289 0.72000003
0.025441907 0.057072386 0.72200006
0.026817145 0.057072386 0.72200006
0.028231431 0.057151433 0.72300005
0.029608574 0.057151433 0.72300005
0.03107143 0.057309527 0.72500002
0.032452382 0.057309527 0.72500002
0.033833336 0.057309527 0.72500002
0.035214286 0.057309527 0.72500002
0.036645718 0.057388574 0.72600001
0.038028575 0.057388574 0.72600001
0.039520003 0.057546671 0.72800004
0.040906668 0.057546671 0.72800004
0.042351432 0.057625718 0.72900003
0.043740004 0.057625718 0.72900003
0.045252383 0.057783812 0.73100001
0.046644766 0.057783812 0.73100001
0.048037145 0.057783812 0.73100001
0.049632385 0.058020957 0.73400003
0.051169526 0.058179051 0.73600006
0.052571431 0.058179051 0.73600006
0.053973336 0.058179051 0.73600006
0.055375241 0.058179051 0.73600006
0.056854289 0.058258098 0.73700005
0.058416195 0.058416195 0.73900002
0.059904765 0.058495242 0.74000001
0.061480004 0.058653336 0.74200004
0.062978096 0.058732383 0.74300003
0.064393334 0.058732383 0.74300003
0.065808579 0.058732383 0.74300003
0.067223817 0.058732383 0.74300003
0.068546668 0.058653336 0.74200004
0.070054293 0.058732383 0.74300003
-0.086860009 0.057233337 0.70700002
-0.084166676 0.057233337 0.70700002
-0.082820006 0.057233337 0.70700002
-0.081473336 0.057233337 0.70700002
-0.080126673 0.057233337 0.70700002
-0.078780003 0.057233337 0.70700002
-0.07743334 0.057233337 0.70700002
-0.076194294 0.057314288 0.708
-0.074845716 0.057314288 0.708
-0.073704764 0.057476193 0.71000004
-0.072352387 0.057476193 0.71000004
-0.071000002 0.057476193 0.71000004
-0.069647625 0.057476193 0.71000004
-0.06829524 0.057476193 0.71000004
-0.066754289 0.057314288 0.708
-0.065405719 0.057314288 0.708
-0.064057149 0.057314288 0.708
-0.062708579 0.057314288 0.708
-0.061360005 0.057314288 0.708
-0.060011432 0.057314288 0.708
-0.058662862 0.057314288 0.708
-0.057314288 0.057314288 0.708
-0.055965718 0.057314288 0.708
-0.054540005 0.057233337 0.70700002
-0.053042859 0.057071432 0.70500004
-0.051626671 0.056990478 0.70400006
-0.050214291 0.056909528 0.70300001
-0.048875242 0.056909528 0.70300001
-0.047400955 0.056747623 0.70100003
-0.046065718 0.056747623 0.70100003
-0.044730481 0.056747623 0.70100003
-0.04339524 0.056747623 0.70100003
-0.042000003 0.056666672 0.70000005
-0.040724766 0.056747623 0.70100003
-0.039389525 0.056747623 0.70100003
-0.038054287 0.056747623 0.70100003
-0.03671905 0.056747623 0.70100003
-0.035383813 0.056747623 0.70100003
-0.034048572 0.056747623 0.70100003
-0.032806668 0.056909528 0.70300001
-0.03146762 0.056909528 0.70300001
-0.030128574 0.056909528 0.70300001
-0.028789526 0.056909528 0.70300001
-0.027372383 0.056747623 0.70100003
-0.026037145 0.056747623 0.70100003
-0.024701906 0.056747623 0.70100003
-0.023366667 0.056747623 0.70100003
-0.02203143 0.056747623 0.70100003
-0.020755239 0.056909528 0.70300001
-0.01944381 0.056990478 0.70400006
-0.018102858 0.056990478 0.70400006
-0.016761906 0.056990478 0.70400006
-0.015442858 0.057071432 0.70500004
-0.014100001 0.057071432 0.70500004
-0.012757144 0.057071432 0.70500004
-0.011446668 0.057233337 0.70700002
-0.010100001 0.057233337 0.70700002
-0.0087533342 0.057233337 0.70700002
-0.0074171433 0.057314288 0.708
-0.0060600005 0.057233337 0.70700002
-0.0047200001 0.057314288 0.708
-0.0033714287 0.057314288 0.708
-0.0020285717 0.057476193 0.71000004
-0.00067619054 0.057476193 0.71000004
0.00067619054 0.057476193 0.71000004
0.0020314287 0.057557147 0.71100003
0.0033857145 0.057557147 0.71100003
0.0047533335 0.057719052 0.71300006
0.0061114291 0.057719052 0.71300006
0.0074695242 0.057719052 0.71300006
0.0088400003 0.057800002 0.71400005
0.0102 0.057800002 0.71400005
0.011592382 0.057961907 0.71600002
0.012974286 0.058042862 0.71700001
0.014340001 0.058042862 0.71700001
0.015705716 0.058042862 0.71700001
0.01707143 0.058042862 0.71700001
0.018488573 0.058204766 0.71900004
0.019858096 0.058204766 0.71900004
0.021227621 0.058204766 0.71900004
0.022628574 0.058285717 0.72000003
0.024000002 0.058285717 0.72000003
0.025441907 0.058447622 0.72200006
0.026854288 0.058528576 0.72300005
0.028231431 0.058528576 0.72300005
0.029608574 0.058528576 0.72300005
0.03107143 0.058690481 0.72500002
0.032452382 0.058690481 0.72500002
0.033880003 0.058771431 0.72600001
0.03526286 0.058771431 0.72600001
0.03674667 0.058933336 0.72800004
0.038133334 0.058933336 0.72800004
0.039574288 0.059014291 0.72900003
0.04096286 0.059014291 0.72900003
0.04246762 0.059176195 0.73100001
0.043860003 0.059176195 0.73100001
0.045252383 0.059176195 0.73100001
0.046708573 0.059257146 0.73200005
0.048102859 0.059257146 0.73200005
0.049632385 0.059419051 0.73400003
0.051169526 0.059580956 0.73600006
0.052571431 0.059580956 0.73600006
0.054046672 0.05966191 0.73700005
0.05545048 0.05966191 0.73700005
0.056854289 0.05966191 0.73700005
0.058416195 0.059823815 0.73900002
0.059904765 0.059904765 0.74000001
0.061480004 0.06006667 0.74200004
0.062978096 0.060147624 0.74300003
0.064566672 0.060309529 0.74500006
0.065808579 0.060147624 0.74300003
0.067223817 0.060147624 0.74300003
0.068546668 0.06006667 0.74200004
0.069960006 0.06006667 0.74200004
-0.088206671 0.058580004 0.70700002
-0.086860009 0.058580004 0.70700002
-0.085513338 0.058580004 0.70700002
-0.084166676 0.058580004 0.70700002
-0.082820006 0.058580004 0.70700002
-0.081473336 0.058580004 0.70700002
-0.080126673 0.058580004 0.70700002
-0.078780003 0.058580004 0.70700002
-0.07743334 0.058580004 0.70700002
-0.07608667 0.058580004 0.70700002
-0.074740008 0.058580004 0.70700002
-0.073497146 0.058662862 0.708
-0.072148576 0.058662862 0.708
-0.071000002 0.058828574 0.71000004
-0.069647625 0.058828574 0.71000004
-0.06829524 0.058828574 0.71000004
-0.066754289 0.058662862 0.708
-0.065405719 0.058662862 0.708
-0.064057149 0.058662862 0.708
-0.062708579 0.058662862 0.708
-0.061360005 0.058662862 0.708
-0.060011432 0.058662862 0.708
-0.058662862 0.058662862 0.708
-0.057314288 0.058662862 0.708
-0.055886671 0.058580004 0.70700002
-0.054540005 0.058580004 0.70700002
-0.053042859 0.058414288 0.70500004
-0.051626671 0.058331434 0.70400006
-0.050214291 0.058248576 0.70300001
-0.048875242 0.058248576 0.70300001
-0.047400955 0.05808286 0.70100003
-0.046065718 0.05808286 0.70100003
-0.044730481 0.05808286 0.70100003
-0.04339524 0.05808286 0.70100003
-0.042000003 0.058000002 0.70000005
-0.04066667 0.058000002 0.70000005
-0.039333336 0.058000002 0.70000005
-0.038054287 0.05808286 0.70100003
-0.03671905 0.05808286 0.70100003
-0.035383813 0.05808286 0.70100003
-0.034048572 0.05808286 0.70100003
-0.032713335 0.05808286 0.70100003
-0.031378098 0.05808286 0.70100003
-0.030128574 0.058248576 0.70300001
-0.028789526 0.058248576 0.70300001
-0.027372383 0.05808286 0.70100003
-0.026037145 0.05808286 0.70100003
-0.024701906 0.05808286 0.70100003
-0.023366667 0.05808286 0.70100003
-0.02203143 0.05808286 0.70100003
-0.020755239 0.058248576 0.70300001
-0.01944381 0.058331434 0.70400006
-0.018102858 0.058331434 0.70400006
-0.016761906 0.058331434 0.70400006
-0.015442858 0.058414288 0.70500004
-0.014100001 0.058414288 0.70500004
-0.012757144 0.058414288 0.70500004
-0.011446668 0.058580004 0.70700002
-0.010100001 0.058580004 0.70700002
-0.0087533342 0.058580004 0.70700002
-0.0074171433 0.058662862 0.708
-0.0060600005 0.058580004 0.70700002
-0.0047200001 0.058662862 0.708
-0.0033714287 0.058662862 0.708
-0.0020285717 0.058828574 0.71000004
-0.00067619054 0.058828574 0.71000004
0.00067619054 0.058828574 0.71000004
0.0020314287 0.058911432 0.71100003
0.0033857145 0.058911432 0.71100003
0.0047533335 0.059077147 0.71300006
0.0061114291 0.059077147 0.71300006
0.0074800006 0.059160005 0.71400005
0.0088400003 0.059160005 0.71400005
0.010228572 0.059325717 0.71600002
0.011592382 0.059325717 0.71600002
0.012974286 0.059408575 0.71700001
0.014340001 0.059408575 0.71700001
0.015705716 0.059408575 0.71700001
0.017119048 0.059574291 0.71900004
0.018488573 0.059574291 0.71900004
0.019858096 0.059574291 0.71900004
0.021257143 0.059657145 0.72000003
0.022628574 0.059657145 0.72000003
0.024066668 0.059822861 0.72200006
0.025441907 0.059822861 0.72200006
0.026854288 0.059905719 0.72300005
0.028231431 0.059905719 0.72300005
0.029690478 0.060071431 0.72500002
0.03107143 0.060071431 0.72500002
0.032497145 0.060154289 0.72600001
0.033973336 0.060320005 0.72800004
0.035360001 0.060320005 0.72800004
0.036797144 0.060402863 0.72900003
0.038185716 0.060402863 0.72900003
0.039574288 0.060402863 0.72900003
0.041075241 0.060568575 0.73100001
0.04246762 0.060568575 0.73100001
0.043860003 0.060568575 0.73100001
0.04531429 0.060651433 0.73200005
0.046708573 0.060651433 0.73200005
0.048234288 0.060817149 0.73400003
0.049767621 0.060982861 0.73600006
0.051169526 0.060982861 0.73600006
0.05264286 0.061065719 0.73700005
0.054046672 0.061065719 0.73700005
0.055600956 0.061231434 0.73900002
0.057008576 0.061231434 0.73900002
0.058495242 0.061314289 0.74000001
0.06006667 0.061480004 0.74200004
0.061562862 0.061562862 0.74300003
0.063147627 0.061728574 0.74500006
0.064740002 0.06189429 0.74700004
0.066162862 0.06189429 0.74700004
0.067223817 0.061562862 0.74300003
0.068546668 0.061480004 0.74200004
0.069960006 0.061480004 0.74200004
0.071180955 0.061314289 0.74000001
-0.089300007 0.059757147 0.70500004
-0.088206671 0.05992667 0.70700002
-0.086860009 0.05992667 0.70700002
-0.085271433 0.059757147 0.70500004
-0.083928578 0.059757147 0.70500004
-0.082585722 0.059757147 0.70500004
-0.081242859 0.059757147 0.70500004
-0.079900004 0.059757147 0.70500004
-0.078557149 0.059757147 0.70500004
-0.077214293 0.059757147 0.70500004
-0.07587143 0.059757147 0.70500004
-0.074740008 0.05992667 0.70700002
-0.073393337 0.05992667 0.70700002
-0.072046675 0.05992667 0.70700002
-0.070800006 0.060011432 0.708
-0.069451436 0.060011432 0.708
-0.068102859 0.060011432 0.708
-0.066754289 0.060011432 0.708
-0.065405719 0.060011432 0.708
-0.064057149 0.060011432 0.708
-0.062708579 0.060011432 0.708
-0.061360005 0.060011432 0.708
-0.060011432 0.060011432 0.708
-0.058662862 0.060011432 0.708
-0.057314288 0.060011432 0.708
-0.055886671 0.05992667 0.70700002
-0.054540005 0.05992667 0.70700002
-0.053042859 0.059757147 0.70500004
-0.051626671 0.059672385 0.70400006
-0.050214291 0.059587624 0.70300001
-0.048875242 0.059587624 0.70300001
-0.047400955 0.059418101 0.70100003
-0.046065718 0.059418101 0.70100003
-0.044730481 0.059418101 0.70100003
-0.04339524 0.059418101 0.70100003
-0.042000003 0.059333336 0.70000005
-0.04066667 0.059333336 0.70000005
-0.039333336 0.059333336 0.70000005
-0.038054287 0.059418101 0.70100003
-0.03671905 0.059418101 0.70100003
-0.035383813 0.059418101 0.70100003
-0.034048572 0.059418101 0.70100003
-0.032713335 0.059418101 0.70100003
-0.031378098 0.059418101 0.70100003
-0.030042859 0.059418101 0.70100003
-0.028789526 0.059587624 0.70300001
-0.027372383 0.059418101 0.70100003
-0.026037145 0.059418101 0.70100003
-0.024701906 0.059418101 0.70100003
-0.023366667 0.059418101 0.70100003
-0.022094287 0.059587624 0.70300001
-0.020755239 0.059587624 0.70300001
-0.01944381 0.059672385 0.70400006
-0.018128572 0.059757147 0.70500004
-0.016785715 0.059757147 0.70500004
-0.015442858 0.059757147 0.70500004
-0.014100001 0.059757147 0.70500004
-0.012757144 0.059757147 0.70500004
-0.011446668 0.05992667 0.70700002
-0.010100001 0.05992667 0.70700002
-0.0087657152 0.060011432 0.708
-0.0074171433 0.060011432 0.708
-0.0060685719 0.060011432 0.708
-0.0047333338 0.060180955 0.71000004
-0.0033809526 0.060180955 0.71000004
-0.0020314287 0.06026572 0.71100003
-0.00067714287 0.06026572 0.71100003
0.00067714287 0.06026572 0.71100003
0.0020314287 0.06026572 0.71100003
0.0033952384 0.060435243 0.71300006
0.0047533335 0.060435243 0.71300006
0.0061114291 0.060435243 0.71300006
0.0074800006 0.060520004 0.71400005
0.0088400003 0.060520004 0.71400005
0.010228572 0.060689528 0.71600002
0.011608572 0.060774289 0.71700001
0.012974286 0.060774289 0.71700001
0.014340001 0.060774289 0.71700001
0.015749525 0.060943812 0.71900004
0.017119048 0.060943812 0.71900004
0.018488573 0.060943812 0.71900004
0.019885715 0.061028574 0.72000003
0.021257143 0.061028574 0.72000003
0.022691431 0.0611981 0.72200006
