# .PCD v0.7 - Point Cloud Data file format
VERSION 0.7
FIELDS x y z rgb
SIZE 4 4 4 4
TYPE F F F U
COUNT 1 1 1 1
WIDTH 1031
HEIGHT 1
VIEWPOINT 0 0 0 1 0 0 0
POINTS 1031
DATA ascii
0.0032380954 0.070590481 0.68000001 4294967295
0.0045266668 0.070486672 0.67900002 4294967295
0.005828572 0.070590481 0.68000001 4294967295
0.0071133338 0.070486672 0.67900002 4294967295
0.008406667 0.070486672 0.67900002 4294967295
0.0097000003 0.070486672 0.67900002 4294967295
0.010993334 0.070486672 0.67900002 4294967295
0.012286668 0.070486672 0.67900002 4294967295
0.013580001 0.070486672 0.67900002 4294967295
0.014895239 0.070590481 0.68000001 4294967295
0.016190477 0.070590481 0.68000001 4294967295
0.017537143 0.070798099 0.68200004 4294967295
0.018836191 0.070798099 0.68200004 4294967295
0.020164764 0.070901908 0.68300003 4294967295
0.021497143 0.071005717 0.68400002 4294967295
0.022800002 0.071005717 0.68400002 4294967295
0.024102859 0.071005717 0.68400002 4294967295
0.025480002 0.071213335 0.68600005 4294967295
0.026825717 0.071317151 0.68700004 4294967295
0.028216192 0.071524769 0.68900001 4294967295
0.029571431 0.071628578 0.69000006 4294967295
0.030930478 0.071732387 0.69100004 4294967295
0.032340001 0.071940005 0.69300002 4294967295
0.033708572 0.072043814 0.69400001 4294967295
0.035080954 0.072147623 0.69500005 4294967295
0.036404766 0.072147623 0.69500005 4294967295
0.037728574 0.072147623 0.69500005 4294967295
0.17896667 0.079621911 0.76700002 4294967295
-0.028994288 0.074845716 0.708 4294967295
-0.027645716 0.074845716 0.708 4294967295
-0.026185716 0.074528575 0.70500004 4294967295
-0.024842858 0.074528575 0.70500004 4294967295
-0.023433335 0.07431715 0.70300001 4294967295
-0.02203143 0.074105717 0.70100003 4294967295
-0.020666668 0.074000008 0.70000005 4294967295
-0.019278096 0.073788576 0.69800001 4294967295
-0.017922858 0.07368286 0.69700003 4294967295
-0.01654762 0.073471434 0.69500005 4294967295
-0.015201906 0.073365718 0.69400001 4294967295
-0.013860001 0.073260002 0.69300002 4294967295
-0.01250381 0.073048577 0.69100004 4294967295
-0.01118762 0.073048577 0.69100004 4294967295
-0.0098428577 0.072837144 0.68900001 4294967295
-0.0085057151 0.072625719 0.68700004 4294967295
-0.0071657146 0.072308578 0.68400002 4294967295
-0.0058628577 0.072308578 0.68400002 4294967295
-0.0045600003 0.072308578 0.68400002 4294967295
-0.0032571431 0.072308578 0.68400002 4294967295
-0.0019514287 0.072202861 0.68300003 4294967295
-0.00065047626 0.072202861 0.68300003 4294967295
0.00065047626 0.072202861 0.68300003 4294967295
0.0019485715 0.072097145 0.68200004 4294967295
0.0032476194 0.072097145 0.68200004 4294967295
0.0045333337 0.07188572 0.68000001 4294967295
0.005828572 0.07188572 0.68000001 4294967295
0.0071238098 0.07188572 0.68000001 4294967295
0.008419048 0.07188572 0.68000001 4294967295
0.0097142868 0.07188572 0.68000001 4294967295
0.011009525 0.07188572 0.68000001 4294967295
0.012286668 0.071780004 0.67900002 4294967295
0.013600001 0.07188572 0.68000001 4294967295
0.014895239 0.07188572 0.68000001 4294967295
0.016238097 0.072097145 0.68200004 4294967295
0.017537143 0.072097145 0.68200004 4294967295
0.018836191 0.072097145 0.68200004 4294967295
0.020194286 0.072308578 0.68400002 4294967295
0.021497143 0.072308578 0.68400002 4294967295
0.022866668 0.072520003 0.68600005 4294967295
0.024173334 0.072520003 0.68600005 4294967295
0.025517145 0.072625719 0.68700004 4294967295
0.026903812 0.072837144 0.68900001 4294967295
0.028216192 0.072837144 0.68900001 4294967295
0.029571431 0.07294286 0.69000006 4294967295
0.030930478 0.073048577 0.69100004 4294967295
0.032340001 0.073260002 0.69300002 4294967295
0.033708572 0.073365718 0.69400001 4294967295
0.035080954 0.073471434 0.69500005 4294967295
0.036509525 0.07368286 0.69700003 4294967295
0.037837144 0.07368286 0.69700003 4294967295
-0.026185716 0.07587143 0.70500004 4294967295
-0.024842858 0.07587143 0.70500004 4294967295
-0.023466669 0.075763814 0.70400006 4294967295
-0.02203143 0.075440958 0.70100003 4294967295
-0.020666668 0.075333342 0.70000005 4294967295
-0.019333335 0.075333342 0.70000005 4294967295
-0.017948573 0.075118102 0.69800001 4294967295
-0.01654762 0.074795246 0.69500005 4294967295
-0.01522381 0.074795246 0.69500005 4294967295
-0.01388 0.074687622 0.69400001 4294967295
-0.01254 0.074580006 0.69300002 4294967295
-0.011220001 0.074580006 0.69300002 4294967295
-0.0098571433 0.07425715 0.69000006 4294967295
-0.0085057151 0.073934294 0.68700004 4294967295
-0.0071866671 0.073826671 0.68600005 4294967295
-0.0058628577 0.073611431 0.68400002 4294967295
-0.0045600003 0.073611431 0.68400002 4294967295
-0.0032571431 0.073611431 0.68400002 4294967295
-0.0019542859 0.073611431 0.68400002 4294967295
-0.00065047626 0.073503815 0.68300003 4294967295
0.00065047626 0.073503815 0.68300003 4294967295
0.0019514287 0.073503815 0.68300003 4294967295
0.0032476194 0.073396198 0.68200004 4294967295
0.004546667 0.073396198 0.68200004 4294967295
0.0058457148 0.073396198 0.68200004 4294967295
0.0071447622 0.073396198 0.68200004 4294967295
0.00844381 0.073396198 0.68200004 4294967295
0.0097428579 0.073396198 0.68200004 4294967295
0.011041906 0.073396198 0.68200004 4294967295
0.012304762 0.073180959 0.68000001 4294967295
0.01364 0.073396198 0.68200004 4294967295
0.014939048 0.073396198 0.68200004 4294967295
0.016261905 0.073503815 0.68300003 4294967295
0.017562859 0.073503815 0.68300003 4294967295
0.01886381 0.073503815 0.68300003 4294967295
0.020194286 0.073611431 0.68400002 4294967295
0.021560002 0.073826671 0.68600005 4294967295
0.022866668 0.073826671 0.68600005 4294967295
0.024208574 0.073934294 0.68700004 4294967295
0.025591429 0.074149527 0.68900001 4294967295
0.026903812 0.074149527 0.68900001 4294967295
0.028257145 0.07425715 0.69000006 4294967295
0.029614288 0.074364766 0.69100004 4294967295
0.031020002 0.074580006 0.69300002 4294967295
0.032386668 0.074687622 0.69400001 4294967295
0.033708572 0.074687622 0.69400001 4294967295
0.035080954 0.074795246 0.69500005 4294967295
0.036509525 0.075010478 0.69700003 4294967295
0.037837144 0.075010478 0.69700003 4294967295
-0.026185716 0.077214293 0.70500004 4294967295
-0.024842858 0.077214293 0.70500004 4294967295
-0.023466669 0.07710477 0.70400006 4294967295
-0.022094287 0.076995246 0.70300001 4294967295
-0.020696191 0.076776199 0.70100003 4294967295
-0.019360954 0.076776199 0.70100003 4294967295
-0.018000001 0.076666668 0.70000005 4294967295
-0.016619049 0.076447621 0.69800001 4294967295
-0.01522381 0.07611905 0.69500005 4294967295
-0.01388 0.076009527 0.69400001 4294967295
-0.012558096 0.076009527 0.69400001 4294967295
-0.011220001 0.075900003 0.69300002 4294967295
-0.0098571433 0.075571433 0.69000006 4294967295
-0.0085304771 0.075461909 0.68900001 4294967295
-0.0071971435 0.075242862 0.68700004 4294967295
-0.0058800005 0.075133339 0.68600005 4294967295
-0.0045733335 0.075133339 0.68600005 4294967295
-0.0032666668 0.075133339 0.68600005 4294967295
-0.0019542859 0.074914292 0.68400002 4294967295
-0.00065142859 0.074914292 0.68400002 4294967295
0.00065142859 0.074914292 0.68400002 4294967295
0.0019542859 0.074914292 0.68400002 4294967295
0.0032523812 0.074804768 0.68300003 4294967295
0.0045533339 0.074804768 0.68300003 4294967295
0.0058542863 0.074804768 0.68300003 4294967295
0.0071552387 0.074804768 0.68300003 4294967295
0.008456191 0.074804768 0.68300003 4294967295
0.0097571434 0.074804768 0.68300003 4294967295
0.011058096 0.074804768 0.68300003 4294967295
0.012359048 0.074804768 0.68300003 4294967295
0.013660001 0.074804768 0.68300003 4294967295
0.014982858 0.074914292 0.68400002 4294967295
0.016285716 0.074914292 0.68400002 4294967295
0.017588573 0.074914292 0.68400002 4294967295
0.01889143 0.074914292 0.68400002 4294967295
0.020253334 0.075133339 0.68600005 4294967295
0.021591431 0.075242862 0.68700004 4294967295
0.022966668 0.075461909 0.68900001 4294967295
0.024279049 0.075461909 0.68900001 4294967295
0.025628572 0.075571433 0.69000006 4294967295
0.026942858 0.075571433 0.69000006 4294967295
0.028298097 0.075680956 0.69100004 4294967295
0.029614288 0.075680956 0.69100004 4294967295
0.031020002 0.075900003 0.69300002 4294967295
0.032433335 0.07611905 0.69500005 4294967295
0.033757146 0.07611905 0.69500005 4294967295
0.035181906 0.076338097 0.69700003 4294967295
0.036509525 0.076338097 0.69700003 4294967295
-0.026148573 0.078445718 0.70400006 4294967295
-0.024807621 0.078445718 0.70400006 4294967295
-0.023466669 0.078445718 0.70400006 4294967295
-0.022094287 0.078334294 0.70300001 4294967295
-0.020696191 0.078111432 0.70100003 4294967295
-0.019360954 0.078111432 0.70100003 4294967295
-0.018000001 0.078000002 0.70000005 4294967295
-0.016619049 0.077777147 0.69800001 4294967295
-0.01522381 0.077442862 0.69500005 4294967295
-0.01388 0.077331431 0.69400001 4294967295
-0.012558096 0.077331431 0.69400001 4294967295
-0.011220001 0.077220008 0.69300002 4294967295
-0.0098714288 0.076997146 0.69100004 4294967295
-0.0085428581 0.076885723 0.69000006 4294967295
-0.0072180959 0.076774292 0.68900001 4294967295
-0.005888572 0.07655143 0.68700004 4294967295
-0.0045800004 0.07655143 0.68700004 4294967295
-0.0032666668 0.076440006 0.68600005 4294967295
-0.00196 0.076440006 0.68600005 4294967295
-0.00065333338 0.076440006 0.68600005 4294967295
0.00065142859 0.076217145 0.68400002 4294967295
0.0019542859 0.076217145 0.68400002 4294967295
0.0032571431 0.076217145 0.68400002 4294967295
0.0045533339 0.076105721 0.68300003 4294967295
0.0058542863 0.076105721 0.68300003 4294967295
0.0071552387 0.076105721 0.68300003 4294967295
0.008456191 0.076105721 0.68300003 4294967295
0.0097571434 0.076105721 0.68300003 4294967295
0.011058096 0.076105721 0.68300003 4294967295
0.012377144 0.076217145 0.68400002 4294967295
0.013680001 0.076217145 0.68400002 4294967295
0.014982858 0.076217145 0.68400002 4294967295
0.016285716 0.076217145 0.68400002 4294967295
0.017640002 0.076440006 0.68600005 4294967295
0.018946668 0.076440006 0.68600005 4294967295
0.020253334 0.076440006 0.68600005 4294967295
0.021591431 0.07655143 0.68700004 4294967295
0.022966668 0.076774292 0.68900001 4294967295
0.024314288 0.076885723 0.69000006 4294967295
0.025665715 0.076997146 0.69100004 4294967295
0.026981907 0.076997146 0.69100004 4294967295
0.028380001 0.077220008 0.69300002 4294967295
0.029700002 0.077220008 0.69300002 4294967295
0.031064764 0.077331431 0.69400001 4294967295
0.032433335 0.077442862 0.69500005 4294967295
0.033757146 0.077442862 0.69500005 4294967295
0.035181906 0.077665716 0.69700003 4294967295
0.036509525 0.077665716 0.69700003 4294967295
-0.024807621 0.079786673 0.70400006 4294967295
-0.023466669 0.079786673 0.70400006 4294967295
-0.022125715 0.079786673 0.70400006 4294967295
-0.020755239 0.079673335 0.70300001 4294967295
-0.019360954 0.079446673 0.70100003 4294967295
-0.018000001 0.079333335 0.70000005 4294967295
-0.016619049 0.079106674 0.69800001 4294967295
-0.01522381 0.078766674 0.69500005 4294967295
-0.01388 0.078653336 0.69400001 4294967295
-0.012558096 0.078653336 0.69400001 4294967295
-0.011220001 0.078540005 0.69300002 4294967295
-0.0098714288 0.078313336 0.69100004 4294967295
-0.0085428581 0.078200005 0.69000006 4294967295
-0.0072180959 0.078086674 0.68900001 4294967295
-0.0059057148 0.078086674 0.68900001 4294967295
-0.0045800004 0.077860005 0.68700004 4294967295
-0.0032714289 0.077860005 0.68700004 4294967295
-0.0019628573 0.077860005 0.68700004 4294967295
-0.00065333338 0.077746674 0.68600005 4294967295
0.00065333338 0.077746674 0.68600005 4294967295
0.00196 0.077746674 0.68600005 4294967295
0.0032571431 0.077520005 0.68400002 4294967295
0.0045600003 0.077520005 0.68400002 4294967295
0.0058628577 0.077520005 0.68400002 4294967295
0.0071657146 0.077520005 0.68400002 4294967295
0.0084685721 0.077520005 0.68400002 4294967295
0.009771429 0.077520005 0.68400002 4294967295
0.011074287 0.077520005 0.68400002 4294967295
0.012413334 0.077746674 0.68600005 4294967295
0.013720001 0.077746674 0.68600005 4294967295
0.015026668 0.077746674 0.68600005 4294967295
0.016333334 0.077746674 0.68600005 4294967295
0.017640002 0.077746674 0.68600005 4294967295
0.018974287 0.077860005 0.68700004 4294967295
0.020282859 0.077860005 0.68700004 4294967295
0.021654287 0.078086674 0.68900001 4294967295
0.023000002 0.078200005 0.69000006 4294967295
0.024314288 0.078200005 0.69000006 4294967295
0.025665715 0.078313336 0.69100004 4294967295
0.026981907 0.078313336 0.69100004 4294967295
0.028380001 0.078540005 0.69300002 4294967295
0.029742859 0.078653336 0.69400001 4294967295
0.031064764 0.078653336 0.69400001 4294967295
0.032433335 0.078766674 0.69500005 4294967295
0.033757146 0.078766674 0.69500005 4294967295
0.035181906 0.078993335 0.69700003 4294967295
-0.024807621 0.081127621 0.70400006 4294967295
-0.023466669 0.081127621 0.70400006 4294967295
-0.022125715 0.081127621 0.70400006 4294967295
-0.020784764 0.081127621 0.70400006 4294967295
-0.019416193 0.081012383 0.70300001 4294967295
-0.018025715 0.080781907 0.70100003 4294967295
-0.016666668 0.080666669 0.70000005 4294967295
-0.01526762 0.080320954 0.69700003 4294967295
-0.013900001 0.080090478 0.69500005 4294967295
-0.012558096 0.07997524 0.69400001 4294967295
-0.011220001 0.079860002 0.69300002 4294967295
-0.0098714288 0.079629526 0.69100004 4294967295
-0.0085428581 0.079514287 0.69000006 4294967295
-0.0072285719 0.079514287 0.69000006 4294967295
-0.0059057148 0.079399049 0.68900001 4294967295
-0.0045933337 0.079399049 0.68900001 4294967295
-0.0032809526 0.079399049 0.68900001 4294967295
-0.0019628573 0.079168573 0.68700004 4294967295
-0.00065428577 0.079168573 0.68700004 4294967295
0.00065333338 0.079053335 0.68600005 4294967295
0.00196 0.079053335 0.68600005 4294967295
0.0032571431 0.078822859 0.68400002 4294967295
0.0045600003 0.078822859 0.68400002 4294967295
0.0058628577 0.078822859 0.68400002 4294967295
0.0071657146 0.078822859 0.68400002 4294967295
0.0084685721 0.078822859 0.68400002 4294967295
0.009771429 0.078822859 0.68400002 4294967295
0.011106667 0.079053335 0.68600005 4294967295
0.012413334 0.079053335 0.68600005 4294967295
0.013740001 0.079168573 0.68700004 4294967295
0.015048573 0.079168573 0.68700004 4294967295
0.016357144 0.079168573 0.68700004 4294967295
0.017665716 0.079168573 0.68700004 4294967295
0.018974287 0.079168573 0.68700004 4294967295
0.020341907 0.079399049 0.68900001 4294967295
0.021654287 0.079399049 0.68900001 4294967295
0.023000002 0.079514287 0.69000006 4294967295
0.024349526 0.079629526 0.69100004 4294967295
0.025665715 0.079629526 0.69100004 4294967295
0.027060002 0.079860002 0.69300002 4294967295
0.028380001 0.079860002 0.69300002 4294967295
0.029742859 0.07997524 0.69400001 4294967295
0.031064764 0.07997524 0.69400001 4294967295
0.032433335 0.080090478 0.69500005 4294967295
0.033757146 0.080090478 0.69500005 4294967295
0.035181906 0.080320954 0.69700003 4294967295
-0.024842858 0.082585722 0.70500004 4294967295
-0.023500001 0.082585722 0.70500004 4294967295
-0.022157144 0.082585722 0.70500004 4294967295
-0.020784764 0.082468577 0.70400006 4294967295
-0.01944381 0.082468577 0.70400006 4294967295
-0.018077144 0.082351431 0.70300001 4294967295
-0.016690478 0.082117148 0.70100003 4294967295
-0.015289525 0.081765719 0.69800001 4294967295
-0.013900001 0.08141429 0.69500005 4294967295
-0.012558096 0.081297152 0.69400001 4294967295
-0.011220001 0.081180006 0.69300002 4294967295
-0.0098714288 0.080945723 0.69100004 4294967295
-0.0085428581 0.080828577 0.69000006 4294967295
-0.0072285719 0.080828577 0.69000006 4294967295
-0.0059057148 0.080711432 0.68900001 4294967295
-0.0045933337 0.080711432 0.68900001 4294967295
-0.0032809526 0.080711432 0.68900001 4294967295
-0.0019685715 0.080711432 0.68900001 4294967295
-0.0006561905 0.080711432 0.68900001 4294967295
0.00065428577 0.080477148 0.68700004 4294967295
0.0019628573 0.080477148 0.68700004 4294967295
0.0032666668 0.080360003 0.68600005 4294967295
0.0045733335 0.080360003 0.68600005 4294967295
0.0058800005 0.080360003 0.68600005 4294967295
0.0071866671 0.080360003 0.68600005 4294967295
0.0084933341 0.080360003 0.68600005 4294967295
0.009800001 0.080360003 0.68600005 4294967295
0.011106667 0.080360003 0.68600005 4294967295
0.01243143 0.080477148 0.68700004 4294967295
0.013740001 0.080477148 0.68700004 4294967295
0.015048573 0.080477148 0.68700004 4294967295
0.016404763 0.080711432 0.68900001 4294967295
0.017717144 0.080711432 0.68900001 4294967295
0.019029524 0.080711432 0.68900001 4294967295
0.020341907 0.080711432 0.68900001 4294967295
0.021654287 0.080711432 0.68900001 4294967295
0.023000002 0.080828577 0.69000006 4294967295
0.024349526 0.080945723 0.69100004 4294967295
0.025665715 0.080945723 0.69100004 4294967295
0.027060002 0.081180006 0.69300002 4294967295
0.028420955 0.081297152 0.69400001 4294967295
0.029742859 0.081297152 0.69400001 4294967295
0.031109527 0.08141429 0.69500005 4294967295
0.032526668 0.081648573 0.69700003 4294967295
0.033854287 0.081648573 0.69700003 4294967295
0.035383813 0.082117148 0.70100003 4294967295
0.036823813 0.082351431 0.70300001 4294967295
0.041073337 0.082820006 0.70700002 4294967295
0.042420004 0.082820006 0.70700002 4294967295
-0.023500001 0.083928578 0.70500004 4294967295
-0.022157144 0.083928578 0.70500004 4294967295
-0.020814287 0.083928578 0.70500004 4294967295
-0.019471429 0.083928578 0.70500004 4294967295
-0.018102858 0.083809532 0.70400006 4294967295
-0.016690478 0.083452389 0.70100003 4294967295
-0.015289525 0.083095245 0.69800001 4294967295
-0.013900001 0.082738101 0.69500005 4294967295
-0.012576192 0.082738101 0.69500005 4294967295
-0.011220001 0.082500003 0.69300002 4294967295
-0.0098714288 0.082261913 0.69100004 4294967295
-0.0085428581 0.08214286 0.69000006 4294967295
-0.0072285719 0.08214286 0.69000006 4294967295
-0.0059142862 0.08214286 0.69000006 4294967295
-0.0046000001 0.08214286 0.69000006 4294967295
-0.0032809526 0.082023814 0.68900001 4294967295
-0.0019685715 0.082023814 0.68900001 4294967295
-0.0006561905 0.082023814 0.68900001 4294967295
0.0006561905 0.082023814 0.68900001 4294967295
0.0019628573 0.081785716 0.68700004 4294967295
0.0032714289 0.081785716 0.68700004 4294967295
0.0045800004 0.081785716 0.68700004 4294967295
0.005888572 0.081785716 0.68700004 4294967295
0.0071971435 0.081785716 0.68700004 4294967295
0.0084933341 0.081666671 0.68600005 4294967295
0.009800001 0.081666671 0.68600005 4294967295
0.011122858 0.081785716 0.68700004 4294967295
0.01243143 0.081785716 0.68700004 4294967295
0.013740001 0.081785716 0.68700004 4294967295
0.015092382 0.082023814 0.68900001 4294967295
0.016404763 0.082023814 0.68900001 4294967295
0.017717144 0.082023814 0.68900001 4294967295
0.019029524 0.082023814 0.68900001 4294967295
0.02037143 0.08214286 0.69000006 4294967295
0.021685716 0.08214286 0.69000006 4294967295
0.023033334 0.082261913 0.69100004 4294967295
0.024420002 0.082500003 0.69300002 4294967295
0.025740001 0.082500003 0.69300002 4294967295
0.027060002 0.082500003 0.69300002 4294967295
0.028420955 0.082619056 0.69400001 4294967295
0.029742859 0.082619056 0.69400001 4294967295
0.031109527 0.082738101 0.69500005 4294967295
0.032526668 0.082976192 0.69700003 4294967295
0.034000002 0.083333336 0.70000005 4294967295
0.035484765 0.083690479 0.70300001 4294967295
0.036823813 0.083690479 0.70300001 4294967295
0.038271431 0.083928578 0.70500004 4294967295
0.039726671 0.084166676 0.70700002 4294967295
0.041073337 0.084166676 0.70700002 4294967295
0.042420004 0.084166676 0.70700002 4294967295
-0.022220001 0.085513338 0.70700002 4294967295
-0.020814287 0.085271433 0.70500004 4294967295
-0.019471429 0.085271433 0.70500004 4294967295
-0.018128572 0.085271433 0.70500004 4294967295
-0.016761906 0.08515048 0.70400006 4294967295
-0.015333334 0.084666669 0.70000005 4294967295
-0.013940001 0.084303819 0.69700003 4294967295
-0.012576192 0.084061913 0.69500005 4294967295
-0.011236191 0.08394096 0.69400001 4294967295
-0.0099000009 0.083820008 0.69300002 4294967295
-0.0085552391 0.083578102 0.69100004 4294967295
-0.0072390479 0.083578102 0.69100004 4294967295
-0.0059142862 0.08345715 0.69000006 4294967295
-0.0046000001 0.08345715 0.69000006 4294967295
-0.0032809526 0.083336197 0.68900001 4294967295
-0.0019685715 0.083336197 0.68900001 4294967295
-0.0006561905 0.083336197 0.68900001 4294967295
0.0006561905 0.083336197 0.68900001 4294967295
0.0019685715 0.083336197 0.68900001 4294967295
0.0032714289 0.083094291 0.68700004 4294967295
0.0045800004 0.083094291 0.68700004 4294967295
0.005888572 0.083094291 0.68700004 4294967295
0.0071971435 0.083094291 0.68700004 4294967295
0.0085057151 0.083094291 0.68700004 4294967295
0.0098142866 0.083094291 0.68700004 4294967295
0.011122858 0.083094291 0.68700004 4294967295
0.01243143 0.083094291 0.68700004 4294967295
0.013780001 0.083336197 0.68900001 4294967295
0.015092382 0.083336197 0.68900001 4294967295
0.016404763 0.083336197 0.68900001 4294967295
0.017717144 0.083336197 0.68900001 4294967295
0.019057143 0.08345715 0.69000006 4294967295
0.02037143 0.08345715 0.69000006 4294967295
0.021685716 0.08345715 0.69000006 4294967295
0.023033334 0.083578102 0.69100004 4294967295
0.024420002 0.083820008 0.69300002 4294967295
0.025740001 0.083820008 0.69300002 4294967295
0.027099049 0.08394096 0.69400001 4294967295
0.028420955 0.08394096 0.69400001 4294967295
0.029785717 0.084061913 0.69500005 4294967295
0.031109527 0.084061913 0.69500005 4294967295
0.032526668 0.084303819 0.69700003 4294967295
0.034000002 0.084666669 0.70000005 4294967295
0.035484765 0.085029528 0.70300001 4294967295
0.036823813 0.085029528 0.70300001 4294967295
0.038271431 0.085271433 0.70500004 4294967295
0.039726671 0.085513338 0.70700002 4294967295
0.041131433 0.085634291 0.708 4294967295
-0.022220001 0.086860009 0.70700002 4294967295
-0.020873334 0.086860009 0.70700002 4294967295
-0.019526668 0.086860009 0.70700002 4294967295
-0.018128572 0.086614288 0.70500004 4294967295
-0.016761906 0.086491436 0.70400006 4294967295
-0.015333334 0.086000003 0.70000005 4294967295
-0.013940001 0.085631438 0.69700003 4294967295
-0.012576192 0.085385717 0.69500005 4294967295
-0.011236191 0.085262865 0.69400001 4294967295
-0.0099142864 0.085262865 0.69400001 4294967295
-0.0085800001 0.085140005 0.69300002 4294967295
-0.0072390479 0.084894292 0.69100004 4294967295
-0.0059228577 0.084894292 0.69100004 4294967295
-0.0046000001 0.084771432 0.69000006 4294967295
-0.0032857144 0.084771432 0.69000006 4294967295
-0.0019714287 0.084771432 0.69000006 4294967295
-0.0006561905 0.084648579 0.68900001 4294967295
0.0006561905 0.084648579 0.68900001 4294967295
0.0019685715 0.084648579 0.68900001 4294967295
0.0032809526 0.084648579 0.68900001 4294967295
0.0045933337 0.084648579 0.68900001 4294967295
0.0059057148 0.084648579 0.68900001 4294967295
0.0072180959 0.084648579 0.68900001 4294967295
0.0085057151 0.084402859 0.68700004 4294967295
0.0098142866 0.084402859 0.68700004 4294967295
0.011122858 0.084402859 0.68700004 4294967295
0.01246762 0.084648579 0.68900001 4294967295
0.013780001 0.084648579 0.68900001 4294967295
0.015092382 0.084648579 0.68900001 4294967295
0.016404763 0.084648579 0.68900001 4294967295
0.017742859 0.084771432 0.69000006 4294967295
0.019057143 0.084771432 0.69000006 4294967295
0.020400954 0.084894292 0.69100004 4294967295
0.021717144 0.084894292 0.69100004 4294967295
0.023033334 0.084894292 0.69100004 4294967295
0.024420002 0.085140005 0.69300002 4294967295
0.025777144 0.085262865 0.69400001 4294967295
0.027099049 0.085262865 0.69400001 4294967295
0.028420955 0.085262865 0.69400001 4294967295
0.029785717 0.085385717 0.69500005 4294967295
0.031109527 0.085385717 0.69500005 4294967295
0.032666668 0.086000003 0.70000005 4294967295
0.034048572 0.086122863 0.70100003 4294967295
0.035484765 0.086368576 0.70300001 4294967295
0.036823813 0.086368576 0.70300001 4294967295
0.038271431 0.086614288 0.70500004 4294967295
0.039782859 0.086982861 0.708 4294967295
-0.022220001 0.088206671 0.70700002 4294967295
-0.020873334 0.088206671 0.70700002 4294967295
-0.019526668 0.088206671 0.70700002 4294967295
-0.018128572 0.087957151 0.70500004 4294967295
-0.016761906 0.087832384 0.70400006 4294967295
-0.015420954 0.087832384 0.70400006 4294967295
-0.013960001 0.087083817 0.69800001 4294967295
-0.012612382 0.086959057 0.69700003 4294967295
-0.011252382 0.086709529 0.69500005 4294967295
-0.0099142864 0.086584769 0.69400001 4294967295
-0.0085800001 0.086460009 0.69300002 4294967295
-0.0072600003 0.086460009 0.69300002 4294967295
-0.0059228577 0.086210482 0.69100004 4294967295
-0.004606667 0.086210482 0.69100004 4294967295
-0.0032857144 0.086085722 0.69000006 4294967295
-0.0019714287 0.086085722 0.69000006 4294967295
-0.0006571429 0.086085722 0.69000006 4294967295
0.0006571429 0.086085722 0.69000006 4294967295
0.0019714287 0.086085722 0.69000006 4294967295
0.0032857144 0.086085722 0.69000006 4294967295
0.0045933337 0.085960954 0.68900001 4294967295
0.0059057148 0.085960954 0.68900001 4294967295
0.0072180959 0.085960954 0.68900001 4294967295
0.0085304771 0.085960954 0.68900001 4294967295
0.0098428577 0.085960954 0.68900001 4294967295
0.011155238 0.085960954 0.68900001 4294967295
0.01246762 0.085960954 0.68900001 4294967295
0.013780001 0.085960954 0.68900001 4294967295
0.015092382 0.085960954 0.68900001 4294967295
0.016428573 0.086085722 0.69000006 4294967295
0.017742859 0.086085722 0.69000006 4294967295
0.019084763 0.086210482 0.69100004 4294967295
0.020400954 0.086210482 0.69100004 4294967295
0.021780001 0.086460009 0.69300002 4294967295
0.023100002 0.086460009 0.69300002 4294967295
0.02445524 0.086584769 0.69400001 4294967295
0.025777144 0.086584769 0.69400001 4294967295
0.027099049 0.086584769 0.69400001 4294967295
0.028461907 0.086709529 0.69500005 4294967295
0.029785717 0.086709529 0.69500005 4294967295
0.031199049 0.086959057 0.69700003 4294967295
0.032666668 0.087333336 0.70000005 4294967295
0.034048572 0.087458104 0.70100003 4294967295
0.035535239 0.087832384 0.70400006 4294967295
0.036876194 0.087832384 0.70400006 4294967295
0.038217146 0.087832384 0.70400006 4294967295
-0.022251431 0.089680009 0.708 4294967295
-0.020873334 0.089553341 0.70700002 4294967295
-0.019526668 0.089553341 0.70700002 4294967295
-0.018180002 0.089553341 0.70700002 4294967295
-0.016785715 0.089300007 0.70500004 4294967295
-0.015420954 0.089173339 0.70400006 4294967295
-0.014000001 0.08866667 0.70000005 4294967295
-0.012612382 0.088286676 0.69700003 4294967295
-0.011252382 0.088033341 0.69500005 4294967295
-0.0099142864 0.087906674 0.69400001 4294967295
-0.0085923811 0.087906674 0.69400001 4294967295
-0.0072704768 0.087906674 0.69400001 4294967295
-0.0059400005 0.087780006 0.69300002 4294967295
-0.004606667 0.087526672 0.69100004 4294967295
-0.0032904765 0.087526672 0.69100004 4294967295
-0.0019742858 0.087526672 0.69100004 4294967295
-0.00065809529 0.087526672 0.69100004 4294967295
0.00065809529 0.087526672 0.69100004 4294967295
0.0019714287 0.087400004 0.69000006 4294967295
0.0032857144 0.087400004 0.69000006 4294967295
0.0046000001 0.087400004 0.69000006 4294967295
0.0059142862 0.087400004 0.69000006 4294967295
0.0072285719 0.087400004 0.69000006 4294967295
0.0085304771 0.087273337 0.68900001 4294967295
0.0098428577 0.087273337 0.68900001 4294967295
0.011155238 0.087273337 0.68900001 4294967295
0.012485716 0.087400004 0.69000006 4294967295
0.013800001 0.087400004 0.69000006 4294967295
0.015114287 0.087400004 0.69000006 4294967295
0.016428573 0.087400004 0.69000006 4294967295
0.017768573 0.087526672 0.69100004 4294967295
0.019140001 0.087780006 0.69300002 4294967295
0.020460002 0.087780006 0.69300002 4294967295
0.021780001 0.087780006 0.69300002 4294967295
0.023100002 0.087780006 0.69300002 4294967295
0.02445524 0.087906674 0.69400001 4294967295
0.025777144 0.087906674 0.69400001 4294967295
0.027138097 0.088033341 0.69500005 4294967295
0.028461907 0.088033341 0.69500005 4294967295
0.029914288 0.088413343 0.69800001 4294967295
0.031243812 0.088413343 0.69800001 4294967295
0.032666668 0.08866667 0.70000005 4294967295
0.034048572 0.088793337 0.70100003 4294967295
0.035535239 0.089173339 0.70400006 4294967295
0.036876194 0.089173339 0.70400006 4294967295
-0.022251431 0.091028579 0.708 4294967295
-0.020902859 0.091028579 0.708 4294967295
-0.019554287 0.091028579 0.708 4294967295
-0.018180002 0.090900004 0.70700002 4294967295
-0.016785715 0.090642862 0.70500004 4294967295
-0.015420954 0.090514295 0.70400006 4294967295
-0.014000001 0.090000004 0.70000005 4294967295
-0.012630477 0.089742862 0.69800001 4294967295
-0.011284763 0.089614294 0.69700003 4294967295
-0.009928572 0.089357145 0.69500005 4294967295
-0.0086047621 0.089357145 0.69500005 4294967295
-0.0072704768 0.089228578 0.69400001 4294967295
-0.005948572 0.089228578 0.69400001 4294967295
-0.0046200003 0.089100003 0.69300002 4294967295
-0.0033000002 0.089100003 0.69300002 4294967295
-0.0019800002 0.089100003 0.69300002 4294967295
-0.00065809529 0.088842861 0.69100004 4294967295
0.00065809529 0.088842861 0.69100004 4294967295
0.0019742858 0.088842861 0.69100004 4294967295
0.0032904765 0.088842861 0.69100004 4294967295
0.004606667 0.088842861 0.69100004 4294967295
0.0059228577 0.088842861 0.69100004 4294967295
0.0072285719 0.088714294 0.69000006 4294967295
0.0085428581 0.088714294 0.69000006 4294967295
0.0098571433 0.088714294 0.69000006 4294967295
0.011171429 0.088714294 0.69000006 4294967295
0.012485716 0.088714294 0.69000006 4294967295
0.013820001 0.088842861 0.69100004 4294967295
0.015136192 0.088842861 0.69100004 4294967295
0.016452381 0.088842861 0.69100004 4294967295
0.017820001 0.089100003 0.69300002 4294967295
0.019140001 0.089100003 0.69300002 4294967295
0.020489525 0.089228578 0.69400001 4294967295
0.021811429 0.089228578 0.69400001 4294967295
0.023133336 0.089228578 0.69400001 4294967295
0.02445524 0.089228578 0.69400001 4294967295
0.025814287 0.089357145 0.69500005 4294967295
0.027138097 0.089357145 0.69500005 4294967295
0.028584763 0.089742862 0.69800001 4294967295
0.030000001 0.090000004 0.70000005 4294967295
0.031333335 0.090000004 0.70000005 4294967295
0.032713335 0.090128578 0.70100003 4294967295
0.034145717 0.09038572 0.70300001 4294967295
0.035585716 0.090642862 0.70500004 4294967295
0.036928575 0.090642862 0.70500004 4294967295
0.039248575 0.092957146 0.72300005 4294967295
-0.022345716 0.09276858 0.71100003 4294967295
-0.02099143 0.09276858 0.71100003 4294967295
-0.019637143 0.09276858 0.71100003 4294967295
-0.018257145 0.092638098 0.71000004 4294967295
-0.016857143 0.092377149 0.708 4294967295
-0.015442858 0.091985717 0.70500004 4294967295
-0.014060001 0.091724768 0.70300001 4294967295
-0.012684762 0.091463819 0.70100003 4294967295
-0.011333334 0.091333337 0.70000005 4294967295
-0.0099714296 0.091072388 0.69800001 4294967295
-0.0086295241 0.090941913 0.69700003 4294967295
-0.0073019052 0.090941913 0.69700003 4294967295
-0.0059571434 0.090680957 0.69500005 4294967295
-0.0046333335 0.090680957 0.69500005 4294967295
-0.0033047621 0.090550482 0.69400001 4294967295
-0.0019828572 0.090550482 0.69400001 4294967295
-0.00066095241 0.090550482 0.69400001 4294967295
0.00066095241 0.090550482 0.69400001 4294967295
0.0019800002 0.090420008 0.69300002 4294967295
0.0033000002 0.090420008 0.69300002 4294967295
0.0046200003 0.090420008 0.69300002 4294967295
0.0059400005 0.090420008 0.69300002 4294967295
0.0072600003 0.090420008 0.69300002 4294967295
0.0085800001 0.090420008 0.69300002 4294967295
0.0098714288 0.090159051 0.69100004 4294967295
0.011220001 0.090420008 0.69300002 4294967295
0.01254 0.090420008 0.69300002 4294967295
0.013860001 0.090420008 0.69300002 4294967295
0.015180001 0.090420008 0.69300002 4294967295
0.01652381 0.090550482 0.69400001 4294967295
0.017845716 0.090550482 0.69400001 4294967295
0.019167621 0.090550482 0.69400001 4294967295
0.02051905 0.090680957 0.69500005 4294967295
0.021842858 0.090680957 0.69500005 4294967295
0.023166668 0.090680957 0.69500005 4294967295
0.024490478 0.090680957 0.69500005 4294967295
0.025814287 0.090680957 0.69500005 4294967295
0.027216192 0.090941913 0.69700003 4294967295
0.028666668 0.091333337 0.70000005 4294967295
0.030000001 0.091333337 0.70000005 4294967295
0.031378098 0.091463819 0.70100003 4294967295
0.032806668 0.091724768 0.70300001 4294967295
0.034340002 0.092246674 0.70700002 4294967295
0.035686668 0.092246674 0.70700002 4294967295
0.03781905 0.094203815 0.72200006 4294967295
0.039248575 0.094334289 0.72300005 4294967295
0.040625717 0.094334289 0.72300005 4294967295
-0.022345716 0.094122864 0.71100003 4294967295
-0.02099143 0.094122864 0.71100003 4294967295
-0.019637143 0.094122864 0.71100003 4294967295
-0.018257145 0.093990482 0.71000004 4294967295
-0.016857143 0.093725719 0.708 4294967295
-0.015486668 0.093593337 0.70700002 4294967295
-0.014060001 0.093063816 0.70300001 4294967295
-0.012684762 0.092799053 0.70100003 4294967295
-0.011333334 0.092666671 0.70000005 4294967295
-0.0099714296 0.092401914 0.69800001 4294967295
-0.0086419052 0.092401914 0.69800001 4294967295
-0.0073123816 0.092401914 0.69800001 4294967295
-0.0059742862 0.092269532 0.69700003 4294967295
-0.0046333335 0.092004769 0.69500005 4294967295
-0.0033095239 0.092004769 0.69500005 4294967295
-0.0019857143 0.092004769 0.69500005 4294967295
-0.00066095241 0.091872387 0.69400001 4294967295
0.00066095241 0.091872387 0.69400001 4294967295
0.0019828572 0.091872387 0.69400001 4294967295
0.0033047621 0.091872387 0.69400001 4294967295
0.0046266671 0.091872387 0.69400001 4294967295
0.005948572 0.091872387 0.69400001 4294967295
0.0072704768 0.091872387 0.69400001 4294967295
0.0085923811 0.091872387 0.69400001 4294967295
0.0099000009 0.091740005 0.69300002 4294967295
0.011236191 0.091872387 0.69400001 4294967295
0.012558096 0.091872387 0.69400001 4294967295
0.01388 0.091872387 0.69400001 4294967295
0.015201906 0.091872387 0.69400001 4294967295
0.01652381 0.091872387 0.69400001 4294967295
0.017845716 0.091872387 0.69400001 4294967295
0.019167621 0.091872387 0.69400001 4294967295
0.02051905 0.092004769 0.69500005 4294967295
0.021842858 0.092004769 0.69500005 4294967295
0.023166668 0.092004769 0.69500005 4294967295
0.024490478 0.092004769 0.69500005 4294967295
0.025888573 0.092269532 0.69700003 4294967295
0.027255239 0.092401914 0.69800001 4294967295
0.028666668 0.092666671 0.70000005 4294967295
0.030042859 0.092799053 0.70100003 4294967295
0.031378098 0.092799053 0.70100003 4294967295
0.032853335 0.093196198 0.70400006 4294967295
0.034242861 0.09332858 0.70500004 4294967295
0.035585716 0.09332858 0.70500004 4294967295
0.03781905 0.09557905 0.72200006 4294967295
0.03919429 0.09557905 0.72200006 4294967295
-0.022408573 0.09574572 0.71300006 4294967295
-0.021050477 0.09574572 0.71300006 4294967295
-0.019692382 0.09574572 0.71300006 4294967295
-0.018257145 0.095342867 0.71000004 4294967295
-0.016904764 0.095342867 0.71000004 4294967295
-0.015486668 0.094940007 0.70700002 4294967295
-0.014060001 0.094402865 0.70300001 4294967295
-0.012684762 0.094134293 0.70100003 4294967295
-0.011333334 0.094000004 0.70000005 4294967295
-0.010000001 0.094000004 0.70000005 4294967295
-0.0086666672 0.094000004 0.70000005 4294967295
-0.0073123816 0.093731433 0.69800001 4294967295
-0.0059828577 0.093731433 0.69800001 4294967295
-0.0046466668 0.093597151 0.69700003 4294967295
-0.0033095239 0.09332858 0.69500005 4294967295
-0.0019857143 0.09332858 0.69500005 4294967295
-0.00066190481 0.09332858 0.69500005 4294967295
0.00066095241 0.093194291 0.69400001 4294967295
0.0019828572 0.093194291 0.69400001 4294967295
0.0033047621 0.093194291 0.69400001 4294967295
0.0046266671 0.093194291 0.69400001 4294967295
0.0059571434 0.09332858 0.69500005 4294967295
0.0072704768 0.093194291 0.69400001 4294967295
0.0085923811 0.093194291 0.69400001 4294967295
0.0099142864 0.093194291 0.69400001 4294967295
0.011236191 0.093194291 0.69400001 4294967295
0.012558096 0.093194291 0.69400001 4294967295
0.01388 0.093194291 0.69400001 4294967295
0.015201906 0.093194291 0.69400001 4294967295
0.01654762 0.09332858 0.69500005 4294967295
0.01787143 0.09332858 0.69500005 4294967295
0.01919524 0.09332858 0.69500005 4294967295
0.020578096 0.093597151 0.69700003 4294967295
0.021905717 0.093597151 0.69700003 4294967295
0.023233335 0.093597151 0.69700003 4294967295
0.024560954 0.093597151 0.69700003 4294967295
0.025888573 0.093597151 0.69700003 4294967295
0.027333336 0.094000004 0.70000005 4294967295
0.028666668 0.094000004 0.70000005 4294967295
0.030042859 0.094134293 0.70100003 4294967295
0.031378098 0.094134293 0.70100003 4294967295
0.032853335 0.094537146 0.70400006 4294967295
0.034242861 0.094671436 0.70500004 4294967295
0.035585716 0.094671436 0.70500004 4294967295
-0.022502858 0.097512387 0.71600002 4294967295
-0.021050477 0.097103819 0.71300006 4294967295
-0.019692382 0.097103819 0.71300006 4294967295
-0.018257145 0.096695244 0.71000004 4294967295
-0.016904764 0.096695244 0.71000004 4294967295
-0.015508573 0.096422866 0.708 4294967295
-0.014100001 0.096014291 0.70500004 4294967295
-0.012720954 0.095741913 0.70300001 4294967295
-0.011349524 0.095469527 0.70100003 4294967295
-0.010014286 0.095469527 0.70100003 4294967295
-0.0086666672 0.095333338 0.70000005 4294967295
-0.0073333336 0.095333338 0.70000005 4294967295
-0.0059828577 0.095060959 0.69800001 4294967295
-0.0046533337 0.095060959 0.69800001 4294967295
-0.0033190479 0.09492477 0.69700003 4294967295
-0.0019857143 0.094652385 0.69500005 4294967295
-0.00066190481 0.094652385 0.69500005 4294967295
0.00066190481 0.094652385 0.69500005 4294967295
0.0019857143 0.094652385 0.69500005 4294967295
0.0033047621 0.094516195 0.69400001 4294967295
0.0046333335 0.094652385 0.69500005 4294967295
0.0059571434 0.094652385 0.69500005 4294967295
0.0072809528 0.094652385 0.69500005 4294967295
0.0086047621 0.094652385 0.69500005 4294967295
0.009928572 0.094652385 0.69500005 4294967295
0.011252382 0.094652385 0.69500005 4294967295
0.012576192 0.094652385 0.69500005 4294967295
0.013900001 0.094652385 0.69500005 4294967295
0.01522381 0.094652385 0.69500005 4294967295
0.01654762 0.094652385 0.69500005 4294967295
0.01787143 0.094652385 0.69500005 4294967295
0.01919524 0.094652385 0.69500005 4294967295
0.020578096 0.09492477 0.69700003 4294967295
0.021937145 0.095060959 0.69800001 4294967295
0.023266668 0.095060959 0.69800001 4294967295
0.024596192 0.095060959 0.69800001 4294967295
0.025925716 0.095060959 0.69800001 4294967295
0.027333336 0.095333338 0.70000005 4294967295
0.028707622 0.095469527 0.70100003 4294967295
0.030042859 0.095469527 0.70100003 4294967295
0.03146762 0.095741913 0.70300001 4294967295
0.032900002 0.096014291 0.70500004 4294967295
0.034242861 0.096014291 0.70500004 4294967295
0.035585716 0.096014291 0.70500004 4294967295
-0.022502858 0.098876201 0.71600002 4294967295
-0.021050477 0.098461911 0.71300006 4294967295
-0.019692382 0.098461911 0.71300006 4294967295
-0.018282859 0.098185718 0.71100003 4294967295
-0.016904764 0.098047629 0.71000004 4294967295
-0.015508573 0.097771436 0.708 4294967295
-0.014140001 0.097633339 0.70700002 4294967295
-0.012720954 0.097080961 0.70300001 4294967295
-0.011349524 0.096804768 0.70100003 4294967295
-0.010014286 0.096804768 0.70100003 4294967295
-0.0086790482 0.096804768 0.70100003 4294967295
-0.0073438101 0.096804768 0.70100003 4294967295
-0.0060000005 0.096666671 0.70000005 4294967295
-0.004666667 0.096666671 0.70000005 4294967295
-0.0033238097 0.096390486 0.69800001 4294967295
-0.0019914287 0.096252389 0.69700003 4294967295
-0.00066190481 0.095976196 0.69500005 4294967295
0.00066190481 0.095976196 0.69500005 4294967295
0.0019857143 0.095976196 0.69500005 4294967295
0.0033095239 0.095976196 0.69500005 4294967295
0.0046333335 0.095976196 0.69500005 4294967295
0.0059571434 0.095976196 0.69500005 4294967295
0.0072809528 0.095976196 0.69500005 4294967295
0.0086047621 0.095976196 0.69500005 4294967295
0.009928572 0.095976196 0.69500005 4294967295
0.011252382 0.095976196 0.69500005 4294967295
0.012576192 0.095976196 0.69500005 4294967295
0.013900001 0.095976196 0.69500005 4294967295
0.01522381 0.095976196 0.69500005 4294967295
0.016595239 0.096252389 0.69700003 4294967295
0.017922858 0.096252389 0.69700003 4294967295
0.019250477 0.096252389 0.69700003 4294967295
0.02060762 0.096390486 0.69800001 4294967295
0.022000002 0.096666671 0.70000005 4294967295
0.023333335 0.096666671 0.70000005 4294967295
0.024666669 0.096666671 0.70000005 4294967295
0.026000002 0.096666671 0.70000005 4294967295
0.027372383 0.096804768 0.70100003 4294967295
0.028707622 0.096804768 0.70100003 4294967295
0.030042859 0.096804768 0.70100003 4294967295
0.031512383 0.097219057 0.70400006 4294967295
0.032993335 0.097633339 0.70700002 4294967295
0.034340002 0.097633339 0.70700002 4294967295
0.035686668 0.097633339 0.70700002 4294967295
-0.022502858 0.10024001 0.71600002 4294967295
-0.021080002 0.099960007 0.71400005 4294967295
-0.019692382 0.099820003 0.71300006 4294967295
-0.018282859 0.09954001 0.71100003 4294967295
-0.016904764 0.099400006 0.71000004 4294967295
-0.015508573 0.099120006 0.708 4294967295
-0.014140001 0.09898001 0.70700002 4294967295
-0.012739048 0.098560005 0.70400006 4294967295
-0.011381906 0.098420009 0.70300001 4294967295
-0.010042857 0.098420009 0.70300001 4294967295
-0.0086790482 0.098140009 0.70100003 4294967295
-0.0073438101 0.098140009 0.70100003 4294967295
-0.0060085719 0.098140009 0.70100003 4294967295
-0.004666667 0.098000005 0.70000005 4294967295
-0.0033238097 0.097720005 0.69800001 4294967295
-0.0019914287 0.097580008 0.69700003 4294967295
-0.00066380959 0.097580008 0.69700003 4294967295
0.00066190481 0.097300008 0.69500005 4294967295
0.0019857143 0.097300008 0.69500005 4294967295
0.0033095239 0.097300008 0.69500005 4294967295
0.0046333335 0.097300008 0.69500005 4294967295
0.0059571434 0.097300008 0.69500005 4294967295
0.0072809528 0.097300008 0.69500005 4294967295
0.0086047621 0.097300008 0.69500005 4294967295
0.009928572 0.097300008 0.69500005 4294967295
0.011252382 0.097300008 0.69500005 4294967295
0.012576192 0.097300008 0.69500005 4294967295
0.013900001 0.097300008 0.69500005 4294967295
0.01522381 0.097300008 0.69500005 4294967295
0.016595239 0.097580008 0.69700003 4294967295
0.017922858 0.097580008 0.69700003 4294967295
0.019250477 0.097580008 0.69700003 4294967295
0.020666668 0.098000005 0.70000005 4294967295
0.022000002 0.098000005 0.70000005 4294967295
0.023333335 0.098000005 0.70000005 4294967295
0.024666669 0.098000005 0.70000005 4294967295
0.026037145 0.098140009 0.70100003 4294967295
0.027372383 0.098140009 0.70100003 4294967295
0.028789526 0.098420009 0.70300001 4294967295
0.030128574 0.098420009 0.70300001 4294967295
0.031557146 0.098700009 0.70500004 4294967295
0.033040002 0.099120006 0.708 4294967295
0.034485716 0.099400006 0.71000004 4294967295
-0.022440001 0.10132001 0.71400005 4294967295
-0.021080002 0.10132001 0.71400005 4294967295
-0.019692382 0.1011781 0.71300006 4294967295
-0.018334286 0.1011781 0.71300006 4294967295
-0.016928572 0.10089429 0.71100003 4294967295
-0.015552382 0.10075239 0.71000004 4294967295
-0.014160001 0.10046858 0.708 4294967295
-0.012739048 0.099900961 0.70400006 4294967295
-0.011381906 0.099759057 0.70300001 4294967295
-0.010042857 0.099759057 0.70300001 4294967295
-0.0087038102 0.099759057 0.70300001 4294967295
-0.0073438101 0.099475242 0.70100003 4294967295
-0.0060085719 0.099475242 0.70100003 4294967295
-0.0046733338 0.099475242 0.70100003 4294967295
-0.0033333336 0.099333338 0.70000005 4294967295
-0.0019942857 0.099049531 0.69800001 4294967295
-0.00066476193 0.099049531 0.69800001 4294967295
0.00066380959 0.098907627 0.69700003 4294967295
0.0019857143 0.09862382 0.69500005 4294967295
0.0033095239 0.09862382 0.69500005 4294967295
0.0046333335 0.09862382 0.69500005 4294967295
0.0059571434 0.09862382 0.69500005 4294967295
0.0072809528 0.09862382 0.69500005 4294967295
0.0086047621 0.09862382 0.69500005 4294967295
0.009928572 0.09862382 0.69500005 4294967295
0.011252382 0.09862382 0.69500005 4294967295
0.012612382 0.098907627 0.69700003 4294967295
0.013940001 0.098907627 0.69700003 4294967295
0.01526762 0.098907627 0.69700003 4294967295
0.016595239 0.098907627 0.69700003 4294967295
0.017922858 0.098907627 0.69700003 4294967295
0.019278096 0.099049531 0.69800001 4294967295
0.020666668 0.099333338 0.70000005 4294967295
0.022000002 0.099333338 0.70000005 4294967295
0.023333335 0.099333338 0.70000005 4294967295
0.024666669 0.099333338 0.70000005 4294967295
0.026037145 0.099475242 0.70100003 4294967295
0.027372383 0.099475242 0.70100003 4294967295
0.028789526 0.099759057 0.70300001 4294967295
0.03017143 0.099900961 0.70400006 4294967295
0.031557146 0.10004286 0.70500004 4294967295
0.033040002 0.10046858 0.708 4294967295
0.034534287 0.10089429 0.71100003 4294967295
-0.016928572 0.10224858 0.71100003 4294967295
-0.015574287 0.10224858 0.71100003 4294967295
-0.014200001 0.10210477 0.71000004 4294967295
-0.012757144 0.10138572 0.70500004 4294967295
-0.011398096 0.10124191 0.70400006 4294967295
-0.010057144 0.10124191 0.70400006 4294967295
-0.0087038102 0.10109811 0.70300001 4294967295
-0.0073647625 0.10109811 0.70300001 4294967295
-0.0060085719 0.10081048 0.70100003 4294967295
-0.0046733338 0.10081048 0.70100003 4294967295
-0.0033333336 0.10066667 0.70000005 4294967295
-0.0020000001 0.10066667 0.70000005 4294967295
-0.00066476193 0.10037906 0.69800001 4294967295
0.00066380959 0.10023525 0.69700003 4294967295
0.0019914287 0.10023525 0.69700003 4294967295
0.0033190479 0.10023525 0.69700003 4294967295
0.0046466668 0.10023525 0.69700003 4294967295
0.0059742862 0.10023525 0.69700003 4294967295
0.0073019052 0.10023525 0.69700003 4294967295
0.0086295241 0.10023525 0.69700003 4294967295
0.0099571431 0.10023525 0.69700003 4294967295
0.011284763 0.10023525 0.69700003 4294967295
0.012612382 0.10023525 0.69700003 4294967295
0.013960001 0.10037906 0.69800001 4294967295
0.015289525 0.10037906 0.69800001 4294967295
0.016619049 0.10037906 0.69800001 4294967295
0.017948573 0.10037906 0.69800001 4294967295
0.019333335 0.10066667 0.70000005 4294967295
0.020666668 0.10066667 0.70000005 4294967295
0.02203143 0.10081048 0.70100003 4294967295
0.023366667 0.10081048 0.70100003 4294967295
0.024701906 0.10081048 0.70100003 4294967295
0.02611143 0.10109811 0.70300001 4294967295
0.027489526 0.10124191 0.70400006 4294967295
0.02887143 0.10138572 0.70500004 4294967295
0.030300003 0.10167334 0.70700002 4294967295
0.031691432 0.10181715 0.708 4294967295
-0.014200001 0.10345715 0.71000004 4294967295
-0.01281143 0.10316572 0.708 4294967295
-0.011414287 0.10272858 0.70500004 4294967295
-0.010071429 0.10272858 0.70500004 4294967295
-0.0087161912 0.10258286 0.70400006 4294967295
-0.0073647625 0.10243715 0.70300001 4294967295
-0.0060257148 0.10243715 0.70300001 4294967295
-0.0046733338 0.10214572 0.70100003 4294967295
-0.0033380955 0.10214572 0.70100003 4294967295
-0.0020028572 0.10214572 0.70100003 4294967295
-0.00066666672 0.10200001 0.70000005 4294967295
0.00066476193 0.10170858 0.69800001 4294967295
0.0019942857 0.10170858 0.69800001 4294967295
0.0033238097 0.10170858 0.69800001 4294967295
0.0046533337 0.10170858 0.69800001 4294967295
0.0059828577 0.10170858 0.69800001 4294967295
0.0073123816 0.10170858 0.69800001 4294967295
0.0086295241 0.10156287 0.69700003 4294967295
0.0099714296 0.10170858 0.69800001 4294967295
0.011284763 0.10156287 0.69700003 4294967295
0.012630477 0.10170858 0.69800001 4294967295
0.013960001 0.10170858 0.69800001 4294967295
0.015289525 0.10170858 0.69800001 4294967295
0.016619049 0.10170858 0.69800001 4294967295
0.018000001 0.10200001 0.70000005 4294967295
0.019333335 0.10200001 0.70000005 4294967295
0.020696191 0.10214572 0.70100003 4294967295
0.02203143 0.10214572 0.70100003 4294967295
0.023366667 0.10214572 0.70100003 4294967295
0.024701906 0.10214572 0.70100003 4294967295
0.02611143 0.10243715 0.70300001 4294967295
0.027489526 0.10258286 0.70400006 4294967295
0.02887143 0.10272858 0.70500004 4294967295
0.030342858 0.10316572 0.708 4294967295
-0.011446668 0.10436668 0.70700002 4294967295
-0.010071429 0.10407144 0.70500004 4294967295
