# .PCD v0.7 - Point Cloud Data file format
VERSION 0.7
FIELDS x y z
SIZE 4 4 4
TYPE F F F
COUNT 1 1 1
WIDTH 1360
HEIGHT 1
VIEWPOINT 0 0 0 1 0 0 0
POINTS 1360
DATA ascii
0.01742762 0.051080957 0.63100004
0.018629525 0.051080957 0.63100004
0.019862859 0.051161908 0.63200003
0.021100001 0.051242862 0.63300002
0.022376193 0.051404767 0.63500005
0.023622859 0.051485717 0.63600004
-0.035905715 0.052945718 0.63900006
-0.034525715 0.052697148 0.63600004
-0.033261906 0.05261429 0.63500005
-0.032001905 0.052531432 0.634
-0.030745717 0.052448574 0.63300002
-0.029353335 0.052117147 0.62900001
-0.028065717 0.051951431 0.62700003
-0.02687143 0.051951431 0.62700003
-0.025636192 0.051868577 0.62600005
-0.024443811 0.051868577 0.62600005
-0.023214288 0.051785719 0.625
-0.02202381 0.051785719 0.625
-0.020800002 0.051702861 0.62400001
-0.019548573 0.051537145 0.62200004
-0.018363811 0.051537145 0.62200004
-0.01717905 0.051537145 0.62200004
-0.015942859 0.051371433 0.62
-0.014761906 0.051371433 0.62
-0.013580954 0.051371433 0.62
-0.0124 0.051371433 0.62
-0.011200953 0.051288575 0.61900002
-0.010021905 0.051288575 0.61900002
-0.0088428576 0.051288575 0.61900002
-0.0076638102 0.051288575 0.61900002
-0.0064847623 0.051288575 0.61900002
-0.0053057144 0.051288575 0.61900002
-0.004126667 0.051288575 0.61900002
-0.0029428573 0.051205717 0.61800003
-0.0017685716 0.051288575 0.61900002
-0.00058952387 0.051288575 0.61900002
0.00058952387 0.051288575 0.61900002
0.0017685716 0.051288575 0.61900002
0.0029476192 0.051288575 0.61900002
0.0041466667 0.051537145 0.62200004
0.0053400001 0.051620003 0.62300003
0.0065371431 0.051702861 0.62400001
0.0077257147 0.051702861 0.62400001
0.0089285718 0.051785719 0.625
0.010119048 0.051785719 0.625
0.01132762 0.051868577 0.62600005
0.01254 0.051951431 0.62700003
0.013756191 0.052034289 0.62800002
0.014976191 0.052117147 0.62900001
0.016225716 0.052282862 0.63100004
0.01742762 0.052282862 0.63100004
0.01865905 0.052365717 0.63200003
0.019894287 0.052448574 0.63300002
0.021133335 0.052531432 0.634
0.02241143 0.052697148 0.63600004
0.023734286 0.052945718 0.63900006
-0.035905715 0.05416286 0.63900006
-0.034525715 0.053908575 0.63600004
-0.033261906 0.053823814 0.63500005
-0.032052383 0.053823814 0.63500005
-0.030794287 0.053739052 0.634
-0.029493336 0.053569525 0.63200003
-0.028155239 0.053315241 0.62900001
-0.026914287 0.053230479 0.62800002
-0.025677145 0.053145718 0.62700003
-0.024443811 0.053060956 0.62600005
-0.023251429 0.053060956 0.62600005
-0.02202381 0.052976195 0.625
-0.020800002 0.052891433 0.62400001
-0.019580001 0.052806672 0.62300003
-0.018393334 0.052806672 0.62300003
-0.01717905 0.052721906 0.62200004
-0.015994286 0.052721906 0.62200004
-0.014809525 0.052721906 0.62200004
-0.013580954 0.052552383 0.62
-0.0124 0.052552383 0.62
-0.011219048 0.052552383 0.62
-0.010038096 0.052552383 0.62
-0.0088571431 0.052552383 0.62
-0.0076761912 0.052552383 0.62
-0.0064952387 0.052552383 0.62
-0.0053142859 0.052552383 0.62
-0.004126667 0.052467622 0.61900002
-0.0029476192 0.052467622 0.61900002
-0.0017685716 0.052467622 0.61900002
-0.00059047621 0.052552383 0.62
0.00059047621 0.052552383 0.62
0.0017714287 0.052552383 0.62
0.002961905 0.052721906 0.62200004
0.0041533336 0.052806672 0.62300003
0.0053485716 0.052891433 0.62400001
0.0065476196 0.052976195 0.625
0.0077380957 0.052976195 0.625
0.0089285718 0.052976195 0.625
0.010119048 0.052976195 0.625
0.01132762 0.053060956 0.62600005
0.012520001 0.053060956 0.62600005
0.013756191 0.053230479 0.62800002
0.014976191 0.053315241 0.62900001
0.016225716 0.053484764 0.63100004
0.017455239 0.053569525 0.63200003
0.018688573 0.053654291 0.63300002
0.019925715 0.053739052 0.634
0.021166667 0.053823814 0.63500005
0.02241143 0.053908575 0.63600004
0.023734286 0.05416286 0.63900006
-0.037180956 0.055466671 0.64000005
-0.035905715 0.055380005 0.63900006
-0.034634288 0.055293337 0.63800001
-0.033314288 0.055120002 0.63600004
-0.032052383 0.055033337 0.63500005
-0.030794287 0.054946668 0.634
-0.029540002 0.054860003 0.63300002
-0.028155239 0.054513335 0.62900001
-0.026914287 0.05442667 0.62800002
-0.025718097 0.05442667 0.62800002
-0.024482859 0.054340005 0.62700003
-0.023251429 0.054253336 0.62600005
-0.022059049 0.054253336 0.62600005
-0.020833334 0.054166671 0.625
-0.019611429 0.054080002 0.62400001
-0.018422859 0.054080002 0.62400001
-0.017206667 0.053993337 0.62300003
-0.016020002 0.053993337 0.62300003
-0.014809525 0.053906672 0.62200004
-0.013624763 0.053906672 0.62200004
-0.012440001 0.053906672 0.62200004
-0.011255239 0.053906672 0.62200004
-0.010070477 0.053906672 0.62200004
-0.0088571431 0.053733338 0.62
-0.0076761912 0.053733338 0.62
-0.0064952387 0.053733338 0.62
-0.0053142859 0.053733338 0.62
-0.0041333335 0.053733338 0.62
-0.002952381 0.053733338 0.62
-0.001777143 0.053906672 0.62200004
-0.00059238099 0.053906672 0.62200004
0.00059238099 0.053906672 0.62200004
0.0017800002 0.053993337 0.62300003
0.0029714287 0.054080002 0.62400001
0.0041600005 0.054080002 0.62400001
0.005357143 0.054166671 0.625
0.0065476196 0.054166671 0.625
0.0077380957 0.054166671 0.625
0.0089285718 0.054166671 0.625
0.010119048 0.054166671 0.625
0.01132762 0.054253336 0.62600005
0.01254 0.054340005 0.62700003
0.013778096 0.054513335 0.62900001
0.015023811 0.054686669 0.63100004
0.01625143 0.054773338 0.63200003
0.017482858 0.054860003 0.63300002
0.018718097 0.054946668 0.634
0.019957144 0.055033337 0.63500005
0.021200001 0.055120002 0.63600004
0.022481907 0.055293337 0.63800001
0.023697145 0.055293337 0.63800001
0.14087334 0.068553336 0.79100001
0.14238001 0.068553336 0.79100001
0.14388667 0.068553336 0.79100001
0.14539334 0.068553336 0.79100001
-0.035905715 0.056597147 0.63900006
-0.034634288 0.056508575 0.63800001
-0.033314288 0.056331433 0.63600004
-0.032052383 0.056242861 0.63500005
-0.030794287 0.056154288 0.634
-0.029540002 0.05606572 0.63300002
-0.028244764 0.055888575 0.63100004
-0.026957145 0.055711433 0.62900001
-0.025718097 0.055622861 0.62800002
-0.024482859 0.055534288 0.62700003
-0.023288572 0.055534288 0.62700003
-0.022059049 0.05544572 0.62600005
-0.020866668 0.05544572 0.62600005
-0.019642858 0.055357147 0.625
-0.018422859 0.055268575 0.62400001
-0.017234286 0.055268575 0.62400001
-0.016020002 0.055180002 0.62300003
-0.014833334 0.055180002 0.62300003
-0.013646668 0.055180002 0.62300003
-0.012460001 0.055180002 0.62300003
-0.011255239 0.055091433 0.62200004
-0.010070477 0.055091433 0.62200004
-0.0088857152 0.055091433 0.62200004
-0.0077009527 0.055091433 0.62200004
-0.0065161907 0.055091433 0.62200004
-0.0053314287 0.055091433 0.62200004
-0.0041466667 0.055091433 0.62200004
-0.002961905 0.055091433 0.62200004
-0.0017800002 0.055180002 0.62300003
-0.00059333339 0.055180002 0.62300003
0.00059428578 0.055268575 0.62400001
0.0017828572 0.055268575 0.62400001
0.0029761908 0.055357147 0.625
0.0041666669 0.055357147 0.625
0.005357143 0.055357147 0.625
0.0065476196 0.055357147 0.625
0.0077504767 0.05544572 0.62600005
0.0089428574 0.05544572 0.62600005
0.010135239 0.05544572 0.62600005
0.01132762 0.05544572 0.62600005
0.01254 0.055534288 0.62700003
0.013778096 0.055711433 0.62900001
0.01504762 0.055977147 0.63200003
0.016302858 0.056154288 0.634
0.017510477 0.056154288 0.634
0.01874762 0.056242861 0.63500005
0.020051429 0.056508575 0.63800001
0.021300001 0.056597147 0.63900006
0.022517145 0.056597147 0.63900006
0.023771429 0.05668572 0.64000005
0.025146669 0.057040002 0.64400005
-0.034634288 0.057723813 0.63800001
-0.033314288 0.057542861 0.63600004
-0.032052383 0.057452384 0.63500005
-0.030842859 0.057452384 0.63500005
-0.029586669 0.057361908 0.634
-0.028334288 0.057271432 0.63300002
-0.027085716 0.057180956 0.63200003
-0.025840955 0.05709048 0.63100004
-0.024560954 0.056909528 0.62900001
-0.023325715 0.056819052 0.62800002
-0.022129524 0.056819052 0.62800002
-0.020900002 0.056728575 0.62700003
-0.019705715 0.056728575 0.62700003
-0.018452382 0.056547623 0.625
-0.017261906 0.056547623 0.625
-0.016045716 0.056457147 0.62400001
-0.014857144 0.056457147 0.62400001
-0.013668573 0.056457147 0.62400001
-0.012480001 0.056457147 0.62400001
-0.011273334 0.056366671 0.62300003
-0.010086668 0.056366671 0.62300003
-0.0089000007 0.056366671 0.62300003
-0.0077133337 0.056366671 0.62300003
-0.0065266672 0.056366671 0.62300003
-0.0053400001 0.056366671 0.62300003
-0.0041600005 0.056457147 0.62400001
-0.0029714287 0.056457147 0.62400001
-0.0017857144 0.056547623 0.625
-0.00059523812 0.056547623 0.625
0.00059523812 0.056547623 0.625
0.0017857144 0.056547623 0.625
0.0029761908 0.056547623 0.625
0.0041733338 0.056638099 0.62600005
0.0053657144 0.056638099 0.62600005
0.0065580956 0.056638099 0.62600005
0.0077504767 0.056638099 0.62600005
0.0089571439 0.056728575 0.62700003
0.010151429 0.056728575 0.62700003
0.01136381 0.056819052 0.62800002
0.012580001 0.056909528 0.62900001
0.013865715 0.057271432 0.63300002
0.01509524 0.057361908 0.634
0.016328573 0.057452384 0.63500005
0.017565716 0.057542861 0.63600004
0.018836191 0.057723813 0.63800001
0.020082859 0.057814289 0.63900006
0.021333335 0.057904765 0.64000005
0.022552382 0.057904765 0.64000005
0.023957144 0.058357146 0.64500004
0.025185715 0.058357146 0.64500004
-0.034634288 0.058939051 0.63800001
-0.033314288 0.058754291 0.63600004
-0.032102861 0.058754291 0.63600004
-0.030891431 0.058754291 0.63600004
-0.029633336 0.058661908 0.63500005
-0.028334288 0.058477148 0.63300002
-0.027085716 0.058384765 0.63200003
-0.025840955 0.058292385 0.63100004
-0.02463905 0.058292385 0.63100004
-0.023362858 0.058107622 0.62900001
-0.022129524 0.058015242 0.62800002
-0.020933334 0.058015242 0.62800002
-0.019737145 0.058015242 0.62800002
-0.018481907 0.057830479 0.62600005
-0.017289525 0.057830479 0.62600005
-0.016071429 0.057738099 0.625
-0.014880953 0.057738099 0.625
-0.013668573 0.057645719 0.62400001
-0.012480001 0.057645719 0.62400001
-0.011291429 0.057645719 0.62400001
-0.010086668 0.057553336 0.62300003
-0.0089000007 0.057553336 0.62300003
-0.0077257147 0.057645719 0.62400001
-0.0065266672 0.057553336 0.62300003
-0.005357143 0.057738099 0.625
-0.0041666669 0.057738099 0.625
-0.0029809526 0.057830479 0.62600005
-0.0017885716 0.057830479 0.62600005
-0.00059619051 0.057830479 0.62600005
0.00059619051 0.057830479 0.62600005
0.0017885716 0.057830479 0.62600005
0.0029809526 0.057830479 0.62600005
0.0041733338 0.057830479 0.62600005
0.0053657144 0.057830479 0.62600005
0.0065580956 0.057830479 0.62600005
0.0077628577 0.057922862 0.62700003
0.0089571439 0.057922862 0.62700003
0.01018381 0.058107622 0.62900001
0.011381906 0.058107622 0.62900001
0.012640001 0.058384765 0.63200003
0.01388762 0.058569528 0.634
0.01509524 0.058569528 0.634
0.016354287 0.058754291 0.63600004
0.017565716 0.058754291 0.63600004
0.018836191 0.058939051 0.63800001
0.020114288 0.059123814 0.64000005
0.021333335 0.059123814 0.64000005
0.022552382 0.059123814 0.64000005
0.023957144 0.059585717 0.64500004
0.025185715 0.059585717 0.64500004
-0.03341905 0.060154289 0.63800001
-0.032102861 0.059965719 0.63600004
-0.030988574 0.060154289 0.63800001
-0.029680002 0.059965719 0.63600004
-0.028468573 0.059965719 0.63600004
-0.027128574 0.059682861 0.63300002
-0.025881907 0.059588574 0.63200003
-0.02463905 0.059494291 0.63100004
-0.023362858 0.05930572 0.62900001
-0.022164764 0.05930572 0.62900001
-0.020966668 0.05930572 0.62900001
-0.019737145 0.059211433 0.62800002
-0.018511429 0.059117146 0.62700003
-0.017317144 0.059117146 0.62700003
-0.016097143 0.059022862 0.62600005
-0.014904763 0.059022862 0.62600005
-0.013690477 0.058928575 0.625
-0.012500001 0.058928575 0.625
-0.011291429 0.058834288 0.62400001
-0.010102858 0.058834288 0.62400001
-0.0089142863 0.058834288 0.62400001
-0.0077380957 0.058928575 0.625
-0.0065476196 0.058928575 0.625
-0.0053657144 0.059022862 0.62600005
-0.0041733338 0.059022862 0.62600005
-0.0029809526 0.059022862 0.62600005
-0.0017885716 0.059022862 0.62600005
-0.00059619051 0.059022862 0.62600005
0.00059619051 0.059022862 0.62600005
0.0017885716 0.059022862 0.62600005
0.0029809526 0.059022862 0.62600005
0.0041733338 0.059022862 0.62600005
0.0053742859 0.059117146 0.62700003
0.006568572 0.059117146 0.62700003
0.0077752387 0.059211433 0.62800002
0.008985715 0.05930572 0.62900001
0.010216191 0.059494291 0.63100004
0.011436191 0.059588574 0.63200003
0.01266 0.059682861 0.63300002
0.01388762 0.059777148 0.634
0.015119049 0.059871431 0.63500005
0.016354287 0.059965719 0.63600004
0.017620953 0.060154289 0.63800001
0.018865716 0.060248576 0.63900006
0.020114288 0.060342859 0.64000005
0.021333335 0.060342859 0.64000005
0.022552382 0.060342859 0.64000005
0.023957144 0.060814291 0.64500004
0.025185715 0.060814291 0.64500004
-0.033523813 0.061561909 0.64000005
-0.032254286 0.061465718 0.63900006
-0.031037144 0.061465718 0.63900006
-0.029820003 0.061465718 0.63900006
-0.028558098 0.061369527 0.63800001
-0.027171431 0.060984764 0.634
-0.025922859 0.060888577 0.63300002
-0.024678096 0.060792387 0.63200003
-0.023437144 0.060696196 0.63100004
-0.022164764 0.060503814 0.62900001
-0.020966668 0.060503814 0.62900001
-0.019768573 0.060503814 0.62900001
-0.018570477 0.060503814 0.62900001
-0.017344764 0.060407624 0.62800002
-0.016148573 0.060407624 0.62800002
-0.014928573 0.060311433 0.62700003
-0.013734287 0.060311433 0.62700003
-0.012520001 0.060215242 0.62600005
-0.01132762 0.060215242 0.62600005
-0.010119048 0.060119051 0.625
-0.0089285718 0.060119051 0.625
-0.0077504767 0.060215242 0.62600005
-0.0065580956 0.060215242 0.62600005
-0.0053742859 0.060311433 0.62700003
-0.0041800002 0.060311433 0.62700003
-0.0029857145 0.060311433 0.62700003
-0.0017914287 0.060311433 0.62700003
-0.00059714291 0.060311433 0.62700003
0.00059714291 0.060311433 0.62700003
0.0017914287 0.060311433 0.62700003
0.0029857145 0.060311433 0.62700003
0.0041800002 0.060311433 0.62700003
0.0053742859 0.060311433 0.62700003
0.006579048 0.060407624 0.62800002
0.0077876197 0.060503814 0.62900001
0.0090142861 0.060696196 0.63100004
0.010216191 0.060696196 0.63100004
0.011436191 0.060792387 0.63200003
0.01266 0.060888577 0.63300002
0.013909524 0.061080955 0.63500005
0.015142858 0.061177146 0.63600004
0.016405715 0.061369527 0.63800001
0.017648572 0.061465718 0.63900006
0.018865716 0.061465718 0.63900006
0.020114288 0.061561909 0.64000005
0.021333335 0.061561909 0.64000005
0.02258762 0.061658099 0.64100003
0.023994287 0.062139053 0.64600003
0.025224764 0.062139053 0.64600003
-0.033576194 0.062879048 0.64100003
-0.032355241 0.062879048 0.64100003
-0.031085717 0.062780954 0.64000005
-0.029820003 0.06268286 0.63900006
-0.028558098 0.062584765 0.63800001
-0.027214287 0.062290478 0.63500005
-0.025963811 0.062192384 0.634
-0.024678096 0.061996195 0.63200003
-0.023437144 0.061898101 0.63100004
-0.022235239 0.061898101 0.63100004
-0.020966668 0.061701909 0.62900001
-0.019768573 0.061701909 0.62900001
-0.018570477 0.061701909 0.62900001
-0.017372383 0.061701909 0.62900001
-0.016148573 0.061603814 0.62800002
-0.014952382 0.061603814 0.62800002
-0.013756191 0.061603814 0.62800002
-0.01254 0.06150572 0.62700003
-0.011345715 0.06150572 0.62700003
-0.010151429 0.06150572 0.62700003
-0.0089571439 0.06150572 0.62700003
-0.0077628577 0.06150572 0.62700003
-0.006568572 0.06150572 0.62700003
-0.0053742859 0.06150572 0.62700003
-0.004186667 0.061603814 0.62800002
-0.0029857145 0.06150572 0.62700003
-0.0017914287 0.06150572 0.62700003
-0.00059714291 0.06150572 0.62700003
0.00059714291 0.06150572 0.62700003
0.0017914287 0.06150572 0.62700003
0.0029857145 0.06150572 0.62700003
0.0041800002 0.06150572 0.62700003
0.0053828573 0.061603814 0.62800002
0.0065895244 0.061701909 0.62900001
0.0077876197 0.061701909 0.62900001
0.0090142861 0.061898101 0.63100004
0.010232382 0.061996195 0.63200003
0.011454286 0.06209429 0.63300002
0.012680001 0.062192384 0.634
0.01393143 0.062388577 0.63600004
0.015190477 0.062584765 0.63800001
0.01643143 0.06268286 0.63900006
0.017648572 0.06268286 0.63900006
0.018895239 0.062780954 0.64000005
0.020114288 0.062780954 0.64000005
0.021333335 0.062780954 0.64000005
0.02258762 0.062879048 0.64100003
0.02403143 0.063467622 0.64700001
-0.032355241 0.064100005 0.64100003
-0.031134287 0.064100005 0.64100003
-0.029866669 0.064000003 0.64000005
-0.028602859 0.063900001 0.63900006
-0.027214287 0.063500002 0.63500005
-0.025963811 0.063400008 0.634
-0.024717145 0.063300006 0.63300002
-0.023474287 0.063200004 0.63200003
-0.022235239 0.063100003 0.63100004
-0.021033335 0.063100003 0.63100004
-0.019768573 0.062900007 0.62900001
-0.018570477 0.062900007 0.62900001
-0.017372383 0.062900007 0.62900001
-0.016174287 0.062900007 0.62900001
-0.014976191 0.062900007 0.62900001
-0.013756191 0.062800005 0.62800002
-0.012560001 0.062800005 0.62800002
-0.01136381 0.062800005 0.62800002
-0.01016762 0.062800005 0.62800002
-0.0089714294 0.062800005 0.62800002
-0.0077752387 0.062800005 0.62800002
-0.006579048 0.062800005 0.62800002
-0.0053828573 0.062800005 0.62800002
-0.004186667 0.062800005 0.62800002
-0.0029904763 0.062800005 0.62800002
-0.0017942858 0.062800005 0.62800002
-0.0005980953 0.062800005 0.62800002
0.0005980953 0.062800005 0.62800002
0.0017942858 0.062800005 0.62800002
0.0029904763 0.062800005 0.62800002
0.0041933334 0.062900007 0.62900001
0.0053914287 0.062900007 0.62900001
0.0066104764 0.063100003 0.63100004
0.0078123813 0.063100003 0.63100004
0.0090142861 0.063100003 0.63100004
0.010248573 0.063300006 0.63300002
0.011472382 0.063400008 0.634
0.012700001 0.063500002 0.63500005
0.013975239 0.063800007 0.63800001
0.015190477 0.063800007 0.63800001
0.01643143 0.063900001 0.63900006
0.017676191 0.064000003 0.64000005
0.018895239 0.064000003 0.64000005
0.020145716 0.064100005 0.64100003
0.021366669 0.064100005 0.64100003
0.022622859 0.064200006 0.64200002
0.02403143 0.064700007 0.64700001
-0.033628572 0.065422863 0.64200002
-0.032405715 0.065422863 0.64200002
-0.031134287 0.065320954 0.64100003
-0.029866669 0.065219052 0.64000005
-0.028602859 0.065117151 0.63900006
-0.027257144 0.064811431 0.63600004
-0.026004763 0.064709529 0.63500005
-0.024756191 0.06460762 0.634
-0.02351143 0.064505719 0.63300002
-0.022270478 0.064403817 0.63200003
-0.021033335 0.064301908 0.63100004
-0.01983143 0.064301908 0.63100004
-0.018629525 0.064301908 0.63100004
-0.01742762 0.064301908 0.63100004
-0.016174287 0.064098097 0.62900001
-0.014976191 0.064098097 0.62900001
-0.013778096 0.064098097 0.62900001
-0.012580001 0.064098097 0.62900001
-0.011381906 0.064098097 0.62900001
-0.01018381 0.064098097 0.62900001
-0.008985715 0.064098097 0.62900001
-0.0077876197 0.064098097 0.62900001
-0.0065895244 0.064098097 0.62900001
-0.0053828573 0.063996196 0.62800002
-0.0041933334 0.064098097 0.62900001
-0.0029952384 0.064098097 0.62900001
-0.0017942858 0.063996196 0.62800002
-0.0005980953 0.063996196 0.62800002
0.0005980953 0.063996196 0.62800002
0.001797143 0.064098097 0.62900001
0.0029952384 0.064098097 0.62900001
0.0042066667 0.064301908 0.63100004
0.0054085716 0.064301908 0.63100004
0.0066209529 0.064403817 0.63200003
0.0078247627 0.064403817 0.63200003
0.0090285717 0.064403817 0.63200003
0.010264763 0.06460762 0.634
0.011490477 0.064709529 0.63500005
0.012720001 0.064811431 0.63600004
0.013975239 0.065015242 0.63800001
0.015214287 0.065117151 0.63900006
0.016457144 0.065219052 0.64000005
0.017676191 0.065219052 0.64000005
0.018924763 0.065320954 0.64100003
0.020145716 0.065320954 0.64100003
0.021366669 0.065320954 0.64100003
0.022693334 0.065626673 0.64400005
-0.033733334 0.066853337 0.64400005
-0.032506667 0.066853337 0.64400005
-0.031182859 0.066645719 0.64200002
-0.029913336 0.06654191 0.64100003
-0.02864762 0.066438101 0.64000005
-0.02734286 0.066230483 0.63800001
-0.026004763 0.065919049 0.63500005
-0.024756191 0.06581524 0.634
-0.023548573 0.06581524 0.634
-0.022305716 0.065711431 0.63300002
-0.021066668 0.065607622 0.63200003
-0.019862859 0.065607622 0.63200003
-0.018629525 0.065503813 0.63100004
-0.01742762 0.065503813 0.63100004
-0.016225716 0.065503813 0.63100004
-0.015023811 0.065503813 0.63100004
-0.013821905 0.065503813 0.63100004
-0.012580001 0.065296195 0.62900001
-0.011381906 0.065296195 0.62900001
-0.01018381 0.065296195 0.62900001
-0.008985715 0.065296195 0.62900001
-0.0077876197 0.065296195 0.62900001
-0.0065895244 0.065296195 0.62900001
-0.0053828573 0.065192387 0.62800002
-0.0041933334 0.065296195 0.62900001
-0.0029952384 0.065296195 0.62900001
-0.0017942858 0.065192387 0.62800002
-0.0005980953 0.065192387 0.62800002
0.00059904763 0.065296195 0.62900001
0.0018028573 0.065503813 0.63100004
0.0030047621 0.065503813 0.63100004
0.0042133336 0.065607622 0.63200003
0.005417143 0.065607622 0.63200003
0.0066209529 0.065607622 0.63200003
0.0078371437 0.065711431 0.63300002
0.0090428581 0.065711431 0.63300002
0.010264763 0.06581524 0.634
0.011508572 0.066022858 0.63600004
0.012760001 0.066230483 0.63800001
0.013997144 0.066334292 0.63900006
0.015238096 0.066438101 0.64000005
0.016457144 0.066438101 0.64000005
0.017703811 0.06654191 0.64100003
0.018924763 0.06654191 0.64100003
0.020177145 0.066645719 0.64200002
0.021400001 0.066645719 0.64200002
0.022622859 0.066645719 0.64200002
-0.033733334 0.068080008 0.64400005
-0.032557145 0.068185717 0.64500004
-0.031280003 0.068080008 0.64400005
-0.029960003 0.067868575 0.64200002
-0.02864762 0.06765715 0.64000005
-0.027385715 0.067551434 0.63900006
-0.026045715 0.067234293 0.63600004
-0.02479524 0.067128576 0.63500005
-0.023548573 0.06702286 0.634
-0.022340953 0.06702286 0.634
-0.021100001 0.066917144 0.63300002
-0.019862859 0.066811435 0.63200003
-0.01865905 0.066811435 0.63200003
-0.017455239 0.066811435 0.63200003
-0.016225716 0.066705719 0.63100004
-0.015023811 0.066705719 0.63100004
-0.013821905 0.066705719 0.63100004
-0.012620001 0.066705719 0.63100004
-0.011418096 0.066705719 0.63100004
-0.010216191 0.066705719 0.63100004
-0.0090142861 0.066705719 0.63100004
-0.0077876197 0.066494294 0.62900001
-0.0065895244 0.066494294 0.62900001
-0.0053828573 0.066388577 0.62800002
-0.0041933334 0.066494294 0.62900001
-0.0029952384 0.066494294 0.62900001
-0.001797143 0.066494294 0.62900001
-0.0005980953 0.066388577 0.62800002
0.00059904763 0.066494294 0.62900001
0.0018028573 0.066705719 0.63100004
0.003009524 0.066811435 0.63200003
0.0042133336 0.066811435 0.63200003
0.0054257144 0.066917144 0.63300002
0.0066314288 0.066917144 0.63300002
0.0078495247 0.06702286 0.634
0.0090571437 0.06702286 0.634
0.010264763 0.06702286 0.634
0.011508572 0.067234293 0.63600004
0.012760001 0.067445718 0.63800001
0.013997144 0.067551434 0.63900006
0.015238096 0.06765715 0.64000005
0.016482858 0.067762859 0.64100003
0.017703811 0.067762859 0.64100003
0.018954286 0.067868575 0.64200002
0.020177145 0.067868575 0.64200002
0.021400001 0.067868575 0.64200002
-0.033785716 0.069414288 0.64500004
-0.032557145 0.069414288 0.64500004
-0.031280003 0.069306672 0.64400005
-0.029960003 0.069091432 0.64200002
-0.028692383 0.068983816 0.64100003
-0.027428573 0.068876192 0.64000005
-0.026127622 0.06866096 0.63800001
-0.024834286 0.06844572 0.63600004
-0.023585716 0.068338096 0.63500005
-0.022340953 0.06823048 0.634
-0.021133335 0.06823048 0.634
-0.019925715 0.06823048 0.634
-0.018688573 0.068122864 0.63300002
-0.017482858 0.068122864 0.63300002
-0.01625143 0.06801524 0.63200003
-0.01504762 0.06801524 0.63200003
-0.01384381 0.06801524 0.63200003
-0.012620001 0.067907624 0.63100004
-0.011418096 0.067907624 0.63100004
-0.010216191 0.067907624 0.63100004
-0.0090142861 0.067907624 0.63100004
-0.0078123813 0.067907624 0.63100004
-0.0065895244 0.067692384 0.62900001
-0.0053828573 0.067584768 0.62800002
-0.0041933334 0.067692384 0.62900001
-0.0029952384 0.067692384 0.62900001
-0.001797143 0.067692384 0.62900001
-0.00059904763 0.067692384 0.62900001
0.00060095242 0.067907624 0.63100004
0.0018057144 0.06801524 0.63200003
0.003009524 0.06801524 0.63200003
0.0042200005 0.068122864 0.63300002
0.0054257144 0.068122864 0.63300002
0.0066419053 0.06823048 0.634
0.0078495247 0.06823048 0.634
0.0090571437 0.06823048 0.634
0.010280953 0.068338096 0.63500005
0.011544763 0.06866096 0.63800001
0.01278 0.068768576 0.63900006
0.014019049 0.068876192 0.64000005
0.015261906 0.068983816 0.64100003
0.016508572 0.069091432 0.64200002
0.01773143 0.069091432 0.64200002
0.019013334 0.069306672 0.64400005
0.020240001 0.069306672 0.64400005
-0.032607622 0.070752382 0.64600003
-0.031328574 0.070642859 0.64500004
-0.030100003 0.070642859 0.64500004
-0.028737145 0.070314288 0.64200002
-0.027471431 0.070204765 0.64100003
-0.026209526 0.070095241 0.64000005
-0.024912383 0.069876194 0.63800001
-0.023622859 0.069657147 0.63600004
-0.02241143 0.069657147 0.63600004
-0.021166667 0.069547623 0.63500005
-0.019957144 0.069547623 0.63500005
-0.018718097 0.0694381 0.634
-0.017510477 0.0694381 0.634
-0.016302858 0.0694381 0.634
-0.01509524 0.0694381 0.634
-0.013865715 0.069328576 0.63300002
-0.01266 0.069328576 0.63300002
-0.011436191 0.069219053 0.63200003
-0.010248573 0.069328576 0.63300002
-0.0090285717 0.069219053 0.63200003
-0.0078247627 0.069219053 0.63200003
-0.0066104764 0.069109529 0.63100004
-0.0054085716 0.069109529 0.63100004
-0.0041933334 0.068890482 0.62900001
-0.003009524 0.069219053 0.63200003
-0.0018057144 0.069219053 0.63200003
-0.00060190482 0.069219053 0.63200003
0.00060285721 0.069328576 0.63300002
0.0018114287 0.0694381 0.634
0.0030190479 0.0694381 0.634
0.0042266669 0.0694381 0.634
0.0054342858 0.0694381 0.634
0.0066523813 0.069547623 0.63500005
0.0078619057 0.069547623 0.63500005
0.0090714293 0.069547623 0.63500005
0.010297144 0.069657147 0.63600004
0.011562858 0.069985718 0.63900006
0.012800001 0.070095241 0.64000005
0.014062858 0.070314288 0.64200002
0.015333334 0.070533335 0.64400005
0.016560001 0.070533335 0.64400005
0.017814286 0.070642859 0.64500004
0.019072382 0.070752382 0.64600003
0.020302858 0.070752382 0.64600003
-0.032607622 0.071982861 0.64600003
-0.031377144 0.071982861 0.64600003
-0.030100003 0.07187143 0.64500004
-0.028826669 0.071760006 0.64400005
-0.027514288 0.071537144 0.64200002
-0.026209526 0.07131429 0.64000005
-0.02495143 0.071202859 0.63900006
-0.023697145 0.071091436 0.63800001
-0.022481907 0.071091436 0.63800001
-0.021200001 0.070868574 0.63600004
-0.019988572 0.070868574 0.63600004
-0.01874762 0.070757151 0.63500005
-0.017538097 0.070757151 0.63500005
-0.016328573 0.070757151 0.63500005
-0.01509524 0.07064572 0.634
-0.01388762 0.07064572 0.634
-0.01266 0.070534289 0.63300002
-0.011454286 0.070534289 0.63300002
-0.010248573 0.070534289 0.63300002
-0.0090428581 0.070534289 0.63300002
-0.0078247627 0.070422865 0.63200003
-0.0066209529 0.070422865 0.63200003
-0.005417143 0.070422865 0.63200003
-0.0042133336 0.070422865 0.63200003
-0.0030142858 0.070534289 0.63300002
-0.0018085715 0.070534289 0.63300002
-0.00060285721 0.070534289 0.63300002
0.00060285721 0.070534289 0.63300002
0.0018114287 0.07064572 0.634
0.0030190479 0.07064572 0.634
0.0042333337 0.070757151 0.63500005
0.0054428573 0.070757151 0.63500005
0.0066628577 0.070868574 0.63600004
0.0078742858 0.070868574 0.63600004
0.0090857148 0.070868574 0.63600004
0.010329524 0.071091436 0.63800001
0.011562858 0.071202859 0.63900006
0.012800001 0.07131429 0.64000005
0.014062858 0.071537144 0.64200002
0.015357144 0.07187143 0.64500004
0.016585715 0.07187143 0.64500004
0.017841905 0.071982861 0.64600003
0.019101907 0.072094291 0.64700001
0.020428572 0.072428577 0.65000004
0.021666668 0.072428577 0.65000004
-0.032658096 0.07332667 0.64700001
-0.031377144 0.073213339 0.64600003
-0.030100003 0.073100008 0.64500004
-0.028826669 0.07298667 0.64400005
-0.027600002 0.07298667 0.64400005
-0.02629143 0.072760008 0.64200002
-0.024990479 0.072533339 0.64000005
-0.023734286 0.072420008 0.63900006
-0.022517145 0.072420008 0.63900006
-0.021300001 0.072420008 0.63900006
-0.020051429 0.07230667 0.63800001
-0.018777143 0.072080001 0.63600004
-0.017565716 0.072080001 0.63600004
-0.016328573 0.07196667 0.63500005
-0.015119049 0.07196667 0.63500005
-0.013909524 0.07196667 0.63500005
-0.012680001 0.07185334 0.634
-0.011472382 0.07185334 0.634
-0.010264763 0.07185334 0.634
-0.0090571437 0.07185334 0.634
-0.0078371437 0.071740001 0.63300002
-0.0066314288 0.071740001 0.63300002
-0.0054257144 0.071740001 0.63300002
-0.0042200005 0.071740001 0.63300002
-0.0030190479 0.07185334 0.634
-0.0018114287 0.07185334 0.634
-0.00060380955 0.07185334 0.634
0.00060380955 0.07185334 0.634
0.0018142859 0.07196667 0.63500005
0.0030238098 0.07196667 0.63500005
0.0042333337 0.07196667 0.63500005
0.0054514287 0.072080001 0.63600004
0.0066838101 0.07230667 0.63800001
0.0078990478 0.07230667 0.63800001
0.0091285724 0.072420008 0.63900006
0.010361905 0.072533339 0.64000005
0.011580953 0.072533339 0.64000005
0.012820001 0.07264667 0.64100003
0.014062858 0.072760008 0.64200002
0.015357144 0.073100008 0.64500004
0.016637145 0.07332667 0.64700001
0.017869525 0.07332667 0.64700001
0.019190477 0.073666669 0.65000004
0.020491431 0.073893338 0.65200001
0.021700002 0.073780008 0.65100002
0.022940002 0.073780008 0.65100002
-0.032809526 0.07490477 0.65000004
-0.031425714 0.074559055 0.64700001
-0.030146668 0.074443817 0.64600003
-0.02887143 0.074328579 0.64500004
-0.027600002 0.074213341 0.64400005
-0.02629143 0.073982865 0.64200002
-0.025029525 0.073867626 0.64100003
-0.023771429 0.073752388 0.64000005
-0.022552382 0.073752388 0.64000005
-0.021300001 0.07363715 0.63900006
-0.020082859 0.07363715 0.63900006
-0.018836191 0.073521912 0.63800001
-0.017620953 0.073521912 0.63800001
-0.016354287 0.073291436 0.63600004
-0.015142858 0.073291436 0.63600004
-0.01393143 0.073291436 0.63600004
-0.012700001 0.073176198 0.63500005
-0.011490477 0.073176198 0.63500005
-0.010280953 0.073176198 0.63500005
-0.0090714293 0.073176198 0.63500005
-0.0078495247 0.07306096 0.634
-0.0066419053 0.07306096 0.634
-0.0054342858 0.07306096 0.634
-0.0042266669 0.07306096 0.634
-0.0030190479 0.07306096 0.634
-0.0018114287 0.07306096 0.634
-0.00060380955 0.07306096 0.634
0.00060476194 0.073176198 0.63500005
0.0018142859 0.073176198 0.63500005
0.0030238098 0.073176198 0.63500005
0.0042400002 0.073291436 0.63600004
0.0054514287 0.073291436 0.63600004
0.0066838101 0.073521912 0.63800001
0.0079114288 0.07363715 0.63900006
0.009142858 0.073752388 0.64000005
0.010378096 0.073867626 0.64100003
0.011599048 0.073867626 0.64100003
0.012840001 0.073982865 0.64200002
0.014106668 0.074213341 0.64400005
0.015357144 0.074328579 0.64500004
0.016662858 0.074674293 0.648
0.017952383 0.07490477 0.65000004
0.01927905 0.075250484 0.65300006
0.020491431 0.075135246 0.65200001
0.021700002 0.075020008 0.65100002
-0.032860003 0.076260008 0.65100002
-0.031474289 0.075908579 0.648
-0.030193334 0.075791433 0.64700001
-0.028916193 0.075674288 0.64600003
-0.027642859 0.07555715 0.64500004
-0.026373334 0.075440004 0.64400005
-0.025146669 0.075440004 0.64400005
-0.023845715 0.075205721 0.64200002
-0.02258762 0.075088575 0.64100003
-0.021333335 0.07497143 0.64000005
-0.020114288 0.07497143 0.64000005
-0.018865716 0.074854292 0.63900006
-0.017648572 0.074854292 0.63900006
-0.016405715 0.074737146 0.63800001
-0.015190477 0.074737146 0.63800001
-0.01393143 0.074502863 0.63600004
-0.012720001 0.074502863 0.63600004
-0.011490477 0.074385718 0.63500005
-0.010280953 0.074385718 0.63500005
-0.0090714293 0.074385718 0.63500005
-0.0078619057 0.074385718 0.63500005
-0.0066523813 0.074385718 0.63500005
-0.0054342858 0.074268579 0.634
-0.0042266669 0.074268579 0.634
-0.0030238098 0.074385718 0.63500005
-0.0018142859 0.074385718 0.63500005
-0.00060476194 0.074385718 0.63500005
0.00060476194 0.074385718 0.63500005
0.0018142859 0.074385718 0.63500005
0.0030285716 0.074502863 0.63600004
0.0042533334 0.074737146 0.63800001
0.0054685716 0.074737146 0.63800001
0.0066942861 0.074854292 0.63900006
0.0079238098 0.07497143 0.64000005
0.0091571435 0.075088575 0.64100003
0.010394286 0.075205721 0.64200002
0.011617144 0.075205721 0.64200002
0.012880001 0.075440004 0.64400005
0.014128572 0.07555715 0.64500004
0.015404763 0.075791433 0.64700001
0.016662858 0.075908579 0.648
0.017980002 0.076260008 0.65100002
0.019249525 0.076377146 0.65200001
0.020491431 0.076377146 0.65200001
0.021700002 0.076260008 0.65100002
-0.031425714 0.077023812 0.64700001
-0.030193334 0.077023812 0.64700001
-0.028916193 0.076904766 0.64600003
-0.027685717 0.076904766 0.64600003
-0.026414288 0.076785721 0.64500004
-0.025146669 0.076666668 0.64400005
-0.023845715 0.076428577 0.64200002
-0.02258762 0.076309532 0.64100003
-0.021366669 0.076309532 0.64100003
-0.020114288 0.076190479 0.64000005
-0.018895239 0.076190479 0.64000005
-0.017676191 0.076190479 0.64000005
-0.01643143 0.076071434 0.63900006
-0.015214287 0.076071434 0.63900006
-0.013997144 0.076071434 0.63900006
-0.012760001 0.075952388 0.63800001
-0.011508572 0.07571429 0.63600004
-0.010297144 0.07571429 0.63600004
-0.0090857148 0.07571429 0.63600004
-0.0078619057 0.075595245 0.63500005
-0.0066523813 0.075595245 0.63500005
-0.0054428573 0.075595245 0.63500005
-0.0042333337 0.075595245 0.63500005
-0.0030238098 0.075595245 0.63500005
-0.0018142859 0.075595245 0.63500005
-0.00060476194 0.075595245 0.63500005
0.00060476194 0.075595245 0.63500005
0.0018171429 0.07571429 0.63600004
0.0030380955 0.075952388 0.63800001
0.0042600003 0.076071434 0.63900006
0.005477143 0.076071434 0.63900006
0.0067047626 0.076190479 0.64000005
0.0079361908 0.076309532 0.64100003
0.0091714291 0.076428577 0.64200002
0.010426668 0.076666668 0.64400005
0.011653334 0.076666668 0.64400005
0.0129 0.076785721 0.64500004
0.014150477 0.076904766 0.64600003
0.015404763 0.077023812 0.64700001
0.016662858 0.077142864 0.648
0.018007619 0.077619053 0.65200001
0.01927905 0.077738099 0.65300006
0.020522859 0.077738099 0.65300006
-0.031425714 0.078256197 0.64700001
-0.030193334 0.078256197 0.64700001
-0.028960954 0.078256197 0.64700001
-0.027728572 0.078256197 0.64700001
-0.02645524 0.078135245 0.64600003
-0.025185715 0.078014292 0.64500004
-0.023920001 0.077893339 0.64400005
-0.022622859 0.077651434 0.64200002
-0.021366669 0.077530481 0.64100003
-0.020145716 0.077530481 0.64100003
-0.018924763 0.077530481 0.64100003
-0.017676191 0.077409528 0.64000005
-0.01643143 0.077288575 0.63900006
-0.015238096 0.077409528 0.64000005
-0.014019049 0.077409528 0.64000005
-0.01278 0.077288575 0.63900006
-0.011562858 0.077288575 0.63900006
-0.010329524 0.077167623 0.63800001
-0.0091142859 0.077167623 0.63800001
-0.0078990478 0.077167623 0.63800001
-0.0066628577 0.076925717 0.63600004
-0.0054428573 0.076804765 0.63500005
-0.0042400002 0.076925717 0.63600004
-0.0030285716 0.076925717 0.63600004
-0.0018171429 0.076925717 0.63600004
-0.00060571433 0.076925717 0.63600004
0.00060761906 0.077167623 0.63800001
0.0018228573 0.077167623 0.63800001
0.0030428574 0.077288575 0.63900006
0.0042600003 0.077288575 0.63900006
0.0054857144 0.077409528 0.64000005
0.0067152386 0.077530481 0.64100003
0.0079361908 0.077530481 0.64100003
0.0091714291 0.077651434 0.64200002
0.010426668 0.077893339 0.64400005
0.011653334 0.077893339 0.64400005
0.0129 0.078014292 0.64500004
0.014172382 0.078256197 0.64700001
0.015428573 0.07837715 0.648
0.016740002 0.078740008 0.65100002
0.017980002 0.078740008 0.65100002
0.01927905 0.078981914 0.65300006
0.020585716 0.079223812 0.65500003
-0.034960002 0.079120003 0.64400005
-0.033785716 0.079242863 0.64500004
-0.032607622 0.079365723 0.64600003
-0.031425714 0.079488575 0.64700001
-0.030240001 0.079611436 0.648
-0.029005716 0.079611436 0.648
-0.027728572 0.079488575 0.64700001
-0.026496192 0.079488575 0.64700001
-0.025224764 0.079365723 0.64600003
-0.023957144 0.079242863 0.64500004
-0.022693334 0.079120003 0.64400005
-0.021400001 0.07887429 0.64200002
-0.020177145 0.07887429 0.64200002
-0.018924763 0.078751437 0.64100003
-0.017703811 0.078751437 0.64100003
-0.016457144 0.078628577 0.64000005
-0.015238096 0.078628577 0.64000005
-0.014019049 0.078628577 0.64000005
-0.012800001 0.078628577 0.64000005
-0.011562858 0.078505717 0.63900006
-0.010345715 0.078505717 0.63900006
-0.0091285724 0.078505717 0.63900006
-0.0078990478 0.078382865 0.63800001
-0.0066838101 0.078382865 0.63800001
-0.0054514287 0.078137144 0.63600004
-0.0042400002 0.078137144 0.63600004
-0.0030380955 0.078382865 0.63800001
-0.0018228573 0.078382865 0.63800001
-0.00060761906 0.078382865 0.63800001
0.00060761906 0.078382865 0.63800001
0.0018257144 0.078505717 0.63900006
0.0030476192 0.078628577 0.64000005
0.0042733336 0.078751437 0.64100003
0.0055028577 0.07887429 0.64200002
0.0067257145 0.07887429 0.64200002
0.0079733338 0.079120003 0.64400005
0.0092000002 0.079120003 0.64400005
0.010442858 0.079242863 0.64500004
0.011671429 0.079242863 0.64500004
0.012920001 0.079365723 0.64600003
0.014194286 0.079611436 0.648
0.015500001 0.079980008 0.65100002
0.016765716 0.080102861 0.65200001
0.018035239 0.080225721 0.65300006
0.019338097 0.080471434 0.65500003
0.020585716 0.080471434 0.65500003
-0.034851432 0.080097146 0.64200002
-0.032557145 0.080471434 0.64500004
-0.031425714 0.080720961 0.64700001
-0.030240001 0.080845721 0.648
-0.029005716 0.080845721 0.648
-0.02777143 0.080845721 0.648
-0.026496192 0.080720961 0.64700001
-0.025263811 0.080720961 0.64700001
-0.023994287 0.080596194 0.64600003
-0.022728574 0.080471434 0.64500004
-0.021466669 0.080346674 0.64400005
-0.020240001 0.080346674 0.64400005
-0.018954286 0.080097146 0.64200002
-0.017703811 0.079972386 0.64100003
-0.016482858 0.079972386 0.64100003
-0.015261906 0.079972386 0.64100003
-0.014040953 0.079972386 0.64100003
-0.012800001 0.079847626 0.64000005
-0.011580953 0.079847626 0.64000005
-0.010361905 0.079847626 0.64000005
-0.009142858 0.079847626 0.64000005
-0.0079114288 0.079722859 0.63900006
-0.0066838101 0.079598099 0.63800001
-0.0054685716 0.079598099 0.63800001
-0.0042533334 0.079598099 0.63800001
-0.0030380955 0.079598099 0.63800001
-0.0018228573 0.079598099 0.63800001
-0.00060857146 0.079722859 0.63900006
0.00060857146 0.079722859 0.63900006
0.0018285715 0.079847626 0.64000005
0.0030523811 0.079972386 0.64100003
0.0042800005 0.080097146 0.64200002
0.0055200006 0.080346674 0.64400005
0.006746667 0.080346674 0.64400005
0.0079733338 0.080346674 0.64400005
0.0092142867 0.080471434 0.64500004
0.010459049 0.080596194 0.64600003
0.011689524 0.080596194 0.64600003
0.012940001 0.080720961 0.64700001
0.014238096 0.081095241 0.65000004
0.015523811 0.081344768 0.65200001
0.016791429 0.081469528 0.65300006
0.018035239 0.081469528 0.65300006
0.019338097 0.081719056 0.65500003
0.020617144 0.081843816 0.65600002
-0.031425714 0.081953339 0.64700001
-0.030240001 0.082080007 0.648
-0.02909524 0.082333341 0.65000004
-0.02777143 0.082080007 0.648
-0.026537145 0.082080007 0.648
-0.025263811 0.081953339 0.64700001
-0.023994287 0.081826672 0.64600003
-0.022728574 0.081700005 0.64500004
-0.021500001 0.081700005 0.64500004
-0.020240001 0.081573337 0.64400005
-0.019013334 0.081573337 0.64400005
-0.01773143 0.081320003 0.64200002
-0.016508572 0.081320003 0.64200002
-0.015285715 0.081320003 0.64200002
-0.014062858 0.081320003 0.64200002
-0.012820001 0.081193335 0.64100003
-0.011599048 0.081193335 0.64100003
-0.010378096 0.081193335 0.64100003
-0.009142858 0.081066675 0.64000005
-0.0079238098 0.081066675 0.64000005
-0.0066942861 0.080940008 0.63900006
-0.0054685716 0.080813341 0.63800001
-0.0042533334 0.080813341 0.63800001
-0.0030428574 0.080940008 0.63900006
-0.0018257144 0.080940008 0.63900006
-0.00060857146 0.080940008 0.63900006
0.00060952385 0.081066675 0.64000005
0.0018314287 0.081193335 0.64100003
0.003057143 0.081320003 0.64200002
0.0042933337 0.081573337 0.64400005
0.0055200006 0.081573337 0.64400005
0.0067571434 0.081700005 0.64500004
0.0079857148 0.081700005 0.64500004
0.0092285722 0.081826672 0.64600003
0.010442858 0.081700005 0.64500004
0.01170762 0.081953339 0.64700001
0.012960001 0.082080007 0.648
0.014260001 0.082460009 0.65100002
0.01554762 0.082713336 0.65300006
0.016842859 0.08296667 0.65500003
0.018090477 0.08296667 0.65500003
0.019338097 0.08296667 0.65500003
0.020617144 0.083093338 0.65600002
-0.030333335 0.083571434 0.65000004
-0.029140001 0.083700009 0.65100002
-0.027857145 0.083571434 0.65000004
-0.026619049 0.083571434 0.65000004
-0.025302859 0.083314292 0.648
-0.024068573 0.083314292 0.648
-0.022799049 0.083185717 0.64700001
-0.021533335 0.08305715 0.64600003
-0.02027143 0.082928576 0.64500004
-0.019042859 0.082928576 0.64500004
-0.017786669 0.082800008 0.64400005
-0.016508572 0.082542859 0.64200002
-0.015333334 0.082800008 0.64400005
-0.014062858 0.082542859 0.64200002
-0.012840001 0.082542859 0.64200002
-0.011617144 0.082542859 0.64200002
-0.010394286 0.082542859 0.64200002
-0.0091571435 0.082414292 0.64100003
-0.0079238098 0.082285717 0.64000005
-0.0067047626 0.082285717 0.64000005
-0.005477143 0.08215715 0.63900006
-0.0042600003 0.08215715 0.63900006
-0.0030428574 0.08215715 0.63900006
-0.0018285715 0.082285717 0.64000005
-0.00060952385 0.082285717 0.64000005
0.00060952385 0.082285717 0.64000005
0.0018342858 0.082542859 0.64200002
0.0030666669 0.082800008 0.64400005
0.0042933337 0.082800008 0.64400005
0.005528572 0.082928576 0.64500004
0.0067571434 0.082928576 0.64500004
0.0079733338 0.082800008 0.64400005
0.0092142867 0.082928576 0.64500004
0.010459049 0.08305715 0.64600003
0.011725715 0.083314292 0.648
0.013000001 0.083571434 0.65000004
0.014281905 0.083828576 0.65200001
0.01554762 0.083957151 0.65300006
0.016842859 0.084214292 0.65500003
0.018090477 0.084214292 0.65500003
0.019338097 0.084214292 0.65500003
0.020585716 0.084214292 0.65500003
-0.029229525 0.085200958 0.65300006
-0.027942859 0.085070483 0.65200001
-0.026660001 0.084940009 0.65100002
-0.025420001 0.084940009 0.65100002
-0.02414286 0.084809527 0.65000004
-0.022904763 0.084809527 0.65000004
-0.021600001 0.084548578 0.648
-0.020334287 0.084418103 0.64700001
-0.019072382 0.084287621 0.64600003
-0.017814286 0.084157147 0.64500004
-0.016585715 0.084157147 0.64500004
-0.015357144 0.084157147 0.64500004
-0.014106668 0.084026672 0.64400005
-0.012880001 0.084026672 0.64400005
-0.011617144 0.083765723 0.64200002
-0.010394286 0.083765723 0.64200002
-0.0091714291 0.083765723 0.64200002
-0.0079361908 0.083635241 0.64100003
-0.0067152386 0.083635241 0.64100003
-0.0054942863 0.083635241 0.64100003
-0.0042733336 0.083635241 0.64100003
-0.0030523811 0.083635241 0.64100003
-0.0018342858 0.083765723 0.64200002
-0.00061142864 0.083765723 0.64200002
0.00061142864 0.083765723 0.64200002
0.0018400002 0.084026672 0.64400005
0.0030666669 0.084026672 0.64400005
0.0043000001 0.084157147 0.64500004
0.005528572 0.084157147 0.64500004
0.0067676194 0.084287621 0.64600003
0.0079857148 0.084157147 0.64500004
0.0092571434 0.084548578 0.648
0.010491429 0.084548578 0.648
0.011761906 0.084809527 0.65000004
0.013000001 0.084809527 0.65000004
0.01434762 0.085461907 0.65500003
0.015619049 0.085592389 0.65600002
0.016894286 0.085722864 0.65700001
0.018145716 0.085722864 0.65700001
0.019397143 0.085722864 0.65700001
-0.02931905 0.086709529 0.65500003
-0.027985716 0.086444765 0.65300006
-0.026700955 0.086312383 0.65200001
-0.025459049 0.086312383 0.65200001
-0.024180003 0.086180009 0.65100002
-0.022940002 0.086180009 0.65100002
-0.021666668 0.086047627 0.65000004
-0.020365715 0.085782863 0.648
-0.019101907 0.085650481 0.64700001
-0.017841905 0.085518099 0.64600003
-0.016585715 0.085385717 0.64500004
-0.015357144 0.085385717 0.64500004
-0.014128572 0.085385717 0.64500004
-0.012880001 0.085253336 0.64400005
-0.011653334 0.085253336 0.64400005
-0.010426668 0.085253336 0.64400005
-0.0092000002 0.085253336 0.64400005
-0.0079485718 0.084988579 0.64200002
-0.0067257145 0.084988579 0.64200002
-0.0055028577 0.084988579 0.64200002
-0.0042800005 0.084988579 0.64200002
-0.0030666669 0.085253336 0.64400005
-0.0018400002 0.085253336 0.64400005
-0.00061333337 0.085253336 0.64400005
0.00061333337 0.085253336 0.64400005
0.0018428572 0.085385717 0.64500004
0.0030714287 0.085385717 0.64500004
0.0043000001 0.085385717 0.64500004
0.0055371434 0.085518099 0.64600003
0.0067676194 0.085518099 0.64600003
0.0079857148 0.085385717 0.64500004
0.0092571434 0.085782863 0.648
0.01052381 0.086047627 0.65000004
0.011780001 0.086180009 0.65100002
0.013060001 0.086444765 0.65300006
0.014369525 0.086841911 0.65600002
0.015642859 0.086974293 0.65700001
0.016894286 0.086974293 0.65700001
0.018145716 0.086974293 0.65700001
0.019397143 0.086974293 0.65700001
0.020648573 0.086974293 0.65700001
-0.029408574 0.088225722 0.65700001
-0.028114287 0.088091433 0.65600002
-0.026823811 0.087957151 0.65500003
-0.025498098 0.08768858 0.65300006
-0.024217144 0.087554291 0.65200001
-0.022940002 0.087420009 0.65100002
-0.021700002 0.087420009 0.65100002
-0.020428572 0.08728572 0.65000004
-0.019131429 0.087017149 0.648
-0.017869525 0.086882859 0.64700001
-0.016611429 0.086748578 0.64600003
-0.015357144 0.086614288 0.64500004
-0.014128572 0.086614288 0.64500004
-0.0129 0.086614288 0.64500004
-0.011671429 0.086614288 0.64500004
-0.010442858 0.086614288 0.64500004
-0.0092000002 0.086480007 0.64400005
-0.0079733338 0.086480007 0.64400005
-0.006746667 0.086480007 0.64400005
-0.0055200006 0.086480007 0.64400005
-0.0042933337 0.086480007 0.64400005
-0.0030714287 0.086614288 0.64500004
-0.0018428572 0.086614288 0.64500004
-0.00061428576 0.086614288 0.64500004
0.00061428576 0.086614288 0.64500004
0.0018428572 0.086614288 0.64500004
0.0030761906 0.086748578 0.64600003
0.004306667 0.086748578 0.64600003
0.0055371434 0.086748578 0.64600003
0.0067780958 0.086882859 0.64700001
0.0080104768 0.086882859 0.64700001
0.0092857145 0.08728572 0.65000004
0.01052381 0.08728572 0.65000004
0.011798096 0.087554291 0.65200001
0.013100001 0.087957151 0.65500003
0.014369525 0.088091433 0.65600002
0.015642859 0.088225722 0.65700001
0.016894286 0.088225722 0.65700001
0.018145716 0.088225722 0.65700001
0.019397143 0.088225722 0.65700001
-0.029453335 0.089613341 0.65800005
-0.028114287 0.089340955 0.65600002
-0.026823811 0.089204766 0.65500003
-0.025498098 0.088932388 0.65300006
-0.024254287 0.088932388 0.65300006
-0.02297524 0.088796198 0.65200001
-0.021733334 0.088796198 0.65200001
-0.020428572 0.088523813 0.65000004
-0.019190477 0.088523813 0.65000004
-0.017897144 0.088251434 0.648
-0.016637145 0.088115245 0.64700001
-0.015380953 0.087979056 0.64600003
-0.014150477 0.087979056 0.64600003
-0.012920001 0.087979056 0.64600003
-0.011671429 0.087842859 0.64500004
-0.010442858 0.087842859 0.64500004
-0.0092142867 0.087842859 0.64500004
-0.0079857148 0.087842859 0.64500004
-0.0067571434 0.087842859 0.64500004
-0.005528572 0.087842859 0.64500004
-0.0043000001 0.087842859 0.64500004
-0.0030714287 0.087842859 0.64500004
-0.0018428572 0.087842859 0.64500004
-0.00061428576 0.087842859 0.64500004
0.00061428576 0.087842859 0.64500004
0.0018457144 0.087979056 0.64600003
0.0030761906 0.087979056 0.64600003
0.0043133334 0.088115245 0.64700001
0.0055457149 0.088115245 0.64700001
0.0067885718 0.088251434 0.648
0.0080228578 0.088251434 0.648
0.0092857145 0.088523813 0.65000004
0.010540001 0.088660009 0.65100002
0.011798096 0.088796198 0.65200001
0.013120001 0.089340955 0.65600002
0.01439143 0.089477152 0.65700001
0.015666667 0.089613341 0.65800005
0.01692 0.089613341 0.65800005
0.018173335 0.089613341 0.65800005
0.019426668 0.089613341 0.65800005
-0.02954286 0.091142863 0.66000003
-0.028157145 0.090728581 0.65700001
-0.026864763 0.090590484 0.65600002
-0.025576193 0.090452388 0.65500003
-0.024328573 0.090452388 0.65500003
-0.023010477 0.090176195 0.65300006
-0.021766668 0.090176195 0.65300006
-0.020460002 0.089900009 0.65100002
-0.019220002 0.089900009 0.65100002
-0.017952383 0.089761913 0.65000004
-0.016637145 0.089347623 0.64700001
-0.015404763 0.089347623 0.64700001
-0.014172382 0.089347623 0.64700001
-0.012940001 0.089347623 0.64700001
-0.011689524 0.089209527 0.64600003
-0.010442858 0.089071438 0.64500004
-0.0092285722 0.089209527 0.64600003
-0.0079980958 0.089209527 0.64600003
-0.0067676194 0.089209527 0.64600003
-0.0055371434 0.089209527 0.64600003
-0.004306667 0.089209527 0.64600003
-0.0030761906 0.089209527 0.64600003
