# .PCD v0.7 - Point Cloud Data file format
VERSION 0.7
FIELDS x y z
SIZE 4 4 4
TYPE F F F
COUNT 1 1 1
WIDTH 1391
HEIGHT 1
VIEWPOINT 0 0 0 1 0 0 0
POINTS 1391
DATA ascii
-0.11501049 0.04028286 0.61300004
-0.11365715 0.040217146 0.61200005
-0.11230762 0.040151432 0.611
-0.11114382 0.040151432 0.611
-0.10962 0.040020004 0.60900003
-0.10846001 0.040020004 0.60900003
-0.10730001 0.040020004 0.60900003
-0.10614001 0.040020004 0.60900003
-0.10498001 0.040020004 0.60900003
-0.10364953 0.03995429 0.60800004
-0.10266001 0.040020004 0.60900003
-0.1015 0.040020004 0.60900003
-0.10017525 0.03995429 0.60800004
-0.099180005 0.040020004 0.60900003
-0.097859055 0.03995429 0.60800004
-0.096860006 0.040020004 0.60900003
-0.096014291 0.040151432 0.611
-0.094850481 0.040151432 0.611
-0.09368667 0.040151432 0.611
-0.092674293 0.040217146 0.61200005
-0.091508575 0.040217146 0.61200005
-0.090490483 0.04028286 0.61300004
-0.089468576 0.040348575 0.61400002
-0.088442862 0.040414289 0.61500001
-0.087413341 0.040480003 0.61600006
-0.086240008 0.040480003 0.61600006
-0.085204765 0.040545717 0.61700004
-0.084165722 0.040611431 0.61800003
-0.083122864 0.040677145 0.61900002
-0.082076199 0.040742859 0.62
-0.081156194 0.040874287 0.62200004
-0.080228575 0.041005716 0.62400001
-0.079166673 0.04107143 0.625
-0.078100957 0.041137144 0.62600005
-0.077031434 0.041202858 0.62700003
-0.076079056 0.04133429 0.62900001
-0.074880958 0.04133429 0.62900001
-0.07391715 0.041465718 0.63100004
-0.073521912 0.041925717 0.63800001
-0.07230667 0.041925717 0.63800001
-0.071091436 0.041925717 0.63800001
-0.13490286 0.042194288 0.62400001
-0.13371429 0.042194288 0.62400001
-0.13231334 0.04212667 0.62300003
-0.13091619 0.042059049 0.62200004
-0.12931429 0.041923814 0.62
-0.12813334 0.041923814 0.62
-0.12695239 0.041923814 0.62
-0.12536572 0.041788574 0.61800003
-0.12378667 0.041653335 0.61600006
-0.12241429 0.041585717 0.61500001
-0.12104572 0.0415181 0.61400002
-0.1198762 0.0415181 0.61400002
-0.11870667 0.0415181 0.61400002
-0.11753715 0.0415181 0.61400002
-0.11636762 0.0415181 0.61400002
-0.11501049 0.041450478 0.61300004
-0.11384287 0.041450478 0.61300004
-0.11249144 0.04138286 0.61200005
-0.11114382 0.041315243 0.611
-0.10998001 0.041315243 0.611
-0.1088162 0.041315243 0.611
-0.10765239 0.041315243 0.611
-0.10614001 0.041180003 0.60900003
-0.10498001 0.041180003 0.60900003
-0.10382 0.041180003 0.60900003
-0.10299715 0.041315243 0.611
-0.10183334 0.041315243 0.611
-0.10034001 0.041180003 0.60900003
-0.099180005 0.041180003 0.60900003
-0.09802001 0.041180003 0.60900003
-0.097178102 0.041315243 0.611
-0.096014291 0.041315243 0.611
-0.094850481 0.041315243 0.611
-0.093840003 0.04138286 0.61200005
-0.092674293 0.04138286 0.61200005
-0.0916581 0.041450478 0.61300004
-0.090638101 0.0415181 0.61400002
-0.089468576 0.0415181 0.61400002
-0.088442862 0.041585717 0.61500001
-0.087413341 0.041653335 0.61600006
-0.086380005 0.041720957 0.61700004
-0.085204765 0.041720957 0.61700004
-0.084301911 0.041856192 0.61900002
-0.083257146 0.041923814 0.62
-0.082340956 0.042059049 0.62200004
-0.081286669 0.04212667 0.62300003
-0.080228575 0.042194288 0.62400001
-0.079166673 0.042261906 0.625
-0.078100957 0.042329527 0.62600005
-0.077031434 0.042397145 0.62700003
-0.076079056 0.042532384 0.62900001
-0.075119056 0.042667624 0.63100004
-0.07391715 0.042667624 0.63100004
-0.073521912 0.043140955 0.63800001
-0.07230667 0.043140955 0.63800001
-0.071091436 0.043140955 0.63800001
-0.13350001 0.043313336 0.62300003
-0.13231334 0.043313336 0.62300003
-0.13091619 0.043243811 0.62200004
-0.12931429 0.043104764 0.62
-0.12813334 0.043104764 0.62
-0.12695239 0.043104764 0.62
-0.12556858 0.043035243 0.61900002
-0.12398763 0.042896193 0.61700004
-0.12261334 0.042826671 0.61600006
-0.12124287 0.042757146 0.61500001
-0.12007143 0.042757146 0.61500001
-0.11870667 0.042687621 0.61400002
-0.11753715 0.042687621 0.61400002
-0.11636762 0.042687621 0.61400002
-0.11519811 0.042687621 0.61400002
-0.11384287 0.0426181 0.61300004
-0.11267524 0.0426181 0.61300004
-0.11132572 0.042548575 0.61200005
-0.11016001 0.042548575 0.61200005
-0.10899429 0.042548575 0.61200005
-0.10765239 0.042479049 0.611
-0.10648858 0.042479049 0.611
-0.10532477 0.042479049 0.611
-0.10416096 0.042479049 0.611
-0.10299715 0.042479049 0.611
-0.10183334 0.042479049 0.611
-0.10066953 0.042479049 0.611
-0.099505723 0.042479049 0.611
-0.098341912 0.042479049 0.611
-0.097178102 0.042479049 0.611
-0.096171431 0.042548575 0.61200005
-0.095005721 0.042548575 0.61200005
-0.093840003 0.042548575 0.61200005
-0.092674293 0.042548575 0.61200005
-0.0916581 0.0426181 0.61300004
-0.090638101 0.042687621 0.61400002
-0.089614294 0.042757146 0.61500001
-0.088442862 0.042757146 0.61500001
-0.087413341 0.042826671 0.61600006
-0.086520009 0.042965718 0.61800003
-0.085480958 0.043035243 0.61900002
-0.0844381 0.043104764 0.62
-0.083525717 0.043243811 0.62200004
-0.082473338 0.043313336 0.62300003
-0.081286669 0.043313336 0.62300003
-0.080228575 0.043382861 0.62400001
-0.079166673 0.043452382 0.625
-0.078100957 0.043521907 0.62600005
-0.077031434 0.043591432 0.62700003
-0.076320961 0.043869525 0.63100004
-0.075238101 0.04393905 0.63200003
-0.074151434 0.044008575 0.63300002
-0.073176198 0.044147622 0.63500005
-0.07230667 0.044356193 0.63800001
-0.071091436 0.044356193 0.63800001
-0.13133715 0.044571433 0.62400001
-0.12994 0.044500005 0.62300003
-0.12875335 0.044500005 0.62300003
-0.12736191 0.044428576 0.62200004
-0.12577143 0.044285718 0.62
-0.12438953 0.04421429 0.61900002
-0.12321048 0.04421429 0.61900002
-0.12183429 0.044142861 0.61800003
-0.12046191 0.044071432 0.61700004
-0.11909334 0.044000003 0.61600006
-0.11772858 0.043928575 0.61500001
-0.11655715 0.043928575 0.61500001
-0.11519811 0.043857146 0.61400002
-0.11402858 0.043857146 0.61400002
-0.11285906 0.043857146 0.61400002
-0.11168953 0.043857146 0.61400002
-0.11052001 0.043857146 0.61400002
-0.10935048 0.043857146 0.61400002
-0.10800477 0.043785717 0.61300004
-0.10683715 0.043785717 0.61300004
-0.10566953 0.043785717 0.61300004
-0.10450191 0.043785717 0.61300004
-0.10333429 0.043785717 0.61300004
-0.10216668 0.043785717 0.61300004
-0.10099906 0.043785717 0.61300004
-0.099831432 0.043785717 0.61300004
-0.098824769 0.043857146 0.61400002
-0.097655244 0.043857146 0.61400002
-0.096485719 0.043857146 0.61400002
-0.095316194 0.043857146 0.61400002
-0.094146676 0.043857146 0.61400002
-0.092977151 0.043857146 0.61400002
-0.091957152 0.043928575 0.61500001
-0.090785719 0.043928575 0.61500001
-0.089760005 0.044000003 0.61600006
-0.088730484 0.044071432 0.61700004
-0.087555245 0.044071432 0.61700004
-0.086660005 0.04421429 0.61900002
-0.085619055 0.044285718 0.62
-0.084846675 0.044500005 0.62300003
-0.083660007 0.044500005 0.62300003
-0.08260572 0.044571433 0.62400001
-0.081417151 0.044571433 0.62400001
-0.080357149 0.044642862 0.625
-0.07929334 0.044714287 0.62600005
-0.078225717 0.044785716 0.62700003
-0.077154294 0.044857144 0.62800002
-0.076320961 0.045071431 0.63100004
-0.075476192 0.045285717 0.634
-0.074268579 0.045285717 0.634
-0.07306096 0.045285717 0.634
-0.13154763 0.045833338 0.625
-0.13014857 0.045760002 0.62400001
-0.12896001 0.045760002 0.62400001
-0.12756668 0.04568667 0.62300003
-0.12617715 0.045613337 0.62200004
-0.12459049 0.045466669 0.62
-0.12340953 0.045466669 0.62
-0.12203144 0.045393337 0.61900002
-0.12065715 0.045320004 0.61800003
-0.11909334 0.045173336 0.61600006
-0.11792001 0.045173336 0.61600006
-0.11655715 0.045100003 0.61500001
-0.11538572 0.045100003 0.61500001
-0.11421429 0.045100003 0.61500001
-0.11304286 0.045100003 0.61500001
-0.11187144 0.045100003 0.61500001
-0.11052001 0.045026671 0.61400002
-0.10935048 0.045026671 0.61400002
-0.10818096 0.045026671 0.61400002
-0.10701144 0.045026671 0.61400002
-0.10584191 0.045026671 0.61400002
-0.10450191 0.044953335 0.61300004
-0.10350286 0.045026671 0.61400002
-0.10233334 0.045026671 0.61400002
-0.10116382 0.045026671 0.61400002
-0.099994294 0.045026671 0.61400002
-0.098824769 0.045026671 0.61400002
-0.097655244 0.045026671 0.61400002
-0.096485719 0.045026671 0.61400002
-0.095471434 0.045100003 0.61500001
-0.094300009 0.045100003 0.61500001
-0.093128577 0.045100003 0.61500001
-0.09210667 0.045173336 0.61600006
-0.090933338 0.045173336 0.61600006
-0.089760005 0.045173336 0.61600006
-0.088874288 0.045320004 0.61800003
-0.087697148 0.045320004 0.61800003
-0.086660005 0.045393337 0.61900002
-0.08589524 0.045613337 0.62200004
-0.084846675 0.04568667 0.62300003
-0.083794288 0.045760002 0.62400001
-0.08260572 0.045760002 0.62400001
-0.081417151 0.045760002 0.62400001
-0.080357149 0.045833338 0.625
-0.079420008 0.045980003 0.62700003
-0.078350484 0.046053335 0.62800002
-0.077277146 0.046126671 0.62900001
-0.076562859 0.046420004 0.63300002
-0.075595245 0.046566669 0.63500005
-0.074385718 0.046566669 0.63500005
-0.13014857 0.046948574 0.62400001
-0.12896001 0.046948574 0.62400001
-0.12756668 0.046873335 0.62300003
-0.12617715 0.046798099 0.62200004
-0.12499239 0.046798099 0.62200004
-0.12340953 0.046647623 0.62
-0.12222858 0.046647623 0.62
-0.12085239 0.046572383 0.61900002
-0.11909334 0.046346668 0.61600006
-0.11792001 0.046346668 0.61600006
-0.11674667 0.046346668 0.61600006
-0.11538572 0.046271432 0.61500001
-0.11421429 0.046271432 0.61500001
-0.11304286 0.046271432 0.61500001
-0.11187144 0.046271432 0.61500001
-0.1107 0.046271432 0.61500001
-0.10952858 0.046271432 0.61500001
-0.10835715 0.046271432 0.61500001
-0.10718572 0.046271432 0.61500001
-0.10584191 0.046196193 0.61400002
-0.10467239 0.046196193 0.61400002
-0.10350286 0.046196193 0.61400002
-0.10250001 0.046271432 0.61500001
-0.10132858 0.046271432 0.61500001
-0.10015715 0.046271432 0.61500001
-0.098985724 0.046271432 0.61500001
-0.097814292 0.046271432 0.61500001
-0.096642867 0.046271432 0.61500001
-0.095471434 0.046271432 0.61500001
-0.094453342 0.046346668 0.61600006
-0.093280002 0.046346668 0.61600006
-0.09210667 0.046346668 0.61600006
-0.090933338 0.046346668 0.61600006
-0.089905716 0.046421908 0.61700004
-0.089018099 0.046572383 0.61900002
-0.087839052 0.046572383 0.61900002
-0.086800009 0.046647623 0.62
-0.086033337 0.046873335 0.62300003
-0.084982865 0.046948574 0.62400001
-0.083794288 0.046948574 0.62400001
-0.082738101 0.047023814 0.625
-0.081547625 0.047023814 0.625
-0.080357149 0.047023814 0.625
-0.079546675 0.047249526 0.62800002
-0.078350484 0.047249526 0.62800002
-0.077522859 0.047475241 0.63100004
-0.076562859 0.047625717 0.63300002
-0.075476192 0.047700956 0.634
-0.074268579 0.047700956 0.634
-0.12896001 0.048137147 0.62400001
-0.12777144 0.048137147 0.62400001
-0.12638001 0.048060004 0.62300003
-0.12519334 0.048060004 0.62300003
-0.12380762 0.04798286 0.62200004
-0.12222858 0.047828574 0.62
-0.12104762 0.047828574 0.62
-0.11928667 0.047597148 0.61700004
-0.11811144 0.047597148 0.61700004
-0.11674667 0.047520004 0.61600006
-0.11557334 0.047520004 0.61600006
-0.11421429 0.047442861 0.61500001
-0.11304286 0.047442861 0.61500001
-0.11187144 0.047442861 0.61500001
-0.1107 0.047442861 0.61500001
-0.10952858 0.047442861 0.61500001
-0.10835715 0.047442861 0.61500001
-0.10718572 0.047442861 0.61500001
-0.10601429 0.047442861 0.61500001
-0.10484286 0.047442861 0.61500001
-0.10367144 0.047442861 0.61500001
-0.10250001 0.047442861 0.61500001
-0.10132858 0.047442861 0.61500001
-0.10015715 0.047442861 0.61500001
-0.098985724 0.047442861 0.61500001
-0.097973339 0.047520004 0.61600006
-0.096800007 0.047520004 0.61600006
-0.095626675 0.047520004 0.61600006
-0.094453342 0.047520004 0.61600006
-0.093431436 0.047597148 0.61700004
-0.092256196 0.047597148 0.61700004
-0.091080956 0.047597148 0.61700004
-0.090051435 0.047674287 0.61800003
-0.089018099 0.04775143 0.61900002
-0.087980956 0.047828574 0.62
-0.087080009 0.04798286 0.62200004
-0.086033337 0.048060004 0.62300003
-0.084982865 0.048137147 0.62400001
-0.083928578 0.04821429 0.625
-0.082738101 0.04821429 0.625
-0.0816781 0.048291434 0.62600005
-0.080485716 0.048291434 0.62600005
-0.079420008 0.048368573 0.62700003
-0.078475244 0.04852286 0.62900001
-0.077522859 0.048677146 0.63100004
-0.076562859 0.048831433 0.63300002
-0.075476192 0.048908576 0.634
-0.074268579 0.048908576 0.634
-0.12777144 0.049325716 0.62400001
-0.12658286 0.049325716 0.62400001
-0.1253943 0.049325716 0.62400001
-0.12400667 0.049246669 0.62300003
-0.12262286 0.049167622 0.62200004
-0.12104762 0.049009528 0.62
-0.11948001 0.04885143 0.61800003
-0.11830287 0.04885143 0.61800003
-0.1169362 0.048772383 0.61700004
-0.11576096 0.048772383 0.61700004
-0.11440001 0.048693337 0.61600006
-0.11322667 0.048693337 0.61600006
-0.11205334 0.048693337 0.61600006
-0.11088001 0.048693337 0.61600006
-0.10970668 0.048693337 0.61600006
-0.10853334 0.048693337 0.61600006
-0.10736001 0.048693337 0.61600006
-0.10618667 0.048693337 0.61600006
-0.10484286 0.04861429 0.61500001
-0.10367144 0.04861429 0.61500001
-0.10266668 0.048693337 0.61600006
-0.10149334 0.048693337 0.61600006
-0.10032 0.048693337 0.61600006
-0.099146672 0.048693337 0.61600006
-0.097973339 0.048693337 0.61600006
-0.096957147 0.048772383 0.61700004
-0.095781907 0.048772383 0.61700004
-0.094606675 0.048772383 0.61700004
-0.093431436 0.048772383 0.61700004
-0.092405722 0.04885143 0.61800003
-0.091228575 0.04885143 0.61800003
-0.090051435 0.04885143 0.61800003
-0.089018099 0.048930481 0.61900002
-0.087980956 0.049009528 0.62
-0.087080009 0.049167622 0.62200004
-0.086171433 0.049325716 0.62400001
-0.085119054 0.049404766 0.625
-0.083928578 0.049404766 0.625
-0.082870483 0.049483813 0.62600005
-0.0816781 0.049483813 0.62600005
-0.080614291 0.04956286 0.62700003
-0.079420008 0.04956286 0.62700003
-0.078475244 0.049720954 0.62900001
-0.077768579 0.050037146 0.63300002
-0.076562859 0.050037146 0.63300002
-0.075476192 0.050116193 0.634
-0.074268579 0.050116193 0.634
-0.12937334 0.050676193 0.62600005
-0.12797619 0.050595243 0.625
-0.12658286 0.050514288 0.62400001
-0.1253943 0.050514288 0.62400001
-0.12400667 0.050433338 0.62300003
-0.12262286 0.050352383 0.62200004
-0.1214381 0.050352383 0.62200004
-0.11986668 0.050190479 0.62
-0.11849429 0.050109528 0.61900002
-0.11712572 0.050028574 0.61800003
-0.11594858 0.050028574 0.61800003
-0.11458572 0.049947623 0.61700004
-0.11322667 0.049866669 0.61600006
-0.11205334 0.049866669 0.61600006
-0.11088001 0.049866669 0.61600006
-0.10970668 0.049866669 0.61600006
-0.10853334 0.049866669 0.61600006
-0.10736001 0.049866669 0.61600006
-0.10618667 0.049866669 0.61600006
-0.10501334 0.049866669 0.61600006
-0.10384001 0.049866669 0.61600006
-0.10266668 0.049866669 0.61600006
-0.10149334 0.049866669 0.61600006
-0.10032 0.049866669 0.61600006
-0.099146672 0.049866669 0.61600006
-0.098132387 0.049947623 0.61700004
-0.096800007 0.049866669 0.61600006
-0.095781907 0.049947623 0.61700004
-0.094606675 0.049947623 0.61700004
-0.093582861 0.050028574 0.61800003
-0.092405722 0.050028574 0.61800003
-0.091228575 0.050028574 0.61800003
-0.090197146 0.050109528 0.61900002
-0.08916191 0.050190479 0.62
-0.088264771 0.050352383 0.62200004
-0.087220006 0.050433338 0.62300003
-0.08630953 0.050595243 0.625
-0.085255243 0.050676193 0.62600005
-0.084062859 0.050676193 0.62600005
-0.083002865 0.050757147 0.62700003
-0.081808574 0.050757147 0.62700003
-0.080742866 0.050838098 0.62800002
-0.079546675 0.050838098 0.62800002
-0.078475244 0.050919052 0.62900001
-0.077891432 0.051323812 0.634
-0.076683812 0.051323812 0.634
-0.075476192 0.051323812 0.634
-0.074268579 0.051323812 0.634
-0.12797619 0.051785719 0.625
-0.12658286 0.051702861 0.62400001
-0.1253943 0.051702861 0.62400001
-0.12420572 0.051702861 0.62400001
-0.12282 0.051620003 0.62300003
-0.12163334 0.051620003 0.62300003
-0.12025334 0.051537145 0.62200004
-0.11868572 0.051371433 0.62
-0.11731525 0.051288575 0.61900002
-0.1161362 0.051288575 0.61900002
-0.11477143 0.051205717 0.61800003
-0.11341048 0.051122859 0.61700004
-0.11223525 0.051122859 0.61700004
-0.11106001 0.051122859 0.61700004
-0.10988477 0.051122859 0.61700004
-0.10870953 0.051122859 0.61700004
-0.10736001 0.051040005 0.61600006
-0.10618667 0.051040005 0.61600006
-0.10501334 0.051040005 0.61600006
-0.10384001 0.051040005 0.61600006
-0.10266668 0.051040005 0.61600006
-0.10149334 0.051040005 0.61600006
-0.10048287 0.051122859 0.61700004
-0.099307626 0.051122859 0.61700004
-0.098132387 0.051122859 0.61700004
-0.097114295 0.051205717 0.61800003
-0.095937148 0.051205717 0.61800003
-0.094913341 0.051288575 0.61900002
-0.093734294 0.051288575 0.61900002
-0.092555247 0.051288575 0.61900002
-0.091376193 0.051288575 0.61900002
-0.090197146 0.051288575 0.61900002
-0.089449532 0.051537145 0.62200004
-0.088406675 0.051620003 0.62300003
-0.087500006 0.051785719 0.625
-0.086447626 0.051868577 0.62600005
-0.085391432 0.051951431 0.62700003
-0.084197149 0.051951431 0.62700003
-0.083135247 0.052034289 0.62800002
-0.081939057 0.052034289 0.62800002
-0.080742866 0.052034289 0.62800002
-0.079673335 0.052117147 0.62900001
-0.078475244 0.052117147 0.62900001
-0.077768579 0.052448574 0.63300002
-0.076925717 0.052697148 0.63600004
-0.07571429 0.052697148 0.63600004
-0.074737146 0.05286286 0.63800001
-0.12698857 0.053060956 0.62600005
-0.1257962 0.053060956 0.62600005
-0.12440477 0.052976195 0.625
-0.12282 0.052806672 0.62300003
-0.12163334 0.052806672 0.62300003
-0.12025334 0.052721906 0.62200004
-0.11868572 0.052552383 0.62
-0.11750477 0.052552383 0.62
-0.1161362 0.052467622 0.61900002
-0.11495715 0.052467622 0.61900002
-0.1137781 0.052467622 0.61900002
-0.11259905 0.052467622 0.61900002
-0.11124001 0.05238286 0.61800003
-0.11006287 0.05238286 0.61800003
-0.10888572 0.05238286 0.61800003
-0.10753429 0.052298099 0.61700004
-0.10618667 0.052213337 0.61600006
-0.10501334 0.052213337 0.61600006
-0.10384001 0.052213337 0.61600006
-0.10283334 0.052298099 0.61700004
-0.1016581 0.052298099 0.61700004
-0.10048287 0.052298099 0.61700004
-0.099307626 0.052298099 0.61700004
-0.098927625 0.052721906 0.62200004
-0.097271435 0.052467622 0.61900002
-0.096092388 0.052467622 0.61900002
-0.095066674 0.052552383 0.62
-0.09388572 0.052552383 0.62
-0.092704765 0.052552383 0.62
-0.091523819 0.052552383 0.62
-0.090634294 0.052721906 0.62200004
-0.089737147 0.052891433 0.62400001
-0.088690482 0.052976195 0.625
-0.087780006 0.053145718 0.62700003
-0.086585723 0.053145718 0.62700003
-0.085527621 0.053230479 0.62800002
-0.08433143 0.053230479 0.62800002
-0.083135247 0.053230479 0.62800002
-0.081939057 0.053230479 0.62800002
-0.080871433 0.053315241 0.62900001
-0.079673335 0.053315241 0.62900001
-0.078724764 0.053484764 0.63100004
-0.078014292 0.053823814 0.63500005
-0.077167623 0.054078098 0.63800001
-0.075952388 0.054078098 0.63800001
-0.074737146 0.054078098 0.63800001
-0.12759715 0.054513335 0.62900001
-0.1261981 0.05442667 0.62800002
-0.12460382 0.054253336 0.62600005
-0.1232143 0.054166671 0.625
-0.12182858 0.054080002 0.62400001
-0.12044667 0.053993337 0.62300003
-0.11868572 0.053733338 0.62
-0.11750477 0.053733338 0.62
-0.11632381 0.053733338 0.62
-0.11514287 0.053733338 0.62
-0.11396191 0.053733338 0.62
-0.11259905 0.053646669 0.61900002
-0.11142001 0.053646669 0.61900002
-0.11024096 0.053646669 0.61900002
-0.10906191 0.053646669 0.61900002
-0.10770858 0.053560004 0.61800003
-0.10635906 0.053473338 0.61700004
-0.10518382 0.053473338 0.61700004
-0.10400858 0.053473338 0.61700004
-0.10300001 0.053560004 0.61800003
-0.10182286 0.053560004 0.61800003
-0.10064572 0.053560004 0.61800003
-0.10027334 0.053993337 0.62300003
-0.098927625 0.053906672 0.62200004
-0.097742863 0.053906672 0.62200004
-0.096247628 0.053733338 0.62
-0.095066674 0.053733338 0.62
-0.09388572 0.053733338 0.62
-0.092704765 0.053733338 0.62
-0.091819055 0.053906672 0.62200004
-0.090925723 0.054080002 0.62400001
-0.089737147 0.054080002 0.62400001
-0.088690482 0.054166671 0.625
-0.087780006 0.054340005 0.62700003
-0.086723812 0.05442667 0.62800002
-0.085527621 0.05442667 0.62800002
-0.08433143 0.05442667 0.62800002
-0.083135247 0.05442667 0.62800002
-0.082069531 0.054513335 0.62900001
-0.080871433 0.054513335 0.62900001
-0.079673335 0.054513335 0.62900001
-0.078724764 0.054686669 0.63100004
-0.078137144 0.055120002 0.63600004
-0.077167623 0.055293337 0.63800001
-0.075952388 0.055293337 0.63800001
-0.074854292 0.055380005 0.63900006
-0.13223429 0.056154288 0.634
-0.13082001 0.05606572 0.63300002
-0.12940954 0.055977147 0.63200003
-0.12800287 0.055888575 0.63100004
-0.12639906 0.055711433 0.62900001
-0.12480287 0.055534288 0.62700003
-0.12341144 0.05544572 0.62600005
-0.12202382 0.055357147 0.625
-0.12064001 0.055268575 0.62400001
-0.11926001 0.055180002 0.62300003
-0.11788382 0.055091433 0.62200004
-0.11669905 0.055091433 0.62200004
-0.11551429 0.055091433 0.62200004
-0.11432953 0.055091433 0.62200004
-0.11278096 0.054914288 0.62
-0.1116 0.054914288 0.62
-0.11041906 0.054914288 0.62
-0.10906191 0.054825719 0.61900002
-0.10788286 0.054825719 0.61900002
-0.10653143 0.054737147 0.61800003
-0.10552477 0.054825719 0.61900002
-0.10434572 0.054825719 0.61900002
-0.10316668 0.054825719 0.61900002
-0.10215238 0.054914288 0.62
-0.10097144 0.054914288 0.62
-0.10027334 0.055180002 0.62300003
-0.099086672 0.055180002 0.62300003
-0.097900003 0.055180002 0.62300003
-0.096713342 0.055180002 0.62300003
-0.095526673 0.055180002 0.62300003
-0.094340004 0.055180002 0.62300003
-0.093003817 0.055091433 0.62200004
-0.092114292 0.055268575 0.62400001
-0.091071434 0.055357147 0.625
-0.089880958 0.055357147 0.625
-0.088832386 0.05544572 0.62600005
-0.087780006 0.055534288 0.62700003
-0.086723812 0.055622861 0.62800002
-0.085527621 0.055622861 0.62800002
-0.08446572 0.055711433 0.62900001
-0.083267622 0.055711433 0.62900001
-0.082069531 0.055711433 0.62900001
-0.081128575 0.055888575 0.63100004
-0.07992667 0.055888575 0.63100004
-0.078849532 0.055977147 0.63200003
-0.078137144 0.056331433 0.63600004
-0.077288575 0.056597147 0.63900006
-0.075952388 0.056508575 0.63800001
-0.074737146 0.056508575 0.63800001
-0.07363715 0.056597147 0.63900006
-0.13223429 0.057361908 0.634
-0.13082001 0.057271432 0.63300002
-0.12940954 0.057180956 0.63200003
-0.12800287 0.05709048 0.63100004
-0.12639906 0.056909528 0.62900001
-0.12500191 0.056819052 0.62800002
-0.12380572 0.056819052 0.62800002
-0.12221906 0.056638099 0.62600005
-0.12083334 0.056547623 0.625
-0.11964287 0.056547623 0.625
-0.11826286 0.056457147 0.62400001
-0.11688668 0.056366671 0.62300003
-0.11570001 0.056366671 0.62300003
-0.11451334 0.056366671 0.62300003
-0.11332668 0.056366671 0.62300003
-0.11214001 0.056366671 0.62300003
-0.11095334 0.056366671 0.62300003
-0.10959049 0.056276195 0.62200004
-0.10805715 0.056095243 0.62
-0.10687619 0.056095243 0.62
-0.10569525 0.056095243 0.62
-0.10451429 0.056095243 0.62
-0.10366667 0.056276195 0.62200004
-0.10264667 0.056366671 0.62300003
-0.10162286 0.056457147 0.62400001
-0.1004343 0.056457147 0.62400001
-0.099404767 0.056547623 0.625
-0.098214291 0.056547623 0.625
-0.097023815 0.056547623 0.625
-0.095680006 0.056457147 0.62400001
-0.094491437 0.056457147 0.62400001
-0.093452387 0.056547623 0.625
-0.09226191 0.056547623 0.625
-0.091217145 0.056638099 0.62600005
-0.09016858 0.056728575 0.62700003
-0.08897429 0.056728575 0.62700003
-0.088060006 0.056909528 0.62900001
-0.086861908 0.056909528 0.62900001
-0.085936196 0.05709048 0.63100004
-0.084734291 0.05709048 0.63100004
-0.083532386 0.05709048 0.63100004
-0.082460955 0.057180956 0.63200003
-0.081385717 0.057271432 0.63300002
-0.080306672 0.057361908 0.634
-0.079223812 0.057452384 0.63500005
-0.078382865 0.057723813 0.63800001
-0.077288575 0.057814289 0.63900006
-0.076071434 0.057814289 0.63900006
-0.07497143 0.057904765 0.64000005
-0.13223429 0.058569528 0.634
-0.13102667 0.058569528 0.634
-0.12961429 0.058477148 0.63300002
-0.12840858 0.058477148 0.63300002
-0.12700191 0.058384765 0.63200003
-0.12520096 0.058107622 0.62900001
-0.12380572 0.058015242 0.62800002
-0.12241429 0.057922862 0.62700003
-0.12102667 0.057830479 0.62600005
-0.11964287 0.057738099 0.625
-0.11845239 0.057738099 0.625
-0.1170743 0.057645719 0.62400001
-0.11588572 0.057645719 0.62400001
-0.11469715 0.057645719 0.62400001
-0.11350858 0.057645719 0.62400001
-0.11232001 0.057645719 0.62400001
-0.11095334 0.057553336 0.62300003
-0.10976668 0.057553336 0.62300003
-0.10858001 0.057553336 0.62300003
-0.10739334 0.057553336 0.62300003
-0.1060362 0.057460956 0.62200004
-0.10502001 0.057553336 0.62300003
-0.10383334 0.057553336 0.62300003
-0.10281143 0.057645719 0.62400001
-0.10162286 0.057645719 0.62400001
-0.10059524 0.057738099 0.625
-0.099404767 0.057738099 0.625
-0.098371439 0.057830479 0.62600005
-0.097179055 0.057830479 0.62600005
-0.095833339 0.057738099 0.625
-0.094642863 0.057738099 0.625
-0.093601912 0.057830479 0.62600005
-0.092409529 0.057830479 0.62600005
-0.091362864 0.057922862 0.62700003
-0.09016858 0.057922862 0.62700003
-0.089116193 0.058015242 0.62800002
-0.088060006 0.058107622 0.62900001
-0.086861908 0.058107622 0.62900001
-0.085936196 0.058292385 0.63100004
-0.08486858 0.058384765 0.63200003
-0.083664767 0.058384765 0.63200003
-0.082591437 0.058477148 0.63300002
-0.081514291 0.058569528 0.634
-0.080433339 0.058661908 0.63500005
-0.079598099 0.058939051 0.63800001
-0.078505717 0.059031431 0.63900006
-0.077288575 0.059031431 0.63900006
-0.076190479 0.059123814 0.64000005
-0.07497143 0.059123814 0.64000005
-0.13244286 0.059871431 0.63500005
-0.13123333 0.059871431 0.63500005
-0.12981905 0.059777148 0.634
-0.12861143 0.059777148 0.634
-0.12720287 0.059682861 0.63300002
-0.12579811 0.059588574 0.63200003
-0.12400287 0.05930572 0.62900001
-0.12260953 0.059211433 0.62800002
-0.12122001 0.059117146 0.62700003
-0.1198343 0.059022862 0.62600005
-0.11845239 0.058928575 0.625
-0.1170743 0.058834288 0.62400001
-0.11588572 0.058834288 0.62400001
-0.11469715 0.058834288 0.62400001
-0.11350858 0.058834288 0.62400001
-0.11232001 0.058834288 0.62400001
-0.11113144 0.058834288 0.62400001
-0.10994286 0.058834288 0.62400001
-0.10858001 0.058740005 0.62300003
-0.10756572 0.058834288 0.62400001
-0.10620667 0.058740005 0.62300003
-0.10502001 0.058740005 0.62300003
-0.10400001 0.058834288 0.62400001
-0.10281143 0.058834288 0.62400001
-0.10162286 0.058834288 0.62400001
-0.1004343 0.058834288 0.62400001
-0.099404767 0.058928575 0.625
-0.098214291 0.058928575 0.625
-0.097023815 0.058928575 0.625
-0.095833339 0.058928575 0.625
-0.094794288 0.059022862 0.62600005
-0.093601912 0.059022862 0.62600005
-0.092557147 0.059117146 0.62700003
-0.091362864 0.059117146 0.62700003
-0.09016858 0.059117146 0.62700003
-0.089116193 0.059211433 0.62800002
-0.087920003 0.059211433 0.62800002
-0.086861908 0.05930572 0.62900001
-0.085936196 0.059494291 0.63100004
-0.08486858 0.059588574 0.63200003
-0.083797149 0.059682861 0.63300002
-0.082721911 0.059777148 0.634
-0.081642866 0.059871431 0.63500005
-0.080560006 0.059965719 0.63600004
-0.079598099 0.060154289 0.63800001
-0.078505717 0.060248576 0.63900006
-0.077288575 0.060248576 0.63900006
-0.076190479 0.060342859 0.64000005
-0.075088575 0.060437147 0.64100003
-0.13244286 0.061080955 0.63500005
-0.13123333 0.061080955 0.63500005
-0.12981905 0.060984764 0.634
-0.12861143 0.060984764 0.634
-0.12720287 0.060888577 0.63300002
-0.12599716 0.060888577 0.63300002
-0.12439715 0.060696196 0.63100004
-0.12280477 0.060503814 0.62900001
-0.12141334 0.060407624 0.62800002
-0.12002572 0.060311433 0.62700003
-0.11845239 0.060119051 0.625
-0.11726191 0.060119051 0.625
-0.11607143 0.060119051 0.625
-0.11488096 0.060119051 0.625
-0.11369048 0.060119051 0.625
-0.1125 0.060119051 0.625
-0.11130953 0.060119051 0.625
-0.10994286 0.060022861 0.62400001
-0.10875429 0.060022861 0.62400001
-0.10756572 0.060022861 0.62400001
-0.10637715 0.060022861 0.62400001
-0.10518858 0.060022861 0.62400001
-0.10400001 0.060022861 0.62400001
-0.10281143 0.060022861 0.62400001
-0.10162286 0.060022861 0.62400001
-0.1004343 0.060022861 0.62400001
-0.09924572 0.060022861 0.62400001
-0.098214291 0.060119051 0.625
-0.097023815 0.060119051 0.625
-0.095833339 0.060119051 0.625
-0.094794288 0.060215242 0.62600005
-0.093751438 0.060311433 0.62700003
-0.092557147 0.060311433 0.62700003
-0.091362864 0.060311433 0.62700003
-0.09016858 0.060311433 0.62700003
-0.089116193 0.060407624 0.62800002
-0.088060006 0.060503814 0.62900001
-0.087138101 0.060696196 0.63100004
-0.086072385 0.060792387 0.63200003
-0.085002862 0.060888577 0.63300002
-0.083797149 0.060888577 0.63300002
-0.082721911 0.060984764 0.634
-0.081642866 0.061080955 0.63500005
-0.080560006 0.061177146 0.63600004
-0.079598099 0.061369527 0.63800001
-0.078505717 0.061465718 0.63900006
-0.077409528 0.061561909 0.64000005
-0.076309532 0.061658099 0.64100003
-0.075088575 0.061658099 0.64100003
-0.13265143 0.062388577 0.63600004
-0.13144001 0.062388577 0.63600004
-0.13022858 0.062388577 0.63600004
-0.12881429 0.062290478 0.63500005
-0.12740381 0.062192384 0.634
-0.12619621 0.062192384 0.634
-0.12459429 0.061996195 0.63200003
-0.12280477 0.061701909 0.62900001
-0.12141334 0.061603814 0.62800002
-0.12021715 0.061603814 0.62800002
-0.11883143 0.06150572 0.62700003
-0.11744953 0.061407622 0.62600005
-0.11625715 0.061407622 0.62600005
-0.11488096 0.061309528 0.625
-0.11369048 0.061309528 0.625
-0.1125 0.061309528 0.625
-0.11130953 0.061309528 0.625
-0.11011905 0.061309528 0.625
-0.10892858 0.061309528 0.625
-0.1077381 0.061309528 0.625
-0.10654762 0.061309528 0.625
-0.10535715 0.061309528 0.625
-0.10416667 0.061309528 0.625
-0.1029762 0.061309528 0.625
-0.10178572 0.061309528 0.625
-0.10059524 0.061309528 0.625
-0.099404767 0.061309528 0.625
-0.098528579 0.06150572 0.62700003
-0.097334296 0.06150572 0.62700003
-0.096140005 0.06150572 0.62700003
-0.094945721 0.06150572 0.62700003
-0.093751438 0.06150572 0.62700003
-0.092704765 0.061603814 0.62800002
-0.091508575 0.061603814 0.62800002
-0.090312384 0.061603814 0.62800002
-0.089258105 0.061701909 0.62900001
-0.088480003 0.061996195 0.63200003
-0.087276198 0.061996195 0.63200003
-0.086208574 0.06209429 0.63300002
-0.085137151 0.062192384 0.634
-0.083929531 0.062192384 0.634
-0.082852386 0.062290478 0.63500005
-0.081771433 0.062388577 0.63600004
-0.080813341 0.062584765 0.63800001
-0.079722859 0.06268286 0.63900006
-0.078628577 0.062780954 0.64000005
-0.077530481 0.062879048 0.64100003
-0.076428577 0.06297715 0.64200002
-0.075440004 0.063173339 0.64400005
-0.074213341 0.063173339 0.64400005
-0.13306858 0.063800007 0.63800001
-0.13185334 0.063800007 0.63800001
-0.13063811 0.063800007 0.63800001
-0.12942286 0.063800007 0.63800001
-0.12760477 0.063500002 0.63500005
-0.12619621 0.063400008 0.634
-0.12479144 0.063300006 0.63300002
-0.12319525 0.063100003 0.63100004
-0.12160668 0.062900007 0.62900001
-0.12040858 0.062900007 0.62900001
-0.11902096 0.062800005 0.62800002
-0.11763715 0.062700003 0.62700003
-0.11644287 0.062700003 0.62700003
-0.11506477 0.062600002 0.62600005
-0.11387239 0.062600002 0.62600005
-0.11268001 0.062600002 0.62600005
-0.11148763 0.062600002 0.62600005
-0.11029524 0.062600002 0.62600005
-0.10910287 0.062600002 0.62600005
-0.10791048 0.062600002 0.62600005
-0.10654762 0.062500007 0.625
-0.10552572 0.062600002 0.62600005
-0.10433334 0.062600002 0.62600005
-0.10314096 0.062600002 0.62600005
-0.10194858 0.062600002 0.62600005
-0.10091715 0.062700003 0.62700003
-0.099722862 0.062700003 0.62700003
-0.098528579 0.062700003 0.62700003
-0.097334296 0.062700003 0.62700003
-0.096140005 0.062700003 0.62700003
-0.094945721 0.062700003 0.62700003
-0.093751438 0.062700003 0.62700003
-0.092704765 0.062800005 0.62800002
-0.091508575 0.062800005 0.62800002
-0.090456195 0.062900007 0.62900001
-0.089541912 0.063100003 0.63100004
-0.088480003 0.063200004 0.63200003
-0.087414294 0.063300006 0.63300002
-0.086344771 0.063400008 0.634
-0.085137151 0.063400008 0.634
-0.084061913 0.063500002 0.63500005
-0.082982861 0.063600004 0.63600004
-0.082028575 0.063800007 0.63800001
-0.080940008 0.063900001 0.63900006
-0.079722859 0.063900001 0.63900006
-0.078628577 0.064000003 0.64000005
-0.077530481 0.064100005 0.64100003
-0.076428577 0.064200006 0.64200002
-0.075440004 0.064400002 0.64400005
-0.074213341 0.064400002 0.64400005
-0.13306858 0.065015242 0.63800001
-0.13206001 0.065117151 0.63900006
-0.13084286 0.065117151 0.63900006
-0.12942286 0.065015242 0.63800001
-0.12740381 0.06460762 0.634
-0.12639524 0.064709529 0.63500005
-0.12479144 0.064505719 0.63300002
-0.12339048 0.064403817 0.63200003
-0.12199334 0.064301908 0.63100004
-0.12040858 0.064098097 0.62900001
-0.11921048 0.064098097 0.62900001
-0.11782477 0.063996196 0.62800002
-0.11662858 0.063996196 0.62800002
-0.11524858 0.063894287 0.62700003
-0.11405429 0.063894287 0.62700003
-0.11286001 0.063894287 0.62700003
-0.11166572 0.063894287 0.62700003
-0.11047143 0.063894287 0.62700003
-0.10910287 0.063792385 0.62600005
-0.10791048 0.063792385 0.62600005
-0.1067181 0.063792385 0.62600005
-0.10552572 0.063792385 0.62600005
-0.10433334 0.063792385 0.62600005
-0.10314096 0.063792385 0.62600005
-0.10211144 0.063894287 0.62700003
-0.1010781 0.063996196 0.62800002
-0.099722862 0.063894287 0.62700003
-0.098685719 0.063996196 0.62800002
-0.097489528 0.063996196 0.62800002
-0.096293338 0.063996196 0.62800002
-0.095097147 0.063996196 0.62800002
-0.093900956 0.063996196 0.62800002
-0.092704765 0.063996196 0.62800002
-0.091508575 0.063996196 0.62800002
-0.090743817 0.064301908 0.63100004
-0.089258105 0.064098097 0.62900001
-0.088620007 0.064505719 0.63300002
-0.087414294 0.064505719 0.63300002
-0.086208574 0.064505719 0.63300002
-0.085137151 0.06460762 0.634
-0.084194288 0.064811431 0.63600004
-0.083243817 0.065015242 0.63800001
-0.08215715 0.065117151 0.63900006
-0.080940008 0.065117151 0.63900006
-0.079847626 0.065219052 0.64000005
-0.078628577 0.065219052 0.64000005
-0.077530481 0.065320954 0.64100003
-0.076428577 0.065422863 0.64200002
-0.075440004 0.065626673 0.64400005
-0.074213341 0.065626673 0.64400005
-0.13226667 0.066438101 0.64000005
-0.13104762 0.066438101 0.64000005
-0.12962572 0.066334292 0.63900006
-0.12820762 0.066230483 0.63800001
-0.12659429 0.066022858 0.63600004
-0.12518573 0.065919049 0.63500005
-0.12358572 0.065711431 0.63300002
-0.12218668 0.065607622 0.63200003
-0.12098286 0.065607622 0.63200003
-0.11958953 0.065503813 0.63100004
-0.11838762 0.065503813 0.63100004
-0.11681429 0.065296195 0.62900001
-0.11543239 0.065192387 0.62800002
-0.1142362 0.065192387 0.62800002
-0.11304001 0.065192387 0.62800002
-0.11184382 0.065192387 0.62800002
-0.11047143 0.065088578 0.62700003
-0.10927715 0.065088578 0.62700003
-0.10808286 0.065088578 0.62700003
-0.10688858 0.065088578 0.62700003
-0.10569429 0.065088578 0.62700003
-0.1045 0.065088578 0.62700003
-0.10330572 0.065088578 0.62700003
-0.10211144 0.065088578 0.62700003
-0.1010781 0.065192387 0.62800002
-0.09988191 0.065192387 0.62800002
-0.098685719 0.065192387 0.62800002
-0.097644769 0.065296195 0.62900001
-0.096446671 0.065296195 0.62900001
-0.09524858 0.065296195 0.62900001
-0.094050482 0.065296195 0.62900001
-0.092852384 0.065296195 0.62900001
-0.091945723 0.065503813 0.63100004
-0.090887628 0.065607622 0.63200003
-0.08982572 0.065711431 0.63300002
-0.088620007 0.065711431 0.63300002
-0.087552384 0.06581524 0.634
-0.086344771 0.06581524 0.634
-0.085137151 0.06581524 0.634
-0.084459051 0.066230483 0.63800001
-0.083374292 0.066334292 0.63900006
-0.082285717 0.066438101 0.64000005
-0.081193335 0.06654191 0.64100003
-0.079972386 0.06654191 0.64100003
-0.07887429 0.066645719 0.64200002
-0.077651434 0.066645719 0.64200002
-0.076666668 0.066853337 0.64400005
-0.07555715 0.066957146 0.64500004
-0.13390286 0.067868575 0.64200002
-0.13247333 0.067762859 0.64100003
-0.13104762 0.06765715 0.64000005
-0.12982859 0.06765715 0.64000005
-0.12840858 0.067551434 0.63900006
-0.12699239 0.067445718 0.63800001
-0.12538287 0.067234293 0.63600004
-0.12378096 0.06702286 0.634
-0.12238001 0.066917144 0.63300002
-0.12117429 0.066917144 0.63300002
-0.11996858 0.066917144 0.63300002
-0.11857525 0.066811435 0.63200003
-0.11718572 0.066705719 0.63100004
-0.11561619 0.066494294 0.62900001
-0.1144181 0.066494294 0.62900001
-0.11322001 0.066494294 0.62900001
-0.11184382 0.066388577 0.62800002
-0.11064763 0.066388577 0.62800002
-0.10945144 0.066388577 0.62800002
-0.10825524 0.066388577 0.62800002
-0.10688858 0.066282861 0.62700003
-0.10569429 0.066282861 0.62700003
-0.1045 0.066282861 0.62700003
-0.10330572 0.066282861 0.62700003
-0.10211144 0.066282861 0.62700003
-0.1010781 0.066388577 0.62800002
-0.09988191 0.066388577 0.62800002
-0.098842867 0.066494294 0.62900001
-0.097955242 0.066705719 0.63100004
-0.096753336 0.066705719 0.63100004
-0.095551431 0.066705719 0.63100004
-0.094349533 0.066705719 0.63100004
-0.093295246 0.066811435 0.63200003
-0.092091434 0.066811435 0.63200003
-0.090887628 0.066811435 0.63200003
-0.08982572 0.066917144 0.63300002
-0.088760003 0.06702286 0.634
-0.08769048 0.067128576 0.63500005
-0.086344771 0.06702286 0.634
-0.085674293 0.067445718 0.63800001
-0.084591433 0.067551434 0.63900006
-0.083374292 0.067551434 0.63900006
-0.082285717 0.06765715 0.64000005
-0.081193335 0.067762859 0.64100003
-0.080097146 0.067868575 0.64200002
-0.07887429 0.067868575 0.64200002
-0.077893339 0.068080008 0.64400005
-0.076666668 0.068080008 0.64400005
-0.075674288 0.068291433 0.64600003
-0.13432001 0.069306672 0.64400005
-0.13309334 0.069306672 0.64400005
-0.13125239 0.068983816 0.64100003
-0.12982859 0.068876192 0.64000005
-0.12860954 0.068876192 0.64000005
-0.12719144 0.068768576 0.63900006
-0.12538287 0.06844572 0.63600004
-0.1239762 0.068338096 0.63500005
-0.12257334 0.06823048 0.634
-0.12117429 0.068122864 0.63300002
-0.11996858 0.068122864 0.63300002
-0.11857525 0.06801524 0.63200003
-0.11737144 0.06801524 0.63200003
-0.11561619 0.067692384 0.62900001
-0.1144181 0.067692384 0.62900001
-0.11322001 0.067692384 0.62900001
-0.11202192 0.067692384 0.62900001
-0.11064763 0.067584768 0.62800002
-0.10945144 0.067584768 0.62800002
-0.10825524 0.067584768 0.62800002
-0.10705905 0.067584768 0.62800002
-0.10586286 0.067584768 0.62800002
-0.10466667 0.067584768 0.62800002
-0.10347048 0.067584768 0.62800002
-0.10227429 0.067584768 0.62800002
-0.1010781 0.067584768 0.62800002
-0.10004096 0.067692384 0.62900001
-0.098842867 0.067692384 0.62900001
-0.097644769 0.067692384 0.62900001
-0.096446671 0.067692384 0.62900001
-0.095551431 0.067907624 0.63100004
-0.094349533 0.067907624 0.63100004
-0.093295246 0.06801524 0.63200003
-0.092091434 0.06801524 0.63200003
-0.091031432 0.068122864 0.63300002
-0.08982572 0.068122864 0.63300002
-0.088760003 0.06823048 0.634
-0.08769048 0.068338096 0.63500005
-0.08648096 0.068338096 0.63500005
-0.085808575 0.068768576 0.63900006
-0.084723815 0.068876192 0.64000005
-0.083504766 0.068876192 0.64000005
-0.082414292 0.068983816 0.64100003
-0.081320003 0.069091432 0.64200002
-0.080097146 0.069091432 0.64200002
-0.079120003 0.069306672 0.64400005
-0.078014292 0.069414288 0.64500004
-0.076785721 0.069414288 0.64500004
-0.075791433 0.069629528 0.64700001
-0.074559055 0.069629528 0.64700001
-0.13268001 0.070314288 0.64200002
-0.13186668 0.070533335 0.64400005
-0.1302343 0.070314288 0.64200002
-0.12901144 0.070314288 0.64200002
-0.12758954 0.070204765 0.64100003
-0.12577716 0.069876194 0.63800001
-0.12417144 0.069657147 0.63600004
-0.12296001 0.069657147 0.63600004
-0.12155715 0.069547623 0.63500005
-0.12015811 0.0694381 0.634
-0.11895049 0.0694381 0.634
-0.11774287 0.0694381 0.634
-0.11635143 0.069328576 0.63300002
-0.11496381 0.069219053 0.63200003
-0.11358001 0.069109529 0.63100004
-0.11237811 0.069109529 0.63100004
-0.11135239 0.069219053 0.63200003
-0.10997429 0.069109529 0.63100004
-0.10877239 0.069109529 0.63100004
-0.10722953 0.068890482 0.62900001
-0.10603143 0.068890482 0.62900001
-0.10483334 0.068890482 0.62900001
-0.10363524 0.068890482 0.62900001
-0.10243715 0.068890482 0.62900001
-0.10123906 0.068890482 0.62900001
-0.10035905 0.069109529 0.63100004
-0.099157147 0.069109529 0.63100004
-0.098265722 0.069328576 0.63300002
-0.09706001 0.069328576 0.63300002
-0.09585429 0.069328576 0.63300002
-0.094648577 0.069328576 0.63300002
-0.093442865 0.069328576 0.63300002
-0.092237152 0.069328576 0.63300002
-0.091175243 0.0694381 0.634
-0.089967623 0.0694381 0.634
-0.088900007 0.069547623 0.63500005
-0.08810477 0.069876194 0.63800001
-0.086889528 0.069876194 0.63800001
-0.085808575 0.069985718 0.63900006
-0.084856197 0.070204765 0.64100003
-0.083635241 0.070204765 0.64100003
-0.082542859 0.070314288 0.64200002
-0.081573337 0.070533335 0.64400005
-0.080471434 0.070642859 0.64500004
-0.079365723 0.070752382 0.64600003
-0.078135245 0.070752382 0.64600003
-0.077023812 0.070861906 0.64700001
-0.075908579 0.070971437 0.648
-0.074674293 0.070971437 0.648
-0.13371333 0.072094291 0.64700001
-0.13227619 0.071982861 0.64600003
-0.13104573 0.071982861 0.64600003
-0.12941334 0.071760006 0.64400005
-0.12778857 0.071537144 0.64200002
-0.1259743 0.071202859 0.63900006
-0.12456191 0.071091436 0.63800001
-0.12296001 0.070868574 0.63600004
-0.12174858 0.070868574 0.63600004
-0.12034763 0.070757151 0.63500005
-0.11913811 0.070757151 0.63500005
-0.11774287 0.07064572 0.634
-0.11653525 0.07064572 0.634
-0.11514572 0.070534289 0.63300002
-0.11394001 0.070534289 0.63300002
-0.1125562 0.070422865 0.63200003
-0.11152858 0.070534289 0.63300002
-0.11014858 0.070422865 0.63200003
-0.10894477 0.070422865 0.63200003
-0.10774096 0.070422865 0.63200003
-0.10636858 0.070311435 0.63100004
-0.10516667 0.070311435 0.63100004
-0.10396477 0.070311435 0.63100004
-0.10243715 0.070088573 0.62900001
-0.10156096 0.070311435 0.63100004
-0.1005181 0.070422865 0.63200003
-0.099314295 0.070422865 0.63200003
-0.098265722 0.070534289 0.63300002
-0.09706001 0.070534289 0.63300002
-0.09585429 0.070534289 0.63300002
-0.094648577 0.070534289 0.63300002
-0.093590483 0.07064572 0.634
-0.092382863 0.07064572 0.634
-0.091175243 0.07064572 0.634
-0.090109527 0.070757151 0.63500005
-0.08810477 0.071091436 0.63800001
-0.087025717 0.071202859 0.63900006
-0.085942864 0.07131429 0.64000005
-0.084856197 0.071425721 0.64100003
-0.083765723 0.071537144 0.64200002
-0.082542859 0.071537144 0.64200002
-0.081573337 0.071760006 0.64400005
-0.080596194 0.071982861 0.64600003
-0.079365723 0.071982861 0.64600003
-0.078256197 0.072094291 0.64700001
-0.077142864 0.072205722 0.648
-0.076142862 0.072428577 0.65000004
-0.075020008 0.072540008 0.65100002
-0.13371333 0.07332667 0.64700001
-0.13227619 0.073213339 0.64600003
-0.13104573 0.073213339 0.64600003
-0.12941334 0.07298667 0.64400005
-0.12778857 0.072760008 0.64200002
-0.12617144 0.072533339 0.64000005
-0.12475715 0.072420008 0.63900006
-0.12334667 0.07230667 0.63800001
-0.12174858 0.072080001 0.63600004
-0.12053715 0.072080001 0.63600004
-0.11913811 0.07196667 0.63500005
-0.11792858 0.07196667 0.63500005
-0.11653525 0.07185334 0.634
-0.11532763 0.07185334 0.634
-0.11394001 0.071740001 0.63300002
-0.1127343 0.071740001 0.63300002
-0.11152858 0.071740001 0.63300002
-0.11032286 0.071740001 0.63300002
-0.10911715 0.071740001 0.63300002
-0.10791144 0.071740001 0.63300002
-0.10653715 0.071626671 0.63200003
-0.10533334 0.071626671 0.63200003
-0.10412953 0.071626671 0.63200003
-0.10292572 0.071626671 0.63200003
-0.10172191 0.071626671 0.63200003
-0.10067715 0.071740001 0.63300002
-0.099471435 0.071740001 0.63300002
-0.098265722 0.071740001 0.63300002
-0.09706001 0.071740001 0.63300002
-0.09585429 0.071740001 0.63300002
-0.094798103 0.07185334 0.634
-0.093590483 0.07185334 0.634
-0.092382863 0.07185334 0.634
-0.091319054 0.07196667 0.63500005
-0.090251431 0.072080001 0.63600004
-0.089040004 0.072080001 0.63600004
-0.08810477 0.07230667 0.63800001
-0.087161914 0.072533339 0.64000005
-0.086077146 0.07264667 0.64100003
-0.084988579 0.072760008 0.64200002
-0.083765723 0.072760008 0.64200002
-0.082800008 0.07298667 0.64400005
-0.081826672 0.073213339 0.64600003
-0.080720961 0.07332667 0.64700001
-0.079488575 0.07332667 0.64700001
-0.07837715 0.073440008 0.648
-0.077142864 0.073440008 0.648
-0.076260008 0.073780008 0.65100002
-0.075020008 0.073780008 0.65100002
-0.13207144 0.074328579 0.64500004
-0.13084286 0.074328579 0.64500004
-0.12941334 0.074213341 0.64400005
-0.12818667 0.074213341 0.64400005
-0.12656572 0.073982865 0.64200002
-0.12495239 0.073752388 0.64000005
-0.12354001 0.07363715 0.63900006
-0.12213144 0.073521912 0.63800001
-0.12053715 0.073291436 0.63600004
-0.11932572 0.073291436 0.63600004
-0.11792858 0.073176198 0.63500005
-0.11671905 0.073176198 0.63500005
-0.11532763 0.07306096 0.634
-0.11412001 0.07306096 0.634
-0.11291239 0.07306096 0.634
-0.11170477 0.07306096 0.634
-0.11049715 0.07306096 0.634
-0.10928953 0.07306096 0.634
-0.10791144 0.072945721 0.63300002
-0.10670572 0.072945721 0.63300002
-0.10550001 0.072945721 0.63300002
-0.10429429 0.072945721 0.63300002
-0.10308858 0.072945721 0.63300002
-0.10188287 0.072945721 0.63300002
-0.10067715 0.072945721 0.63300002
-0.099471435 0.072945721 0.63300002
-0.098420955 0.07306096 0.634
-0.097213343 0.07306096 0.634
-0.096005723 0.07306096 0.634
-0.094798103 0.07306096 0.634
-0.093590483 0.07306096 0.634
-0.092382863 0.07306096 0.634
-0.091319054 0.073176198 0.63500005
-0.090251431 0.073291436 0.63600004
-0.089040004 0.073291436 0.63600004
-0.088242866 0.07363715 0.63900006
-0.087161914 0.073752388 0.64000005
-0.086077146 0.073867626 0.64100003
-0.084988579 0.073982865 0.64200002
-0.084026672 0.074213341 0.64400005
-0.08305715 0.074443817 0.64600003
-0.081953339 0.074559055 0.64700001
-0.080720961 0.074559055 0.64700001
-0.079611436 0.074674293 0.648
-0.07837715 0.074674293 0.648
-0.077380955 0.07490477 0.65000004
-0.076142862 0.07490477 0.65000004
-0.075020008 0.075020008 0.65100002
-0.13084286 0.07555715 0.64500004
-0.12941334 0.075440004 0.64400005
-0.12818667 0.075440004 0.64400005
-0.12656572 0.075205721 0.64200002
-0.12514763 0.075088575 0.64100003
-0.12373334 0.07497143 0.64000005
-0.12232286 0.074854292 0.63900006
-0.1209162 0.074737146 0.63800001
-0.11970096 0.074737146 0.63800001
-0.11848572 0.074737146 0.63800001
-0.11690287 0.074502863 0.63600004
-0.11569144 0.074502863 0.63600004
-0.11430001 0.074385718 0.63500005
-0.11309049 0.074385718 0.63500005
-0.11170477 0.074268579 0.634
-0.11049715 0.074268579 0.634
-0.10928953 0.074268579 0.634
-0.10808191 0.074268579 0.634
-0.10687429 0.074268579 0.634
-0.10566667 0.074268579 0.634
-0.10429429 0.074151434 0.63300002
-0.10308858 0.074151434 0.63300002
-0.10188287 0.074151434 0.63300002
-0.1008362 0.074268579 0.634
-0.099628575 0.074268579 0.634
-0.098420955 0.074268579 0.634
-0.097213343 0.074268579 0.634
-0.096005723 0.074268579 0.634
-0.094947629 0.074385718 0.63500005
-0.093738101 0.074385718 0.63500005
-0.092674293 0.074502863 0.63600004
-0.091462865 0.074502863 0.63600004
-0.090535246 0.074737146 0.63800001
-0.089460008 0.074854292 0.63900006
-0.088242866 0.074854292 0.63900006
-0.087298103 0.075088575 0.64100003
-0.086211435 0.075205721 0.64200002
-0.085253336 0.075440004 0.64400005
-0.084157147 0.07555715 0.64500004
-0.083185717 0.075791433 0.64700001
-0.081953339 0.075791433 0.64700001
-0.080720961 0.075791433 0.64700001
-0.079488575 0.075791433 0.64700001
-0.07837715 0.075908579 0.648
-0.077500008 0.076260008 0.65100002
-0.076260008 0.076260008 0.65100002
-0.075135246 0.076377146 0.65200001
-0.12961429 0.076785721 0.64500004
-0.12818667 0.076666668 0.64400005
-0.12656572 0.076428577 0.64200002
-0.12534286 0.076428577 0.64200002
-0.12392668 0.076309532 0.64100003
-0.12251429 0.076190479 0.64000005
-0.12110572 0.076071434 0.63900006
-0.11970096 0.075952388 0.63800001
-0.11848572 0.075952388 0.63800001
-0.11727048 0.075952388 0.63800001
-0.11569144 0.07571429 0.63600004
-0.11448001 0.07571429 0.63600004
-0.11309049 0.075595245 0.63500005
-0.11188096 0.075595245 0.63500005
-0.11067144 0.075595245 0.63500005
-0.10928953 0.075476192 0.634
-0.10808191 0.075476192 0.634
-0.10704286 0.075595245 0.63500005
-0.10583334 0.075595245 0.63500005
-0.10445905 0.075476192 0.634
-0.10325143 0.075476192 0.634
-0.10204381 0.075476192 0.634
-0.1008362 0.075476192 0.634
