# .PCD v0.7 - Point Cloud Data file format
VERSION 0.7
FIELDS x y z
SIZE 4 4 4
TYPE F F F
COUNT 1 1 1
WIDTH 1349
HEIGHT 1
VIEWPOINT 0 0 0 1 0 0 0
POINTS 1349
DATA ascii
-0.018090477 0.058014289 0.65500003
-0.016842859 0.058014289 0.65500003
-0.015595239 0.058014289 0.65500003
-0.014303811 0.057837147 0.65300006
-0.013060001 0.057837147 0.65300006
-0.011798096 0.057748575 0.65200001
-0.010540001 0.057660002 0.65100002
-0.009300001 0.057660002 0.65100002
-0.0080476198 0.057571433 0.65000004
-0.0067780958 0.05730572 0.64700001
-0.0055457149 0.05730572 0.64700001
-0.004306667 0.057217147 0.64600003
-0.0030714287 0.057128575 0.64500004
-0.0018428572 0.057128575 0.64500004
-0.00061333337 0.057040002 0.64400005
0.00061333337 0.057040002 0.64400005
0.0018400002 0.057040002 0.64400005
0.0030666669 0.057040002 0.64400005
0.014763811 0.059697147 0.67400002
0.016047619 0.059697147 0.67400002
0.017331429 0.059697147 0.67400002
0.018560002 0.059520002 0.67200005
0.01989905 0.059697147 0.67400002
0.021120001 0.059520002 0.67200005
0.022400001 0.059520002 0.67200005
-0.091072388 0.063152388 0.69800001
-0.089742862 0.063152388 0.69800001
-0.088286676 0.063061908 0.69700003
-0.086709529 0.062880956 0.69500005
-0.085262865 0.062790483 0.69400001
-0.08394096 0.062790483 0.69400001
-0.082619056 0.062790483 0.69400001
-0.081180006 0.062700003 0.69300002
-0.079629526 0.062519051 0.69100004
-0.078200005 0.062428575 0.69000006
-0.076885723 0.062428575 0.69000006
-0.075461909 0.062338099 0.68900001
-0.073934294 0.062157147 0.68700004
-0.072520003 0.062066671 0.68600005
-0.071005717 0.061885718 0.68400002
-0.069702864 0.061885718 0.68400002
-0.068300001 0.061795242 0.68300003
-0.066999055 0.061795242 0.68300003
-0.065601908 0.061704766 0.68200004
-0.064114287 0.061523814 0.68000001
-0.062726669 0.061433338 0.67900002
-0.061342862 0.061342862 0.67800003
-0.060140003 0.061433338 0.67900002
-0.058760002 0.061342862 0.67800003
-0.057468574 0.061342862 0.67800003
-0.056011431 0.061161909 0.67600006
-0.054723814 0.061161909 0.67600006
-0.053357147 0.061071433 0.67500001
-0.05199429 0.060980957 0.67400002
-0.050560005 0.060800005 0.67200005
-0.04920667 0.060709529 0.671
-0.047857147 0.060619052 0.67000002
-0.046580955 0.060619052 0.67000002
-0.045237146 0.060528576 0.66900003
-0.043962859 0.060528576 0.66900003
-0.042688575 0.060528576 0.66900003
-0.041290481 0.060347624 0.66700006
-0.039960004 0.060257148 0.66600001
-0.038691431 0.060257148 0.66600001
-0.03736667 0.060166672 0.66500002
-0.03599143 0.05998572 0.66300005
-0.034728575 0.05998572 0.66300005
-0.033465717 0.05998572 0.66300005
-0.032154288 0.059895243 0.66200006
-0.030846668 0.059804767 0.66100001
-0.02954286 0.059714291 0.66000003
-0.028285716 0.059714291 0.66000003
-0.027028574 0.059714291 0.66000003
-0.025693335 0.059533339 0.65800005
-0.024365716 0.059352383 0.65600002
-0.023116192 0.059352383 0.65600002
-0.021833334 0.059261907 0.65500003
-0.020617144 0.059352383 0.65600002
-0.019338097 0.059261907 0.65500003
-0.018035239 0.059080955 0.65300006
-0.016791429 0.059080955 0.65300006
-0.01554762 0.059080955 0.65300006
-0.014303811 0.059080955 0.65300006
-0.013040001 0.058990479 0.65200001
-0.011798096 0.058990479 0.65200001
-0.010540001 0.058900002 0.65100002
-0.009300001 0.058900002 0.65100002
-0.0080228578 0.058628574 0.648
-0.0067780958 0.058538098 0.64700001
-0.0055457149 0.058538098 0.64700001
-0.004306667 0.058447622 0.64600003
-0.0030714287 0.058357146 0.64500004
-0.0018428572 0.058357146 0.64500004
-0.00061333337 0.05826667 0.64400005
0.00061333337 0.05826667 0.64400005
0.0018400002 0.05826667 0.64400005
0.016071429 0.061071433 0.67500001
0.017357145 0.061071433 0.67500001
0.01861524 0.060980957 0.67400002
0.01989905 0.060980957 0.67400002
0.021214288 0.061071433 0.67500001
0.022500001 0.061071433 0.67500001
0.023680001 0.060800005 0.67200005
0.024922859 0.060709529 0.671
0.026161907 0.060619052 0.67000002
0.027397145 0.060528576 0.66900003
0.02867143 0.060528576 0.66900003
-0.095333338 0.064666674 0.70000005
-0.094000004 0.064666674 0.70000005
-0.092666671 0.064666674 0.70000005
-0.091072388 0.064481907 0.69800001
-0.089742862 0.064481907 0.69800001
-0.088286676 0.064389527 0.69700003
-0.086709529 0.064204767 0.69500005
-0.085262865 0.064112388 0.69400001
-0.08394096 0.064112388 0.69400001
-0.082500003 0.064020008 0.69300002
-0.080945723 0.063835241 0.69100004
-0.079514287 0.063742861 0.69000006
-0.078200005 0.063742861 0.69000006
-0.076774292 0.063650481 0.68900001
-0.075242862 0.063465722 0.68700004
-0.073826671 0.063373335 0.68600005
-0.072308578 0.063188575 0.68400002
-0.071005717 0.063188575 0.68400002
-0.069600955 0.063096195 0.68300003
-0.068300001 0.063096195 0.68300003
-0.066900954 0.063003816 0.68200004
-0.065409526 0.062819049 0.68000001
-0.064114287 0.062819049 0.68000001
-0.062634289 0.062634289 0.67800003
-0.061161909 0.06244953 0.67600006
-0.060051434 0.062634289 0.67800003
-0.058586672 0.06244953 0.67600006
-0.057299051 0.06244953 0.67600006
-0.055928577 0.062357146 0.67500001
-0.05464286 0.062357146 0.67500001
-0.0532781 0.062264767 0.67400002
-0.051840004 0.062080003 0.67200005
-0.050484765 0.061987624 0.671
-0.049133338 0.061895244 0.67000002
-0.047857147 0.061895244 0.67000002
-0.04651143 0.06180286 0.66900003
-0.045237146 0.06180286 0.66900003
-0.043962859 0.06180286 0.66900003
-0.042560954 0.061618101 0.66700006
-0.041228574 0.061525717 0.66600001
-0.039900001 0.061433338 0.66500002
-0.038517144 0.061248574 0.66300005
-0.037198097 0.061156195 0.66200006
-0.035937145 0.061156195 0.66200006
-0.034623813 0.061063815 0.66100001
-0.033364765 0.061063815 0.66100001
-0.032105718 0.061063815 0.66100001
-0.030800002 0.060971431 0.66000003
-0.02954286 0.060971431 0.66000003
-0.028200002 0.060786672 0.65800005
-0.026946668 0.060786672 0.65800005
-0.02561524 0.060601909 0.65600002
-0.024328573 0.060509529 0.65500003
-0.023080954 0.060509529 0.65500003
-0.021766668 0.060324766 0.65300006
-0.020522859 0.060324766 0.65300006
-0.019249525 0.060232386 0.65200001
-0.018007619 0.060232386 0.65200001
-0.016765716 0.060232386 0.65200001
-0.015523811 0.060232386 0.65200001
-0.014281905 0.060232386 0.65200001
-0.013000001 0.060047623 0.65000004
-0.011761906 0.060047623 0.65000004
-0.010475239 0.05977048 0.64700001
-0.0092571434 0.05986286 0.648
-0.0079980958 0.0596781 0.64600003
-0.0067676194 0.0596781 0.64600003
-0.0055371434 0.0596781 0.64600003
-0.0043000001 0.059585717 0.64500004
-0.0030714287 0.059585717 0.64500004
-0.0018428572 0.059585717 0.64500004
-0.00061333337 0.059493337 0.64400005
0.00061142864 0.059308574 0.64200002
0.017382858 0.06244953 0.67600006
0.018642858 0.062357146 0.67500001
0.019928573 0.062357146 0.67500001
0.021182859 0.062264767 0.67400002
0.022466669 0.062264767 0.67400002
0.023644764 0.061987624 0.671
0.024922859 0.061987624 0.671
0.026161907 0.061895244 0.67000002
0.027397145 0.06180286 0.66900003
0.02867143 0.06180286 0.66900003
0.029945716 0.06180286 0.66900003
0.030940002 0.061248574 0.66300005
-0.096804768 0.066094287 0.70100003
-0.095333338 0.066000007 0.70000005
-0.094000004 0.066000007 0.70000005
-0.092666671 0.066000007 0.70000005
-0.091072388 0.065811433 0.69800001
-0.089742862 0.065811433 0.69800001
-0.088286676 0.065717146 0.69700003
-0.086709529 0.065528579 0.69500005
-0.085262865 0.065434292 0.69400001
-0.083820008 0.065340005 0.69300002
-0.082500003 0.065340005 0.69300002
-0.080945723 0.065151431 0.69100004
-0.079514287 0.065057144 0.69000006
-0.078086674 0.064962864 0.68900001
-0.076774292 0.064962864 0.68900001
-0.075242862 0.06477429 0.68700004
-0.073611431 0.064491436 0.68400002
-0.072308578 0.064491436 0.68400002
-0.071005717 0.064491436 0.68400002
-0.069600955 0.064397149 0.68300003
-0.068200007 0.064302862 0.68200004
-0.066704765 0.064114287 0.68000001
-0.065313339 0.064020008 0.67900002
-0.064020008 0.064020008 0.67900002
-0.06244953 0.063737147 0.67600006
-0.061161909 0.063737147 0.67600006
-0.059874289 0.063737147 0.67600006
-0.058500003 0.063642859 0.67500001
-0.05721429 0.063642859 0.67500001
-0.055845719 0.063548572 0.67400002
-0.054561909 0.063548572 0.67400002
-0.053120002 0.063360006 0.67200005
-0.05176286 0.063265719 0.671
-0.050409526 0.063171431 0.67000002
-0.049060002 0.063077144 0.66900003
-0.047785718 0.063077144 0.66900003
-0.04651143 0.063077144 0.66900003
-0.045101907 0.062888578 0.66700006
-0.04383143 0.062888578 0.66700006
-0.042497147 0.06279429 0.66600001
-0.041166671 0.062700003 0.66500002
-0.039780002 0.062511429 0.66300005
-0.038459051 0.062417146 0.66200006
-0.037141908 0.062322862 0.66100001
-0.03588286 0.062322862 0.66100001
-0.034571432 0.062228575 0.66000003
-0.033314288 0.062228575 0.66000003
-0.032057144 0.062228575 0.66000003
-0.030706668 0.062040005 0.65800005
-0.029408574 0.061945718 0.65700001
-0.028157145 0.061945718 0.65700001
-0.026864763 0.061851434 0.65600002
-0.025576193 0.061757147 0.65500003
-0.024254287 0.061568577 0.65300006
-0.02297524 0.06147429 0.65200001
-0.021733334 0.06147429 0.65200001
-0.020491431 0.06147429 0.65200001
-0.019220002 0.061380003 0.65100002
-0.017980002 0.061380003 0.65100002
-0.016740002 0.061380003 0.65100002
-0.015476191 0.061285719 0.65000004
-0.014194286 0.061097145 0.648
-0.012920001 0.060908575 0.64600003
-0.011689524 0.060908575 0.64600003
-0.010459049 0.060908575 0.64600003
-0.0092285722 0.060908575 0.64600003
-0.0079857148 0.060814291 0.64500004
-0.0067571434 0.060814291 0.64500004
-0.005528572 0.060814291 0.64500004
-0.0042933337 0.060720004 0.64400005
-0.0030666669 0.060720004 0.64400005
-0.0018400002 0.060720004 0.64400005
-0.00061142864 0.060531434 0.64200002
0.00061047624 0.060437147 0.64100003
0.0018171429 0.059965719 0.63600004
0.0042066667 0.059494291 0.63100004
0.0054085716 0.059494291 0.63100004
0.0078371437 0.059682861 0.63300002
0.016190477 0.064114287 0.68000001
0.017434286 0.063925721 0.67800003
0.018670477 0.063737147 0.67600006
0.019958096 0.063737147 0.67600006
0.021182859 0.063548572 0.67400002
0.022400001 0.063360006 0.67200005
0.023644764 0.063265719 0.671
0.024885716 0.063171431 0.67000002
0.026161907 0.063171431 0.67000002
0.027438097 0.063171431 0.67000002
0.02867143 0.063077144 0.66900003
0.029945716 0.063077144 0.66900003
0.031033335 0.062700003 0.66500002
0.032202858 0.062511429 0.66300005
-0.096804768 0.067429528 0.70100003
-0.095333338 0.067333341 0.70000005
-0.094000004 0.067333341 0.70000005
-0.092401914 0.067140959 0.69800001
-0.090941913 0.067044765 0.69700003
-0.089357145 0.066852383 0.69500005
-0.088033341 0.066852383 0.69500005
-0.086584769 0.066756196 0.69400001
-0.085140005 0.066660002 0.69300002
-0.083578102 0.06646762 0.69100004
-0.082261913 0.06646762 0.69100004
-0.080828577 0.066371433 0.69000006
-0.079399049 0.066275239 0.68900001
-0.078086674 0.066275239 0.68900001
-0.07655143 0.066082865 0.68700004
-0.074914292 0.065794289 0.68400002
-0.073611431 0.065794289 0.68400002
-0.072202861 0.065698102 0.68300003
-0.070901908 0.065698102 0.68300003
-0.069499053 0.065601908 0.68200004
-0.068200007 0.065601908 0.68200004
-0.066704765 0.065409526 0.68000001
-0.065313339 0.065313339 0.67900002
-0.063737147 0.065024763 0.67600006
-0.062357146 0.064928576 0.67500001
-0.061071433 0.064928576 0.67500001
-0.05978572 0.064928576 0.67500001
-0.058500003 0.064928576 0.67500001
-0.057129528 0.064832382 0.67400002
-0.055845719 0.064832382 0.67400002
-0.054400004 0.064640008 0.67200005
-0.052961908 0.064447626 0.67000002
-0.051685717 0.064447626 0.67000002
-0.05033429 0.064351432 0.66900003
-0.049060002 0.064351432 0.66900003
-0.047642861 0.064159051 0.66700006
-0.046302859 0.064062864 0.66600001
-0.045034289 0.064062864 0.66600001
-0.043765716 0.064062864 0.66600001
-0.042305715 0.063774288 0.66300005
-0.041042861 0.063774288 0.66300005
-0.039720003 0.063678101 0.66200006
-0.038400955 0.063581906 0.66100001
-0.037085716 0.063485719 0.66000003
-0.035828575 0.063485719 0.66000003
-0.034571432 0.063485719 0.66000003
-0.033213336 0.063293338 0.65800005
-0.031960003 0.063293338 0.65800005
-0.030660002 0.063197143 0.65700001
-0.02931905 0.063004769 0.65500003
-0.02807143 0.063004769 0.65500003
-0.026741907 0.062812388 0.65300006
-0.025459049 0.062716193 0.65200001
-0.024180003 0.062620007 0.65100002
-0.022940002 0.062620007 0.65100002
-0.021666668 0.062523812 0.65000004
-0.020428572 0.062523812 0.65000004
-0.019131429 0.062331434 0.648
-0.017897144 0.062331434 0.648
-0.016662858 0.062331434 0.648
-0.015404763 0.062235244 0.64700001
-0.014150477 0.062139053 0.64600003
-0.0129 0.062042862 0.64500004
-0.011671429 0.062042862 0.64500004
-0.010426668 0.061946671 0.64400005
-0.0092000002 0.061946671 0.64400005
-0.0079733338 0.061946671 0.64400005
-0.006746667 0.061946671 0.64400005
-0.0055028577 0.06175429 0.64200002
-0.0042800005 0.06175429 0.64200002
-0.003057143 0.06175429 0.64200002
-0.0018314287 0.061658099 0.64100003
-0.00061047624 0.061658099 0.64100003
0.00060857146 0.061465718 0.63900006
0.0018171429 0.061177146 0.63600004
0.003009524 0.060792387 0.63200003
0.0042066667 0.060696196 0.63100004
0.0054085716 0.060696196 0.63100004
0.0066104764 0.060696196 0.63100004
0.0078123813 0.060696196 0.63100004
0.0090142861 0.060696196 0.63100004
0.010264763 0.060984764 0.634
0.014895239 0.065409526 0.68000001
0.016190477 0.065409526 0.68000001
0.017460002 0.065313339 0.67900002
0.018725716 0.065217145 0.67800003
0.020017143 0.065217145 0.67800003
0.021214288 0.064928576 0.67500001
0.022466669 0.064832382 0.67400002
0.023644764 0.064543813 0.671
0.024922859 0.064543813 0.671
0.026161907 0.064447626 0.67000002
0.027438097 0.064447626 0.67000002
0.028714288 0.064447626 0.67000002
0.029945716 0.064351432 0.66900003
0.031126669 0.064159051 0.66700006
0.032397144 0.064159051 0.66700006
0.033617146 0.064062864 0.66600001
-0.098140009 0.068764769 0.70100003
-0.096804768 0.068764769 0.70100003
-0.095333338 0.068666674 0.70000005
-0.094000004 0.068666674 0.70000005
-0.092401914 0.068470478 0.69800001
-0.090941913 0.068372384 0.69700003
-0.089357145 0.068176195 0.69500005
-0.087906674 0.068078101 0.69400001
-0.086584769 0.068078101 0.69400001
-0.084894292 0.067783818 0.69100004
-0.083578102 0.067783818 0.69100004
-0.08214286 0.067685716 0.69000006
-0.080828577 0.067685716 0.69000006
-0.079399049 0.067587622 0.68900001
-0.077860005 0.067391433 0.68700004
-0.076440006 0.067293338 0.68600005
-0.074914292 0.06709715 0.68400002
-0.073503815 0.066999055 0.68300003
-0.072202861 0.066999055 0.68300003
-0.070798099 0.066900954 0.68200004
-0.069295242 0.066704765 0.68000001
-0.068000004 0.066704765 0.68000001
-0.066606671 0.066606671 0.67900002
-0.065217145 0.066508576 0.67800003
-0.063642859 0.066214293 0.67500001
-0.062357146 0.066214293 0.67500001
-0.060980957 0.066116191 0.67400002
-0.05978572 0.066214293 0.67500001
-0.058413338 0.066116191 0.67400002
-0.057129528 0.066116191 0.67400002
-0.055680003 0.065920003 0.67200005
-0.05431905 0.065821908 0.671
-0.052961908 0.065723814 0.67000002
-0.051608574 0.06562572 0.66900003
-0.050183814 0.065429531 0.66700006
-0.048913337 0.065429531 0.66700006
-0.047571432 0.065331429 0.66600001
-0.046302859 0.065331429 0.66600001
-0.044966668 0.065233335 0.66500002
-0.043700002 0.065233335 0.66500002
-0.042305715 0.065037146 0.66300005
-0.040980954 0.064939052 0.66200006
-0.039660003 0.064840958 0.66100001
-0.03834286 0.064742863 0.66000003
-0.037085716 0.064742863 0.66000003
-0.035720002 0.064546674 0.65800005
-0.034466669 0.064546674 0.65800005
-0.033213336 0.064546674 0.65800005
-0.031862859 0.064350478 0.65600002
-0.030566668 0.064252384 0.65500003
-0.029229525 0.064056195 0.65300006
-0.027942859 0.063958101 0.65200001
-0.026700955 0.063958101 0.65200001
-0.025420001 0.063860007 0.65100002
-0.02414286 0.063761912 0.65000004
-0.022904763 0.063761912 0.65000004
-0.021600001 0.063565716 0.648
-0.020365715 0.063565716 0.648
-0.019131429 0.063565716 0.648
-0.017841905 0.063369527 0.64600003
-0.016611429 0.063369527 0.64600003
-0.015380953 0.063369527 0.64600003
-0.014128572 0.063271433 0.64500004
-0.012880001 0.063173339 0.64400005
-0.011617144 0.06297715 0.64200002
-0.010394286 0.06297715 0.64200002
-0.0091571435 0.062879048 0.64100003
-0.0079361908 0.062879048 0.64100003
-0.0067257145 0.06297715 0.64200002
-0.0054942863 0.062879048 0.64100003
-0.0042733336 0.062879048 0.64100003
-0.003057143 0.06297715 0.64200002
-0.0018314287 0.062879048 0.64100003
-0.00060761906 0.062584765 0.63800001
0.00060761906 0.062584765 0.63800001
0.0018114287 0.062192384 0.634
0.0030047621 0.061898101 0.63100004
0.0041933334 0.061701909 0.62900001
0.0053914287 0.061701909 0.62900001
0.0065895244 0.061701909 0.62900001
0.0077876197 0.061701909 0.62900001
0.0090285717 0.061996195 0.63200003
0.013680001 0.06709715 0.68400002
0.014982858 0.06709715 0.68400002
0.016238097 0.066900954 0.68200004
0.017485715 0.066704765 0.68000001
0.018753335 0.066606671 0.67900002
0.020017143 0.066508576 0.67800003
0.021245716 0.066312388 0.67600006
0.022500001 0.066214293 0.67500001
0.023750478 0.066116191 0.67400002
0.024960002 0.065920003 0.67200005
0.026200954 0.065821908 0.671
0.027479049 0.065821908 0.671
0.028714288 0.065723814 0.67000002
0.029990477 0.065723814 0.67000002
0.031220002 0.06562572 0.66900003
0.032494288 0.06562572 0.66900003
0.03366762 0.065429531 0.66700006
0.034938097 0.065429531 0.66700006
-0.099475242 0.070100002 0.70100003
-0.098140009 0.070100002 0.70100003
-0.096804768 0.070100002 0.70100003
-0.095333338 0.070000008 0.70000005
-0.094000004 0.070000008 0.70000005
-0.092401914 0.069800004 0.69800001
-0.090941913 0.069700003 0.69700003
-0.089357145 0.069500007 0.69500005
-0.087906674 0.069400005 0.69400001
-0.086210482 0.069100007 0.69100004
-0.084771432 0.069000006 0.69000006
-0.08345715 0.069000006 0.69000006
-0.082023814 0.068900004 0.68900001
-0.080711432 0.068900004 0.68900001
-0.079168573 0.068700008 0.68700004
-0.077746674 0.068600006 0.68600005
-0.076217145 0.068400003 0.68400002
-0.074804768 0.068300001 0.68300003
-0.073503815 0.068300001 0.68300003
-0.072097145 0.068200007 0.68200004
-0.070590481 0.068000004 0.68000001
-0.069295242 0.068000004 0.68000001
-0.067900002 0.067900002 0.67900002
-0.066508576 0.067800008 0.67800003
-0.065024763 0.067600004 0.67600006
-0.063642859 0.067500003 0.67500001
-0.062264767 0.067400001 0.67400002
-0.060980957 0.067400001 0.67400002
-0.059697147 0.067400001 0.67400002
-0.058413338 0.067400001 0.67400002
-0.056960005 0.067200005 0.67200005
-0.055597145 0.067100003 0.671
-0.05431905 0.067100003 0.671
-0.052882861 0.066900007 0.66900003
-0.051454291 0.066700004 0.66700006
-0.050108574 0.066600002 0.66600001
-0.048840005 0.066600002 0.66600001
-0.047500003 0.066500001 0.66500002
-0.046233337 0.066500001 0.66500002
-0.044966668 0.066500001 0.66500002
-0.043568574 0.066300005 0.66300005
-0.042241909 0.066200003 0.66200006
-0.040980954 0.066200003 0.66200006
-0.039600004 0.066000007 0.66000003
-0.03834286 0.066000007 0.66000003
-0.036973335 0.065800004 0.65800005
-0.035720002 0.065800004 0.65800005
-0.034466669 0.065800004 0.65800005
-0.033162858 0.065700002 0.65700001
-0.031862859 0.065600008 0.65600002
-0.030566668 0.065500006 0.65500003
-0.029184764 0.065200001 0.65200001
-0.027900001 0.065100007 0.65100002
-0.026619049 0.065000005 0.65000004
-0.025380954 0.065000005 0.65000004
-0.024068573 0.064800002 0.648
-0.022834288 0.064800002 0.648
-0.021566669 0.064700007 0.64700001
-0.020334287 0.064700007 0.64700001
-0.019072382 0.064600006 0.64600003
-0.017814286 0.064500004 0.64500004
-0.016585715 0.064500004 0.64500004
-0.015333334 0.064400002 0.64400005
-0.014106668 0.064400002 0.64400005
-0.012840001 0.064200006 0.64200002
-0.011599048 0.064100005 0.64100003
-0.010378096 0.064100005 0.64100003
-0.009142858 0.064000003 0.64000005
-0.0079238098 0.064000003 0.64000005
-0.0066942861 0.063900001 0.63900006
-0.005477143 0.063900001 0.63900006
-0.0042600003 0.063900001 0.63900006
-0.0030476192 0.064000003 0.64000005
-0.0018257144 0.063900001 0.63900006
-0.00060476194 0.063500002 0.63500005
0.00060285721 0.063300006 0.63300002
0.0018028573 0.063100003 0.63100004
0.0029952384 0.062900007 0.62900001
0.0041933334 0.062900007 0.62900001
0.0053914287 0.062900007 0.62900001
0.0065895244 0.062900007 0.62900001
0.0077876197 0.062900007 0.62900001
0.0090142861 0.063100003 0.63100004
0.013680001 0.068400003 0.68400002
0.014982858 0.068400003 0.68400002
0.016238097 0.068200007 0.68200004
0.017485715 0.068000004 0.68000001
0.018780954 0.068000004 0.68000001
0.020046668 0.067900002 0.67900002
0.021308573 0.067800008 0.67800003
0.022533335 0.067600004 0.67600006
0.023785716 0.067500003 0.67500001
0.025034288 0.067400001 0.67400002
0.026318097 0.067400001 0.67400002
0.027479049 0.067100003 0.671
0.028757146 0.067100003 0.671
0.030035241 0.067100003 0.671
0.031266667 0.067000002 0.67000002
0.032542858 0.067000002 0.67000002
0.033768572 0.066900007 0.66900003
-0.099475242 0.071435243 0.70100003
-0.098140009 0.071435243 0.70100003
-0.096804768 0.071435243 0.70100003
-0.095333338 0.071333341 0.70000005
-0.093731433 0.071129531 0.69800001
-0.092401914 0.071129531 0.69800001
-0.090941913 0.071027622 0.69700003
-0.089357145 0.070823811 0.69500005
-0.087906674 0.070721909 0.69400001
-0.086210482 0.070416197 0.69100004
-0.084771432 0.070314288 0.69000006
-0.08345715 0.070314288 0.69000006
-0.082023814 0.070212387 0.68900001
-0.080477148 0.070008576 0.68700004
-0.079053335 0.069906674 0.68600005
-0.077520005 0.069702864 0.68400002
-0.076217145 0.069702864 0.68400002
-0.074804768 0.069600955 0.68300003
-0.073396198 0.069499053 0.68200004
-0.07188572 0.069295242 0.68000001
-0.070590481 0.069295242 0.68000001
-0.069193341 0.069193341 0.67900002
-0.067800008 0.069091432 0.67800003
-0.066508576 0.069091432 0.67800003
-0.065024763 0.068887621 0.67600006
-0.063548572 0.068683811 0.67400002
-0.062264767 0.068683811 0.67400002
-0.060800005 0.068480007 0.67200005
-0.059697147 0.068683811 0.67400002
-0.058240004 0.068480007 0.67200005
-0.056960005 0.068480007 0.67200005
-0.055597145 0.068378098 0.671
-0.0542381 0.068276197 0.67000002
-0.052882861 0.068174288 0.66900003
-0.051377147 0.067868575 0.66600001
-0.050108574 0.067868575 0.66600001
-0.048766669 0.067766674 0.66500002
-0.047500003 0.067766674 0.66500002
-0.046233337 0.067766674 0.66500002
-0.044831432 0.067562863 0.66300005
-0.043568574 0.067562863 0.66300005
-0.042241909 0.067460954 0.66200006
-0.040919051 0.067359053 0.66100001
-0.039600004 0.067257144 0.66000003
-0.038226668 0.06705334 0.65800005
-0.036973335 0.06705334 0.65800005
-0.035665717 0.066951431 0.65700001
-0.034414288 0.066951431 0.65700001
-0.033112384 0.06684953 0.65600002
-0.031717144 0.066543818 0.65300006
-0.030426668 0.066441908 0.65200001
-0.029140001 0.066340007 0.65100002
-0.027857145 0.066238098 0.65000004
-0.026537145 0.066034287 0.648
-0.025302859 0.066034287 0.648
-0.02403143 0.065932386 0.64700001
-0.022763811 0.065830484 0.64600003
-0.021533335 0.065830484 0.64600003
-0.02027143 0.065728575 0.64500004
-0.019042859 0.065728575 0.64500004
-0.017814286 0.065728575 0.64500004
-0.016560001 0.065626673 0.64400005
-0.015285715 0.065422863 0.64200002
-0.014062858 0.065422863 0.64200002
-0.012800001 0.065219052 0.64000005
-0.011580953 0.065219052 0.64000005
-0.010345715 0.065117151 0.63900006
-0.0091285724 0.065117151 0.63900006
-0.0078990478 0.065015242 0.63800001
-0.0066838101 0.065015242 0.63800001
-0.0054514287 0.064811431 0.63600004
-0.0042333337 0.064709529 0.63500005
-0.0030285716 0.064811431 0.63600004
-0.0018114287 0.06460762 0.634
-0.00060285721 0.064505719 0.63300002
0.00060095242 0.064301908 0.63100004
0.001797143 0.064098097 0.62900001
0.0029952384 0.064098097 0.62900001
0.004186667 0.063996196 0.62800002
0.0053828573 0.063996196 0.62800002
0.006579048 0.063996196 0.62800002
0.011122858 0.070008576 0.68700004
0.01243143 0.070008576 0.68700004
0.013720001 0.069906674 0.68600005
0.014960953 0.069600955 0.68300003
0.016261905 0.069600955 0.68300003
0.017562859 0.069600955 0.68300003
0.018780954 0.069295242 0.68000001
0.020076191 0.069295242 0.68000001
0.021340001 0.069193341 0.67900002
0.022600001 0.069091432 0.67800003
0.02389143 0.069091432 0.67800003
0.025071431 0.06878572 0.67500001
0.026357144 0.06878572 0.67500001
0.027601907 0.068683811 0.67400002
0.028800001 0.068480007 0.67200005
0.030080002 0.068480007 0.67200005
0.03136 0.068480007 0.67200005
0.032640003 0.068480007 0.67200005
0.033869527 0.068378098 0.671
0.035095241 0.068276197 0.67000002
-0.098140009 0.072770484 0.70100003
-0.096666671 0.072666675 0.70000005
-0.095333338 0.072666675 0.70000005
-0.093731433 0.07245905 0.69800001
-0.092269532 0.072355241 0.69700003
-0.090680957 0.072147623 0.69500005
-0.089228578 0.072043814 0.69400001
-0.087906674 0.072043814 0.69400001
-0.086210482 0.071732387 0.69100004
-0.084771432 0.071628578 0.69000006
-0.083336197 0.071524769 0.68900001
-0.082023814 0.071524769 0.68900001
-0.080477148 0.071317151 0.68700004
-0.079053335 0.071213335 0.68600005
-0.077520005 0.071005717 0.68400002
-0.076217145 0.071005717 0.68400002
-0.074695244 0.070798099 0.68200004
-0.073180959 0.070590481 0.68000001
-0.071780004 0.070486672 0.67900002
-0.070486672 0.070486672 0.67900002
-0.069091432 0.070382863 0.67800003
-0.067800008 0.070382863 0.67800003
-0.066312388 0.070175245 0.67600006
-0.064832382 0.06996762 0.67400002
-0.063548572 0.06996762 0.67400002
-0.062080003 0.069760002 0.67200005
-0.060800005 0.069760002 0.67200005
-0.059697147 0.06996762 0.67400002
-0.058240004 0.069760002 0.67200005
-0.05687524 0.069656193 0.671
-0.055514291 0.069552384 0.67000002
-0.054157145 0.069448575 0.66900003
-0.052724764 0.069240957 0.66700006
-0.051377147 0.069137149 0.66600001
-0.050033338 0.06903334 0.66500002
-0.048766669 0.06903334 0.66500002
-0.047357146 0.068825722 0.66300005
-0.046094287 0.068825722 0.66300005
-0.044831432 0.068825722 0.66300005
-0.04350286 0.068721913 0.66200006
-0.042114288 0.068514287 0.66000003
-0.040733337 0.06830667 0.65800005
-0.039480001 0.06830667 0.65800005
-0.038226668 0.06830667 0.65800005
-0.036917146 0.068202861 0.65700001
-0.035611432 0.068099052 0.65600002
-0.034361906 0.068099052 0.65600002
-0.033061907 0.067995243 0.65500003
-0.031717144 0.067787625 0.65300006
-0.030426668 0.067683816 0.65200001
-0.029140001 0.067580007 0.65100002
-0.027857145 0.067476198 0.65000004
-0.026537145 0.067268573 0.648
-0.025263811 0.067164764 0.64700001
-0.023994287 0.067060955 0.64600003
-0.022763811 0.067060955 0.64600003
-0.021500001 0.066957146 0.64500004
-0.02027143 0.066957146 0.64500004
-0.019013334 0.066853337 0.64400005
-0.017786669 0.066853337 0.64400005
-0.016508572 0.066645719 0.64200002
-0.015285715 0.066645719 0.64200002
-0.014040953 0.06654191 0.64100003
-0.01278 0.066334292 0.63900006
-0.011562858 0.066334292 0.63900006
-0.010329524 0.066230483 0.63800001
-0.0091142859 0.066230483 0.63800001
-0.0078742858 0.066022858 0.63600004
-0.0066628577 0.066022858 0.63600004
-0.0054428573 0.065919049 0.63500005
-0.0042266669 0.06581524 0.634
-0.0030142858 0.065711431 0.63300002
-0.0018057144 0.065607622 0.63200003
-0.00060190482 0.065607622 0.63200003
0.00059904763 0.065296195 0.62900001
0.0017942858 0.065192387 0.62800002
0.0029904763 0.065192387 0.62800002
0.004186667 0.065192387 0.62800002
0.0053828573 0.065192387 0.62800002
0.006579048 0.065192387 0.62800002
0.0098428577 0.071524769 0.68900001
0.011122858 0.071317151 0.68700004
0.01243143 0.071317151 0.68700004
0.013720001 0.071213335 0.68600005
0.015026668 0.071213335 0.68600005
0.016285716 0.071005717 0.68400002
0.017588573 0.071005717 0.68400002
0.018836191 0.070798099 0.68200004
0.020076191 0.070590481 0.68000001
0.021340001 0.070486672 0.67900002
0.022633335 0.070486672 0.67900002
0.02389143 0.070382863 0.67800003
0.025182858 0.070382863 0.67800003
0.026396193 0.070175245 0.67600006
0.027642859 0.070071436 0.67500001
0.028885717 0.06996762 0.67400002
0.030169526 0.06996762 0.67400002
0.031453334 0.06996762 0.67400002
0.032640003 0.069760002 0.67200005
0.033920001 0.069760002 0.67200005
0.035147622 0.069656193 0.671
0.036371432 0.069552384 0.67000002
-0.098140009 0.074105717 0.70100003
-0.096804768 0.074105717 0.70100003
-0.095060959 0.073788576 0.69800001
-0.093731433 0.073788576 0.69800001
-0.092269532 0.07368286 0.69700003
-0.090680957 0.073471434 0.69500005
-0.089228578 0.073365718 0.69400001
-0.087780006 0.073260002 0.69300002
-0.086085722 0.07294286 0.69000006
-0.084771432 0.07294286 0.69000006
-0.083336197 0.072837144 0.68900001
-0.082023814 0.072837144 0.68900001
-0.080360003 0.072520003 0.68600005
-0.078822859 0.072308578 0.68400002
-0.077520005 0.072308578 0.68400002
-0.076105721 0.072202861 0.68300003
-0.074695244 0.072097145 0.68200004
-0.073180959 0.07188572 0.68000001
-0.071780004 0.071780004 0.67900002
-0.070486672 0.071780004 0.67900002
-0.069091432 0.071674287 0.67800003
-0.067800008 0.071674287 0.67800003
-0.066312388 0.071462862 0.67600006
-0.064832382 0.07125143 0.67400002
-0.063360006 0.071040004 0.67200005
-0.062080003 0.071040004 0.67200005
-0.060800005 0.071040004 0.67200005
-0.059520002 0.071040004 0.67200005
-0.058153339 0.070934288 0.671
-0.05687524 0.070934288 0.671
-0.055514291 0.070828579 0.67000002
-0.05399524 0.070511431 0.66700006
-0.052645717 0.070405722 0.66600001
-0.051300004 0.070300005 0.66500002
-0.050033338 0.070300005 0.66500002
-0.048766669 0.070300005 0.66500002
-0.047357146 0.070088573 0.66300005
-0.046094287 0.070088573 0.66300005
-0.044763811 0.069982864 0.66200006
-0.043371432 0.069771431 0.66000003
-0.042114288 0.069771431 0.66000003
-0.040733337 0.069560006 0.65800005
-0.039420001 0.06945429 0.65700001
-0.03811048 0.069348574 0.65600002
-0.036804765 0.069242865 0.65500003
-0.035557143 0.069242865 0.65500003
-0.034309525 0.069242865 0.65500003
-0.032960955 0.069031432 0.65300006
-0.031668574 0.068925716 0.65200001
-0.030380001 0.068820007 0.65100002
-0.02909524 0.068714291 0.65000004
-0.02777143 0.068502858 0.648
-0.026496192 0.068397149 0.64700001
-0.025224764 0.068291433 0.64600003
-0.023957144 0.068185717 0.64500004
-0.022728574 0.068185717 0.64500004
-0.021466669 0.068080008 0.64400005
-0.020240001 0.068080008 0.64400005
-0.018954286 0.067868575 0.64200002
-0.01773143 0.067868575 0.64200002
-0.016482858 0.067762859 0.64100003
-0.015238096 0.06765715 0.64000005
-0.014019049 0.06765715 0.64000005
-0.012760001 0.067445718 0.63800001
-0.011544763 0.067445718 0.63800001
-0.010297144 0.067234293 0.63600004
-0.0090857148 0.067234293 0.63600004
-0.0078742858 0.067234293 0.63600004
-0.0066523813 0.067128576 0.63500005
-0.0054428573 0.067128576 0.63500005
-0.0042266669 0.06702286 0.634
-0.0030047621 0.066705719 0.63100004
-0.0018028573 0.066705719 0.63100004
-0.00060095242 0.066705719 0.63100004
0.00059619051 0.066177145 0.62600005
0.0017914287 0.066282861 0.62700003
0.0029857145 0.066282861 0.62700003
0.0041800002 0.066282861 0.62700003
0.0053828573 0.066388577 0.62800002
0.0085428581 0.07294286 0.69000006
0.0098428577 0.072837144 0.68900001
0.011122858 0.072625719 0.68700004
0.01243143 0.072625719 0.68700004
0.013720001 0.072520003 0.68600005
0.015026668 0.072520003 0.68600005
0.016285716 0.072308578 0.68400002
0.017588573 0.072308578 0.68400002
0.018836191 0.072097145 0.68200004
0.020135239 0.072097145 0.68200004
0.02137143 0.07188572 0.68000001
0.022666669 0.07188572 0.68000001
0.023926668 0.071780004 0.67900002
0.025220001 0.071780004 0.67900002
0.026474288 0.071674287 0.67800003
0.027683811 0.071462862 0.67600006
0.028928574 0.071357146 0.67500001
0.030169526 0.07125143 0.67400002
0.031453334 0.07125143 0.67400002
0.032737143 0.07125143 0.67400002
0.033920001 0.071040004 0.67200005
0.035200004 0.071040004 0.67200005
0.036480002 0.071040004 0.67200005
-0.098140009 0.075440958 0.70100003
-0.096390486 0.075118102 0.69800001
-0.09492477 0.075010478 0.69700003
-0.09332858 0.074795246 0.69500005
-0.092004769 0.074795246 0.69500005
-0.090550482 0.074687622 0.69400001
-0.089100003 0.074580006 0.69300002
-0.087400004 0.07425715 0.69000006
-0.086085722 0.07425715 0.69000006
-0.084648579 0.074149527 0.68900001
-0.083336197 0.074149527 0.68900001
-0.081785716 0.073934294 0.68700004
-0.080360003 0.073826671 0.68600005
-0.078822859 0.073611431 0.68400002
-0.077406675 0.073503815 0.68300003
-0.076105721 0.073503815 0.68300003
-0.074476197 0.073180959 0.68000001
-0.073073335 0.073073335 0.67900002
-0.071780004 0.073073335 0.67900002
-0.070382863 0.072965719 0.67800003
-0.069091432 0.072965719 0.67800003
-0.067600004 0.072750479 0.67600006
-0.066214293 0.072642863 0.67500001
-0.064832382 0.072535239 0.67400002
-0.063360006 0.072320007 0.67200005
-0.062080003 0.072320007 0.67200005
-0.060709529 0.072212383 0.671
-0.059431434 0.072212383 0.671
-0.05806667 0.072104767 0.67000002
-0.056705717 0.071997151 0.66900003
-0.055431433 0.071997151 0.66900003
-0.05391429 0.071674287 0.66600001
-0.05256667 0.071566671 0.66500002
-0.051300004 0.071566671 0.66500002
-0.049882859 0.071351431 0.66300005
-0.048620004 0.071351431 0.66300005
-0.047285717 0.071243815 0.66200006
-0.046024766 0.071243815 0.66200006
-0.044696193 0.071136191 0.66100001
-0.043240003 0.070813335 0.65800005
-0.041859049 0.070598103 0.65600002
-0.040609527 0.070598103 0.65600002
-0.039300002 0.070490479 0.65500003
-0.038052384 0.070490479 0.65500003
-0.036692385 0.07027524 0.65300006
-0.035448574 0.07027524 0.65300006
-0.034204762 0.07027524 0.65300006
-0.032860003 0.070060007 0.65100002
-0.031571429 0.069952384 0.65000004
-0.030333335 0.069952384 0.65000004
-0.028960954 0.069629528 0.64700001
-0.027685717 0.069521911 0.64600003
-0.026414288 0.069414288 0.64500004
-0.025146669 0.069306672 0.64400005
-0.023845715 0.069091432 0.64200002
-0.022622859 0.069091432 0.64200002
-0.021366669 0.068983816 0.64100003
-0.020114288 0.068876192 0.64000005
-0.018895239 0.068876192 0.64000005
-0.017676191 0.068876192 0.64000005
-0.01643143 0.068768576 0.63900006
-0.015190477 0.06866096 0.63800001
-0.01393143 0.06844572 0.63600004
-0.012700001 0.068338096 0.63500005
-0.011490477 0.068338096 0.63500005
-0.010280953 0.068338096 0.63500005
-0.0090714293 0.068338096 0.63500005
-0.0078495247 0.06823048 0.634
-0.0066419053 0.06823048 0.634
-0.0054342858 0.06823048 0.634
-0.004186667 0.067584768 0.62800002
-0.0029857145 0.067477144 0.62700003
-0.0017885716 0.067369528 0.62600005
-0.00059619051 0.067369528 0.62600005
0.00059523812 0.067261912 0.625
0.0017885716 0.067369528 0.62600005
0.0029809526 0.067369528 0.62600005
0.0041733338 0.067369528 0.62600005
0.0072285719 0.07425715 0.69000006
0.0085428581 0.07425715 0.69000006
0.0098571433 0.07425715 0.69000006
0.011155238 0.074149527 0.68900001
0.01246762 0.074149527 0.68900001
0.013740001 0.073934294 0.68700004
0.015048573 0.073934294 0.68700004
0.016333334 0.073826671 0.68600005
0.017640002 0.073826671 0.68600005
0.01886381 0.073503815 0.68300003
0.020164764 0.073503815 0.68300003
0.021434287 0.073396198 0.68200004
0.022733334 0.073396198 0.68200004
0.023961907 0.073180959 0.68000001
0.025257144 0.073180959 0.68000001
0.026513334 0.073073335 0.67900002
0.027765715 0.072965719 0.67800003
0.02897143 0.072750479 0.67600006
0.030214287 0.072642863 0.67500001
0.031500001 0.072642863 0.67500001
0.032737143 0.072535239 0.67400002
0.034020953 0.072535239 0.67400002
0.035200004 0.072320007 0.67200005
0.036480002 0.072320007 0.67200005
0.037760001 0.072320007 0.67200005
0.039040003 0.072320007 0.67200005
-0.096666671 0.076666668 0.70000005
-0.095060959 0.076447621 0.69800001
-0.09332858 0.07611905 0.69500005
-0.092004769 0.07611905 0.69500005
-0.090550482 0.076009527 0.69400001
-0.089100003 0.075900003 0.69300002
-0.087780006 0.075900003 0.69300002
-0.086085722 0.075571433 0.69000006
-0.084648579 0.075461909 0.68900001
-0.083336197 0.075461909 0.68900001
-0.081785716 0.075242862 0.68700004
-0.080360003 0.075133339 0.68600005
-0.078822859 0.074914292 0.68400002
-0.077406675 0.074804768 0.68300003
-0.076105721 0.074804768 0.68300003
-0.074476197 0.074476197 0.68000001
-0.073073335 0.074366674 0.67900002
-0.071780004 0.074366674 0.67900002
-0.070382863 0.07425715 0.67800003
-0.069091432 0.07425715 0.67800003
-0.067600004 0.074038103 0.67600006
-0.066214293 0.07392858 0.67500001
-0.064832382 0.073819056 0.67400002
-0.063360006 0.073600002 0.67200005
-0.061987624 0.073490478 0.671
-0.060619052 0.073380955 0.67000002
-0.059342861 0.073380955 0.67000002
-0.057980005 0.073271431 0.66900003
-0.056705717 0.073271431 0.66900003
-0.055265717 0.073052384 0.66700006
-0.053833336 0.072833337 0.66500002
-0.05256667 0.072833337 0.66500002
-0.051145718 0.07261429 0.66300005
-0.049882859 0.07261429 0.66300005
-0.048546668 0.072504766 0.66200006
-0.047214288 0.072395243 0.66100001
-0.045955241 0.072395243 0.66100001
-0.044628575 0.072285719 0.66000003
-0.043108575 0.071847625 0.65600002
-0.041795243 0.071738102 0.65500003
-0.040547621 0.071738102 0.65500003
-0.039180003 0.071519054 0.65300006
-0.037936192 0.071519054 0.65300006
-0.036692385 0.071519054 0.65300006
-0.035394289 0.071409531 0.65200001
-0.034152385 0.071409531 0.65200001
-0.032809526 0.071190484 0.65000004
-0.031474289 0.070971437 0.648
-0.030193334 0.070861906 0.64700001
-0.028916193 0.070752382 0.64600003
-0.027642859 0.070642859 0.64500004
-0.026373334 0.070533335 0.64400005
-0.025146669 0.070533335 0.64400005
-0.023845715 0.070314288 0.64200002
-0.02258762 0.070204765 0.64100003
-0.021333335 0.070095241 0.64000005
-0.020114288 0.070095241 0.64000005
-0.018865716 0.069985718 0.63900006
-0.017648572 0.069985718 0.63900006
-0.016405715 0.069876194 0.63800001
-0.015142858 0.069657147 0.63600004
-0.013909524 0.069547623 0.63500005
-0.012700001 0.069547623 0.63500005
-0.011490477 0.069547623 0.63500005
-0.010264763 0.0694381 0.634
-0.0090571437 0.0694381 0.634
-0.0078495247 0.0694381 0.634
-0.0066419053 0.0694381 0.634
-0.0054257144 0.069328576 0.63300002
-0.0041800002 0.068671435 0.62700003
-0.0029809526 0.068561912 0.62600005
-0.0017857144 0.068452388 0.625
-0.00059523812 0.068452388 0.625
0.00059428578 0.068342865 0.62400001
0.0017828572 0.068342865 0.62400001
0.0059228577 0.075680956 0.69100004
0.0072390479 0.075680956 0.69100004
0.0085552391 0.075680956 0.69100004
0.0098714288 0.075680956 0.69100004
0.011171429 0.075571433 0.69000006
0.012485716 0.075571433 0.69000006
0.013800001 0.075571433 0.69000006
0.015114287 0.075571433 0.69000006
0.016404763 0.075461909 0.68900001
0.017665716 0.075242862 0.68700004
0.018946668 0.075133339 0.68600005
0.020253334 0.075133339 0.68600005
0.021497143 0.074914292 0.68400002
0.022766668 0.074804768 0.68300003
0.02406762 0.074804768 0.68300003
0.02533143 0.074695244 0.68200004
0.026552383 0.074476197 0.68000001
0.027847622 0.074476197 0.68000001
0.029100003 0.074366674 0.67900002
0.03025905 0.074038103 0.67600006
0.031546667 0.074038103 0.67600006
0.032785717 0.07392858 0.67500001
0.034020953 0.073819056 0.67400002
0.035304762 0.073819056 0.67400002
0.036588576 0.073819056 0.67400002
0.037760001 0.073600002 0.67200005
0.039040003 0.073600002 0.67200005
-0.096666671 0.078000002 0.70000005
-0.095333338 0.078000002 0.70000005
-0.093597151 0.077665716 0.69700003
-0.092269532 0.077665716 0.69700003
-0.090550482 0.077331431 0.69400001
-0.089100003 0.077220008 0.69300002
-0.087780006 0.077220008 0.69300002
-0.086085722 0.076885723 0.69000006
-0.084648579 0.076774292 0.68900001
-0.083336197 0.076774292 0.68900001
-0.081785716 0.07655143 0.68700004
-0.080360003 0.076440006 0.68600005
-0.078822859 0.076217145 0.68400002
-0.077406675 0.076105721 0.68300003
-0.076105721 0.076105721 0.68300003
-0.074476197 0.075771436 0.68000001
-0.073073335 0.075660005 0.67900002
-0.071780004 0.075660005 0.67900002
-0.070382863 0.075548574 0.67800003
-0.069091432 0.075548574 0.67800003
-0.067600004 0.07532572 0.67600006
-0.066214293 0.075214289 0.67500001
-0.064832382 0.075102866 0.67400002
-0.063360006 0.074880004 0.67200005
-0.061987624 0.074768573 0.671
-0.060619052 0.07465715 0.67000002
-0.059342861 0.07465715 0.67000002
-0.057980005 0.074545719 0.66900003
-0.056536194 0.074322864 0.66700006
-0.055182859 0.074211434 0.66600001
-0.053833336 0.074100003 0.66500002
-0.05256667 0.074100003 0.66500002
-0.051145718 0.073877148 0.66300005
-0.049882859 0.073877148 0.66300005
-0.048546668 0.073765717 0.66200006
-0.047214288 0.073654294 0.66100001
-0.045885716 0.073542863 0.66000003
-0.044425718 0.073208578 0.65700001
-0.043108575 0.073097147 0.65600002
-0.041795243 0.072985716 0.65500003
-0.04042381 0.072762862 0.65300006
-0.039180003 0.072762862 0.65300006
-0.037878096 0.072651431 0.65200001
-0.036636192 0.072651431 0.65200001
-0.035394289 0.072651431 0.65200001
-0.034047622 0.072428577 0.65000004
-0.032809526 0.072428577 0.65000004
-0.031425714 0.072094291 0.64700001
-0.030146668 0.071982861 0.64600003
-0.02887143 0.07187143 0.64500004
-0.027600002 0.071760006 0.64400005
-0.02629143 0.071537144 0.64200002
-0.025029525 0.071425721 0.64100003
-0.023808572 0.071425721 0.64100003
-0.022552382 0.07131429 0.64000005
-0.021333335 0.07131429 0.64000005
-0.020082859 0.071202859 0.63900006
-0.018865716 0.071202859 0.63900006
-0.017620953 0.071091436 0.63800001
-0.016354287 0.070868574 0.63600004
-0.015119049 0.070757151 0.63500005
-0.013909524 0.070757151 0.63500005
-0.012700001 0.070757151 0.63500005
-0.011472382 0.07064572 0.634
-0.010264763 0.07064572 0.634
-0.0090428581 0.070534289 0.63300002
-0.0078371437 0.070534289 0.63300002
-0.0066314288 0.070534289 0.63300002
-0.0053742859 0.069865718 0.62700003
-0.0041733338 0.069754288 0.62600005
-0.0029761908 0.069642864 0.625
-0.0017857144 0.069642864 0.625
-0.00059523812 0.069642864 0.625
0.00059428578 0.069531433 0.62400001
0.0017828572 0.069531433 0.62400001
0.005948572 0.077331431 0.69400001
0.0072704768 0.077331431 0.69400001
0.0085800001 0.077220008 0.69300002
0.0098714288 0.076997146 0.69100004
0.01118762 0.076997146 0.69100004
0.01250381 0.076997146 0.69100004
0.013800001 0.076885723 0.69000006
0.015114287 0.076885723 0.69000006
0.016404763 0.076774292 0.68900001
0.017717144 0.076774292 0.68900001
0.018974287 0.07655143 0.68700004
0.020253334 0.076440006 0.68600005
0.021497143 0.076217145 0.68400002
0.022800002 0.076217145 0.68400002
0.02406762 0.076105721 0.68300003
0.025368573 0.076105721 0.68300003
0.026630478 0.07599429 0.68200004
0.027847622 0.075771436 0.68000001
0.029142858 0.075771436 0.68000001
0.030348573 0.075548574 0.67800003
0.031546667 0.07532572 0.67600006
0.032785717 0.075214289 0.67500001
0.034071431 0.075214289 0.67500001
0.035304762 0.075102866 0.67400002
0.036588576 0.075102866 0.67400002
0.037872385 0.075102866 0.67400002
0.039156195 0.075102866 0.67400002
-0.09492477 0.078993335 0.69700003
-0.093597151 0.078993335 0.69700003
-0.092269532 0.078993335 0.69700003
-0.090550482 0.078653336 0.69400001
-0.089100003 0.078540005 0.69300002
-0.087780006 0.078540005 0.69300002
-0.086210482 0.078313336 0.69100004
-0.084648579 0.078086674 0.68900001
-0.083336197 0.078086674 0.68900001
-0.081785716 0.077860005 0.68700004
-0.080360003 0.077746674 0.68600005
-0.079053335 0.077746674 0.68600005
-0.077520005 0.077520005 0.68400002
-0.075771436 0.077066675 0.68000001
-0.074476197 0.077066675 0.68000001
-0.073073335 0.076953337 0.67900002
-0.071780004 0.076953337 0.67900002
-0.070382863 0.076840006 0.67800003
-0.069091432 0.076840006 0.67800003
-0.067600004 0.076613337 0.67600006
-0.066214293 0.076500006 0.67500001
-0.064640008 0.076160006 0.67200005
-0.063360006 0.076160006 0.67200005
-0.061987624 0.076046668 0.671
-0.060619052 0.075933337 0.67000002
-0.059342861 0.075933337 0.67000002
-0.057980005 0.075820006 0.66900003
-0.056536194 0.075593337 0.66700006
-0.055182859 0.075480007 0.66600001
-0.053833336 0.075366668 0.66500002
-0.05256667 0.075366668 0.66500002
-0.051145718 0.075140007 0.66300005
-0.049882859 0.075140007 0.66300005
-0.048546668 0.075026669 0.66200006
-0.047214288 0.074913338 0.66100001
-0.045885716 0.074800007 0.66000003
-0.044425718 0.074460007 0.65700001
-0.043042861 0.074233338 0.65500003
-0.041667622 0.074006669 0.65300006
-0.04042381 0.074006669 0.65300006
-0.039120004 0.073893338 0.65200001
-0.037878096 0.073893338 0.65200001
-0.036580004 0.073780008 0.65100002
-0.035340004 0.073780008 0.65100002
-0.034047622 0.073666669 0.65000004
-0.032708574 0.073440008 0.648
-0.031377144 0.073213339 0.64600003
-0.030100003 0.073100008 0.64500004
-0.02887143 0.073100008 0.64500004
-0.027600002 0.07298667 0.64400005
-0.02629143 0.072760008 0.64200002
-0.024990479 0.072533339 0.64000005
-0.023771429 0.072533339 0.64000005
-0.022552382 0.072533339 0.64000005
-0.021300001 0.072420008 0.63900006
-0.020082859 0.072420008 0.63900006
-0.018836191 0.07230667 0.63800001
-0.017565716 0.072080001 0.63600004
-0.016328573 0.07196667 0.63500005
-0.015119049 0.07196667 0.63500005
-0.01388762 0.07185334 0.634
-0.012680001 0.07185334 0.634
-0.011454286 0.071740001 0.63300002
-0.010248573 0.071740001 0.63300002
-0.0090285717 0.071626671 0.63200003
-0.0078247627 0.071626671 0.63200003
-0.0066104764 0.07151334 0.63100004
-0.0053657144 0.070946671 0.62600005
-0.0041666669 0.07083334 0.625
-0.0029761908 0.07083334 0.625
-0.0017828572 0.070720002 0.62400001
-0.00059428578 0.070720002 0.62400001
0.00059428578 0.070720002 0.62400001
0.0017828572 0.070720002 0.62400001
0.0059571434 0.078766674 0.69500005
0.0072809528 0.078766674 0.69500005
0.0085923811 0.078653336 0.69400001
0.0099000009 0.078540005 0.69300002
0.01118762 0.078313336 0.69100004
0.01250381 0.078313336 0.69100004
0.013820001 0.078313336 0.69100004
0.015114287 0.078200005 0.69000006
0.016428573 0.078200005 0.69000006
0.017717144 0.078086674 0.68900001
0.018974287 0.077860005 0.68700004
0.020253334 0.077746674 0.68600005
0.021497143 0.077520005 0.68400002
0.022800002 0.077520005 0.68400002
0.024102859 0.077520005 0.68400002
0.025368573 0.077406675 0.68300003
0.026669526 0.077406675 0.68300003
0.027929526 0.077293336 0.68200004
0.029228574 0.077293336 0.68200004
0.030393336 0.076953337 0.67900002
0.031640001 0.076840006 0.67800003
0.032834288 0.076613337 0.67600006
0.034071431 0.076500006 0.67500001
0.035357144 0.076500006 0.67500001
0.036588576 0.076386675 0.67400002
0.037872385 0.076386675 0.67400002
0.039156195 0.076386675 0.67400002
-0.096666671 0.080666669 0.70000005
-0.09492477 0.080320954 0.69700003
-0.093597151 0.080320954 0.69700003
-0.092004769 0.080090478 0.69500005
-0.090550482 0.07997524 0.69400001
-0.089100003 0.079860002 0.69300002
-0.087780006 0.079860002 0.69300002
-0.086085722 0.079514287 0.69000006
-0.084771432 0.079514287 0.69000006
-0.083336197 0.079399049 0.68900001
-0.082023814 0.079399049 0.68900001
-0.080477148 0.079168573 0.68700004
-0.079053335 0.079053335 0.68600005
-0.077520005 0.078822859 0.68400002
-0.075771436 0.078361914 0.68000001
-0.074476197 0.078361914 0.68000001
-0.073073335 0.078246675 0.67900002
-0.071780004 0.078246675 0.67900002
-0.070382863 0.078131437 0.67800003
-0.069091432 0.078131437 0.67800003
-0.067600004 0.077900961 0.67600006
-0.066214293 0.077785723 0.67500001
-0.064640008 0.077440009 0.67200005
-0.063265719 0.07732477 0.671
-0.061987624 0.07732477 0.671
-0.060528576 0.077094294 0.66900003
-0.059254289 0.077094294 0.66900003
-0.057980005 0.077094294 0.66900003
-0.056536194 0.076863818 0.66700006
-0.055182859 0.07674858 0.66600001
-0.053833336 0.076633342 0.66500002
-0.052408576 0.076402865 0.66300005
-0.051145718 0.076402865 0.66300005
-0.049807623 0.076287627 0.66200006
-0.048473336 0.076172389 0.66100001
-0.04714286 0.076057151 0.66000003
-0.045746669 0.075826675 0.65800005
-0.044358097 0.075596198 0.65600002
-0.043042861 0.07548096 0.65500003
-0.041667622 0.075250484 0.65300006
-0.04042381 0.075250484 0.65300006
-0.039120004 0.075135246 0.65200001
-0.037820004 0.075020008 0.65100002
-0.036580004 0.075020008 0.65100002
-0.035285715 0.07490477 0.65000004
-0.03394286 0.074674293 0.648
-0.032658096 0.074559055 0.64700001
-0.031377144 0.074443817 0.64600003
-0.030100003 0.074328579 0.64500004
-0.028826669 0.074213341 0.64400005
-0.027514288 0.073982865 0.64200002
-0.026250478 0.073867626 0.64100003
-0.024990479 0.073752388 0.64000005
