# .PCD v0.7 - Point Cloud Data file format
VERSION 0.7
FIELDS x y z
SIZE 4 4 4
TYPE F F F
COUNT 1 1 1
WIDTH 1355
HEIGHT 1
VIEWPOINT 0 0 0 1 0 0 0
POINTS 1355
DATA ascii
-0.061900005 0.026528573 0.61900002
-0.060720958 0.026528573 0.61900002
-0.059541907 0.026528573 0.61900002
-0.05836286 0.026528573 0.61900002
-0.057276193 0.02657143 0.62
-0.056276195 0.026657145 0.62200004
-0.055091433 0.026657145 0.62200004
-0.053733338 0.02657143 0.62
-0.052552383 0.02657143 0.62
-0.051537145 0.026657145 0.62200004
-0.050352383 0.026657145 0.62200004
-0.049167622 0.026657145 0.62200004
-0.04798286 0.026657145 0.62200004
-0.046798099 0.026657145 0.62200004
-0.045613337 0.026657145 0.62200004
-0.044428576 0.026657145 0.62200004
-0.043104764 0.02657143 0.62
-0.041923814 0.02657143 0.62
-0.040677145 0.026528573 0.61900002
-0.039498098 0.026528573 0.61900002
-0.038319051 0.026528573 0.61900002
-0.037140001 0.026528573 0.61900002
-0.035902858 0.026485717 0.61800003
-0.034725718 0.026485717 0.61800003
-0.03360286 0.026528573 0.61900002
-0.032423813 0.026528573 0.61900002
-0.031194288 0.026485717 0.61800003
-0.030017145 0.026485717 0.61800003
-0.028793335 0.026442859 0.61700004
-0.027662858 0.026485717 0.61800003
-0.026485717 0.026485717 0.61800003
-0.025308574 0.026485717 0.61800003
-0.024170477 0.026528573 0.61900002
-0.02299143 0.026528573 0.61900002
-0.021777144 0.026485717 0.61800003
-0.020600002 0.026485717 0.61800003
-0.019391431 0.026442859 0.61700004
-0.018216191 0.026442859 0.61700004
-0.017013334 0.026400002 0.61600006
-0.015840001 0.026400002 0.61600006
-0.014642858 0.026357144 0.61500001
-0.013449525 0.026314287 0.61400002
-0.012260001 0.026271431 0.61300004
-0.064050481 0.027618097 0.61700004
-0.062773339 0.027573336 0.61600006
-0.061700005 0.027618097 0.61700004
-0.060524765 0.027618097 0.61700004
-0.059349529 0.027618097 0.61700004
-0.058268577 0.027662858 0.61800003
-0.057183813 0.027707621 0.61900002
-0.056004766 0.027707621 0.61900002
-0.054825719 0.027707621 0.61900002
-0.053646669 0.027707621 0.61900002
-0.05238286 0.027662858 0.61800003
-0.051288575 0.027707621 0.61900002
-0.050028574 0.027662858 0.61800003
-0.04885143 0.027662858 0.61800003
-0.04775143 0.027707621 0.61900002
-0.046572383 0.027707621 0.61900002
-0.045466669 0.027752383 0.62
-0.044285718 0.027752383 0.62
-0.043035243 0.027707621 0.61900002
-0.041788574 0.027662858 0.61800003
-0.040611431 0.027662858 0.61800003
-0.039434288 0.027662858 0.61800003
-0.038257144 0.027662858 0.61800003
-0.037020002 0.027618097 0.61700004
-0.035844766 0.027618097 0.61700004
-0.034669526 0.027618097 0.61700004
-0.033494286 0.027618097 0.61700004
-0.03231905 0.027618097 0.61700004
-0.031143812 0.027618097 0.61700004
-0.029968573 0.027618097 0.61700004
-0.028746668 0.027573336 0.61600006
-0.027618097 0.027618097 0.61700004
-0.026442859 0.027618097 0.61700004
-0.025226668 0.027573336 0.61600006
-0.024092382 0.027618097 0.61700004
-0.022917144 0.027618097 0.61700004
-0.021741906 0.027618097 0.61700004
-0.020566668 0.027618097 0.61700004
-0.019360002 0.027573336 0.61600006
-0.018186668 0.027573336 0.61600006
-0.017013334 0.027573336 0.61600006
-0.015814288 0.027528573 0.61500001
-0.014619049 0.027483812 0.61400002
-0.013405715 0.027394287 0.61200005
-0.012240001 0.027394287 0.61200005
-0.063842863 0.028700002 0.61500001
-0.062467624 0.028606668 0.61300004
-0.061400004 0.028653335 0.61400002
-0.060328577 0.028700002 0.61500001
-0.059157148 0.028700002 0.61500001
-0.058080003 0.028746668 0.61600006
-0.05699905 0.028793335 0.61700004
-0.055823814 0.028793335 0.61700004
-0.054648574 0.028793335 0.61700004
-0.053473338 0.028793335 0.61700004
-0.052298099 0.028793335 0.61700004
-0.051122859 0.028793335 0.61700004
-0.049866669 0.028746668 0.61600006
-0.048693337 0.028746668 0.61600006
-0.047520004 0.028746668 0.61600006
-0.046346668 0.028746668 0.61600006
-0.045246668 0.028793335 0.61700004
-0.044142861 0.028840002 0.61800003
-0.042896193 0.028793335 0.61700004
-0.041720957 0.028793335 0.61700004
-0.040545717 0.028793335 0.61700004
-0.039370477 0.028793335 0.61700004
-0.038195241 0.028793335 0.61700004
-0.036960002 0.028746668 0.61600006
-0.03578667 0.028746668 0.61600006
-0.034613337 0.028746668 0.61600006
-0.033440001 0.028746668 0.61600006
-0.032266669 0.028746668 0.61600006
-0.031042859 0.028700002 0.61500001
-0.02987143 0.028700002 0.61500001
-0.028700002 0.028700002 0.61500001
-0.027528573 0.028700002 0.61500001
-0.026314287 0.028653335 0.61400002
-0.025144763 0.028653335 0.61400002
-0.024014287 0.028700002 0.61500001
-0.022842858 0.028700002 0.61500001
-0.021706669 0.028746668 0.61600006
-0.020533334 0.028746668 0.61600006
-0.019328572 0.028700002 0.61500001
-0.018157143 0.028700002 0.61500001
-0.016985716 0.028700002 0.61500001
-0.01571143 0.028513335 0.611
-0.01454762 0.028513335 0.611
-0.01338381 0.028513335 0.611
-0.06342762 0.029677145 0.611
-0.062263813 0.029677145 0.611
-0.061100002 0.029677145 0.611
-0.059936196 0.029677145 0.611
-0.058868576 0.029725716 0.61200005
-0.057702862 0.029725716 0.61200005
-0.056629527 0.029774288 0.61300004
-0.05546191 0.029774288 0.61300004
-0.054382861 0.02982286 0.61400002
-0.05312667 0.029774288 0.61300004
-0.051959053 0.029774288 0.61300004
-0.050791431 0.029774288 0.61300004
-0.049623813 0.029774288 0.61300004
-0.048456192 0.029774288 0.61300004
-0.047288574 0.029774288 0.61300004
-0.046120957 0.029774288 0.61300004
-0.044953335 0.029774288 0.61300004
-0.043857146 0.02982286 0.61400002
-0.042687621 0.02982286 0.61400002
-0.0415181 0.02982286 0.61400002
-0.040414289 0.02987143 0.61500001
-0.03924286 0.02987143 0.61500001
-0.038071431 0.02987143 0.61500001
-0.036840003 0.02982286 0.61400002
-0.035670478 0.02982286 0.61400002
-0.034500953 0.02982286 0.61400002
-0.033277147 0.029774288 0.61300004
-0.032109525 0.029774288 0.61300004
-0.030891431 0.029725716 0.61200005
-0.029725716 0.029725716 0.61200005
-0.028513335 0.029677145 0.611
-0.027349526 0.029677145 0.611
-0.026100002 0.029580003 0.60900003
-0.025021907 0.029677145 0.611
-0.023858096 0.029677145 0.611
-0.022694288 0.029677145 0.611
-0.021460002 0.029580003 0.60900003
-0.020366669 0.029677145 0.611
-0.019140001 0.029580003 0.60900003
-0.017980002 0.029580003 0.60900003
-0.016792381 0.02953143 0.60800004
-0.015634287 0.02953143 0.60800004
-0.014476191 0.02953143 0.60800004
-0.063012384 0.030639051 0.60700005
-0.061958101 0.030689526 0.60800004
-0.060800005 0.030689526 0.60800004
-0.059740003 0.030740002 0.60900003
-0.058580004 0.030740002 0.60900003
-0.057420004 0.030740002 0.60900003
-0.056537148 0.030891431 0.61200005
-0.055280957 0.030840954 0.611
-0.054205719 0.030891431 0.61200005
-0.053040005 0.030891431 0.61200005
-0.051874287 0.030891431 0.61200005
-0.050708573 0.030891431 0.61200005
-0.049623813 0.030941907 0.61300004
-0.048377145 0.030891431 0.61200005
-0.047288574 0.030941907 0.61300004
-0.046045717 0.030891431 0.61200005
-0.044880003 0.030891431 0.61200005
-0.043714289 0.030891431 0.61200005
-0.042548575 0.030891431 0.61200005
-0.04138286 0.030891431 0.61200005
-0.040217146 0.030891431 0.61200005
-0.039051432 0.030891431 0.61200005
-0.037885718 0.030891431 0.61200005
-0.036720004 0.030891431 0.61200005
-0.03555429 0.030891431 0.61200005
-0.034388572 0.030891431 0.61200005
-0.033168573 0.030840954 0.611
-0.032004762 0.030840954 0.611
-0.030740002 0.030740002 0.60900003
-0.029580003 0.030740002 0.60900003
-0.028420001 0.030740002 0.60900003
-0.027260002 0.030740002 0.60900003
-0.026057145 0.030689526 0.60800004
-0.024899049 0.030689526 0.60800004
-0.023740955 0.030689526 0.60800004
-0.022582859 0.030689526 0.60800004
-0.021424763 0.030689526 0.60800004
-0.020266669 0.030689526 0.60800004
-0.019108573 0.030689526 0.60800004
-0.017950477 0.030689526 0.60800004
-0.016764764 0.030639051 0.60700005
-0.015608572 0.030639051 0.60700005
-0.014452382 0.030639051 0.60700005
-0.062908575 0.03174286 0.60600001
-0.061856195 0.031795241 0.60700005
-0.060800005 0.031847622 0.60800004
-0.059641909 0.031847622 0.60800004
-0.058483813 0.031847622 0.60800004
-0.057325717 0.031847622 0.60800004
-0.056260005 0.031900004 0.60900003
-0.055100005 0.031900004 0.60900003
-0.053940002 0.031900004 0.60900003
-0.052780002 0.031900004 0.60900003
-0.051620003 0.031900004 0.60900003
-0.050625719 0.032004762 0.611
-0.049542859 0.032057144 0.61200005
-0.048377145 0.032057144 0.61200005
-0.047211431 0.032057144 0.61200005
-0.045970481 0.032004762 0.611
-0.04480667 0.032004762 0.611
-0.04364286 0.032004762 0.611
-0.042479049 0.032004762 0.611
-0.041180003 0.031900004 0.60900003
-0.03995429 0.031847622 0.60800004
-0.038796194 0.031847622 0.60800004
-0.037638098 0.031847622 0.60800004
-0.036480002 0.031847622 0.60800004
-0.035321906 0.031847622 0.60800004
-0.034220003 0.031900004 0.60900003
-0.033005718 0.031847622 0.60800004
-0.031847622 0.031847622 0.60800004
-0.030689526 0.031847622 0.60800004
-0.02953143 0.031847622 0.60800004
-0.028373335 0.031847622 0.60800004
-0.027215241 0.031847622 0.60800004
-0.026014287 0.031795241 0.60700005
-0.024858097 0.031795241 0.60700005
-0.023701906 0.031795241 0.60700005
-0.022545716 0.031795241 0.60700005
-0.021389525 0.031795241 0.60700005
-0.020233335 0.031795241 0.60700005
-0.019077145 0.031795241 0.60700005
-0.017920954 0.031795241 0.60700005
-0.016737144 0.03174286 0.60600001
-0.015582859 0.03174286 0.60600001
-0.014428573 0.03174286 0.60600001
-0.063012384 0.032951429 0.60700005
-0.061856195 0.032951429 0.60700005
-0.060700003 0.032951429 0.60700005
-0.059543815 0.032951429 0.60700005
-0.058387622 0.032951429 0.60700005
-0.057231434 0.032951429 0.60700005
-0.056167621 0.033005718 0.60800004
-0.055009529 0.033005718 0.60800004
-0.053762861 0.032951429 0.60700005
-0.052606668 0.032951429 0.60700005
-0.05145048 0.032951429 0.60700005
-0.050294288 0.032951429 0.60700005
-0.049300004 0.033060003 0.60900003
-0.048060957 0.033005718 0.60800004
-0.046980005 0.033060003 0.60900003
-0.045744766 0.033005718 0.60800004
-0.04458667 0.033005718 0.60800004
-0.043357145 0.032951429 0.60700005
-0.042131431 0.032897145 0.60600001
-0.040977146 0.032897145 0.60600001
-0.039822862 0.032897145 0.60600001
-0.038668573 0.032897145 0.60600001
-0.037576191 0.032951429 0.60700005
-0.036360003 0.032897145 0.60600001
-0.03526381 0.032951429 0.60700005
-0.034107622 0.032951429 0.60700005
-0.032951429 0.032951429 0.60700005
-0.031795241 0.032951429 0.60700005
-0.030639051 0.032951429 0.60700005
-0.029482858 0.032951429 0.60700005
-0.028326668 0.032951429 0.60700005
-0.027170477 0.032951429 0.60700005
-0.025971429 0.032897145 0.60600001
-0.024817144 0.032897145 0.60600001
-0.02366286 0.032897145 0.60600001
-0.022508573 0.032897145 0.60600001
-0.021389525 0.032951429 0.60700005
-0.020200001 0.032897145 0.60600001
-0.019045716 0.032897145 0.60600001
-0.017861906 0.03284286 0.60500002
-0.016599048 0.032625716 0.60100001
-0.015454287 0.032625716 0.60100001
-0.062908575 0.034051429 0.60600001
-0.06175429 0.034051429 0.60600001
-0.060600005 0.034051429 0.60600001
-0.059543815 0.034107622 0.60700005
-0.058291432 0.034051429 0.60600001
-0.057137147 0.034051429 0.60600001
-0.056075241 0.034107622 0.60700005
-0.054919053 0.034107622 0.60700005
-0.053674288 0.034051429 0.60600001
-0.052520003 0.034051429 0.60600001
-0.051280957 0.033995241 0.60500002
-0.050128575 0.033995241 0.60500002
-0.048976194 0.033995241 0.60500002
-0.047823813 0.033995241 0.60500002
-0.046594288 0.033939049 0.60400003
-0.04551905 0.033995241 0.60500002
-0.044366669 0.033995241 0.60500002
-0.043214288 0.033995241 0.60500002
-0.041992385 0.033939049 0.60400003
-0.040909525 0.033995241 0.60500002
-0.03969143 0.033939049 0.60400003
-0.038540956 0.033939049 0.60400003
-0.037390478 0.033939049 0.60400003
-0.036240004 0.033939049 0.60400003
-0.035147622 0.033995241 0.60500002
-0.034051429 0.034051429 0.60600001
-0.032897145 0.034051429 0.60600001
-0.03174286 0.034051429 0.60600001
-0.030538097 0.033995241 0.60500002
-0.029434288 0.034051429 0.60600001
-0.028233334 0.033995241 0.60500002
-0.027080955 0.033995241 0.60500002
-0.025928574 0.033995241 0.60500002
-0.024776192 0.033995241 0.60500002
-0.023623811 0.033995241 0.60500002
-0.02247143 0.033995241 0.60500002
-0.021354288 0.034051429 0.60600001
-0.020200001 0.034051429 0.60600001
-0.019014288 0.033995241 0.60500002
-0.017832382 0.033939049 0.60400003
-0.016626667 0.033826668 0.60200006
-0.015480001 0.033826668 0.60200006
-0.061652385 0.035147622 0.60500002
-0.060500003 0.035147622 0.60500002
-0.059445716 0.035205718 0.60600001
-0.058195241 0.035147622 0.60500002
-0.057042859 0.035147622 0.60500002
-0.055982862 0.035205718 0.60600001
-0.054828577 0.035205718 0.60600001
-0.053585719 0.035147622 0.60500002
-0.052433338 0.035147622 0.60500002
-0.051196195 0.035089526 0.60400003
-0.050045718 0.035089526 0.60400003
-0.04889524 0.035089526 0.60400003
-0.047665719 0.03503143 0.60300004
-0.046517145 0.03503143 0.60300004
-0.045368575 0.03503143 0.60300004
-0.044220004 0.03503143 0.60300004
-0.043142859 0.035089526 0.60400003
-0.041992385 0.035089526 0.60400003
-0.040841907 0.035089526 0.60400003
-0.039625715 0.03503143 0.60300004
-0.038540956 0.035089526 0.60400003
-0.037390478 0.035089526 0.60400003
-0.036180001 0.03503143 0.60300004
-0.03503143 0.03503143 0.60300004
-0.033714287 0.034857146 0.60000002
-0.032788575 0.035089526 0.60400003
-0.031638097 0.035089526 0.60400003
-0.030487621 0.035089526 0.60400003
-0.029337145 0.035089526 0.60400003
-0.028186668 0.035089526 0.60400003
-0.027080955 0.035147622 0.60500002
-0.025885716 0.035089526 0.60400003
-0.02473524 0.035089526 0.60400003
-0.023584763 0.035089526 0.60400003
-0.022434287 0.035089526 0.60400003
-0.021319048 0.035147622 0.60500002
-0.020200001 0.035205718 0.60600001
-0.018951429 0.03503143 0.60300004
-0.017743811 0.034915239 0.60100001
-0.01657143 0.034857146 0.60000002
-0.015428573 0.034857146 0.60000002
-0.061550479 0.036240004 0.60400003
-0.060400005 0.036240004 0.60400003
-0.059249528 0.036240004 0.60400003
-0.05809905 0.036240004 0.60400003
-0.056948576 0.036240004 0.60400003
-0.055890478 0.036300004 0.60500002
-0.054738101 0.036300004 0.60500002
-0.053497147 0.036240004 0.60400003
-0.052260004 0.036180001 0.60300004
-0.051111434 0.036180001 0.60300004
-0.04996286 0.036180001 0.60300004
-0.048814289 0.036180001 0.60300004
-0.047665719 0.036180001 0.60300004
-0.046440002 0.036120001 0.60200006
-0.045368575 0.036180001 0.60300004
-0.044220004 0.036180001 0.60300004
-0.04307143 0.036180001 0.60300004
-0.04192286 0.036180001 0.60300004
-0.04077429 0.036180001 0.60300004
-0.039625715 0.036180001 0.60300004
-0.038540956 0.036240004 0.60400003
-0.037328575 0.036180001 0.60300004
-0.036180001 0.036180001 0.60300004
-0.03503143 0.036180001 0.60300004
-0.033714287 0.036000002 0.60000002
-0.032571431 0.036000002 0.60000002
-0.031638097 0.036240004 0.60400003
-0.030437145 0.036180001 0.60300004
-0.029288573 0.036180001 0.60300004
-0.028140001 0.036180001 0.60300004
-0.026991431 0.036180001 0.60300004
-0.025842858 0.036180001 0.60300004
-0.024694288 0.036180001 0.60300004
-0.023506667 0.036120001 0.60200006
-0.022322858 0.036060002 0.60100001
-0.021037145 0.035820004 0.597
-0.019866668 0.035760004 0.59600002
-0.018762859 0.035820004 0.597
-0.017655239 0.035880003 0.59800005
-0.016516192 0.035880003 0.59800005
-0.015377144 0.035880003 0.59800005
-0.058464766 0.036895242 0.59600002
-0.057329528 0.036895242 0.59600002
-0.056194291 0.036895242 0.59600002
-0.055151433 0.036957145 0.597
-0.054557145 0.037328575 0.60300004
-0.053408574 0.037328575 0.60300004
-0.052173335 0.037266668 0.60200006
-0.051111434 0.037328575 0.60300004
-0.049880002 0.037266668 0.60200006
-0.048814289 0.037328575 0.60300004
-0.047586668 0.037266668 0.60200006
-0.046440002 0.037266668 0.60200006
-0.045293335 0.037266668 0.60200006
-0.044220004 0.037328575 0.60300004
-0.04307143 0.037328575 0.60300004
-0.04192286 0.037328575 0.60300004
-0.04077429 0.037328575 0.60300004
-0.039625715 0.037328575 0.60300004
-0.038477145 0.037328575 0.60300004
-0.037328575 0.037328575 0.60300004
-0.036180001 0.037328575 0.60300004
-0.034160003 0.036400001 0.588
-0.033040002 0.036400001 0.588
-0.031920001 0.036400001 0.588
-0.030800002 0.036400001 0.588
-0.029780954 0.036523812 0.59000003
-0.028657144 0.036523812 0.59000003
-0.028093334 0.037266668 0.60200006
-0.026946668 0.037266668 0.60200006
-0.025800001 0.037266668 0.60200006
-0.024653334 0.037266668 0.60200006
-0.023467621 0.037204765 0.60100001
-0.022211431 0.037019052 0.59800005
-0.021037145 0.036957145 0.597
-0.019866668 0.036895242 0.59600002
-0.018762859 0.036957145 0.597
-0.017625716 0.036957145 0.597
-0.016460953 0.036895242 0.59600002
-0.015300001 0.036833335 0.59500003
-0.014166668 0.036833335 0.59500003
-0.058759052 0.038221907 0.59900004
-0.057425719 0.03809429 0.597
-0.056194291 0.038030479 0.59600002
-0.055059053 0.038030479 0.59600002
-0.053923812 0.038030479 0.59600002
-0.053054288 0.038221907 0.59900004
-0.051913336 0.038221907 0.59900004
-0.050857145 0.038285717 0.60000002
-0.04971429 0.038285717 0.60000002
-0.04857143 0.038285717 0.60000002
-0.047428574 0.038285717 0.60000002
-0.046285719 0.038285717 0.60000002
-0.045142859 0.038285717 0.60000002
-0.044146668 0.038413335 0.60200006
-0.04307143 0.038477145 0.60300004
-0.04192286 0.038477145 0.60300004
-0.04077429 0.038477145 0.60300004
-0.039625715 0.038477145 0.60300004
-0.038477145 0.038477145 0.60300004
-0.036400001 0.037520003 0.588
-0.035220001 0.037456192 0.58700001
-0.034160003 0.037520003 0.588
-0.033040002 0.037520003 0.588
-0.031920001 0.037520003 0.588
-0.030800002 0.037520003 0.588
-0.029780954 0.03764762 0.59000003
-0.028657144 0.03764762 0.59000003
-0.027626669 0.037775241 0.59200001
-0.02649905 0.037775241 0.59200001
-0.02537143 0.037775241 0.59200001
-0.024448574 0.03809429 0.597
-0.023311431 0.03809429 0.597
-0.022137145 0.038030479 0.59600002
-0.021001907 0.038030479 0.59600002
-0.019866668 0.038030479 0.59600002
-0.018762859 0.03809429 0.597
-0.017625716 0.03809429 0.597
-0.016516192 0.038158096 0.59800005
-0.015325715 0.038030479 0.59600002
-0.058660958 0.039297145 0.59800005
-0.057425719 0.039231431 0.597
-0.056194291 0.039165717 0.59600002
-0.055059053 0.039165717 0.59600002
-0.053923812 0.039165717 0.59600002
-0.052788574 0.039165717 0.59600002
-0.051653337 0.039165717 0.59600002
-0.050433338 0.039100002 0.59500003
-0.049300004 0.039100002 0.59500003
-0.048085716 0.039034288 0.59400004
-0.046875242 0.038968574 0.59300005
-0.045668576 0.03890286 0.59200001
-0.044540957 0.03890286 0.59200001
-0.043120004 0.038640004 0.588
-0.042000003 0.038640004 0.588
-0.040880002 0.038640004 0.588
-0.039692383 0.03857429 0.58700001
-0.03857429 0.03857429 0.58700001
-0.037456192 0.03857429 0.58700001
-0.036400001 0.038640004 0.588
-0.035220001 0.03857429 0.58700001
-0.034160003 0.038640004 0.588
-0.033040002 0.038640004 0.588
-0.031920001 0.038640004 0.588
-0.03074762 0.03857429 0.58700001
-0.029780954 0.038771432 0.59000003
-0.028657144 0.038771432 0.59000003
-0.027626669 0.03890286 0.59200001
-0.02649905 0.03890286 0.59200001
-0.02537143 0.03890286 0.59200001
-0.024325715 0.039034288 0.59400004
-0.023233335 0.039100002 0.59500003
-0.022062859 0.039034288 0.59400004
-0.020966668 0.039100002 0.59500003
-0.019833334 0.039100002 0.59500003
-0.018762859 0.039231431 0.597
-0.017655239 0.039297145 0.59800005
-0.016516192 0.039297145 0.59800005
-0.015377144 0.039297145 0.59800005
-0.014238096 0.039297145 0.59800005
-0.059900004 0.040503811 0.59900004
-0.058660958 0.040436193 0.59800005
-0.057425719 0.040368576 0.597
-0.056194291 0.040300954 0.59600002
-0.055059053 0.040300954 0.59600002
-0.053923812 0.040300954 0.59600002
-0.052700002 0.040233336 0.59500003
-0.051566672 0.040233336 0.59500003
-0.050348576 0.040165719 0.59400004
-0.049134288 0.040098097 0.59300005
-0.048004765 0.040098097 0.59300005
-0.046796195 0.040030479 0.59200001
-0.045668576 0.040030479 0.59200001
-0.044465717 0.039962858 0.59100002
-0.043266669 0.03989524 0.59000003
-0.042142861 0.03989524 0.59000003
-0.040949527 0.039827622 0.58900005
-0.039760001 0.039760001 0.588
-0.038640004 0.039760001 0.588
-0.037520003 0.039760001 0.588
-0.036400001 0.039760001 0.588
-0.035280004 0.039760001 0.588
-0.034160003 0.039760001 0.588
-0.033040002 0.039760001 0.588
-0.032028574 0.03989524 0.59000003
-0.030852383 0.039827622 0.58900005
-0.029780954 0.03989524 0.59000003
-0.028657144 0.03989524 0.59000003
-0.027580002 0.039962858 0.59100002
-0.02649905 0.040030479 0.59200001
-0.02537143 0.040030479 0.59200001
-0.024284763 0.040098097 0.59300005
-0.023194287 0.040165719 0.59400004
-0.022062859 0.040165719 0.59400004
-0.02093143 0.040165719 0.59400004
-0.019833334 0.040233336 0.59500003
-0.018762859 0.040368576 0.597
-0.017655239 0.040436193 0.59800005
-0.016543811 0.040503811 0.59900004
-0.015402858 0.040503811 0.59900004
-0.014261906 0.040503811 0.59900004
-0.061142862 0.041714288 0.60000002
-0.059900004 0.041644763 0.59900004
-0.058660958 0.041575242 0.59800005
-0.057425719 0.041505717 0.597
-0.056194291 0.041436192 0.59600002
-0.05496667 0.04136667 0.59500003
-0.053833336 0.04136667 0.59500003
-0.052611433 0.041297145 0.59400004
-0.051393338 0.04122762 0.59300005
-0.050263815 0.04122762 0.59300005
-0.04905143 0.041158099 0.59200001
-0.047923815 0.041158099 0.59200001
-0.046717145 0.041088574 0.59100002
-0.045591433 0.041088574 0.59100002
-0.044390481 0.041019049 0.59000003
-0.043266669 0.041019049 0.59000003
-0.042142861 0.041019049 0.59000003
-0.040949527 0.040949527 0.58900005
-0.039827622 0.040949527 0.58900005
-0.038705718 0.040949527 0.58900005
-0.037583813 0.040949527 0.58900005
-0.036461908 0.040949527 0.58900005
-0.035340004 0.040949527 0.58900005
-0.034160003 0.040880002 0.588
-0.033152383 0.041019049 0.59000003
-0.032028574 0.041019049 0.59000003
-0.030904764 0.041019049 0.59000003
-0.02983143 0.041088574 0.59100002
-0.028705716 0.041088574 0.59100002
-0.027580002 0.041088574 0.59100002
-0.026454287 0.041088574 0.59100002
-0.025328573 0.041088574 0.59100002
-0.024243811 0.041158099 0.59200001
-0.023116192 0.041158099 0.59200001
-0.022025716 0.04122762 0.59300005
-0.02093143 0.041297145 0.59400004
-0.019833334 0.04136667 0.59500003
-0.018762859 0.041505717 0.597
-0.017684763 0.041644763 0.59900004
-0.01657143 0.041714288 0.60000002
-0.015428573 0.041714288 0.60000002
-0.014285715 0.041714288 0.60000002
-0.013230477 0.041992385 0.60400003
-0.012120001 0.042131431 0.60600001
-0.059900004 0.042785715 0.59900004
-0.058759052 0.042785715 0.59900004
-0.057521909 0.04271429 0.59800005
-0.056288574 0.042642862 0.597
-0.055059053 0.042571433 0.59600002
-0.053833336 0.042500004 0.59500003
-0.052700002 0.042500004 0.59500003
-0.051480003 0.042428575 0.59400004
-0.050263815 0.042357147 0.59300005
-0.04905143 0.042285718 0.59200001
-0.047923815 0.042285718 0.59200001
-0.046717145 0.042214289 0.59100002
-0.045514289 0.042142861 0.59000003
-0.044390481 0.042142861 0.59000003
-0.043266669 0.042142861 0.59000003
-0.042142861 0.042142861 0.59000003
-0.041019049 0.042142861 0.59000003
-0.039827622 0.042071432 0.58900005
-0.038705718 0.042071432 0.58900005
-0.037583813 0.042071432 0.58900005
-0.036523812 0.042142861 0.59000003
-0.035340004 0.042071432 0.58900005
-0.034276191 0.042142861 0.59000003
-0.033152383 0.042142861 0.59000003
-0.032028574 0.042142861 0.59000003
-0.030957146 0.042214289 0.59100002
-0.02983143 0.042214289 0.59100002
-0.028705716 0.042214289 0.59100002
-0.027580002 0.042214289 0.59100002
-0.026454287 0.042214289 0.59100002
-0.02537143 0.042285718 0.59200001
-0.024243811 0.042285718 0.59200001
-0.02315524 0.042357147 0.59300005
-0.022062859 0.042428575 0.59400004
-0.020966668 0.042500004 0.59500003
-0.019866668 0.042571433 0.59600002
-0.018794287 0.04271429 0.59800005
-0.017684763 0.042785715 0.59900004
-0.01657143 0.042857144 0.60000002
-0.015428573 0.042857144 0.60000002
-0.014309525 0.042928573 0.60100001
-0.013230477 0.043142859 0.60400003
-0.012120001 0.043285716 0.60600001
-0.062804766 0.044366669 0.60500002
-0.061550479 0.044293337 0.60400003
-0.060000002 0.044000003 0.60000002
-0.058759052 0.043926671 0.59900004
-0.0576181 0.043926671 0.59900004
-0.056288574 0.043780003 0.597
-0.055059053 0.04370667 0.59600002
-0.053923812 0.04370667 0.59600002
-0.052700002 0.043633334 0.59500003
-0.051480003 0.043560002 0.59400004
-0.050263815 0.04348667 0.59300005
-0.049134288 0.04348667 0.59300005
-0.047923815 0.043413337 0.59200001
-0.046796195 0.043413337 0.59200001
-0.045591433 0.043340001 0.59100002
-0.044390481 0.043266669 0.59000003
-0.043266669 0.043266669 0.59000003
-0.042142861 0.043266669 0.59000003
-0.041019049 0.043266669 0.59000003
-0.03989524 0.043266669 0.59000003
-0.038771432 0.043266669 0.59000003
-0.03764762 0.043266669 0.59000003
-0.036523812 0.043266669 0.59000003
-0.035400003 0.043266669 0.59000003
-0.034276191 0.043266669 0.59000003
-0.033208575 0.043340001 0.59100002
-0.032082859 0.043340001 0.59100002
-0.030957146 0.043340001 0.59100002
-0.02983143 0.043340001 0.59100002
-0.028705716 0.043340001 0.59100002
-0.027626669 0.043413337 0.59200001
-0.02649905 0.043413337 0.59200001
-0.02537143 0.043413337 0.59200001
-0.024243811 0.043413337 0.59200001
-0.02315524 0.04348667 0.59300005
-0.022062859 0.043560002 0.59400004
-0.020966668 0.043633334 0.59500003
-0.019866668 0.04370667 0.59600002
-0.018762859 0.043780003 0.597
-0.017684763 0.043926671 0.59900004
-0.016599048 0.044073336 0.60100001
-0.015454287 0.044073336 0.60100001
-0.014380953 0.044293337 0.60400003
-0.013230477 0.044293337 0.60400003
-0.012120001 0.044440001 0.60600001
-0.062804766 0.04551905 0.60500002
-0.061652385 0.04551905 0.60500002
-0.060000002 0.045142859 0.60000002
-0.058857147 0.045142859 0.60000002
-0.0576181 0.045067623 0.59900004
-0.056382861 0.044992384 0.59800005
-0.055059053 0.044841908 0.59600002
-0.053923812 0.044841908 0.59600002
-0.052700002 0.044766668 0.59500003
-0.051566672 0.044766668 0.59500003
-0.050348576 0.044691432 0.59400004
-0.049134288 0.044616193 0.59300005
-0.047923815 0.044540957 0.59200001
-0.046796195 0.044540957 0.59200001
-0.045591433 0.044465717 0.59100002
-0.044465717 0.044465717 0.59100002
-0.043340001 0.044465717 0.59100002
-0.042214289 0.044465717 0.59100002
-0.041019049 0.044390481 0.59000003
-0.03989524 0.044390481 0.59000003
-0.038771432 0.044390481 0.59000003
-0.03771143 0.044465717 0.59100002
-0.036585718 0.044465717 0.59100002
-0.035460003 0.044465717 0.59100002
-0.034334287 0.044465717 0.59100002
-0.033208575 0.044465717 0.59100002
-0.032082859 0.044465717 0.59100002
-0.030957146 0.044465717 0.59100002
-0.02983143 0.044465717 0.59100002
-0.028754288 0.044540957 0.59200001
-0.027626669 0.044540957 0.59200001
-0.02649905 0.044540957 0.59200001
-0.02537143 0.044540957 0.59200001
-0.024284763 0.044616193 0.59300005
-0.02315524 0.044616193 0.59300005
-0.022100002 0.044766668 0.59500003
-0.021001907 0.044841908 0.59600002
-0.019900002 0.044917148 0.597
-0.018794287 0.044992384 0.59800005
-0.017684763 0.045067623 0.59900004
-0.016599048 0.045218099 0.60100001
-0.015454287 0.045218099 0.60100001
-0.014404763 0.04551905 0.60500002
-0.013252382 0.04551905 0.60500002
-0.012120001 0.04559429 0.60600001
-0.062804766 0.046671432 0.60500002
-0.061856195 0.046825718 0.60700005
-0.060000002 0.046285719 0.60000002
-0.058857147 0.046285719 0.60000002
-0.0576181 0.046208575 0.59900004
-0.056382861 0.046131432 0.59800005
-0.055059053 0.045977145 0.59600002
-0.053923812 0.045977145 0.59600002
-0.052700002 0.045900002 0.59500003
-0.051566672 0.045900002 0.59500003
-0.050348576 0.045822859 0.59400004
-0.049134288 0.045745715 0.59300005
-0.047923815 0.045668576 0.59200001
-0.046796195 0.045668576 0.59200001
-0.045591433 0.045591433 0.59100002
-0.044465717 0.045591433 0.59100002
-0.043340001 0.045591433 0.59100002
-0.042214289 0.045591433 0.59100002
-0.041088574 0.045591433 0.59100002
-0.039962858 0.045591433 0.59100002
-0.038837146 0.045591433 0.59100002
-0.03771143 0.045591433 0.59100002
-0.036585718 0.045591433 0.59100002
-0.035460003 0.045591433 0.59100002
-0.034334287 0.045591433 0.59100002
-0.033208575 0.045591433 0.59100002
-0.032082859 0.045591433 0.59100002
-0.030957146 0.045591433 0.59100002
-0.029881908 0.045668576 0.59200001
-0.028754288 0.045668576 0.59200001
-0.027626669 0.045668576 0.59200001
-0.02649905 0.045668576 0.59200001
-0.025414288 0.045745715 0.59300005
-0.024284763 0.045745715 0.59300005
-0.023194287 0.045822859 0.59400004
-0.022100002 0.045900002 0.59500003
-0.021001907 0.045977145 0.59600002
-0.019933335 0.046131432 0.59800005
-0.018825715 0.046208575 0.59900004
-0.017714286 0.046285719 0.60000002
-0.016599048 0.046362862 0.60100001
-0.015480001 0.046440002 0.60200006
-0.014404763 0.046671432 0.60500002
-0.013252382 0.046671432 0.60500002
-0.012120001 0.046748575 0.60600001
-0.062700957 0.047744766 0.60400003
-0.061550479 0.047744766 0.60400003
-0.060200006 0.047586668 0.60200006
-0.058955241 0.047507621 0.60100001
-0.057714291 0.047428574 0.60000002
-0.056382861 0.047270481 0.59800005
-0.055243813 0.047270481 0.59800005
-0.053923812 0.047112383 0.59600002
-0.052700002 0.047033336 0.59500003
-0.051566672 0.047033336 0.59500003
-0.050348576 0.046954289 0.59400004
-0.049217146 0.046954289 0.59400004
-0.048004765 0.046875242 0.59300005
-0.046796195 0.046796195 0.59200001
-0.045668576 0.046796195 0.59200001
-0.044465717 0.046717145 0.59100002
-0.043340001 0.046717145 0.59100002
-0.042214289 0.046717145 0.59100002
-0.041088574 0.046717145 0.59100002
-0.039962858 0.046717145 0.59100002
-0.038837146 0.046717145 0.59100002
-0.03771143 0.046717145 0.59100002
-0.036585718 0.046717145 0.59100002
-0.035460003 0.046717145 0.59100002
-0.034334287 0.046717145 0.59100002
-0.033208575 0.046717145 0.59100002
-0.032137144 0.046796195 0.59200001
-0.031009525 0.046796195 0.59200001
-0.029881908 0.046796195 0.59200001
-0.028802859 0.046875242 0.59300005
-0.027673336 0.046875242 0.59300005
-0.026543811 0.046875242 0.59300005
-0.025457144 0.046954289 0.59400004
-0.024325715 0.046954289 0.59400004
-0.023233335 0.047033336 0.59500003
-0.022137145 0.047112383 0.59600002
-0.021037145 0.04719143 0.597
-0.019933335 0.047270481 0.59800005
-0.018825715 0.047349527 0.59900004
-0.017714286 0.047428574 0.60000002
-0.016626667 0.047586668 0.60200006
-0.015505715 0.047665719 0.60300004
-0.014404763 0.047823813 0.60500002
-0.013252382 0.047823813 0.60500002
-0.012120001 0.04790286 0.60600001
-0.010965715 0.04790286 0.60600001
-0.064062864 0.049057145 0.60600001
-0.062804766 0.048976194 0.60500002
-0.061652385 0.048976194 0.60500002
-0.060400005 0.04889524 0.60400003
-0.059151433 0.048814289 0.60300004
-0.0576181 0.04849048 0.59900004
-0.056477148 0.04849048 0.59900004
-0.055243813 0.048409525 0.59800005
-0.053923812 0.04824762 0.59600002
-0.052700002 0.04816667 0.59500003
-0.051566672 0.04816667 0.59500003
-0.050433338 0.04816667 0.59500003
-0.049217146 0.048085716 0.59400004
-0.048004765 0.048004765 0.59300005
-0.046875242 0.048004765 0.59300005
-0.045668576 0.047923815 0.59200001
-0.044540957 0.047923815 0.59200001
-0.043340001 0.04784286 0.59100002
-0.042214289 0.04784286 0.59100002
-0.041088574 0.04784286 0.59100002
-0.039962858 0.04784286 0.59100002
-0.038837146 0.04784286 0.59100002
-0.03771143 0.04784286 0.59100002
-0.036585718 0.04784286 0.59100002
-0.035460003 0.04784286 0.59100002
-0.034334287 0.04784286 0.59100002
-0.033208575 0.04784286 0.59100002
-0.032137144 0.047923815 0.59200001
-0.031009525 0.047923815 0.59200001
-0.029881908 0.047923815 0.59200001
-0.028802859 0.048004765 0.59300005
-0.027673336 0.048004765 0.59300005
-0.026588574 0.048085716 0.59400004
-0.025457144 0.048085716 0.59400004
-0.024366667 0.04816667 0.59500003
-0.023272382 0.04824762 0.59600002
-0.022137145 0.04824762 0.59600002
-0.021037145 0.048328575 0.597
-0.019933335 0.048409525 0.59800005
-0.018825715 0.04849048 0.59900004
-0.017714286 0.04857143 0.60000002
-0.016626667 0.048733335 0.60200006
-0.015505715 0.048814289 0.60300004
-0.014380953 0.04889524 0.60400003
-0.013230477 0.04889524 0.60400003
-0.012100001 0.048976194 0.60500002
-0.01094762 0.048976194 0.60500002
-0.064168572 0.050294288 0.60700005
-0.062908575 0.050211433 0.60600001
-0.06175429 0.050211433 0.60600001
-0.060500003 0.050128575 0.60500002
-0.059249528 0.050045718 0.60400003
-0.057906669 0.049880002 0.60200006
-0.056477148 0.049631432 0.59900004
-0.055336192 0.049631432 0.59900004
-0.053923812 0.049382862 0.59600002
-0.052788574 0.049382862 0.59600002
-0.051566672 0.049300004 0.59500003
-0.050433338 0.049300004 0.59500003
-0.049300004 0.049300004 0.59500003
-0.048085716 0.049217146 0.59400004
-0.046875242 0.049134288 0.59300005
-0.045745715 0.049134288 0.59300005
-0.044540957 0.04905143 0.59200001
-0.043413337 0.04905143 0.59200001
-0.042285718 0.04905143 0.59200001
-0.041158099 0.04905143 0.59200001
-0.040030479 0.04905143 0.59200001
-0.03890286 0.04905143 0.59200001
-0.037775241 0.04905143 0.59200001
-0.036585718 0.048968576 0.59100002
-0.035520002 0.04905143 0.59200001
-0.034392383 0.04905143 0.59200001
-0.033264764 0.04905143 0.59200001
-0.032137144 0.04905143 0.59200001
-0.031009525 0.04905143 0.59200001
-0.029881908 0.04905143 0.59200001
-0.028802859 0.049134288 0.59300005
-0.027673336 0.049134288 0.59300005
-0.026588574 0.049217146 0.59400004
-0.025500001 0.049300004 0.59500003
-0.024366667 0.049300004 0.59500003
-0.023272382 0.049382862 0.59600002
-0.022174288 0.049465716 0.597
-0.021072382 0.049548574 0.59800005
-0.019966668 0.049631432 0.59900004
-0.018825715 0.049631432 0.59900004
-0.017743811 0.049797148 0.60100001
-0.016626667 0.049880002 0.60200006
-0.015505715 0.04996286 0.60300004
-0.014380953 0.050045718 0.60400003
-0.013230477 0.050045718 0.60400003
-0.012100001 0.050128575 0.60500002
-0.064168572 0.05145048 0.60700005
-0.062908575 0.051365718 0.60600001
-0.061652385 0.051280957 0.60500002
-0.060500003 0.051280957 0.60500002
-0.059249528 0.051196195 0.60400003
-0.058002859 0.051111434 0.60300004
-0.056665719 0.050941907 0.60100001
-0.055428576 0.050857145 0.60000002
-0.054014288 0.050602861 0.597
-0.052788574 0.050518099 0.59600002
-0.051653337 0.050518099 0.59600002
-0.050433338 0.050433338 0.59500003
-0.049300004 0.050433338 0.59500003
-0.04816667 0.050433338 0.59500003
-0.046954289 0.050348576 0.59400004
-0.045822859 0.050348576 0.59400004
-0.044616193 0.050263815 0.59300005
-0.043413337 0.050179049 0.59200001
-0.042285718 0.050179049 0.59200001
-0.041158099 0.050179049 0.59200001
-0.040030479 0.050179049 0.59200001
-0.03890286 0.050179049 0.59200001
-0.037775241 0.050179049 0.59200001
-0.036647622 0.050179049 0.59200001
-0.035520002 0.050179049 0.59200001
-0.034392383 0.050179049 0.59200001
-0.033264764 0.050179049 0.59200001
-0.032137144 0.050179049 0.59200001
-0.031061906 0.050263815 0.59300005
-0.029932383 0.050263815 0.59300005
-0.028851431 0.050348576 0.59400004
-0.027720002 0.050348576 0.59400004
-0.026633335 0.050433338 0.59500003
-0.025500001 0.050433338 0.59500003
-0.024407621 0.050518099 0.59600002
-0.023272382 0.050518099 0.59600002
-0.022174288 0.050602861 0.597
-0.021072382 0.050687622 0.59800005
-0.019966668 0.050772384 0.59900004
-0.018857144 0.050857145 0.60000002
-0.017743811 0.050941907 0.60100001
-0.016626667 0.051026668 0.60200006
-0.015505715 0.051111434 0.60300004
-0.014380953 0.051196195 0.60400003
-0.013230477 0.051196195 0.60400003
-0.012080001 0.051196195 0.60400003
0.14274001 0.067216195 0.79300004
0.14425048 0.067216195 0.79300004
0.14576097 0.067216195 0.79300004
0.14727144 0.067216195 0.79300004
-0.064168572 0.052606668 0.60700005
-0.062908575 0.052520003 0.60600001
-0.061652385 0.052433338 0.60500002
-0.060400005 0.052346669 0.60400003
-0.059249528 0.052346669 0.60400003
-0.058002859 0.052260004 0.60300004
-0.056665719 0.05208667 0.60100001
-0.055520955 0.05208667 0.60100001
-0.054104764 0.051826671 0.59800005
-0.052877147 0.051740002 0.597
-0.051653337 0.051653337 0.59600002
-0.050518099 0.051653337 0.59600002
-0.049300004 0.051566672 0.59500003
-0.04816667 0.051566672 0.59500003
-0.047033336 0.051566672 0.59500003
-0.045822859 0.051480003 0.59400004
-0.044616193 0.051393338 0.59300005
-0.04348667 0.051393338 0.59300005
-0.042357147 0.051393338 0.59300005
-0.041158099 0.051306669 0.59200001
-0.040030479 0.051306669 0.59200001
-0.03890286 0.051306669 0.59200001
-0.037775241 0.051306669 0.59200001
-0.036647622 0.051306669 0.59200001
-0.035520002 0.051306669 0.59200001
-0.034392383 0.051306669 0.59200001
-0.033264764 0.051306669 0.59200001
-0.032191429 0.051393338 0.59300005
-0.031061906 0.051393338 0.59300005
-0.029932383 0.051393338 0.59300005
-0.028851431 0.051480003 0.59400004
-0.027766669 0.051566672 0.59500003
-0.026633335 0.051566672 0.59500003
-0.025542859 0.051653337 0.59600002
-0.024407621 0.051653337 0.59600002
-0.023311431 0.051740002 0.597
-0.022211431 0.051826671 0.59800005
-0.02110762 0.051913336 0.59900004
-0.019966668 0.051913336 0.59900004
-0.018857144 0.052000005 0.60000002
-0.017743811 0.05208667 0.60100001
-0.016626667 0.052173335 0.60200006
-0.01553143 0.052346669 0.60400003
-0.014404763 0.052433338 0.60500002
-0.013252382 0.052433338 0.60500002
-0.012100001 0.052433338 0.60500002
0.13786002 0.068553336 0.79100001
0.13936667 0.068553336 0.79100001
0.14087334 0.068553336 0.79100001
0.14238001 0.068553336 0.79100001
0.14388667 0.068553336 0.79100001
0.14539334 0.068553336 0.79100001
0.14690001 0.068553336 0.79100001
-0.064168572 0.053762861 0.60700005
-0.062908575 0.053674288 0.60600001
-0.061652385 0.053585719 0.60500002
-0.060500003 0.053585719 0.60500002
-0.059249528 0.053497147 0.60400003
-0.058002859 0.053408574 0.60300004
-0.056760002 0.053320002 0.60200006
-0.055520955 0.053231433 0.60100001
-0.054104764 0.052965719 0.59800005
-0.052877147 0.052877147 0.597
-0.051740002 0.052877147 0.597
-0.050518099 0.052788574 0.59600002
-0.049382862 0.052788574 0.59600002
-0.04816667 0.052700002 0.59500003
-0.047033336 0.052700002 0.59500003
-0.045900002 0.052700002 0.59500003
-0.044691432 0.052611433 0.59400004
-0.043560002 0.052611433 0.59400004
-0.042357147 0.05252286 0.59300005
-0.04122762 0.05252286 0.59300005
-0.040098097 0.05252286 0.59300005
-0.038968574 0.05252286 0.59300005
-0.037839051 0.05252286 0.59300005
-0.036647622 0.052434288 0.59200001
-0.035580002 0.05252286 0.59300005
-0.034392383 0.052434288 0.59200001
-0.033320956 0.05252286 0.59300005
-0.032191429 0.05252286 0.59300005
-0.031114288 0.052611433 0.59400004
-0.029982859 0.052611433 0.59400004
-0.028900001 0.052700002 0.59500003
-0.027766669 0.052700002 0.59500003
-0.026678097 0.052788574 0.59600002
-0.025542859 0.052788574 0.59600002
-0.024448574 0.052877147 0.597
-0.023311431 0.052877147 0.597
-0.022211431 0.052965719 0.59800005
-0.02110762 0.053054288 0.59900004
-0.019966668 0.053054288 0.59900004
-0.018857144 0.053142861 0.60000002
-0.017743811 0.053231433 0.60100001
-0.016626667 0.053320002 0.60200006
-0.01553143 0.053497147 0.60400003
-0.014404763 0.053585719 0.60500002
-0.013274287 0.053674288 0.60600001
-0.064168572 0.054919053 0.60700005
-0.062908575 0.054828577 0.60600001
-0.061652385 0.054738101 0.60500002
-0.060500003 0.054738101 0.60500002
-0.059249528 0.054647624 0.60400003
-0.058002859 0.054557145 0.60300004
-0.056760002 0.054466669 0.60200006
-0.055613335 0.054466669 0.60200006
-0.054376192 0.054376192 0.60100001
-0.053054288 0.05419524 0.59900004
-0.051913336 0.05419524 0.59900004
-0.050687622 0.054104764 0.59800005
-0.049465716 0.054014288 0.597
-0.04824762 0.053923812 0.59600002
-0.047112383 0.053923812 0.59600002
-0.045977145 0.053923812 0.59600002
-0.044766668 0.053833336 0.59500003
-0.043633334 0.053833336 0.59500003
-0.042500004 0.053833336 0.59500003
-0.04136667 0.053833336 0.59500003
-0.040165719 0.05374286 0.59400004
-0.039034288 0.05374286 0.59400004
-0.037902858 0.05374286 0.59400004
-0.036771432 0.05374286 0.59400004
-0.035640001 0.05374286 0.59400004
-0.034508575 0.05374286 0.59400004
-0.033377144 0.05374286 0.59400004
-0.032245718 0.05374286 0.59400004
-0.031166669 0.053833336 0.59500003
-0.030083811 0.053923812 0.59600002
-0.028948573 0.053923812 0.59600002
-0.027860003 0.054014288 0.597
-0.02672286 0.054014288 0.597
-0.025585717 0.054014288 0.597
-0.024489526 0.054104764 0.59800005
-0.023389526 0.05419524 0.59900004
-0.022248574 0.05419524 0.59900004
-0.021142859 0.054285716 0.60000002
-0.020000001 0.054285716 0.60000002
-0.018888572 0.054376192 0.60100001
-0.017773334 0.054466669 0.60200006
-0.016654287 0.054557145 0.60300004
-0.01553143 0.054647624 0.60400003
-0.014428573 0.054828577 0.60600001
-0.013296192 0.054919053 0.60700005
-0.063012384 0.056075241 0.60700005
-0.06175429 0.055982862 0.60600001
-0.060500003 0.055890478 0.60500002
-0.059249528 0.055798098 0.60400003
-0.058002859 0.055705719 0.60300004
-0.056760002 0.055613335 0.60200006
-0.055613335 0.055613335 0.60200006
-0.054376192 0.055520955 0.60100001
-0.053142861 0.055428576 0.60000002
-0.051913336 0.055336192 0.59900004
-0.050687622 0.055243813 0.59800005
-0.049465716 0.055151433 0.597
-0.048328575 0.055151433 0.597
-0.047112383 0.055059053 0.59600002
-0.045977145 0.055059053 0.59600002
-0.044841908 0.055059053 0.59600002
-0.043633334 0.05496667 0.59500003
-0.042500004 0.05496667 0.59500003
-0.04136667 0.05496667 0.59500003
-0.040233336 0.05496667 0.59500003
-0.039100002 0.05496667 0.59500003
-0.037966669 0.05496667 0.59500003
-0.036833335 0.05496667 0.59500003
-0.035700001 0.05496667 0.59500003
-0.034566671 0.05496667 0.59500003
-0.033433337 0.05496667 0.59500003
-0.032300003 0.05496667 0.59500003
-0.031166669 0.05496667 0.59500003
-0.030083811 0.055059053 0.59600002
-0.028997146 0.055151433 0.597
-0.027860003 0.055151433 0.597
-0.026767621 0.055243813 0.59800005
-0.025628572 0.055243813 0.59800005
-0.024530478 0.055336192 0.59900004
-0.023389526 0.055336192 0.59900004
-0.022248574 0.055336192 0.59900004
-0.021142859 0.055428576 0.60000002
-0.020000001 0.055428576 0.60000002
-0.018888572 0.055520955 0.60100001
-0.017773334 0.055613335 0.60200006
-0.016654287 0.055705719 0.60300004
-0.01553143 0.055798098 0.60400003
-0.014452382 0.056075241 0.60700005
-0.013296192 0.056075241 0.60700005
-0.062908575 0.057137147 0.60600001
-0.06175429 0.057137147 0.60600001
-0.060400005 0.056948576 0.60400003
-0.059249528 0.056948576 0.60400003
-0.058002859 0.056854289 0.60300004
-0.056760002 0.056760002 0.60200006
-0.055705719 0.056854289 0.60300004
-0.054466669 0.056760002 0.60200006
-0.053142861 0.056571431 0.60000002
-0.051913336 0.056477148 0.59900004
-0.050772384 0.056477148 0.59900004
-0.049548574 0.056382861 0.59800005
-0.048328575 0.056288574 0.597
-0.04719143 0.056288574 0.597
-0.045977145 0.056194291 0.59600002
-0.044841908 0.056194291 0.59600002
-0.04370667 0.056194291 0.59600002
-0.042500004 0.056100003 0.59500003
-0.04136667 0.056100003 0.59500003
-0.040233336 0.056100003 0.59500003
-0.039100002 0.056100003 0.59500003
-0.037966669 0.056100003 0.59500003
-0.036833335 0.056100003 0.59500003
-0.035700001 0.056100003 0.59500003
-0.034566671 0.056100003 0.59500003
-0.033489525 0.056194291 0.59600002
-0.032354288 0.056194291 0.59600002
-0.03121905 0.056194291 0.59600002
-0.030134289 0.056288574 0.597
-0.028997146 0.056288574 0.597
-0.027906669 0.056382861 0.59800005
-0.026767621 0.056382861 0.59800005
-0.02567143 0.056477148 0.59900004
-0.024530478 0.056477148 0.59900004
-0.023389526 0.056477148 0.59900004
-0.022285717 0.056571431 0.60000002
-0.021142859 0.056571431 0.60000002
-0.020033335 0.056665719 0.60100001
-0.018920001 0.056760002 0.60200006
-0.017802859 0.056854289 0.60300004
-0.016681906 0.056948576 0.60400003
-0.015557144 0.057042859 0.60500002
-0.014428573 0.057137147 0.60600001
-0.013318096 0.057325717 0.60800004
-0.01216 0.057325717 0.60800004
-0.06175429 0.058291432 0.60600001
-0.060500003 0.058195241 0.60500002
-0.059249528 0.05809905 0.60400003
-0.058002859 0.058002859 0.60300004
-0.056854289 0.058002859 0.60300004
-0.055705719 0.058002859 0.60300004
-0.054466669 0.057906669 0.60200006
-0.053142861 0.057714291 0.60000002
-0.052000005 0.057714291 0.60000002
-0.050772384 0.0576181 0.59900004
-0.049631432 0.0576181 0.59900004
-0.048409525 0.057521909 0.59800005
-0.04719143 0.057425719 0.597
-0.046054289 0.057425719 0.597
-0.044841908 0.057329528 0.59600002
-0.04370667 0.057329528 0.59600002
-0.042571433 0.057329528 0.59600002
-0.041436192 0.057329528 0.59600002
-0.040300954 0.057329528 0.59600002
-0.039165717 0.057329528 0.59600002
-0.038030479 0.057329528 0.59600002
-0.036895242 0.057329528 0.59600002
-0.035760004 0.057329528 0.59600002
-0.034624763 0.057329528 0.59600002
-0.033489525 0.057329528 0.59600002
-0.032408573 0.057425719 0.597
-0.031271432 0.057425719 0.597
-0.030134289 0.057425719 0.597
-0.029045716 0.057521909 0.59800005
-0.027906669 0.057521909 0.59800005
-0.026812382 0.0576181 0.59900004
-0.02567143 0.0576181 0.59900004
-0.024530478 0.0576181 0.59900004
-0.023389526 0.0576181 0.59900004
-0.022285717 0.057714291 0.60000002
-0.021178097 0.057810482 0.60100001
-0.020033335 0.057810482 0.60100001
-0.018920001 0.057906669 0.60200006
-0.017832382 0.05809905 0.60400003
-0.016709525 0.058195241 0.60500002
-0.015582859 0.058291432 0.60600001
-0.014452382 0.058387622 0.60700005
-0.013340001 0.058580004 0.60900003
-0.012180001 0.058580004 0.60900003
-0.061856195 0.059543815 0.60700005
-0.060600005 0.059445716 0.60600001
-0.059347622 0.059347622 0.60500002
-0.05809905 0.059249528 0.60400003
-0.056854289 0.059151433 0.60300004
-0.055705719 0.059151433 0.60300004
-0.054557145 0.059151433 0.60300004
-0.053231433 0.058955241 0.60100001
-0.052000005 0.058857147 0.60000002
-0.050772384 0.058759052 0.59900004
-0.049631432 0.058759052 0.59900004
-0.048409525 0.058660958 0.59800005
-0.047270481 0.058660958 0.59800005
-0.046054289 0.05856286 0.597
-0.044917148 0.05856286 0.597
-0.043780003 0.05856286 0.597
-0.042571433 0.058464766 0.59600002
-0.041436192 0.058464766 0.59600002
-0.040300954 0.058464766 0.59600002
-0.039165717 0.058464766 0.59600002
-0.038030479 0.058464766 0.59600002
-0.036957145 0.05856286 0.597
-0.035820004 0.05856286 0.597
-0.034682859 0.05856286 0.597
-0.033545718 0.05856286 0.597
-0.032408573 0.05856286 0.597
-0.031271432 0.05856286 0.597
-0.030134289 0.05856286 0.597
-0.029045716 0.058660958 0.59800005
-0.027906669 0.058660958 0.59800005
-0.026812382 0.058759052 0.59900004
-0.02567143 0.058759052 0.59900004
-0.024530478 0.058759052 0.59900004
-0.023428572 0.058857147 0.60000002
-0.022322858 0.058955241 0.60100001
-0.021178097 0.058955241 0.60100001
-0.020066667 0.059053339 0.60200006
-0.018951429 0.059151433 0.60300004
-0.017861906 0.059347622 0.60500002
-0.016737144 0.059445716 0.60600001
-0.015582859 0.059445716 0.60600001
-0.014476191 0.059641909 0.60800004
-0.01338381 0.059936196 0.611
-0.012220001 0.059936196 0.611
-0.096074291 0.078200005 0.78200006
-0.094584771 0.078200005 0.78200006
-0.093333341 0.078400008 0.78400004
-0.06342762 0.061100002 0.611
-0.061958101 0.060800005 0.60800004
-0.060700003 0.060700003 0.60700005
-0.059445716 0.060600005 0.60600001
-0.058195241 0.060500003 0.60500002
-0.056948576 0.060400005 0.60400003
-0.055798098 0.060400005 0.60400003
-0.054557145 0.060300004 0.60300004
-0.053320002 0.060200006 0.60200006
-0.052000005 0.060000002 0.60000002
-0.050857145 0.060000002 0.60000002
-0.049631432 0.059900004 0.59900004
-0.04849048 0.059900004 0.59900004
-0.047270481 0.059800003 0.59800005
-0.046131432 0.059800003 0.59800005
-0.044992384 0.059800003 0.59800005
-0.043780003 0.059700005 0.597
-0.042642862 0.059700005 0.597
-0.041505717 0.059700005 0.597
-0.040368576 0.059700005 0.597
-0.039231431 0.059700005 0.597
-0.03809429 0.059700005 0.597
-0.037019052 0.059800003 0.59800005
-0.035880003 0.059800003 0.59800005
-0.034682859 0.059700005 0.597
-0.033545718 0.059700005 0.597
-0.032462858 0.059800003 0.59800005
-0.031323813 0.059800003 0.59800005
-0.030184764 0.059800003 0.59800005
-0.029045716 0.059800003 0.59800005
-0.027953336 0.059900004 0.59900004
-0.026812382 0.059900004 0.59900004
-0.02567143 0.059900004 0.59900004
-0.024530478 0.059900004 0.59900004
