# .PCD v0.7 - Point Cloud Data file format
VERSION 0.7
FIELDS x y z
SIZE 4 4 4
TYPE F F F
COUNT 1 1 1
WIDTH 1342
HEIGHT 1
VIEWPOINT 0 0 0 1 0 0 0
POINTS 1342
DATA ascii
-0.030706668 0.049000002 0.68600005
-0.029400002 0.049000002 0.68600005
-0.028093334 0.049000002 0.68600005
-0.026708573 0.048857145 0.68400002
-0.025405716 0.048857145 0.68400002
-0.024102859 0.048857145 0.68400002
-0.022800002 0.048857145 0.68400002
-0.021497143 0.048857145 0.68400002
-0.020164764 0.048785716 0.68300003
-0.01886381 0.048785716 0.68300003
-0.017562859 0.048785716 0.68300003
-0.016261905 0.048785716 0.68300003
-0.014960953 0.048785716 0.68300003
-0.013680001 0.048857145 0.68400002
-0.012377144 0.048857145 0.68400002
-0.011106667 0.049000002 0.68600005
-0.0098142866 0.049071431 0.68700004
-0.0085304771 0.049214289 0.68900001
-0.0072180959 0.049214289 0.68900001
-0.0059057148 0.049214289 0.68900001
-0.0045933337 0.049214289 0.68900001
-0.0032809526 0.049214289 0.68900001
-0.0019628573 0.049071431 0.68700004
-0.00065428577 0.049071431 0.68700004
0.0006561905 0.049214289 0.68900001
0.0019628573 0.049071431 0.68700004
0.0032809526 0.049214289 0.68900001
-0.084642865 0.052140005 0.71100003
-0.083171435 0.052066669 0.71000004
-0.081588574 0.051920004 0.708
-0.080240004 0.051920004 0.708
-0.078891434 0.051920004 0.708
-0.07743334 0.051846672 0.70700002
-0.07608667 0.051846672 0.70700002
-0.074528575 0.051700003 0.70500004
-0.07318572 0.051700003 0.70500004
-0.071740955 0.051626671 0.70400006
-0.070400007 0.051626671 0.70400006
-0.068764769 0.05140667 0.70100003
-0.067333341 0.051333338 0.70000005
-0.066000007 0.051333338 0.70000005
-0.064666674 0.051333338 0.70000005
-0.063152388 0.05118667 0.69800001
-0.061822861 0.05118667 0.69800001
-0.06040667 0.051113337 0.69700003
-0.058909528 0.050966669 0.69500005
-0.057585716 0.050966669 0.69500005
-0.056180958 0.050893337 0.69400001
-0.05485905 0.050893337 0.69400001
-0.053460002 0.050820004 0.69300002
-0.052140005 0.050820004 0.69300002
-0.050673336 0.050673336 0.69100004
-0.049357146 0.050673336 0.69100004
-0.047971431 0.050600003 0.69000006
-0.046657145 0.050600003 0.69000006
-0.045408573 0.050673336 0.69100004
-0.044028573 0.050600003 0.69000006
-0.04271429 0.050600003 0.69000006
-0.041400004 0.050600003 0.69000006
-0.040027622 0.050526671 0.68900001
-0.03871524 0.050526671 0.68900001
-0.037402861 0.050526671 0.68900001
-0.035985716 0.050380003 0.68700004
-0.034677144 0.050380003 0.68700004
-0.033320002 0.05030667 0.68600005
-0.032013334 0.05030667 0.68600005
-0.030706668 0.05030667 0.68600005
-0.029400002 0.05030667 0.68600005
-0.02801143 0.050160002 0.68400002
-0.026708573 0.050160002 0.68400002
-0.025405716 0.050160002 0.68400002
-0.02406762 0.05008667 0.68300003
-0.022766668 0.05008667 0.68300003
-0.021465715 0.05008667 0.68300003
-0.020135239 0.050013337 0.68200004
-0.018836191 0.050013337 0.68200004
-0.017537143 0.050013337 0.68200004
-0.016238097 0.050013337 0.68200004
-0.014939048 0.050013337 0.68200004
-0.013660001 0.05008667 0.68300003
-0.012359048 0.05008667 0.68300003
-0.011058096 0.05008667 0.68300003
-0.009771429 0.050160002 0.68400002
-0.0084933341 0.05030667 0.68600005
-0.0071866671 0.05030667 0.68600005
-0.005888572 0.050380003 0.68700004
-0.0045733335 0.05030667 0.68600005
-0.0032666668 0.05030667 0.68600005
-0.00196 0.05030667 0.68600005
-0.00065333338 0.05030667 0.68600005
0.00065333338 0.05030667 0.68600005
0.0019628573 0.050380003 0.68700004
0.0032714289 0.050380003 0.68700004
0.0045933337 0.050526671 0.68900001
0.0059057148 0.050526671 0.68900001
-0.08328858 0.05349429 0.71100003
-0.08181905 0.05341905 0.71000004
-0.080126673 0.053193338 0.70700002
-0.078780003 0.053193338 0.70700002
-0.077214293 0.053042859 0.70500004
-0.07587143 0.053042859 0.70500004
-0.074528575 0.053042859 0.70500004
-0.073081911 0.052967623 0.70400006
-0.071639054 0.052892383 0.70300001
-0.070400007 0.052967623 0.70400006
-0.068764769 0.052741908 0.70100003
-0.067333341 0.052666672 0.70000005
-0.066000007 0.052666672 0.70000005
-0.064481907 0.052516192 0.69800001
-0.063152388 0.052516192 0.69800001
-0.061734289 0.052440956 0.69700003
-0.06040667 0.052440956 0.69700003
-0.058909528 0.052290481 0.69500005
-0.057502862 0.052215241 0.69400001
-0.056180958 0.052215241 0.69400001
-0.054780003 0.052140005 0.69300002
-0.053460002 0.052140005 0.69300002
-0.052140005 0.052140005 0.69300002
-0.050673336 0.051989526 0.69100004
-0.049357146 0.051989526 0.69100004
-0.047971431 0.05191429 0.69000006
-0.046657145 0.05191429 0.69000006
-0.045408573 0.051989526 0.69100004
-0.044028573 0.05191429 0.69000006
-0.04271429 0.05191429 0.69000006
-0.041400004 0.05191429 0.69000006
-0.040027622 0.05183905 0.68900001
-0.03871524 0.05183905 0.68900001
-0.037294287 0.051688574 0.68700004
-0.035985716 0.051688574 0.68700004
-0.03462667 0.051613338 0.68600005
-0.033320002 0.051613338 0.68600005
-0.032013334 0.051613338 0.68600005
-0.030617144 0.051462859 0.68400002
-0.029314287 0.051462859 0.68400002
-0.02801143 0.051462859 0.68400002
-0.026669526 0.051387623 0.68300003
-0.025368573 0.051387623 0.68300003
-0.024032382 0.051312383 0.68200004
-0.022733334 0.051312383 0.68200004
-0.021434287 0.051312383 0.68200004
-0.020135239 0.051312383 0.68200004
-0.018780954 0.051161908 0.68000001
-0.017485715 0.051161908 0.68000001
-0.016190477 0.051161908 0.68000001
-0.014895239 0.051161908 0.68000001
-0.013600001 0.051161908 0.68000001
-0.012304762 0.051161908 0.68000001
-0.011041906 0.051312383 0.68200004
-0.0097428579 0.051312383 0.68200004
-0.0084685721 0.051462859 0.68400002
-0.0071657146 0.051462859 0.68400002
-0.0058628577 0.051462859 0.68400002
-0.0045600003 0.051462859 0.68400002
-0.0032571431 0.051462859 0.68400002
-0.0019542859 0.051462859 0.68400002
-0.00065142859 0.051462859 0.68400002
0.00065142859 0.051462859 0.68400002
0.00196 0.051613338 0.68600005
0.0032666668 0.051613338 0.68600005
0.0045733335 0.051613338 0.68600005
0.0058800005 0.051613338 0.68600005
0.0071971435 0.051688574 0.68700004
-0.084642865 0.054848574 0.71100003
-0.083171435 0.054771431 0.71000004
-0.08181905 0.054771431 0.71000004
-0.080126673 0.054540005 0.70700002
-0.078780003 0.054540005 0.70700002
-0.077214293 0.054385718 0.70500004
-0.07587143 0.054385718 0.70500004
-0.074422859 0.054308575 0.70400006
-0.073081911 0.054308575 0.70400006
-0.071740955 0.054308575 0.70400006
-0.070400007 0.054308575 0.70400006
-0.068764769 0.054077145 0.70100003
-0.067333341 0.054000005 0.70000005
-0.066000007 0.054000005 0.70000005
-0.064666674 0.054000005 0.70000005
-0.063152388 0.053845719 0.69800001
-0.061734289 0.053768575 0.69700003
-0.060233336 0.053614289 0.69500005
-0.058909528 0.053614289 0.69500005
-0.057502862 0.053537145 0.69400001
-0.056180958 0.053537145 0.69400001
-0.054780003 0.053460002 0.69300002
-0.053460002 0.053460002 0.69300002
-0.052140005 0.053460002 0.69300002
-0.050673336 0.053305719 0.69100004
-0.049285717 0.053228576 0.69000006
-0.047971431 0.053228576 0.69000006
-0.046657145 0.053228576 0.69000006
-0.045342859 0.053228576 0.69000006
-0.044028573 0.053228576 0.69000006
-0.042652383 0.053151432 0.68900001
-0.041340001 0.053151432 0.68900001
-0.03991143 0.052997146 0.68700004
-0.038602859 0.052997146 0.68700004
-0.037294287 0.052997146 0.68700004
-0.035933334 0.052920002 0.68600005
-0.03462667 0.052920002 0.68600005
-0.033222858 0.05276572 0.68400002
-0.031920001 0.05276572 0.68400002
-0.030617144 0.05276572 0.68400002
-0.029314287 0.05276572 0.68400002
-0.027970478 0.052688576 0.68300003
-0.026669526 0.052688576 0.68300003
-0.02533143 0.052611433 0.68200004
-0.024032382 0.052611433 0.68200004
-0.022666669 0.052457146 0.68000001
-0.02137143 0.052457146 0.68000001
-0.020076191 0.052457146 0.68000001
-0.018780954 0.052457146 0.68000001
-0.017485715 0.052457146 0.68000001
-0.016190477 0.052457146 0.68000001
-0.014895239 0.052457146 0.68000001
-0.013600001 0.052457146 0.68000001
-0.012304762 0.052457146 0.68000001
-0.011009525 0.052457146 0.68000001
-0.0097000003 0.052380003 0.67900002
-0.00844381 0.052611433 0.68200004
-0.0071552387 0.052688576 0.68300003
-0.0058542863 0.052688576 0.68300003
-0.0045533339 0.052688576 0.68300003
-0.0032523812 0.052688576 0.68300003
-0.0019514287 0.052688576 0.68300003
-0.00065047626 0.052688576 0.68300003
0.00065047626 0.052688576 0.68300003
0.0019542859 0.05276572 0.68400002
0.0032523812 0.052688576 0.68300003
0.0045600003 0.05276572 0.68400002
0.0058628577 0.05276572 0.68400002
-0.083171435 0.056123812 0.71000004
-0.081588574 0.055965718 0.708
-0.080126673 0.055886671 0.70700002
-0.078780003 0.055886671 0.70700002
-0.077214293 0.055728573 0.70500004
-0.07587143 0.055728573 0.70500004
-0.074528575 0.055728573 0.70500004
-0.07318572 0.055728573 0.70500004
-0.071740955 0.055649526 0.70400006
-0.070400007 0.055649526 0.70400006
-0.068764769 0.055412386 0.70100003
-0.067333341 0.055333339 0.70000005
-0.066000007 0.055333339 0.70000005
-0.064666674 0.055333339 0.70000005
-0.063061908 0.055096194 0.69700003
-0.061734289 0.055096194 0.69700003
-0.060233336 0.0549381 0.69500005
-0.058909528 0.0549381 0.69500005
-0.057502862 0.05485905 0.69400001
-0.056180958 0.05485905 0.69400001
-0.054780003 0.054780003 0.69300002
-0.053460002 0.054780003 0.69300002
-0.051989526 0.054621909 0.69100004
-0.050600003 0.054542862 0.69000006
-0.049285717 0.054542862 0.69000006
-0.047971431 0.054542862 0.69000006
-0.046589527 0.054463815 0.68900001
-0.045342859 0.054542862 0.69000006
-0.043964766 0.054463815 0.68900001
-0.042652383 0.054463815 0.68900001
-0.041220002 0.054305717 0.68700004
-0.03991143 0.054305717 0.68700004
-0.03854667 0.05422667 0.68600005
-0.037240002 0.05422667 0.68600005
-0.035933334 0.05422667 0.68600005
-0.03462667 0.05422667 0.68600005
-0.033222858 0.054068577 0.68400002
-0.031920001 0.054068577 0.68400002
-0.030617144 0.054068577 0.68400002
-0.029271431 0.053989526 0.68300003
-0.027970478 0.053989526 0.68300003
-0.026630478 0.053910479 0.68200004
-0.02533143 0.053910479 0.68200004
-0.023961907 0.053752385 0.68000001
-0.022666669 0.053752385 0.68000001
-0.02137143 0.053752385 0.68000001
-0.020076191 0.053752385 0.68000001
-0.018753335 0.053673338 0.67900002
-0.017460002 0.053673338 0.67900002
-0.016166668 0.053673338 0.67900002
-0.014873334 0.053673338 0.67900002
-0.013580001 0.053673338 0.67900002
-0.012286668 0.053673338 0.67900002
-0.010993334 0.053673338 0.67900002
-0.0097000003 0.053673338 0.67900002
-0.008419048 0.053752385 0.68000001
-0.0071238098 0.053752385 0.68000001
-0.0058457148 0.053910479 0.68200004
-0.0045333337 0.053752385 0.68000001
-0.0032380954 0.053752385 0.68000001
-0.0019485715 0.053910479 0.68200004
-0.00064952386 0.053910479 0.68200004
0.00064952386 0.053910479 0.68200004
0.0019485715 0.053910479 0.68200004
0.0032476194 0.053910479 0.68200004
0.0045533339 0.053989526 0.68300003
0.0058457148 0.053910479 0.68200004
0.0071447622 0.053910479 0.68200004
-0.083171435 0.057476193 0.71000004
-0.08181905 0.057476193 0.71000004
-0.080126673 0.057233337 0.70700002
-0.078780003 0.057233337 0.70700002
-0.07743334 0.057233337 0.70700002
-0.07587143 0.057071432 0.70500004
-0.074740008 0.057233337 0.70700002
-0.07318572 0.057071432 0.70500004
-0.071740955 0.056990478 0.70400006
-0.070400007 0.056990478 0.70400006
-0.068764769 0.056747623 0.70100003
-0.067333341 0.056666672 0.70000005
-0.066000007 0.056666672 0.70000005
-0.064481907 0.056504767 0.69800001
-0.063061908 0.056423813 0.69700003
-0.061734289 0.056423813 0.69700003
-0.060233336 0.056261908 0.69500005
-0.058909528 0.056261908 0.69500005
-0.057502862 0.056180958 0.69400001
-0.056180958 0.056180958 0.69400001
-0.054780003 0.056100003 0.69300002
-0.053460002 0.056100003 0.69300002
-0.051989526 0.055938099 0.69100004
-0.050600003 0.055857148 0.69000006
-0.049285717 0.055857148 0.69000006
-0.047971431 0.055857148 0.69000006
-0.046589527 0.055776194 0.68900001
-0.045342859 0.055857148 0.69000006
-0.043964766 0.055776194 0.68900001
-0.042528573 0.055614289 0.68700004
-0.041220002 0.055614289 0.68700004
-0.039853334 0.055533338 0.68600005
-0.03854667 0.055533338 0.68600005
-0.037240002 0.055533338 0.68600005
-0.035933334 0.055533338 0.68600005
-0.034525715 0.055371433 0.68400002
-0.033222858 0.055371433 0.68400002
-0.031920001 0.055371433 0.68400002
-0.030572383 0.055290479 0.68300003
-0.029271431 0.055290479 0.68300003
-0.027929526 0.055209529 0.68200004
-0.026630478 0.055209529 0.68200004
-0.025257144 0.055047624 0.68000001
-0.023961907 0.055047624 0.68000001
-0.022666669 0.055047624 0.68000001
-0.021340001 0.05496667 0.67900002
-0.020046668 0.05496667 0.67900002
-0.018753335 0.05496667 0.67900002
-0.017434286 0.054885719 0.67800003
-0.016166668 0.05496667 0.67900002
-0.014851429 0.054885719 0.67800003
-0.013560001 0.054885719 0.67800003
-0.012268572 0.054885719 0.67800003
-0.010977143 0.054885719 0.67800003
-0.0096571436 0.054723814 0.67600006
-0.008394286 0.054885719 0.67800003
-0.0071028578 0.054885719 0.67800003
-0.0058200005 0.05496667 0.67900002
-0.0045200004 0.054885719 0.67800003
-0.0032190478 0.054723814 0.67600006
-0.001937143 0.054885719 0.67800003
-0.00064666668 0.05496667 0.67900002
0.00064666668 0.05496667 0.67900002
0.0019428573 0.055047624 0.68000001
0.0032380954 0.055047624 0.68000001
0.0045333337 0.055047624 0.68000001
0.005828572 0.055047624 0.68000001
0.0071238098 0.055047624 0.68000001
0.008419048 0.055047624 0.68000001
0.0097142868 0.055047624 0.68000001
-0.083171435 0.058828574 0.71000004
-0.08181905 0.058828574 0.71000004
-0.080126673 0.058580004 0.70700002
-0.078780003 0.058580004 0.70700002
-0.07743334 0.058580004 0.70700002
-0.07587143 0.058414288 0.70500004
-0.074528575 0.058414288 0.70500004
-0.07318572 0.058414288 0.70500004
-0.071740955 0.058331434 0.70400006
-0.070400007 0.058331434 0.70400006
-0.068764769 0.05808286 0.70100003
-0.067333341 0.058000002 0.70000005
-0.066000007 0.058000002 0.70000005
-0.064666674 0.058000002 0.70000005
-0.063152388 0.05783429 0.69800001
-0.061734289 0.057751432 0.69700003
-0.060233336 0.057585716 0.69500005
-0.058909528 0.057585716 0.69500005
-0.057502862 0.057502862 0.69400001
-0.056100003 0.057420004 0.69300002
-0.054780003 0.057420004 0.69300002
-0.053305719 0.057254288 0.69100004
-0.051989526 0.057254288 0.69100004
-0.050600003 0.057171434 0.69000006
-0.049285717 0.057171434 0.69000006
-0.047901906 0.057088576 0.68900001
-0.046589527 0.057088576 0.68900001
-0.045277145 0.057088576 0.68900001
-0.043837145 0.05692286 0.68700004
-0.042528573 0.05692286 0.68700004
-0.041160002 0.056840003 0.68600005
-0.039853334 0.056840003 0.68600005
-0.03854667 0.056840003 0.68600005
-0.037240002 0.056840003 0.68600005
-0.035933334 0.056840003 0.68600005
-0.034525715 0.05667429 0.68400002
-0.033174288 0.056591433 0.68300003
-0.031873334 0.056591433 0.68300003
-0.030572383 0.056591433 0.68300003
-0.029228574 0.056508575 0.68200004
-0.027929526 0.056508575 0.68200004
-0.026552383 0.056342863 0.68000001
-0.025257144 0.056342863 0.68000001
-0.023926668 0.056260005 0.67900002
-0.022633335 0.056260005 0.67900002
-0.021340001 0.056260005 0.67900002
-0.020017143 0.056177147 0.67800003
-0.018725716 0.056177147 0.67800003
-0.017434286 0.056177147 0.67800003
-0.016142858 0.056177147 0.67800003
-0.014851429 0.056177147 0.67800003
-0.013560001 0.056177147 0.67800003
-0.012232382 0.056011431 0.67600006
-0.010944762 0.056011431 0.67600006
-0.0096571436 0.056011431 0.67600006
-0.008369524 0.056011431 0.67600006
-0.0070819054 0.056011431 0.67600006
-0.0057942863 0.056011431 0.67600006
-0.0045066671 0.056011431 0.67600006
-0.0032190478 0.056011431 0.67600006
-0.0019314287 0.056011431 0.67600006
-0.00064380956 0.056011431 0.67600006
0.00064571435 0.056177147 0.67800003
0.001937143 0.056177147 0.67800003
0.0032285717 0.056177147 0.67800003
0.0045266668 0.056260005 0.67900002
0.0058200005 0.056260005 0.67900002
0.0071238098 0.056342863 0.68000001
0.008419048 0.056342863 0.68000001
0.0097142868 0.056342863 0.68000001
0.011009525 0.056342863 0.68000001
-0.08328858 0.06026572 0.71100003
-0.081934288 0.06026572 0.71100003
-0.080580004 0.06026572 0.71100003
-0.078780003 0.05992667 0.70700002
-0.07743334 0.05992667 0.70700002
-0.07608667 0.05992667 0.70700002
-0.074528575 0.059757147 0.70500004
-0.07318572 0.059757147 0.70500004
-0.071842864 0.059757147 0.70500004
-0.070400007 0.059672385 0.70400006
-0.068764769 0.059418101 0.70100003
-0.067429528 0.059418101 0.70100003
-0.066000007 0.059333336 0.70000005
-0.064666674 0.059333336 0.70000005
-0.063152388 0.059163813 0.69800001
-0.061734289 0.059079051 0.69700003
-0.060233336 0.058909528 0.69500005
-0.058909528 0.058909528 0.69500005
-0.057502862 0.058824766 0.69400001
-0.056180958 0.058824766 0.69400001
-0.054780003 0.058740005 0.69300002
-0.053305719 0.058570482 0.69100004
-0.051989526 0.058570482 0.69100004
-0.050600003 0.058485717 0.69000006
-0.049285717 0.058485717 0.69000006
-0.047901906 0.058400955 0.68900001
-0.046589527 0.058400955 0.68900001
-0.045277145 0.058400955 0.68900001
-0.043837145 0.058231432 0.68700004
-0.042528573 0.058231432 0.68700004
-0.041160002 0.05814667 0.68600005
-0.039853334 0.05814667 0.68600005
-0.03854667 0.05814667 0.68600005
-0.037131432 0.057977147 0.68400002
-0.035828575 0.057977147 0.68400002
-0.034525715 0.057977147 0.68400002
-0.033174288 0.057892386 0.68300003
-0.031873334 0.057892386 0.68300003
-0.030572383 0.057892386 0.68300003
-0.029228574 0.057807624 0.68200004
-0.027847622 0.057638098 0.68000001
-0.026552383 0.057638098 0.68000001
-0.025220001 0.057553336 0.67900002
-0.023926668 0.057553336 0.67900002
-0.022633335 0.057553336 0.67900002
-0.021308573 0.057468574 0.67800003
-0.020017143 0.057468574 0.67800003
-0.018725716 0.057468574 0.67800003
-0.017434286 0.057468574 0.67800003
-0.016142858 0.057468574 0.67800003
-0.01480762 0.057299051 0.67600006
-0.013520001 0.057299051 0.67600006
-0.012232382 0.057299051 0.67600006
-0.010928572 0.05721429 0.67500001
-0.0096428581 0.05721429 0.67500001
-0.008357143 0.05721429 0.67500001
-0.0070714289 0.05721429 0.67500001
-0.0057942863 0.057299051 0.67600006
-0.0045000003 0.05721429 0.67500001
-0.0032142859 0.05721429 0.67500001
-0.0019285716 0.05721429 0.67500001
-0.00064380956 0.057299051 0.67600006
0.00064380956 0.057299051 0.67600006
0.0019314287 0.057299051 0.67600006
0.0032190478 0.057299051 0.67600006
0.0045200004 0.057468574 0.67800003
0.0058114291 0.057468574 0.67800003
0.0071133338 0.057553336 0.67900002
0.008406667 0.057553336 0.67900002
0.0097000003 0.057553336 0.67900002
0.010993334 0.057553336 0.67900002
0.012304762 0.057638098 0.68000001
0.14274001 0.067216195 0.79300004
0.14425048 0.067216195 0.79300004
0.14576097 0.067216195 0.79300004
0.14727144 0.067216195 0.79300004
-0.081934288 0.061620004 0.71100003
-0.080580004 0.061620004 0.71100003
-0.079225719 0.061620004 0.71100003
-0.077761911 0.061533336 0.71000004
-0.07608667 0.061273336 0.70700002
-0.074740008 0.061273336 0.70700002
-0.07318572 0.061100002 0.70500004
-0.072046675 0.061273336 0.70700002
-0.070400007 0.061013337 0.70400006
-0.068764769 0.060753338 0.70100003
-0.067429528 0.060753338 0.70100003
-0.066094287 0.060753338 0.70100003
-0.064666674 0.060666669 0.70000005
-0.063152388 0.060493339 0.69800001
-0.061734289 0.06040667 0.69700003
-0.06040667 0.06040667 0.69700003
-0.058909528 0.060233336 0.69500005
-0.057502862 0.060146671 0.69400001
-0.056100003 0.060060006 0.69300002
-0.054780003 0.060060006 0.69300002
-0.053305719 0.059886672 0.69100004
-0.05191429 0.059800003 0.69000006
-0.050600003 0.059800003 0.69000006
-0.049285717 0.059800003 0.69000006
-0.047901906 0.059713338 0.68900001
-0.046589527 0.059713338 0.68900001
-0.045277145 0.059713338 0.68900001
-0.043837145 0.059540004 0.68700004
-0.042528573 0.059540004 0.68700004
-0.041160002 0.059453338 0.68600005
-0.039853334 0.059453338 0.68600005
-0.038434289 0.059280004 0.68400002
-0.037131432 0.059280004 0.68400002
-0.035828575 0.059280004 0.68400002
-0.034475241 0.059193335 0.68300003
-0.033174288 0.059193335 0.68300003
-0.031826667 0.05910667 0.68200004
-0.030527622 0.05910667 0.68200004
-0.029142858 0.058933336 0.68000001
-0.027847622 0.058933336 0.68000001
-0.026552383 0.058933336 0.68000001
-0.025220001 0.058846671 0.67900002
-0.023926668 0.058846671 0.67900002
-0.022600001 0.058760002 0.67800003
-0.021308573 0.058760002 0.67800003
-0.019958096 0.058586672 0.67600006
-0.018670477 0.058586672 0.67600006
-0.017382858 0.058586672 0.67600006
-0.01609524 0.058586672 0.67600006
-0.014785715 0.058500003 0.67500001
-0.013500001 0.058500003 0.67500001
-0.012214286 0.058500003 0.67500001
-0.010928572 0.058500003 0.67500001
-0.0096428581 0.058500003 0.67500001
-0.008357143 0.058500003 0.67500001
-0.0070714289 0.058500003 0.67500001
-0.0057857148 0.058500003 0.67500001
-0.0045000003 0.058500003 0.67500001
-0.0032142859 0.058500003 0.67500001
-0.0019285716 0.058500003 0.67500001
-0.00064285717 0.058500003 0.67500001
0.00064285717 0.058500003 0.67500001
0.0019285716 0.058500003 0.67500001
0.0032142859 0.058500003 0.67500001
0.0045066671 0.058586672 0.67600006
0.0057942863 0.058586672 0.67600006
0.0070819054 0.058586672 0.67600006
0.008394286 0.058760002 0.67800003
0.0096857147 0.058760002 0.67800003
0.010977143 0.058760002 0.67800003
0.012268572 0.058760002 0.67800003
0.013560001 0.058760002 0.67800003
0.014873334 0.058846671 0.67900002
0.13786002 0.068553336 0.79100001
0.14087334 0.068553336 0.79100001
0.14238001 0.068553336 0.79100001
0.14388667 0.068553336 0.79100001
0.14539334 0.068553336 0.79100001
0.14690001 0.068553336 0.79100001
-0.082164764 0.063151434 0.71300006
-0.080806673 0.063151434 0.71300006
-0.079225719 0.062974289 0.71100003
-0.077871434 0.062974289 0.71100003
-0.07651715 0.062974289 0.71100003
-0.075057149 0.062885717 0.71000004
-0.073497146 0.062708579 0.708
-0.072046675 0.062620007 0.70700002
-0.070400007 0.062354289 0.70400006
-0.068764769 0.062088575 0.70100003
-0.067429528 0.062088575 0.70100003
-0.066094287 0.062088575 0.70100003
-0.064666674 0.062000003 0.70000005
-0.063152388 0.061822861 0.69800001
-0.061734289 0.061734289 0.69700003
-0.06040667 0.061734289 0.69700003
-0.058909528 0.061557148 0.69500005
-0.057502862 0.061468575 0.69400001
-0.056100003 0.061380003 0.69300002
-0.054780003 0.061380003 0.69300002
-0.053305719 0.061202861 0.69100004
-0.05191429 0.061114289 0.69000006
-0.050600003 0.061114289 0.69000006
-0.049214289 0.06102572 0.68900001
-0.047901906 0.06102572 0.68900001
-0.046589527 0.06102572 0.68900001
-0.045277145 0.06102572 0.68900001
-0.043837145 0.060848575 0.68700004
-0.04246667 0.060760003 0.68600005
-0.041160002 0.060760003 0.68600005
-0.039737146 0.060582861 0.68400002
-0.038434289 0.060582861 0.68400002
-0.037131432 0.060582861 0.68400002
-0.035828575 0.060582861 0.68400002
-0.034475241 0.060494289 0.68300003
-0.033125717 0.06040572 0.68200004
-0.031826667 0.06040572 0.68200004
-0.030438097 0.060228575 0.68000001
-0.029142858 0.060228575 0.68000001
-0.027806668 0.060140003 0.67900002
-0.026513334 0.060140003 0.67900002
-0.025220001 0.060140003 0.67900002
-0.02389143 0.060051434 0.67800003
-0.022600001 0.060051434 0.67800003
-0.021245716 0.059874289 0.67600006
-0.019928573 0.05978572 0.67500001
-0.018642858 0.05978572 0.67500001
-0.017357145 0.05978572 0.67500001
-0.016071429 0.05978572 0.67500001
-0.014785715 0.05978572 0.67500001
-0.013480001 0.059697147 0.67400002
-0.012196192 0.059697147 0.67400002
-0.010912382 0.059697147 0.67400002
-0.0096428581 0.05978572 0.67500001
-0.008357143 0.05978572 0.67500001
-0.007060953 0.059697147 0.67400002
-0.0057857148 0.05978572 0.67500001
-0.0044933334 0.059697147 0.67400002
-0.0032095241 0.059697147 0.67400002
-0.0019257144 0.059697147 0.67400002
-0.00064190483 0.059697147 0.67400002
0.00064190483 0.059697147 0.67400002
0.0019285716 0.05978572 0.67500001
0.0032142859 0.05978572 0.67500001
0.0045000003 0.05978572 0.67500001
0.0057857148 0.05978572 0.67500001
0.0070714289 0.05978572 0.67500001
0.008357143 0.05978572 0.67500001
0.0096428581 0.05978572 0.67500001
0.010928572 0.05978572 0.67500001
0.012214286 0.05978572 0.67500001
0.013500001 0.05978572 0.67500001
0.014785715 0.05978572 0.67500001
0.016071429 0.05978572 0.67500001
0.017357145 0.05978572 0.67500001
0.018670477 0.059874289 0.67600006
-0.082164764 0.064509526 0.71300006
-0.080806673 0.064509526 0.71300006
-0.079448573 0.064509526 0.71300006
-0.077871434 0.064328574 0.71100003
-0.07651715 0.064328574 0.71100003
-0.075162865 0.064328574 0.71100003
-0.073704764 0.064238101 0.71000004
-0.072046675 0.063966669 0.70700002
-0.070500001 0.063785717 0.70500004
-0.069059052 0.063695244 0.70400006
-0.067621909 0.063604765 0.70300001
-0.066094287 0.063423812 0.70100003
-0.064666674 0.06333334 0.70000005
-0.06333334 0.06333334 0.70000005
-0.061822861 0.063152388 0.69800001
-0.06040667 0.063061908 0.69700003
-0.058909528 0.062880956 0.69500005
-0.057502862 0.062790483 0.69400001
-0.056100003 0.062700003 0.69300002
-0.054780003 0.062700003 0.69300002
-0.053305719 0.062519051 0.69100004
-0.05191429 0.062428575 0.69000006
-0.050600003 0.062428575 0.69000006
-0.049285717 0.062428575 0.69000006
-0.047901906 0.062338099 0.68900001
-0.046589527 0.062338099 0.68900001
-0.045145717 0.062157147 0.68700004
-0.043837145 0.062157147 0.68700004
-0.04246667 0.062066671 0.68600005
-0.041160002 0.062066671 0.68600005
-0.039737146 0.061885718 0.68400002
-0.038434289 0.061885718 0.68400002
-0.037131432 0.061885718 0.68400002
-0.035828575 0.061885718 0.68400002
-0.034475241 0.061795242 0.68300003
-0.033125717 0.061704766 0.68200004
-0.031826667 0.061704766 0.68200004
-0.030438097 0.061523814 0.68000001
-0.029142858 0.061523814 0.68000001
-0.027806668 0.061433338 0.67900002
-0.026474288 0.061342862 0.67800003
-0.025182858 0.061342862 0.67800003
-0.023820953 0.061161909 0.67600006
-0.022533335 0.061161909 0.67600006
-0.021245716 0.061161909 0.67600006
-0.019928573 0.061071433 0.67500001
-0.018642858 0.061071433 0.67500001
-0.017357145 0.061071433 0.67500001
-0.016071429 0.061071433 0.67500001
-0.014785715 0.061071433 0.67500001
-0.013480001 0.060980957 0.67400002
-0.012196192 0.060980957 0.67400002
-0.010912382 0.060980957 0.67400002
-0.0096285725 0.060980957 0.67400002
-0.008344762 0.060980957 0.67400002
-0.007060953 0.060980957 0.67400002
-0.0057771434 0.060980957 0.67400002
-0.0044933334 0.060980957 0.67400002
-0.0032095241 0.060980957 0.67400002
-0.0019257144 0.060980957 0.67400002
-0.00064190483 0.060980957 0.67400002
0.00064190483 0.060980957 0.67400002
0.0019257144 0.060980957 0.67400002
0.0032095241 0.060980957 0.67400002
0.0044933334 0.060980957 0.67400002
0.0057771434 0.060980957 0.67400002
0.007060953 0.060980957 0.67400002
0.008357143 0.061071433 0.67500001
0.0096428581 0.061071433 0.67500001
0.010928572 0.061071433 0.67500001
0.012214286 0.061071433 0.67500001
0.013480001 0.060980957 0.67400002
0.014785715 0.061071433 0.67500001
0.016071429 0.061071433 0.67500001
0.017357145 0.061071433 0.67500001
0.018642858 0.061071433 0.67500001
0.019928573 0.061071433 0.67500001
-0.083522864 0.065867625 0.71300006
-0.082164764 0.065867625 0.71300006
-0.080806673 0.065867625 0.71300006
-0.079448573 0.065867625 0.71300006
-0.078090481 0.065867625 0.71300006
-0.07651715 0.065682858 0.71100003
-0.075162865 0.065682858 0.71100003
-0.073704764 0.065590478 0.71000004
-0.072148576 0.065405719 0.708
-0.070700005 0.065313339 0.70700002
-0.069059052 0.065036193 0.70400006
-0.067621909 0.064943813 0.70300001
-0.066094287 0.064759053 0.70100003
-0.064759053 0.064759053 0.70100003
-0.06333334 0.064666674 0.70000005
-0.061822861 0.064481907 0.69800001
-0.06040667 0.064389527 0.69700003
-0.058909528 0.064204767 0.69500005
-0.057502862 0.064112388 0.69400001
-0.056180958 0.064112388 0.69400001
-0.054780003 0.064020008 0.69300002
-0.053305719 0.063835241 0.69100004
-0.051989526 0.063835241 0.69100004
-0.050600003 0.063742861 0.69000006
-0.049285717 0.063742861 0.69000006
-0.047901906 0.063650481 0.68900001
-0.046589527 0.063650481 0.68900001
-0.045277145 0.063650481 0.68900001
-0.043837145 0.063465722 0.68700004
-0.04246667 0.063373335 0.68600005
-0.041160002 0.063373335 0.68600005
-0.039737146 0.063188575 0.68400002
-0.038434289 0.063188575 0.68400002
-0.037131432 0.063188575 0.68400002
-0.035828575 0.063188575 0.68400002
-0.034475241 0.063096195 0.68300003
-0.033125717 0.063003816 0.68200004
-0.031733334 0.062819049 0.68000001
-0.030438097 0.062819049 0.68000001
-0.029100003 0.062726669 0.67900002
-0.027765715 0.062634289 0.67800003
-0.026474288 0.062634289 0.67800003
-0.025108574 0.06244953 0.67600006
-0.023820953 0.06244953 0.67600006
-0.022533335 0.06244953 0.67600006
-0.021214288 0.062357146 0.67500001
-0.019928573 0.062357146 0.67500001
-0.018642858 0.062357146 0.67500001
-0.017357145 0.062357146 0.67500001
-0.016071429 0.062357146 0.67500001
-0.014785715 0.062357146 0.67500001
-0.013480001 0.062264767 0.67400002
-0.012196192 0.062264767 0.67400002
-0.010912382 0.062264767 0.67400002
-0.0096285725 0.062264767 0.67400002
-0.008344762 0.062264767 0.67400002
-0.007060953 0.062264767 0.67400002
-0.0057771434 0.062264767 0.67400002
-0.0044933334 0.062264767 0.67400002
-0.0032000002 0.062080003 0.67200005
-0.0019200002 0.062080003 0.67200005
-0.00064190483 0.062264767 0.67400002
0.00064000004 0.062080003 0.67200005
0.0019200002 0.062080003 0.67200005
0.0032000002 0.062080003 0.67200005
0.0044933334 0.062264767 0.67400002
0.0057771434 0.062264767 0.67400002
0.007060953 0.062264767 0.67400002
0.008344762 0.062264767 0.67400002
0.0096285725 0.062264767 0.67400002
0.010912382 0.062264767 0.67400002
0.012196192 0.062264767 0.67400002
0.013480001 0.062264767 0.67400002
0.014763811 0.062264767 0.67400002
0.016047619 0.062264767 0.67400002
0.017357145 0.062357146 0.67500001
0.018642858 0.062357146 0.67500001
0.019928573 0.062357146 0.67500001
0.021182859 0.062264767 0.67400002
-0.083522864 0.067225717 0.71300006
-0.082164764 0.067225717 0.71300006
-0.080806673 0.067225717 0.71300006
-0.079448573 0.067225717 0.71300006
-0.078090481 0.067225717 0.71300006
-0.07673239 0.067225717 0.71300006
-0.075162865 0.06703715 0.71100003
-0.073704764 0.066942863 0.71000004
-0.072148576 0.066754289 0.708
-0.070800006 0.066754289 0.708
-0.069059052 0.066377148 0.70400006
-0.067718096 0.066377148 0.70400006
-0.066282861 0.066282861 0.70300001
-0.064759053 0.066094287 0.70100003
-0.06333334 0.066000007 0.70000005
-0.062000003 0.066000007 0.70000005
-0.06040667 0.065717146 0.69700003
-0.059079051 0.065717146 0.69700003
-0.057502862 0.065434292 0.69400001
-0.056180958 0.065434292 0.69400001
-0.054780003 0.065340005 0.69300002
-0.053305719 0.065151431 0.69100004
-0.05191429 0.065057144 0.69000006
-0.050600003 0.065057144 0.69000006
-0.049285717 0.065057144 0.69000006
-0.047901906 0.064962864 0.68900001
-0.046589527 0.064962864 0.68900001
-0.045277145 0.064962864 0.68900001
-0.043837145 0.06477429 0.68700004
-0.04246667 0.064680003 0.68600005
-0.041160002 0.064680003 0.68600005
-0.039737146 0.064491436 0.68400002
-0.038434289 0.064491436 0.68400002
-0.037131432 0.064491436 0.68400002
-0.035776194 0.064397149 0.68300003
-0.034424763 0.064302862 0.68200004
-0.033125717 0.064302862 0.68200004
-0.031733334 0.064114287 0.68000001
-0.030438097 0.064114287 0.68000001
-0.029100003 0.064020008 0.67900002
-0.027765715 0.063925721 0.67800003
-0.026396193 0.063737147 0.67600006
-0.025108574 0.063737147 0.67600006
-0.023820953 0.063737147 0.67600006
-0.022533335 0.063737147 0.67600006
-0.021214288 0.063642859 0.67500001
-0.019928573 0.063642859 0.67500001
-0.018642858 0.063642859 0.67500001
-0.017357145 0.063642859 0.67500001
-0.016071429 0.063642859 0.67500001
-0.014763811 0.063548572 0.67400002
-0.013480001 0.063548572 0.67400002
-0.012196192 0.063548572 0.67400002
-0.010912382 0.063548572 0.67400002
-0.0096285725 0.063548572 0.67400002
-0.008344762 0.063548572 0.67400002
-0.007060953 0.063548572 0.67400002
-0.0057771434 0.063548572 0.67400002
-0.0044800001 0.063360006 0.67200005
-0.0032000002 0.063360006 0.67200005
-0.0019200002 0.063360006 0.67200005
-0.00064000004 0.063360006 0.67200005
0.00064000004 0.063360006 0.67200005
0.0019200002 0.063360006 0.67200005
0.0031952383 0.063265719 0.671
0.0044800001 0.063360006 0.67200005
0.0057600006 0.063360006 0.67200005
0.0070400005 0.063360006 0.67200005
0.008320001 0.063360006 0.67200005
0.0096000005 0.063360006 0.67200005
0.010880001 0.063360006 0.67200005
0.01216 0.063360006 0.67200005
0.013440001 0.063360006 0.67200005
0.014763811 0.063548572 0.67400002
0.016047619 0.063548572 0.67400002
0.017331429 0.063548572 0.67400002
0.01861524 0.063548572 0.67400002
0.01989905 0.063548572 0.67400002
0.021120001 0.063360006 0.67200005
0.022400001 0.063360006 0.67200005
-0.083874293 0.068872385 0.71600002
-0.082510479 0.068872385 0.71600002
-0.081146672 0.068872385 0.71600002
-0.079560004 0.068680003 0.71400005
-0.078090481 0.068583816 0.71300006
-0.07673239 0.068583816 0.71300006
-0.075162865 0.068391435 0.71100003
-0.073704764 0.06829524 0.71000004
-0.072148576 0.068102859 0.708
-0.070800006 0.068102859 0.708
-0.069353335 0.068006672 0.70700002
-0.067718096 0.067718096 0.70400006
-0.066282861 0.067621909 0.70300001
-0.064943813 0.067621909 0.70300001
-0.063423812 0.067429528 0.70100003
-0.062000003 0.067333341 0.70000005
-0.060493339 0.067140959 0.69800001
-0.059079051 0.067044765 0.69700003
-0.057502862 0.066756196 0.69400001
-0.056180958 0.066756196 0.69400001
-0.054780003 0.066660002 0.69300002
-0.053305719 0.06646762 0.69100004
-0.051989526 0.06646762 0.69100004
-0.050600003 0.066371433 0.69000006
-0.049285717 0.066371433 0.69000006
-0.047901906 0.066275239 0.68900001
-0.046589527 0.066275239 0.68900001
-0.045277145 0.066275239 0.68900001
-0.043837145 0.066082865 0.68700004
-0.04246667 0.065986671 0.68600005
-0.041160002 0.065986671 0.68600005
-0.039737146 0.065794289 0.68400002
-0.038434289 0.065794289 0.68400002
-0.037131432 0.065794289 0.68400002
-0.035776194 0.065698102 0.68300003
-0.034424763 0.065601908 0.68200004
-0.033028573 0.065409526 0.68000001
-0.031733334 0.065409526 0.68000001
-0.030393336 0.065313339 0.67900002
-0.029100003 0.065313339 0.67900002
-0.027765715 0.065217145 0.67800003
-0.026396193 0.065024763 0.67600006
-0.025108574 0.065024763 0.67600006
-0.023785716 0.064928576 0.67500001
-0.022500001 0.064928576 0.67500001
-0.021214288 0.064928576 0.67500001
-0.019928573 0.064928576 0.67500001
-0.018642858 0.064928576 0.67500001
-0.017331429 0.064832382 0.67400002
-0.016047619 0.064832382 0.67400002
-0.014763811 0.064832382 0.67400002
-0.013480001 0.064832382 0.67400002
-0.012196192 0.064832382 0.67400002
-0.010880001 0.064640008 0.67200005
-0.0096285725 0.064832382 0.67400002
-0.008344762 0.064832382 0.67400002
-0.0070400005 0.064640008 0.67200005
-0.0057600006 0.064640008 0.67200005
-0.0044800001 0.064640008 0.67200005
-0.0031952383 0.064543813 0.671
-0.0019142858 0.064447626 0.67000002
-0.00063904765 0.064543813 0.671
0.00063809525 0.064447626 0.67000002
0.0019142858 0.064447626 0.67000002
0.0031904764 0.064447626 0.67000002
0.0044666668 0.064447626 0.67000002
0.0057514291 0.064543813 0.671
0.0070400005 0.064640008 0.67200005
0.00830762 0.064543813 0.671
0.0095857149 0.064543813 0.671
0.01086381 0.064543813 0.671
0.01216 0.064640008 0.67200005
0.013440001 0.064640008 0.67200005
0.014720001 0.064640008 0.67200005
0.016000001 0.064640008 0.67200005
0.017280001 0.064640008 0.67200005
0.018560002 0.064640008 0.67200005
0.019840002 0.064640008 0.67200005
0.021088572 0.064543813 0.671
0.022366669 0.064543813 0.671
0.023644764 0.064543813 0.671
0.024922859 0.064543813 0.671
0.026200954 0.064543813 0.671
-0.081260003 0.070334293 0.71700001
-0.079560004 0.070040002 0.71400005
-0.078200005 0.070040002 0.71400005
-0.07673239 0.069941908 0.71300006
-0.075162865 0.069745719 0.71100003
-0.073704764 0.069647625 0.71000004
-0.072352387 0.069647625 0.71000004
-0.070800006 0.069451436 0.708
-0.069353335 0.069353335 0.70700002
-0.067814291 0.069157146 0.70500004
-0.066377148 0.069059052 0.70400006
-0.064943813 0.068960957 0.70300001
-0.063604765 0.068960957 0.70300001
-0.062088575 0.068764769 0.70100003
-0.060666669 0.068666674 0.70000005
-0.059163813 0.068470478 0.69800001
-0.057585716 0.068176195 0.69500005
-0.056180958 0.068078101 0.69400001
-0.054780003 0.067980006 0.69300002
-0.053305719 0.067783818 0.69100004
-0.051989526 0.067783818 0.69100004
-0.050673336 0.067783818 0.69100004
-0.049285717 0.067685716 0.69000006
-0.047971431 0.067685716 0.69000006
-0.046589527 0.067587622 0.68900001
-0.045277145 0.067587622 0.68900001
-0.043837145 0.067391433 0.68700004
-0.04246667 0.067293338 0.68600005
-0.041160002 0.067293338 0.68600005
-0.039737146 0.06709715 0.68400002
-0.038434289 0.06709715 0.68400002
-0.037077144 0.066999055 0.68300003
-0.035776194 0.066999055 0.68300003
-0.034424763 0.066900954 0.68200004
-0.033028573 0.066704765 0.68000001
-0.031733334 0.066704765 0.68000001
-0.030393336 0.066606671 0.67900002
-0.029057145 0.066508576 0.67800003
-0.027683811 0.066312388 0.67600006
-0.026396193 0.066312388 0.67600006
-0.025071431 0.066214293 0.67500001
-0.023785716 0.066214293 0.67500001
-0.022500001 0.066214293 0.67500001
-0.021214288 0.066214293 0.67500001
-0.01989905 0.066116191 0.67400002
-0.01861524 0.066116191 0.67400002
-0.017331429 0.066116191 0.67400002
-0.016047619 0.066116191 0.67400002
-0.014763811 0.066116191 0.67400002
-0.013480001 0.066116191 0.67400002
-0.012196192 0.066116191 0.67400002
-0.010880001 0.065920003 0.67200005
-0.0096000005 0.065920003 0.67200005
-0.008320001 0.065920003 0.67200005
-0.0070400005 0.065920003 0.67200005
-0.0057600006 0.065920003 0.67200005
-0.0044733337 0.065821908 0.671
-0.0031952383 0.065821908 0.671
-0.0019142858 0.065723814 0.67000002
-0.00063714292 0.06562572 0.66900003
0.00063714292 0.06562572 0.66900003
0.0019114286 0.06562572 0.66900003
0.0031761907 0.065429531 0.66700006
0.0044600004 0.06562572 0.66900003
0.0057342863 0.06562572 0.66900003
0.0070190481 0.065723814 0.67000002
0.0082952389 0.065723814 0.67000002
0.0095714293 0.065723814 0.67000002
0.01084762 0.065723814 0.67000002
0.012141906 0.065821908 0.671
0.013420001 0.065821908 0.671
0.014698097 0.065821908 0.671
0.015976192 0.065821908 0.671
0.017280001 0.065920003 0.67200005
0.018560002 0.065920003 0.67200005
0.019840002 0.065920003 0.67200005
0.021088572 0.065821908 0.671
0.022366669 0.065821908 0.671
0.023644764 0.065821908 0.671
0.024922859 0.065821908 0.671
0.026200954 0.065821908 0.671
0.027520001 0.065920003 0.67200005
-0.079560004 0.071400002 0.71400005
-0.078200005 0.071400002 0.71400005
-0.07673239 0.071300007 0.71300006
-0.075162865 0.071100004 0.71100003
-0.073808573 0.071100004 0.71100003
-0.072352387 0.071000002 0.71000004
-0.071000002 0.071000002 0.71000004
-0.069353335 0.070700005 0.70700002
-0.067814291 0.070500001 0.70500004
-0.066377148 0.070400007 0.70400006
-0.065036193 0.070400007 0.70400006
-0.063604765 0.070300005 0.70300001
-0.06226572 0.070300005 0.70300001
-0.060666669 0.070000008 0.70000005
-0.059163813 0.069800004 0.69800001
-0.057502862 0.069400005 0.69400001
-0.056180958 0.069400005 0.69400001
-0.054780003 0.069300003 0.69300002
-0.053305719 0.069100007 0.69100004
-0.051989526 0.069100007 0.69100004
-0.050673336 0.069100007 0.69100004
-0.049285717 0.069000006 0.69000006
-0.047971431 0.069000006 0.69000006
-0.046589527 0.068900004 0.68900001
-0.045277145 0.068900004 0.68900001
-0.043837145 0.068700008 0.68700004
-0.04246667 0.068600006 0.68600005
-0.041160002 0.068600006 0.68600005
-0.039737146 0.068400003 0.68400002
-0.038434289 0.068400003 0.68400002
-0.037131432 0.068400003 0.68400002
-0.035776194 0.068300001 0.68300003
-0.034424763 0.068200007 0.68200004
-0.033028573 0.068000004 0.68000001
-0.031733334 0.068000004 0.68000001
-0.030393336 0.067900002 0.67900002
-0.029057145 0.067800008 0.67800003
-0.027683811 0.067600004 0.67600006
-0.026396193 0.067600004 0.67600006
-0.025071431 0.067500003 0.67500001
-0.023785716 0.067500003 0.67500001
-0.022500001 0.067500003 0.67500001
-0.021182859 0.067400001 0.67400002
-0.01989905 0.067400001 0.67400002
-0.01861524 0.067400001 0.67400002
-0.017331429 0.067400001 0.67400002
-0.016047619 0.067400001 0.67400002
-0.014720001 0.067200005 0.67200005
-0.013440001 0.067200005 0.67200005
-0.01216 0.067200005 0.67200005
-0.01086381 0.067100003 0.671
-0.0095857149 0.067100003 0.671
-0.00830762 0.067100003 0.671
-0.0070295241 0.067100003 0.671
-0.0057514291 0.067100003 0.671
-0.0044666668 0.067000002 0.67000002
-0.0031904764 0.067000002 0.67000002
-0.0019114286 0.066900007 0.66900003
-0.00063523813 0.066700004 0.66700006
0.00063428574 0.066600002 0.66600001
0.0019057144 0.066700004 0.66700006
0.0031714288 0.066600002 0.66600001
0.0044400003 0.066600002 0.66600001
0.0057171434 0.066700004 0.66700006
0.0069876197 0.066700004 0.66700006
0.0082828579 0.066900007 0.66900003
0.0095571438 0.066900007 0.66900003
0.01084762 0.067000002 0.67000002
0.012105715 0.066900007 0.66900003
0.013380001 0.066900007 0.66900003
0.014676192 0.067000002 0.67000002
0.015952382 0.067000002 0.67000002
0.017228572 0.067000002 0.67000002
0.018504763 0.067000002 0.67000002
0.019780954 0.067000002 0.67000002
0.021057144 0.067000002 0.67000002
0.022366669 0.067100003 0.671
0.023644764 0.067100003 0.671
0.024922859 0.067100003 0.671
0.026240002 0.067200005 0.67200005
0.027520001 0.067200005 0.67200005
0.028800001 0.067200005 0.67200005
-0.081260003 0.07306572 0.71700001
-0.078419052 0.072963811 0.71600002
-0.076840006 0.072760008 0.71400005
-0.07537429 0.072658099 0.71300006
-0.073808573 0.072454289 0.71100003
-0.072454289 0.072454289 0.71100003
-0.071000002 0.072352387 0.71000004
-0.069451436 0.072148576 0.708
-0.068006672 0.072046675 0.70700002
-0.066471435 0.071842864 0.70500004
-0.065128572 0.071842864 0.70500004
-0.063695244 0.071740955 0.70400006
-0.062354289 0.071740955 0.70400006
-0.060753338 0.071435243 0.70100003
-0.059333336 0.071333341 0.70000005
-0.057585716 0.070823811 0.69500005
-0.056180958 0.070721909 0.69400001
-0.054780003 0.070620008 0.69300002
-0.053460002 0.070620008 0.69300002
-0.051989526 0.070416197 0.69100004
-0.050673336 0.070416197 0.69100004
-0.049285717 0.070314288 0.69000006
-0.047971431 0.070314288 0.69000006
-0.046589527 0.070212387 0.68900001
-0.045277145 0.070212387 0.68900001
-0.043837145 0.070008576 0.68700004
-0.04246667 0.069906674 0.68600005
-0.041160002 0.069906674 0.68600005
-0.039737146 0.069702864 0.68400002
-0.038434289 0.069702864 0.68400002
-0.037077144 0.069600955 0.68300003
-0.035776194 0.069600955 0.68300003
-0.034424763 0.069499053 0.68200004
-0.033028573 0.069295242 0.68000001
-0.031686667 0.069193341 0.67900002
-0.030393336 0.069193341 0.67900002
-0.02897143 0.068887621 0.67600006
-0.027683811 0.068887621 0.67600006
-0.026357144 0.06878572 0.67500001
-0.025071431 0.06878572 0.67500001
-0.023785716 0.06878572 0.67500001
-0.022500001 0.06878572 0.67500001
-0.021182859 0.068683811 0.67400002
-0.01989905 0.068683811 0.67400002
-0.01861524 0.068683811 0.67400002
-0.017280001 0.068480007 0.67200005
-0.016000001 0.068480007 0.67200005
-0.014698097 0.068378098 0.671
-0.013440001 0.068480007 0.67200005
-0.012141906 0.068378098 0.671
-0.01084762 0.068276197 0.67000002
-0.0095714293 0.068276197 0.67000002
-0.0082952389 0.068276197 0.67000002
-0.0070190481 0.068276197 0.67000002
-0.0057428577 0.068276197 0.67000002
-0.0044600004 0.068174288 0.66900003
-0.0031857146 0.068174288 0.66900003
-0.0019028572 0.067868575 0.66600001
-0.00063428574 0.067868575 0.66600001
0.00063428574 0.067868575 0.66600001
0.0019028572 0.067868575 0.66600001
0.0031714288 0.067868575 0.66600001
0.0044400003 0.067868575 0.66600001
0.005708572 0.067868575 0.66600001
0.0069771432 0.067868575 0.66600001
0.0082580959 0.067970477 0.66700006
0.0095285717 0.067970477 0.66700006
0.010799048 0.067970477 0.66700006
0.012069524 0.067970477 0.66700006
0.013340001 0.067970477 0.66700006
0.014610477 0.067970477 0.66700006
0.015880954 0.067970477 0.66700006
0.01715143 0.067970477 0.66700006
0.018477144 0.068174288 0.66900003
0.01975143 0.068174288 0.66900003
0.021025715 0.068174288 0.66900003
0.022333335 0.068276197 0.67000002
0.023609525 0.068276197 0.67000002
0.024885716 0.068276197 0.67000002
0.026161907 0.068276197 0.67000002
0.027438097 0.068276197 0.67000002
0.028585717 0.067970477 0.66700006
0.029856192 0.067970477 0.66700006
-0.080117151 0.074639052 0.71900004
-0.078528576 0.074431434 0.71700001
-0.077055246 0.074327625 0.71600002
-0.075480007 0.074120007 0.71400005
-0.074016199 0.074016199 0.71300006
-0.072454289 0.073808573 0.71100003
-0.071100004 0.073808573 0.71100003
-0.069647625 0.073704764 0.71000004
-0.068006672 0.073393337 0.70700002
-0.066660002 0.073393337 0.70700002
-0.065128572 0.07318572 0.70500004
-0.063785717 0.07318572 0.70500004
-0.062354289 0.073081911 0.70400006
-0.060753338 0.072770484 0.70100003
-0.059333336 0.072666675 0.70000005
-0.057585716 0.072147623 0.69500005
-0.056180958 0.072043814 0.69400001
-0.05485905 0.072043814 0.69400001
-0.053460002 0.071940005 0.69300002
-0.051989526 0.071732387 0.69100004
-0.050673336 0.071732387 0.69100004
-0.049285717 0.071628578 0.69000006
-0.047971431 0.071628578 0.69000006
-0.046589527 0.071524769 0.68900001
-0.045277145 0.071524769 0.68900001
-0.043964766 0.071524769 0.68900001
-0.04246667 0.071213335 0.68600005
-0.041160002 0.071213335 0.68600005
-0.039737146 0.071005717 0.68400002
-0.038434289 0.071005717 0.68400002
-0.037077144 0.070901908 0.68300003
-0.035776194 0.070901908 0.68300003
-0.034424763 0.070798099 0.68200004
-0.033028573 0.070590481 0.68000001
-0.031686667 0.070486672 0.67900002
-0.030348573 0.070382863 0.67800003
-0.02897143 0.070175245 0.67600006
-0.027683811 0.070175245 0.67600006
-0.026357144 0.070071436 0.67500001
-0.025071431 0.070071436 0.67500001
-0.023750478 0.06996762 0.67400002
-0.022466669 0.06996762 0.67400002
-0.021182859 0.06996762 0.67400002
-0.01989905 0.06996762 0.67400002
-0.01861524 0.06996762 0.67400002
-0.017280001 0.069760002 0.67200005
-0.016000001 0.069760002 0.67200005
-0.014720001 0.069760002 0.67200005
-0.013440001 0.069760002 0.67200005
-0.012141906 0.069656193 0.671
-0.01084762 0.069552384 0.67000002
-0.0095714293 0.069552384 0.67000002
-0.0082952389 0.069552384 0.67000002
-0.0070085721 0.069448575 0.66900003
-0.0057342863 0.069448575 0.66900003
-0.0044600004 0.069448575 0.66900003
-0.0031857146 0.069448575 0.66900003
-0.0019028572 0.069137149 0.66600001
-0.0006333334 0.06903334 0.66500002
0.0006333334 0.06903334 0.66500002
0.0019028572 0.069137149 0.66600001
0.003166667 0.06903334 0.66500002
0.0044333334 0.06903334 0.66500002
0.0057000006 0.06903334 0.66500002
0.0069666672 0.06903334 0.66500002
0.0082457149 0.069137149 0.66600001
0.0095142862 0.069137149 0.66600001
0.010782857 0.069137149 0.66600001
0.01205143 0.069137149 0.66600001
0.013320001 0.069137149 0.66600001
0.014588572 0.069137149 0.66600001
0.015857143 0.069137149 0.66600001
0.017125715 0.069137149 0.66600001
0.018394288 0.069137149 0.66600001
0.019662859 0.069137149 0.66600001
0.020962859 0.069240957 0.66700006
0.022233335 0.069240957 0.66700006
0.023574287 0.069448575 0.66900003
0.024848573 0.069448575 0.66900003
0.026122859 0.069448575 0.66900003
0.027397145 0.069448575 0.66900003
0.028585717 0.069240957 0.66700006
0.029856192 0.069240957 0.66700006
-0.081360005 0.079920009 0.75600004
-0.07537429 0.07537429 0.71300006
-0.074016199 0.07537429 0.71300006
-0.072658099 0.07537429 0.71300006
-0.071100004 0.075162865 0.71100003
-0.069647625 0.075057149 0.71000004
-0.068006672 0.074740008 0.70700002
-0.066660002 0.074740008 0.70700002
-0.065313339 0.074740008 0.70700002
-0.063966669 0.074740008 0.70700002
-0.062354289 0.074422859 0.70400006
-0.060926672 0.07431715 0.70300001
-0.059333336 0.074000008 0.70000005
-0.057585716 0.073471434 0.69500005
-0.056261908 0.073471434 0.69500005
-0.05485905 0.073365718 0.69400001
-0.053537145 0.073365718 0.69400001
-0.052140005 0.073260002 0.69300002
-0.050673336 0.073048577 0.69100004
-0.049285717 0.07294286 0.69000006
-0.047971431 0.07294286 0.69000006
-0.046589527 0.072837144 0.68900001
