# .PCD v0.7 - Point Cloud Data file format
VERSION 0.7
FIELDS x y z
SIZE 4 4 4
TYPE F F F
COUNT 1 1 1
WIDTH 1310
HEIGHT 1
VIEWPOINT 0 0 0 1 0 0 0
POINTS 1310
DATA ascii
-0.043828573 -0.011462858 0.708
-0.042600002 -0.011495239 0.71000004
-0.041305717 -0.011511429 0.71100003
-0.040120002 -0.01156 0.71400005
-0.038760003 -0.01156 0.71400005
-0.037504766 -0.011592382 0.71600002
-0.03619143 -0.011608572 0.71700001
-0.034922861 -0.011640953 0.71900004
-0.033553336 -0.011640953 0.71900004
-0.032183811 -0.011640953 0.71900004
-0.030857146 -0.011657144 0.72000003
-0.029485716 -0.011657144 0.72000003
-0.028192382 -0.011689524 0.72200006
-0.026817145 -0.011689524 0.72200006
-0.025441907 -0.011689524 0.72200006
-0.024066668 -0.011689524 0.72200006
-0.022722859 -0.011705715 0.72300005
-0.021345716 -0.011705715 0.72300005
-0.019968573 -0.011705715 0.72300005
-0.01859143 -0.011705715 0.72300005
-0.017214287 -0.011705715 0.72300005
-0.015837144 -0.011705715 0.72300005
-0.014460001 -0.011705715 0.72300005
-0.013082858 -0.011705715 0.72300005
-0.011705715 -0.011705715 0.72300005
-0.010328572 -0.011705715 0.72300005
-0.0089514293 -0.011705715 0.72300005
-0.0075742863 -0.011705715 0.72300005
-0.0061885719 -0.011689524 0.72200006
-0.0048133335 -0.011689524 0.72200006
-0.0034285716 -0.011657144 0.72000003
-0.002057143 -0.011657144 0.72000003
-0.00068476197 -0.011640953 0.71900004
0.00068476197 -0.011640953 0.71900004
0.002054286 -0.011640953 0.71900004
0.0034238098 -0.011640953 0.71900004
0.0047800005 -0.011608572 0.71700001
0.0061371434 -0.011592382 0.71600002
0.0074800006 -0.01156 0.71400005
0.0088276193 -0.01154381 0.71300006
0.010157144 -0.011511429 0.71100003
0.011495239 -0.011495239 0.71000004
0.01281143 -0.011462858 0.708
0.014100001 -0.011414287 0.70500004
0.015442858 -0.011414287 0.70500004
0.016761906 -0.011398096 0.70400006
0.018102858 -0.011398096 0.70400006
0.01944381 -0.011398096 0.70400006
-0.054077145 -0.010014286 0.70100003
-0.052892383 -0.010042857 0.70300001
-0.051626671 -0.010057144 0.70400006
-0.050214291 -0.010042857 0.70300001
-0.048944764 -0.010057144 0.70400006
-0.047671434 -0.010071429 0.70500004
-0.046460003 -0.010100001 0.70700002
-0.045113336 -0.010100001 0.70700002
-0.043952383 -0.010142858 0.71000004
-0.042660002 -0.010157144 0.71100003
-0.041421909 -0.010185715 0.71300006
-0.040120002 -0.0102 0.71400005
-0.038868573 -0.010228572 0.71600002
-0.037557144 -0.010242858 0.71700001
-0.03619143 -0.010242858 0.71700001
-0.034922861 -0.010271429 0.71900004
-0.033553336 -0.010271429 0.71900004
-0.032183811 -0.010271429 0.71900004
-0.030857146 -0.010285715 0.72000003
-0.029567622 -0.010314287 0.72200006
-0.028192382 -0.010314287 0.72200006
-0.026817145 -0.010314287 0.72200006
-0.025477145 -0.010328572 0.72300005
-0.024100002 -0.010328572 0.72300005
-0.022722859 -0.010328572 0.72300005
-0.021345716 -0.010328572 0.72300005
-0.019968573 -0.010328572 0.72300005
-0.01859143 -0.010328572 0.72300005
-0.017261906 -0.010357143 0.72500002
-0.015880954 -0.010357143 0.72500002
-0.014460001 -0.010328572 0.72300005
-0.013119048 -0.010357143 0.72500002
-0.011738096 -0.010357143 0.72500002
-0.010328572 -0.010328572 0.72300005
-0.0089514293 -0.010328572 0.72300005
-0.0075742863 -0.010328572 0.72300005
-0.0061885719 -0.010314287 0.72200006
-0.0048133335 -0.010314287 0.72200006
-0.0034285716 -0.010285715 0.72000003
-0.002057143 -0.010285715 0.72000003
-0.0006857143 -0.010285715 0.72000003
0.0006857143 -0.010285715 0.72000003
0.002054286 -0.010271429 0.71900004
0.0034238098 -0.010271429 0.71900004
0.0047933338 -0.010271429 0.71900004
0.0061457148 -0.010242858 0.71700001
0.007500953 -0.010228572 0.71600002
0.0088276193 -0.010185715 0.71300006
0.010157144 -0.010157144 0.71100003
0.011511429 -0.010157144 0.71100003
0.01284762 -0.010142858 0.71000004
0.014140001 -0.010100001 0.70700002
0.015442858 -0.010071429 0.70500004
0.016785715 -0.010071429 0.70500004
0.018128572 -0.010071429 0.70500004
0.019416193 -0.010042857 0.70300001
-0.051700003 -0.0087285722 0.70500004
-0.050357144 -0.0087285722 0.70500004
-0.049014289 -0.0087285722 0.70500004
-0.047806669 -0.0087533342 0.70700002
-0.046460003 -0.0087533342 0.70700002
-0.045177147 -0.0087657152 0.708
-0.043952383 -0.0087904772 0.71000004
-0.042660002 -0.0088028582 0.71100003
-0.041421909 -0.0088276193 0.71300006
-0.040120002 -0.0088400003 0.71400005
-0.038868573 -0.0088647623 0.71600002
-0.037557144 -0.0088771433 0.71700001
-0.036292382 -0.0089019053 0.71900004
-0.034922861 -0.0089019053 0.71900004
-0.033600003 -0.0089142863 0.72000003
-0.032228574 -0.0089142863 0.72000003
-0.030942859 -0.0089390483 0.72200006
-0.029567622 -0.0089390483 0.72200006
-0.028192382 -0.0089390483 0.72200006
-0.026854288 -0.0089514293 0.72300005
-0.025477145 -0.0089514293 0.72300005
-0.024100002 -0.0089514293 0.72300005
-0.022722859 -0.0089514293 0.72300005
-0.021345716 -0.0089514293 0.72300005
-0.019968573 -0.0089514293 0.72300005
-0.018642858 -0.0089761913 0.72500002
-0.017261906 -0.0089761913 0.72500002
-0.015880954 -0.0089761913 0.72500002
-0.014500001 -0.0089761913 0.72500002
-0.013119048 -0.0089761913 0.72500002
-0.011738096 -0.0089761913 0.72500002
-0.010357143 -0.0089761913 0.72500002
-0.0089514293 -0.0089514293 0.72300005
-0.0075742863 -0.0089514293 0.72300005
-0.0061885719 -0.0089390483 0.72200006
-0.0048133335 -0.0089390483 0.72200006
-0.0034285716 -0.0089142863 0.72000003
-0.002057143 -0.0089142863 0.72000003
-0.0006857143 -0.0089142863 0.72000003
0.00068476197 -0.0089019053 0.71900004
0.002054286 -0.0089019053 0.71900004
0.0034238098 -0.0089019053 0.71900004
0.0047933338 -0.0089019053 0.71900004
0.0061457148 -0.0088771433 0.71700001
0.007500953 -0.0088647623 0.71600002
0.0088400003 -0.0088400003 0.71400005
0.010185715 -0.0088276193 0.71300006
0.011511429 -0.0088028582 0.71100003
0.01284762 -0.0087904772 0.71000004
0.014140001 -0.0087533342 0.70700002
0.015486668 -0.0087533342 0.70700002
0.016833335 -0.0087533342 0.70700002
0.018128572 -0.0087285722 0.70500004
0.01944381 -0.0087161912 0.70400006
-0.053042859 -0.0073857149 0.70500004
-0.051700003 -0.0073857149 0.70500004
-0.050357144 -0.0073857149 0.70500004
-0.049153335 -0.0074066673 0.70700002
-0.047806669 -0.0074066673 0.70700002
-0.046460003 -0.0074066673 0.70700002
-0.045177147 -0.0074171433 0.708
-0.04401429 -0.0074485717 0.71100003
-0.042780004 -0.0074695242 0.71300006
-0.041480001 -0.0074800006 0.71400005
-0.040232383 -0.007500953 0.71600002
-0.038922861 -0.007511429 0.71700001
-0.037557144 -0.007511429 0.71700001
-0.036292382 -0.0075323815 0.71900004
-0.034971431 -0.0075428574 0.72000003
-0.033600003 -0.0075428574 0.72000003
-0.032318097 -0.0075638099 0.72200006
-0.030985717 -0.0075742863 0.72300005
-0.029608574 -0.0075742863 0.72300005
-0.028231431 -0.0075742863 0.72300005
-0.026854288 -0.0075742863 0.72300005
-0.025477145 -0.0075742863 0.72300005
-0.024100002 -0.0075742863 0.72300005
-0.022785716 -0.0075952387 0.72500002
-0.021404764 -0.0075952387 0.72500002
-0.020023812 -0.0075952387 0.72500002
-0.018642858 -0.0075952387 0.72500002
-0.017261906 -0.0075952387 0.72500002
-0.015880954 -0.0075952387 0.72500002
-0.014500001 -0.0075952387 0.72500002
-0.013119048 -0.0075952387 0.72500002
-0.011738096 -0.0075952387 0.72500002
-0.010357143 -0.0075952387 0.72500002
-0.0089514293 -0.0075742863 0.72300005
-0.0075742863 -0.0075742863 0.72300005
-0.0061885719 -0.0075638099 0.72200006
-0.0048133335 -0.0075638099 0.72200006
-0.0034380956 -0.0075638099 0.72200006
-0.002057143 -0.0075428574 0.72000003
-0.0006857143 -0.0075428574 0.72000003
0.0006857143 -0.0075428574 0.72000003
0.002054286 -0.0075323815 0.71900004
0.0034238098 -0.0075323815 0.71900004
0.0047933338 -0.0075323815 0.71900004
0.0061457148 -0.007511429 0.71700001
0.007500953 -0.007500953 0.71600002
0.0088647623 -0.007500953 0.71600002
0.010185715 -0.0074695242 0.71300006
0.01154381 -0.0074695242 0.71300006
0.01284762 -0.0074380958 0.71000004
0.014160001 -0.0074171433 0.708
0.015486668 -0.0074066673 0.70700002
0.016833335 -0.0074066673 0.70700002
0.018180002 -0.0074066673 0.70700002
0.019526668 -0.0074066673 0.70700002
-0.053042859 -0.0060428577 0.70500004
-0.051700003 -0.0060428577 0.70500004
-0.050500002 -0.0060600005 0.70700002
-0.049153335 -0.0060600005 0.70700002
-0.047806669 -0.0060600005 0.70700002
-0.046525717 -0.0060685719 0.708
-0.045304764 -0.0060857148 0.71000004
-0.04401429 -0.0060942862 0.71100003
-0.042780004 -0.0061114291 0.71300006
-0.041480001 -0.0061200005 0.71400005
-0.040232383 -0.0061371434 0.71600002
-0.038922861 -0.0061457148 0.71700001
-0.037661906 -0.0061628576 0.71900004
-0.036292382 -0.0061628576 0.71900004
-0.034971431 -0.0061714291 0.72000003
-0.033693336 -0.0061885719 0.72200006
-0.03236286 -0.0061971433 0.72300005
-0.030985717 -0.0061971433 0.72300005
-0.029608574 -0.0061971433 0.72300005
-0.028231431 -0.0061971433 0.72300005
-0.026928574 -0.0062142862 0.72500002
-0.02554762 -0.0062142862 0.72500002
-0.024166668 -0.0062142862 0.72500002
-0.022785716 -0.0062142862 0.72500002
-0.021404764 -0.0062142862 0.72500002
-0.020023812 -0.0062142862 0.72500002
-0.018668573 -0.0062228576 0.72600001
-0.017285716 -0.0062228576 0.72600001
-0.015902858 -0.0062228576 0.72600001
-0.014520001 -0.0062228576 0.72600001
-0.013119048 -0.0062142862 0.72500002
-0.011738096 -0.0062142862 0.72500002
-0.010357143 -0.0062142862 0.72500002
-0.0089761913 -0.0062142862 0.72500002
-0.0075952387 -0.0062142862 0.72500002
-0.0061971433 -0.0061971433 0.72300005
-0.0048200004 -0.0061971433 0.72300005
-0.0034380956 -0.0061885719 0.72200006
-0.002057143 -0.0061714291 0.72000003
-0.0006857143 -0.0061714291 0.72000003
0.0006857143 -0.0061714291 0.72000003
0.002054286 -0.0061628576 0.71900004
0.0034238098 -0.0061628576 0.71900004
0.0047933338 -0.0061628576 0.71900004
0.0061457148 -0.0061457148 0.71700001
0.007511429 -0.0061457148 0.71700001
0.0088647623 -0.0061371434 0.71600002
0.010228572 -0.0061371434 0.71600002
0.01156 -0.0061200005 0.71400005
0.012865715 -0.0060942862 0.71100003
0.014200001 -0.0060857148 0.71000004
0.015552382 -0.0060857148 0.71000004
0.016904764 -0.0060857148 0.71000004
-0.051700003 -0.0047000004 0.70500004
-0.050500002 -0.0047133337 0.70700002
-0.049153335 -0.0047133337 0.70700002
-0.047806669 -0.0047133337 0.70700002
-0.046525717 -0.0047200001 0.708
-0.045304764 -0.0047333338 0.71000004
-0.04401429 -0.0047400002 0.71100003
-0.042780004 -0.0047533335 0.71300006
-0.041480001 -0.0047600004 0.71400005
-0.040288575 -0.0047800005 0.71700001
-0.038922861 -0.0047800005 0.71700001
-0.037661906 -0.0047933338 0.71900004
-0.036292382 -0.0047933338 0.71900004
-0.034971431 -0.0048000002 0.72000003
-0.033693336 -0.0048133335 0.72200006
-0.03236286 -0.0048200004 0.72300005
-0.030985717 -0.0048200004 0.72300005
-0.029608574 -0.0048200004 0.72300005
-0.028231431 -0.0048200004 0.72300005
-0.026928574 -0.0048333337 0.72500002
-0.02554762 -0.0048333337 0.72500002
-0.024166668 -0.0048333337 0.72500002
-0.022785716 -0.0048333337 0.72500002
-0.021404764 -0.0048333337 0.72500002
-0.020051429 -0.0048400005 0.72600001
-0.018668573 -0.0048400005 0.72600001
-0.017285716 -0.0048400005 0.72600001
-0.015902858 -0.0048400005 0.72600001
-0.014520001 -0.0048400005 0.72600001
-0.013137144 -0.0048400005 0.72600001
-0.011754286 -0.0048400005 0.72600001
-0.010357143 -0.0048333337 0.72500002
-0.0089761913 -0.0048333337 0.72500002
-0.0075952387 -0.0048333337 0.72500002
-0.0061971433 -0.0048200004 0.72300005
-0.0048200004 -0.0048200004 0.72300005
-0.0034428574 -0.0048200004 0.72300005
-0.0020628574 -0.0048133335 0.72200006
-0.00068761909 -0.0048133335 0.72200006
0.0006857143 -0.0048000002 0.72000003
0.002057143 -0.0048000002 0.72000003
0.0034238098 -0.0047933338 0.71900004
0.0047933338 -0.0047933338 0.71900004
0.0061457148 -0.0047800005 0.71700001
0.007511429 -0.0047800005 0.71700001
0.0088771433 -0.0047800005 0.71700001
0.0102 -0.0047600004 0.71400005
0.01156 -0.0047600004 0.71400005
0.012901906 -0.0047533335 0.71300006
0.014220001 -0.0047400002 0.71100003
0.015574287 -0.0047400002 0.71100003
0.016904764 -0.0047333338 0.71000004
-0.050357144 -0.0033571431 0.70500004
-0.049014289 -0.0033571431 0.70500004
-0.047671434 -0.0033571431 0.70500004
-0.046460003 -0.0033666668 0.70700002
-0.045177147 -0.0033714287 0.708
-0.04401429 -0.0033857145 0.71100003
-0.042780004 -0.0033952384 0.71300006
-0.041480001 -0.0034000003 0.71400005
-0.040288575 -0.0034142858 0.71700001
-0.039031431 -0.0034238098 0.71900004
-0.037661906 -0.0034238098 0.71900004
-0.036342859 -0.0034285716 0.72000003
-0.035068575 -0.0034380956 0.72200006
-0.033740003 -0.0034428574 0.72300005
-0.03236286 -0.0034428574 0.72300005
-0.03107143 -0.0034523811 0.72500002
-0.029690478 -0.0034523811 0.72500002
-0.028309526 -0.0034523811 0.72500002
-0.026928574 -0.0034523811 0.72500002
-0.02554762 -0.0034523811 0.72500002
-0.024166668 -0.0034523811 0.72500002
-0.022817144 -0.003457143 0.72600001
-0.021434287 -0.003457143 0.72600001
-0.020051429 -0.003457143 0.72600001
-0.018668573 -0.003457143 0.72600001
-0.017333334 -0.0034666669 0.72800004
-0.015946668 -0.0034666669 0.72800004
-0.014560001 -0.0034666669 0.72800004
-0.013137144 -0.003457143 0.72600001
-0.011754286 -0.003457143 0.72600001
-0.010371429 -0.003457143 0.72600001
-0.0089885723 -0.003457143 0.72600001
-0.0075952387 -0.0034523811 0.72500002
-0.0062142862 -0.0034523811 0.72500002
-0.0048200004 -0.0034428574 0.72300005
-0.0034428574 -0.0034428574 0.72300005
-0.0020628574 -0.0034380956 0.72200006
-0.00068761909 -0.0034380956 0.72200006
0.00068761909 -0.0034380956 0.72200006
0.002057143 -0.0034285716 0.72000003
0.0034238098 -0.0034238098 0.71900004
0.0047933338 -0.0034238098 0.71900004
0.0061628576 -0.0034238098 0.71900004
0.0075323815 -0.0034238098 0.71900004
0.0088771433 -0.0034142858 0.71700001
0.010228572 -0.003409524 0.71600002
0.01154381 -0.0033952384 0.71300006
0.015574287 -0.0033857145 0.71100003
-0.051700003 -0.0020142859 0.70500004
-0.050357144 -0.0020142859 0.70500004
-0.049014289 -0.0020142859 0.70500004
-0.047671434 -0.0020142859 0.70500004
-0.046460003 -0.0020200002 0.70700002
-0.045177147 -0.0020228573 0.708
-0.042780004 -0.0020371431 0.71300006
-0.041596193 -0.0020457145 0.71600002
-0.040288575 -0.0020485716 0.71700001
-0.039031431 -0.002054286 0.71900004
-0.037661906 -0.002054286 0.71900004
-0.036342859 -0.002057143 0.72000003
-0.034971431 -0.002057143 0.72000003
-0.033740003 -0.0020657144 0.72300005
-0.03236286 -0.0020657144 0.72300005
-0.03107143 -0.0020714288 0.72500002
-0.029690478 -0.0020714288 0.72500002
-0.028309526 -0.0020714288 0.72500002
-0.026928574 -0.0020714288 0.72500002
-0.025582859 -0.0020742859 0.72600001
-0.024200002 -0.0020742859 0.72600001
-0.022817144 -0.0020742859 0.72600001
-0.021493334 -0.0020800002 0.72800004
-0.020106668 -0.0020800002 0.72800004
-0.018720001 -0.0020800002 0.72800004
-0.017333334 -0.0020800002 0.72800004
-0.015946668 -0.0020800002 0.72800004
-0.014560001 -0.0020800002 0.72800004
-0.013173334 -0.0020800002 0.72800004
-0.011786668 -0.0020800002 0.72800004
-0.010371429 -0.0020742859 0.72600001
-0.0089885723 -0.0020742859 0.72600001
-0.0076057147 -0.0020742859 0.72600001
-0.0062228576 -0.0020742859 0.72600001
-0.0048333337 -0.0020714288 0.72500002
-0.0034428574 -0.0020657144 0.72300005
-0.0020657144 -0.0020657144 0.72300005
-0.00068857148 -0.0020657144 0.72300005
0.00068761909 -0.0020628574 0.72200006
0.0020628574 -0.0020628574 0.72200006
0.0034285716 -0.002057143 0.72000003
0.0048000002 -0.002057143 0.72000003
0.0061628576 -0.002054286 0.71900004
0.0075323815 -0.002054286 0.71900004
0.0088771433 -0.0020485716 0.71700001
-0.040288575 -0.00068285718 0.71700001
-0.039031431 -0.00068476197 0.71900004
-0.037661906 -0.00068476197 0.71900004
-0.036342859 -0.0006857143 0.72000003
-0.035068575 -0.00068761909 0.72200006
-0.033740003 -0.00068857148 0.72300005
-0.032452382 -0.00069047621 0.72500002
-0.03107143 -0.00069047621 0.72500002
-0.029690478 -0.00069047621 0.72500002
-0.028309526 -0.00069047621 0.72500002
-0.026965717 -0.00069142861 0.72600001
-0.025582859 -0.00069142861 0.72600001
-0.024200002 -0.00069142861 0.72600001
-0.022880001 -0.00069333339 0.72800004
-0.021493334 -0.00069333339 0.72800004
-0.020106668 -0.00069333339 0.72800004
-0.018745715 -0.00069428579 0.72900003
-0.017357145 -0.00069428579 0.72900003
-0.015968572 -0.00069428579 0.72900003
-0.014580001 -0.00069428579 0.72900003
-0.013173334 -0.00069333339 0.72800004
-0.011786668 -0.00069333339 0.72800004
-0.010400001 -0.00069333339 0.72800004
-0.0090133343 -0.00069333339 0.72800004
-0.0076266672 -0.00069333339 0.72800004
-0.0062228576 -0.00069142861 0.72600001
-0.0048333337 -0.00069047621 0.72500002
-0.0034523811 -0.00069047621 0.72500002
-0.0020657144 -0.00068857148 0.72300005
-0.00068857148 -0.00068857148 0.72300005
0.00068857148 -0.00068857148 0.72300005
0.0020628574 -0.00068761909 0.72200006
0.0034285716 -0.0006857143 0.72000003
0.0048000002 -0.0006857143 0.72000003
0.0061628576 -0.00068476197 0.71900004
0.0075323815 -0.00068476197 0.71900004
-0.039031431 0.00068476197 0.71900004
-0.037661906 0.00068476197 0.71900004
-0.036342859 0.0006857143 0.72000003
-0.034971431 0.0006857143 0.72000003
-0.033740003 0.00068857148 0.72300005
-0.032452382 0.00069047621 0.72500002
-0.031114288 0.00069142861 0.72600001
-0.02973143 0.00069142861 0.72600001
-0.028348573 0.00069142861 0.72600001
-0.026965717 0.00069142861 0.72600001
-0.025582859 0.00069142861 0.72600001
-0.024200002 0.00069142861 0.72600001
-0.022880001 0.00069333339 0.72800004
-0.021493334 0.00069333339 0.72800004
-0.020134287 0.00069428579 0.72900003
-0.018745715 0.00069428579 0.72900003
-0.017357145 0.00069428579 0.72900003
-0.015968572 0.00069428579 0.72900003
-0.014580001 0.00069428579 0.72900003
-0.01319143 0.00069428579 0.72900003
-0.011802858 0.00069428579 0.72900003
-0.010400001 0.00069333339 0.72800004
-0.0090133343 0.00069333339 0.72800004
-0.0076266672 0.00069333339 0.72800004
-0.0062400005 0.00069333339 0.72800004
-0.0048333337 0.00069047621 0.72500002
-0.0034523811 0.00069047621 0.72500002
-0.0020714288 0.00069047621 0.72500002
-0.00069047621 0.00069047621 0.72500002
0.00068857148 0.00068857148 0.72300005
0.0020657144 0.00068857148 0.72300005
0.0030809527 0.00061619049 0.64700001
0.0043133334 0.00061619049 0.64700001
-0.036804765 0.0018714287 0.65500003
-0.035448574 0.0018657144 0.65300006
-0.034204762 0.0018657144 0.65300006
-0.033740003 0.0020657144 0.72300005
-0.032452382 0.0020714288 0.72500002
-0.031114288 0.0020742859 0.72600001
-0.02973143 0.0020742859 0.72600001
-0.028348573 0.0020742859 0.72600001
-0.026965717 0.0020742859 0.72600001
-0.025582859 0.0020742859 0.72600001
-0.024266668 0.0020800002 0.72800004
-0.022880001 0.0020800002 0.72800004
-0.021522859 0.0020828573 0.72900003
-0.020134287 0.0020828573 0.72900003
-0.018797144 0.0020885717 0.73100001
-0.017404763 0.0020885717 0.73100001
-0.016012382 0.0020885717 0.73100001
-0.01462 0.0020885717 0.73100001
-0.01319143 0.0020828573 0.72900003
-0.011802858 0.0020828573 0.72900003
-0.010414287 0.0020828573 0.72900003
-0.0090257153 0.0020828573 0.72900003
-0.0076371431 0.0020828573 0.72900003
-0.0062400005 0.0020800002 0.72800004
-0.0048400005 0.0020742859 0.72600001
-0.003457143 0.0020742859 0.72600001
-0.0020742859 0.0020742859 0.72600001
-0.00061714288 0.0018514286 0.648
0.00061714288 0.0018514286 0.648
0.001857143 0.001857143 0.65000004
0.0030857145 0.0018514286 0.648
0.0043200003 0.0018514286 0.648
-0.036804765 0.0031190477 0.65500003
-0.035448574 0.003109524 0.65300006
-0.034204762 0.003109524 0.65300006
-0.032960955 0.003109524 0.65300006
-0.031668574 0.0031047622 0.65200001
-0.03107143 0.0034523811 0.72500002
-0.02973143 0.003457143 0.72600001
-0.028348573 0.003457143 0.72600001
-0.026965717 0.003457143 0.72600001
-0.025582859 0.003457143 0.72600001
-0.024266668 0.0034666669 0.72800004
-0.022911429 0.0034714288 0.72900003
-0.021522859 0.0034714288 0.72900003
-0.020189526 0.0034809527 0.73100001
-0.018797144 0.0034809527 0.73100001
-0.017404763 0.0034809527 0.73100001
-0.016012382 0.0034809527 0.73100001
-0.01462 0.0034809527 0.73100001
-0.01322762 0.0034809527 0.73100001
-0.011835239 0.0034809527 0.73100001
-0.010414287 0.0034714288 0.72900003
-0.0090257153 0.0034714288 0.72900003
-0.0076371431 0.0034714288 0.72900003
-0.0062400005 0.0034666669 0.72800004
-0.0048533338 0.0034666669 0.72800004
-0.0030857145 0.0030857145 0.648
-0.0018514286 0.0030857145 0.648
-0.00061714288 0.0030857145 0.648
0.00061904767 0.0030952382 0.65000004
0.0018600001 0.0031000001 0.65100002
0.0031000001 0.0031000001 0.65100002
0.0043333336 0.0030952382 0.65000004
0.0055714292 0.0030952382 0.65000004
0.0068200002 0.0031000001 0.65100002
-0.036860954 0.0043733334 0.65600002
-0.035557143 0.004366667 0.65500003
-0.034204762 0.0043533337 0.65300006
-0.032960955 0.0043533337 0.65300006
-0.031717144 0.0043533337 0.65300006
-0.030473335 0.0043533337 0.65300006
-0.029229525 0.0043533337 0.65300006
-0.027942859 0.0043466669 0.65200001
-0.026537145 0.0043200003 0.648
-0.025302859 0.0043200003 0.648
-0.024068573 0.0043200003 0.648
-0.023010477 0.0043533337 0.65300006
-0.021766668 0.0043533337 0.65300006
-0.020189526 0.0048733335 0.73100001
-0.018797144 0.0048733335 0.73100001
-0.015428573 0.0043200003 0.648
-0.014194286 0.0043200003 0.648
-0.012960001 0.0043200003 0.648
-0.011725715 0.0043200003 0.648
-0.010491429 0.0043200003 0.648
-0.0092571434 0.0043200003 0.648
-0.0080104768 0.0043133334 0.64700001
-0.0055542863 0.0043200003 0.648
-0.0043133334 0.0043133334 0.64700001
-0.0030857145 0.0043200003 0.648
-0.0018514286 0.0043200003 0.648
-0.00061714288 0.0043200003 0.648
0.00061714288 0.0043200003 0.648
0.001857143 0.0043333336 0.65000004
0.0031000001 0.0043400005 0.65100002
0.0043333336 0.0043333336 0.65000004
0.0055800006 0.0043400005 0.65100002
0.0068200002 0.0043400005 0.65100002
0.0080847628 0.0043533337 0.65300006
-0.038168576 0.0056314291 0.65700001
-0.036860954 0.0056228577 0.65600002
-0.035557143 0.0056142863 0.65500003
-0.034204762 0.0055971434 0.65300006
-0.032960955 0.0055971434 0.65300006
-0.031717144 0.0055971434 0.65300006
-0.030473335 0.0055971434 0.65300006
-0.029229525 0.0055971434 0.65300006
-0.027942859 0.005588572 0.65200001
-0.026619049 0.0055714292 0.65000004
-0.025380954 0.0055714292 0.65000004
-0.02414286 0.0055714292 0.65000004
-0.021733334 0.005588572 0.65200001
-0.020428572 0.0055714292 0.65000004
-0.019190477 0.0055714292 0.65000004
-0.017952383 0.0055714292 0.65000004
-0.016662858 0.0055542863 0.648
-0.015428573 0.0055542863 0.648
-0.014194286 0.0055542863 0.648
-0.012960001 0.0055542863 0.648
-0.011725715 0.0055542863 0.648
-0.010491429 0.0055542863 0.648
-0.0092571434 0.0055542863 0.648
-0.0080228578 0.0055542863 0.648
-0.0067885718 0.0055542863 0.648
-0.0055714292 0.0055714292 0.65000004
-0.0043333336 0.0055714292 0.65000004
-0.0031047622 0.005588572 0.65200001
-0.0018628573 0.005588572 0.65200001
-0.00061904767 0.0055714292 0.65000004
0.00061904767 0.0055714292 0.65000004
0.0018628573 0.005588572 0.65200001
0.0031047622 0.005588572 0.65200001
0.0043400005 0.0055800006 0.65100002
0.0055800006 0.0055800006 0.65100002
0.0068304767 0.005588572 0.65200001
0.0081095239 0.0056142863 0.65500003
-0.049793337 0.0071133338 0.67900002
-0.044160005 0.0070400005 0.67200005
-0.042816192 0.0070295241 0.671
-0.041414287 0.0070085721 0.66900003
-0.040020004 0.0069876197 0.66700006
-0.038633335 0.0069666672 0.66500002
-0.036860954 0.0068723815 0.65600002
-0.035611432 0.0068723815 0.65600002
-0.034309525 0.0068619051 0.65500003
-0.032960955 0.0068409527 0.65300006
-0.031717144 0.0068409527 0.65300006
-0.030473335 0.0068409527 0.65300006
-0.029229525 0.0068409527 0.65300006
-0.027985716 0.0068409527 0.65300006
-0.026700955 0.0068304767 0.65200001
-0.025380954 0.0068095243 0.65000004
-0.02414286 0.0068095243 0.65000004
-0.022834288 0.0067885718 0.648
-0.021666668 0.0068095243 0.65000004
-0.020428572 0.0068095243 0.65000004
-0.019190477 0.0068095243 0.65000004
-0.017952383 0.0068095243 0.65000004
-0.016662858 0.0067885718 0.648
-0.015428573 0.0067885718 0.648
-0.014194286 0.0067885718 0.648
-0.012960001 0.0067885718 0.648
-0.011725715 0.0067885718 0.648
-0.010491429 0.0067885718 0.648
-0.0092571434 0.0067885718 0.648
-0.0080476198 0.0068095243 0.65000004
-0.0068095243 0.0068095243 0.65000004
-0.0055714292 0.0068095243 0.65000004
-0.0043400005 0.0068200002 0.65100002
-0.0031047622 0.0068304767 0.65200001
-0.0018600001 0.0068200002 0.65100002
-0.00062000006 0.0068200002 0.65100002
0.0006209524 0.0068304767 0.65200001
0.0018657144 0.0068409527 0.65300006
0.003109524 0.0068409527 0.65300006
0.0043466669 0.0068304767 0.65200001
0.0055971434 0.0068409527 0.65300006
0.0068409527 0.0068409527 0.65300006
0.0081095239 0.0068619051 0.65500003
0.0093571432 0.0068619051 0.65500003
-0.077942863 0.010895239 0.88000005
-0.076093338 0.010870477 0.87800002
-0.045440003 0.008320001 0.67200005
-0.044094287 0.00830762 0.671
-0.042752385 0.0082952389 0.67000002
-0.041414287 0.0082828579 0.66900003
-0.040020004 0.0082580959 0.66700006
-0.038691431 0.0082457149 0.66600001
-0.037254289 0.0082085719 0.66300005
-0.03588286 0.0081838099 0.66100001
-0.034466669 0.0081466669 0.65800005
-0.033162858 0.0081342859 0.65700001
-0.031814288 0.0081095239 0.65500003
-0.030566668 0.0081095239 0.65500003
-0.02931905 0.0081095239 0.65500003
-0.027985716 0.0080847628 0.65300006
-0.026741907 0.0080847628 0.65300006
-0.025498098 0.0080847628 0.65300006
-0.024254287 0.0080847628 0.65300006
-0.02297524 0.0080723818 0.65200001
-0.021733334 0.0080723818 0.65200001
-0.020428572 0.0080476198 0.65000004
-0.019190477 0.0080476198 0.65000004
-0.017952383 0.0080476198 0.65000004
-0.016714286 0.0080476198 0.65000004
-0.015476191 0.0080476198 0.65000004
-0.014238096 0.0080476198 0.65000004
-0.013000001 0.0080476198 0.65000004
-0.011761906 0.0080476198 0.65000004
-0.01052381 0.0080476198 0.65000004
-0.0092857145 0.0080476198 0.65000004
-0.0080476198 0.0080476198 0.65000004
-0.0068200002 0.0080600008 0.65100002
-0.005588572 0.0080723818 0.65200001
-0.0043466669 0.0080723818 0.65200001
-0.003109524 0.0080847628 0.65300006
-0.0018657144 0.0080847628 0.65300006
-0.00062190479 0.0080847628 0.65300006
0.00062380958 0.0081095239 0.65500003
0.0018742859 0.0081219049 0.65600002
0.0031238098 0.0081219049 0.65600002
0.0043733334 0.0081219049 0.65600002
0.0056314291 0.0081342859 0.65700001
0.006893334 0.0081466669 0.65800005
0.0081466669 0.0081466669 0.65800005
0.0094000008 0.0081466669 0.65800005
-0.075833336 0.012500001 0.87500006
-0.04821429 0.0096428581 0.67500001
-0.046859052 0.0096285725 0.67400002
-0.045440003 0.0096000005 0.67200005
-0.044094287 0.0095857149 0.671
-0.042752385 0.0095714293 0.67000002
-0.041414287 0.0095571438 0.66900003
-0.040020004 0.0095285717 0.66700006
-0.038691431 0.0095142862 0.66600001
-0.03736667 0.0095000006 0.66500002
-0.035937145 0.009457143 0.66200006
-0.034571432 0.0094285719 0.66000003
-0.033213336 0.0094000008 0.65800005
-0.031862859 0.0093714288 0.65600002
-0.030613335 0.0093714288 0.65600002
-0.029363811 0.0093714288 0.65600002
-0.02807143 0.0093571432 0.65500003
-0.026823811 0.0093571432 0.65500003
-0.025498098 0.0093285721 0.65300006
-0.024254287 0.0093285721 0.65300006
-0.023010477 0.0093285721 0.65300006
-0.021766668 0.0093285721 0.65300006
-0.020491431 0.0093142865 0.65200001
-0.019220002 0.009300001 0.65100002
-0.017980002 0.009300001 0.65100002
-0.016740002 0.009300001 0.65100002
-0.015500001 0.009300001 0.65100002
-0.014260001 0.009300001 0.65100002
-0.01302 0.009300001 0.65100002
-0.011780001 0.009300001 0.65100002
-0.010540001 0.009300001 0.65100002
-0.0093142865 0.0093142865 0.65200001
-0.0080723818 0.0093142865 0.65200001
-0.0068304767 0.0093142865 0.65200001
-0.0055971434 0.0093285721 0.65300006
-0.0043533337 0.0093285721 0.65300006
-0.0031190477 0.0093571432 0.65500003
-0.0018657144 0.0093285721 0.65300006
-0.00062380958 0.0093571432 0.65500003
0.00062476192 0.0093714288 0.65600002
0.0018771429 0.0093857152 0.65700001
0.0031238098 0.0093714288 0.65600002
0.0043800003 0.0093857152 0.65700001
0.0056400006 0.0094000008 0.65800005
0.0069142859 0.0094285719 0.66000003
0.0081714289 0.0094285719 0.66000003
0.0094428575 0.0094428575 0.66100001
0.010766667 0.0095000006 0.66500002
0.012069524 0.0095285717 0.66700006
0.013400001 0.0095714293 0.67000002
0.014698097 0.0095857149 0.671
0.015952382 0.0095714293 0.67000002
-0.04821429 0.010928572 0.67500001
-0.046859052 0.010912382 0.67400002
-0.045372386 0.01086381 0.671
-0.044028573 0.01084762 0.67000002
-0.042688575 0.01083143 0.66900003
-0.041414287 0.01083143 0.66900003
-0.040020004 0.010799048 0.66700006
-0.038691431 0.010782857 0.66600001
-0.037422858 0.010782857 0.66600001
-0.03599143 0.010734286 0.66300005
-0.034676194 0.010718096 0.66200006
-0.033364765 0.010701905 0.66100001
-0.031960003 0.010653334 0.65800005
-0.030660002 0.010637144 0.65700001
-0.029408574 0.010637144 0.65700001
-0.028114287 0.010620954 0.65600002
-0.026864763 0.010620954 0.65600002
-0.02561524 0.010620954 0.65600002
-0.024365716 0.010620954 0.65600002
-0.023080954 0.010604762 0.65500003
-0.021833334 0.010604762 0.65500003
-0.020585716 0.010604762 0.65500003
-0.019249525 0.010556191 0.65200001
-0.018007619 0.010556191 0.65200001
-0.016740002 0.010540001 0.65100002
-0.015500001 0.010540001 0.65100002
-0.014260001 0.010540001 0.65100002
-0.01302 0.010540001 0.65100002
-0.011780001 0.010540001 0.65100002
-0.010540001 0.010540001 0.65100002
-0.0093142865 0.010556191 0.65200001
-0.0080723818 0.010556191 0.65200001
-0.0068304767 0.010556191 0.65200001
-0.0055971434 0.010572381 0.65300006
-0.0043533337 0.010572381 0.65300006
-0.0031190477 0.010604762 0.65500003
-0.0018714287 0.010604762 0.65500003
-0.00062476192 0.010620954 0.65600002
0.00062571431 0.010637144 0.65700001
0.0018771429 0.010637144 0.65700001
0.0031285717 0.010637144 0.65700001
0.0043866672 0.010653334 0.65800005
0.0056571434 0.010685715 0.66000003
0.0069142859 0.010685715 0.66000003
0.0081838099 0.010701905 0.66100001
0.009457143 0.010718096 0.66200006
0.010734286 0.010734286 0.66300005
0.01205143 0.010782857 0.66600001
0.013380001 0.01083143 0.66900003
0.014720001 0.010880001 0.67200005
0.016000001 0.010880001 0.67200005
0.017331429 0.010912382 0.67400002
-0.046928573 0.012214286 0.67500001
-0.045440003 0.01216 0.67200005
-0.044094287 0.012141906 0.671
-0.042752385 0.01212381 0.67000002
-0.041414287 0.012105715 0.66900003
-0.040020004 0.012069524 0.66700006
-0.038691431 0.01205143 0.66600001
-0.037422858 0.01205143 0.66600001
-0.036100004 0.012033334 0.66500002
-0.034676194 0.011979048 0.66200006
-0.033415239 0.011979048 0.66200006
-0.032057144 0.011942858 0.66000003
-0.030706668 0.011906668 0.65800005
-0.029453335 0.011906668 0.65800005
-0.028200002 0.011906668 0.65800005
-0.026905715 0.011888572 0.65700001
-0.025654288 0.011888572 0.65700001
-0.024365716 0.011870477 0.65600002
-0.023116192 0.011870477 0.65600002
-0.021866668 0.011870477 0.65600002
-0.020617144 0.011870477 0.65600002
-0.01927905 0.011816191 0.65300006
-0.018007619 0.011798096 0.65200001
-0.016740002 0.011780001 0.65100002
-0.015500001 0.011780001 0.65100002
-0.014260001 0.011780001 0.65100002
-0.01302 0.011780001 0.65100002
-0.011780001 0.011780001 0.65100002
-0.010556191 0.011798096 0.65200001
-0.0093142865 0.011798096 0.65200001
-0.0080723818 0.011798096 0.65200001
-0.0068409527 0.011816191 0.65300006
-0.0055971434 0.011816191 0.65300006
-0.004366667 0.011852382 0.65500003
-0.0031238098 0.011870477 0.65600002
-0.0018742859 0.011870477 0.65600002
-0.00062571431 0.011888572 0.65700001
0.00062571431 0.011888572 0.65700001
0.0018800001 0.011906668 0.65800005
0.0031333335 0.011906668 0.65800005
0.0044000004 0.011942858 0.66000003
0.0056657149 0.011960953 0.66100001
0.0069247624 0.011960953 0.66100001
0.0081961909 0.011979048 0.66200006
0.009457143 0.011979048 0.66200006
0.010766667 0.012033334 0.66500002
0.012069524 0.012069524 0.66700006
0.013400001 0.01212381 0.67000002
0.014720001 0.01216 0.67200005
0.016047619 0.012196192 0.67400002
0.017331429 0.012196192 0.67400002
-0.047137145 0.013560001 0.67800003
-0.045575242 0.013480001 0.67400002
-0.044094287 0.013420001 0.671
-0.042752385 0.013400001 0.67000002
-0.041414287 0.013380001 0.66900003
-0.040020004 0.013340001 0.66700006
-0.038749527 0.013340001 0.66700006
-0.037422858 0.013320001 0.66600001
-0.036100004 0.013300001 0.66500002
-0.034728575 0.013260001 0.66300005
-0.033415239 0.013240001 0.66200006
-0.032105718 0.013220001 0.66100001
-0.030800002 0.013200001 0.66000003
-0.029453335 0.013160001 0.65800005
-0.028200002 0.013160001 0.65800005
-0.026905715 0.01314 0.65700001
-0.025654288 0.01314 0.65700001
-0.024402859 0.01314 0.65700001
-0.023151429 0.01314 0.65700001
-0.021866668 0.013120001 0.65600002
-0.020617144 0.013120001 0.65600002
-0.019338097 0.013100001 0.65500003
-0.018035239 0.013060001 0.65300006
-0.016765716 0.013040001 0.65200001
-0.015523811 0.013040001 0.65200001
-0.014281905 0.013040001 0.65200001
-0.013040001 0.013040001 0.65200001
-0.011798096 0.013040001 0.65200001
-0.010556191 0.013040001 0.65200001
-0.0093285721 0.013060001 0.65300006
-0.0080847628 0.013060001 0.65300006
-0.0068409527 0.013060001 0.65300006
-0.0056142863 0.013100001 0.65500003
-0.0043733334 0.013120001 0.65600002
-0.0031285717 0.01314 0.65700001
-0.0018771429 0.01314 0.65700001
-0.0006266667 0.013160001 0.65800005
0.0006266667 0.013160001 0.65800005
0.0018857144 0.013200001 0.66000003
0.0031476193 0.013220001 0.66100001
0.0044066668 0.013220001 0.66100001
0.0056742863 0.013240001 0.66200006
0.0069352384 0.013240001 0.66200006
0.0082085719 0.013260001 0.66300005
0.0095000006 0.013300001 0.66500002
0.010782857 0.013320001 0.66600001
0.012105715 0.013380001 0.66900003
0.013420001 0.013420001 0.671
0.014720001 0.013440001 0.67200005
0.016071429 0.013500001 0.67500001
0.017382858 0.013520001 0.67600006
-0.048428576 0.014851429 0.67800003
-0.047137145 0.014851429 0.67800003
-0.04564286 0.014785715 0.67500001
-0.044291433 0.014763811 0.67400002
-0.042752385 0.014676192 0.67000002
-0.041414287 0.014654287 0.66900003
-0.040020004 0.014610477 0.66700006
-0.038749527 0.014610477 0.66700006
-0.037422858 0.014588572 0.66600001
-0.036100004 0.014566667 0.66500002
-0.034728575 0.014522858 0.66300005
-0.033465717 0.014522858 0.66300005
-0.032154288 0.014500953 0.66200006
-0.030846668 0.014479049 0.66100001
-0.02954286 0.014457144 0.66000003
-0.028285716 0.014457144 0.66000003
-0.026946668 0.014413334 0.65800005
-0.025693335 0.014413334 0.65800005
-0.024402859 0.01439143 0.65700001
-0.023151429 0.01439143 0.65700001
-0.021900002 0.01439143 0.65700001
-0.020648573 0.01439143 0.65700001
-0.019338097 0.01434762 0.65500003
-0.018090477 0.01434762 0.65500003
-0.016791429 0.014303811 0.65300006
-0.01554762 0.014303811 0.65300006
-0.014303811 0.014303811 0.65300006
-0.013060001 0.014303811 0.65300006
-0.011816191 0.014303811 0.65300006
-0.010572381 0.014303811 0.65300006
-0.0093571432 0.01434762 0.65500003
-0.0081095239 0.01434762 0.65500003
-0.0068619051 0.01434762 0.65500003
-0.0056228577 0.014369525 0.65600002
-0.0043800003 0.01439143 0.65700001
-0.0031333335 0.014413334 0.65800005
-0.0018800001 0.014413334 0.65800005
-0.0006266667 0.014413334 0.65800005
0.00062857149 0.014457144 0.66000003
0.0018857144 0.014457144 0.66000003
0.0031476193 0.014479049 0.66100001
0.0044066668 0.014479049 0.66100001
0.0056742863 0.014500953 0.66200006
0.0069457148 0.014522858 0.66300005
0.0082085719 0.014522858 0.66300005
0.0095142862 0.014588572 0.66600001
0.010799048 0.014610477 0.66700006
0.01212381 0.014676192 0.67000002
0.013420001 0.014698097 0.671
0.014763811 0.014763811 0.67400002
0.016071429 0.014785715 0.67500001
0.017382858 0.01480762 0.67600006
0.018753335 0.014873334 0.67900002
-0.048285719 0.01609524 0.67600006
-0.046998098 0.01609524 0.67600006
-0.045710478 0.01609524 0.67600006
-0.044357147 0.016071429 0.67500001
-0.042880002 0.016000001 0.67200005
-0.041476194 0.015952382 0.67000002
-0.040140003 0.015928572 0.66900003
-0.038865715 0.015928572 0.66900003
-0.03747905 0.015880954 0.66700006
-0.036154289 0.015857143 0.66600001
-0.034833334 0.015833335 0.66500002
-0.033465717 0.015785715 0.66300005
-0.032202858 0.015785715 0.66300005
-0.030893335 0.015761906 0.66200006
-0.029587621 0.015738096 0.66100001
-0.028328573 0.015738096 0.66100001
-0.027028574 0.015714286 0.66000003
-0.025693335 0.015666667 0.65800005
-0.024440002 0.015666667 0.65800005
-0.023186669 0.015666667 0.65800005
-0.021933334 0.015666667 0.65800005
-0.020648573 0.015642859 0.65700001
-0.019397143 0.015642859 0.65700001
-0.018118097 0.015619049 0.65600002
-0.016842859 0.015595239 0.65500003
-0.01554762 0.01554762 0.65300006
-0.01434762 0.015595239 0.65500003
-0.013060001 0.01554762 0.65300006
-0.011852382 0.015595239 0.65500003
-0.010604762 0.015595239 0.65500003
-0.0093714288 0.015619049 0.65600002
-0.0081219049 0.015619049 0.65600002
-0.0068723815 0.015619049 0.65600002
-0.0056314291 0.015642859 0.65700001
-0.0043866672 0.015666667 0.65800005
-0.0031333335 0.015666667 0.65800005
-0.0018800001 0.015666667 0.65800005
-0.00062857149 0.015714286 0.66000003
0.00062857149 0.015714286 0.66000003
0.0018885715 0.015738096 0.66100001
0.0031523812 0.015761906 0.66200006
0.0044133337 0.015761906 0.66200006
0.0056828577 0.015785715 0.66300005
0.0069457148 0.015785715 0.66300005
0.0082333339 0.015833335 0.66500002
0.0095285717 0.015880954 0.66700006
0.01083143 0.015928572 0.66900003
0.01212381 0.015952382 0.67000002
0.013420001 0.015976192 0.671
0.014763811 0.016047619 0.67400002
0.016071429 0.016071429 0.67500001
0.017382858 0.01609524 0.67600006
0.018753335 0.016166668 0.67900002
-0.046998098 0.017382858 0.67600006
-0.045710478 0.017382858 0.67600006
-0.044357147 0.017357145 0.67500001
-0.043007623 0.017331429 0.67400002
-0.041538097 0.017254287 0.671
-0.040260002 0.017254287 0.671
-0.038865715 0.017202858 0.66900003
-0.03747905 0.01715143 0.66700006
-0.036208574 0.01715143 0.66700006
-0.034885716 0.017125715 0.66600001
-0.033566669 0.017100001 0.66500002
-0.032202858 0.017048573 0.66300005
-0.030940002 0.017048573 0.66300005
-0.029632382 0.017022857 0.66200006
-0.028371431 0.017022857 0.66200006
-0.027069526 0.016997144 0.66100001
-0.02577143 0.01697143 0.66000003
-0.024514288 0.01697143 0.66000003
-0.023257144 0.01697143 0.66000003
-0.021933334 0.01692 0.65800005
-0.020680001 0.01692 0.65800005
-0.019426668 0.01692 0.65800005
-0.018145716 0.016894286 0.65700001
-0.016868573 0.016868573 0.65600002
-0.015595239 0.016842859 0.65500003
-0.01434762 0.016842859 0.65500003
-0.013120001 0.016868573 0.65600002
-0.011870477 0.016868573 0.65600002
-0.010620954 0.016868573 0.65600002
-0.0093857152 0.016894286 0.65700001
-0.0081342859 0.016894286 0.65700001
-0.0068828575 0.016894286 0.65700001
-0.0056314291 0.016894286 0.65700001
-0.0043866672 0.01692 0.65800005
-0.0031333335 0.01692 0.65800005
-0.0018857144 0.01697143 0.66000003
-0.00062952383 0.016997144 0.66100001
0.00062952383 0.016997144 0.66100001
0.0018914287 0.017022857 0.66200006
0.003157143 0.017048573 0.66300005
0.0044200001 0.017048573 0.66300005
0.0057000006 0.017100001 0.66500002
0.0069771432 0.017125715 0.66600001
0.0082580959 0.01715143 0.66700006
0.0095571438 0.017202858 0.66900003
0.01083143 0.017202858 0.66900003
0.012141906 0.017254287 0.671
0.013420001 0.017254287 0.671
0.014763811 0.017331429 0.67400002
0.016071429 0.017357145 0.67500001
0.017382858 0.017382858 0.67600006
-0.046998098 0.018670477 0.67600006
-0.045710478 0.018670477 0.67600006
-0.044422861 0.018670477 0.67600006
-0.04307143 0.018642858 0.67500001
-0.041785717 0.018642858 0.67500001
-0.040440004 0.01861524 0.67400002
-0.038923811 0.018504763 0.67000002
-0.037591431 0.018477144 0.66900003
-0.036208574 0.018421905 0.66700006
-0.034885716 0.018394288 0.66600001
-0.033566669 0.018366668 0.66500002
-0.032300003 0.018366668 0.66500002
-0.030940002 0.01831143 0.66300005
-0.029632382 0.01828381 0.66200006
-0.028371431 0.01828381 0.66200006
-0.027110478 0.01828381 0.66200006
-0.025810478 0.018256191 0.66100001
-0.024551431 0.018256191 0.66100001
-0.023257144 0.018228572 0.66000003
-0.022000002 0.018228572 0.66000003
-0.020742858 0.018228572 0.66000003
-0.019426668 0.018173335 0.65800005
-0.018173335 0.018173335 0.65800005
-0.01692 0.018173335 0.65800005
-0.015642859 0.018145716 0.65700001
-0.01439143 0.018145716 0.65700001
-0.01314 0.018145716 0.65700001
-0.011888572 0.018145716 0.65700001
-0.010637144 0.018145716 0.65700001
-0.0094000008 0.018173335 0.65800005
-0.0081466669 0.018173335 0.65800005
-0.006893334 0.018173335 0.65800005
-0.0056400006 0.018173335 0.65800005
-0.0043866672 0.018173335 0.65800005
-0.0031428575 0.018228572 0.66000003
-0.0018857144 0.018228572 0.66000003
-0.00062952383 0.018256191 0.66100001
0.00063047622 0.01828381 0.66200006
0.0018942858 0.01831143 0.66300005
0.003157143 0.01831143 0.66300005
0.0044333334 0.018366668 0.66500002
0.005708572 0.018394288 0.66600001
0.0069876197 0.018421905 0.66700006
0.0082828579 0.018477144 0.66900003
0.0095571438 0.018477144 0.66900003
0.01084762 0.018504763 0.67000002
0.012141906 0.018532382 0.671
0.013440001 0.018560002 0.67200005
0.014763811 0.01861524 0.67400002
0.016071429 0.018642858 0.67500001
0.017434286 0.018725716 0.67800003
-0.047137145 0.020017143 0.67800003
-0.045845717 0.020017143 0.67800003
-0.044554289 0.020017143 0.67800003
-0.043135241 0.019958096 0.67600006
-0.04184762 0.019958096 0.67600006
-0.040560003 0.019958096 0.67600006
-0.038981907 0.019810477 0.671
-0.03764762 0.019780954 0.67000002
-0.036208574 0.019692382 0.66700006
-0.034938097 0.019692382 0.66700006
-0.033617146 0.019662859 0.66600001
-0.032348573 0.019662859 0.66600001
-0.031033335 0.019633334 0.66500002
-0.029632382 0.019544763 0.66200006
-0.028371431 0.019544763 0.66200006
-0.027110478 0.019544763 0.66200006
-0.025810478 0.019515239 0.66100001
-0.024551431 0.019515239 0.66100001
-0.023292383 0.019515239 0.66100001
-0.022000002 0.019485716 0.66000003
-0.020742858 0.019485716 0.66000003
-0.019485716 0.019485716 0.66000003
-0.018173335 0.019426668 0.65800005
-0.01692 0.019426668 0.65800005
-0.015666667 0.019426668 0.65800005
-0.014413334 0.019426668 0.65800005
-0.013160001 0.019426668 0.65800005
-0.011906668 0.019426668 0.65800005
-0.010653334 0.019426668 0.65800005
-0.0094000008 0.019426668 0.65800005
-0.0081466669 0.019426668 0.65800005
-0.006893334 0.019426668 0.65800005
-0.0056400006 0.019426668 0.65800005
-0.0043866672 0.019426668 0.65800005
-0.0031476193 0.019515239 0.66100001
-0.0018885715 0.019515239 0.66100001
-0.00063047622 0.019544763 0.66200006
0.00063047622 0.019544763 0.66200006
0.0018942858 0.019574286 0.66300005
0.003166667 0.019633334 0.66500002
0.0044400003 0.019662859 0.66600001
0.005708572 0.019662859 0.66600001
0.0069876197 0.019692382 0.66700006
0.0082828579 0.01975143 0.66900003
0.0095571438 0.01975143 0.66900003
0.01086381 0.019810477 0.671
0.012141906 0.019810477 0.671
0.013440001 0.019840002 0.67200005
0.014785715 0.019928573 0.67500001
0.01609524 0.019958096 0.67600006
0.017434286 0.020017143 0.67800003
0.018780954 0.020076191 0.68000001
-0.045913335 0.021340001 0.67900002
-0.044620004 0.021340001 0.67900002
-0.043262862 0.021308573 0.67800003
-0.04197143 0.021308573 0.67800003
-0.040680002 0.021308573 0.67800003
-0.039214287 0.021214288 0.67500001
-0.037760001 0.021120001 0.67200005
-0.036425717 0.021088572 0.671
-0.035095241 0.021057144 0.67000002
-0.033768572 0.021025715 0.66900003
-0.032397144 0.020962859 0.66700006
-0.031126669 0.020962859 0.66700006
-0.029811431 0.02093143 0.66600001
-0.028414287 0.020837145 0.66300005
-0.02715143 0.020837145 0.66300005
-0.025888573 0.020837145 0.66300005
-0.024588574 0.020805717 0.66200006
-0.023327621 0.020805717 0.66200006
-0.022066668 0.020805717 0.66200006
-0.020774286 0.020774286 0.66100001
-0.019515239 0.020774286 0.66100001
-0.018256191 0.020774286 0.66100001
-0.016997144 0.020774286 0.66100001
-0.015738096 0.020774286 0.66100001
-0.014479049 0.020774286 0.66100001
-0.013220001 0.020774286 0.66100001
-0.011960953 0.020774286 0.66100001
-0.010701905 0.020774286 0.66100001
-0.0094428575 0.020774286 0.66100001
-0.0081838099 0.020774286 0.66100001
-0.0069247624 0.020774286 0.66100001
-0.0056571434 0.020742858 0.66000003
-0.0044066668 0.020774286 0.66100001
-0.0031476193 0.020774286 0.66100001
-0.0018914287 0.020805717 0.66200006
-0.00063142861 0.020837145 0.66300005
0.00063142861 0.020837145 0.66300005
0.0019000001 0.020900002 0.66500002
0.0031714288 0.02093143 0.66600001
0.0044400003 0.02093143 0.66600001
0.0057171434 0.020962859 0.66700006
0.0069876197 0.020962859 0.66700006
0.0082580959 0.020962859 0.66700006
0.0095571438 0.021025715 0.66900003
0.010880001 0.021120001 0.67200005
0.012196192 0.021182859 0.67400002
0.013480001 0.021182859 0.67400002
0.014785715 0.021214288 0.67500001
0.01609524 0.021245716 0.67600006
-0.045980956 0.022666669 0.68000001
-0.044620004 0.022633335 0.67900002
-0.043326668 0.022633335 0.67900002
-0.042033337 0.022633335 0.67900002
-0.040680002 0.022600001 0.67800003
-0.039272383 0.022533335 0.67600006
-0.037872385 0.022466669 0.67400002
-0.036480002 0.022400001 0.67200005
-0.035095241 0.022333335 0.67000002
-0.033768572 0.022300001 0.66900003
-0.032494288 0.022300001 0.66900003
-0.031126669 0.022233335 0.66700006
-0.029811431 0.022200001 0.66600001
-0.028500002 0.022166668 0.66500002
-0.027233334 0.022166668 0.66500002
-0.025888573 0.022100002 0.66300005
-0.024625717 0.022100002 0.66300005
-0.023362858 0.022100002 0.66300005
-0.022066668 0.022066668 0.66200006
-0.020805717 0.022066668 0.66200006
-0.019544763 0.022066668 0.66200006
-0.01828381 0.022066668 0.66200006
-0.016997144 0.022033336 0.66100001
-0.015761906 0.022066668 0.66200006
-0.014500953 0.022066668 0.66200006
-0.013240001 0.022066668 0.66200006
-0.011979048 0.022066668 0.66200006
-0.010718096 0.022066668 0.66200006
-0.009457143 0.022066668 0.66200006
-0.0081961909 0.022066668 0.66200006
-0.0069352384 0.022066668 0.66200006
-0.0056657149 0.022033336 0.66100001
-0.0044133337 0.022066668 0.66200006
-0.0031523812 0.022066668 0.66200006
-0.0018942858 0.022100002 0.66300005
-0.0006333334 0.022166668 0.66500002
0.00063428574 0.022200001 0.66600001
0.0019028572 0.022200001 0.66600001
0.0031714288 0.022200001 0.66600001
0.0044466672 0.022233335 0.66700006
0.0057171434 0.022233335 0.66700006
0.0070085721 0.022300001 0.66900003
0.0082828579 0.022300001 0.66900003
0.0095571438 0.022300001 0.66900003
0.010912382 0.022466669 0.67400002
0.012196192 0.022466669 0.67400002
0.013480001 0.022466669 0.67400002
0.014763811 0.022466669 0.67400002
-0.046183813 0.02406762 0.68300003
-0.044817146 0.024032382 0.68200004
-0.043390479 0.023961907 0.68000001
-0.042033337 0.023926668 0.67900002
-0.040680002 0.02389143 0.67800003
-0.039272383 0.023820953 0.67600006
-0.037872385 0.023750478 0.67400002
-0.036480002 0.023680001 0.67200005
-0.035147622 0.023644764 0.671
-0.033768572 0.023574287 0.66900003
-0.032494288 0.023574287 0.66900003
-0.031126669 0.02350381 0.66700006
-0.029811431 0.023468573 0.66600001
-0.028500002 0.023433335 0.66500002
-0.027233334 0.023433335 0.66500002
-0.025888573 0.023362858 0.66300005
-0.024625717 0.023362858 0.66300005
-0.023362858 0.023362858 0.66300005
-0.022100002 0.023362858 0.66300005
-0.020837145 0.023362858 0.66300005
-0.019574286 0.023362858 0.66300005
-0.01831143 0.023362858 0.66300005
-0.017048573 0.023362858 0.66300005
-0.015785715 0.023362858 0.66300005
-0.014500953 0.023327621 0.66200006
-0.013260001 0.023362858 0.66300005
-0.011979048 0.023327621 0.66200006
-0.010718096 0.023327621 0.66200006
-0.009457143 0.023327621 0.66200006
-0.0082085719 0.023362858 0.66300005
-0.0069352384 0.023327621 0.66200006
-0.0056742863 0.023327621 0.66200006
-0.0044200001 0.023362858 0.66300005
-0.003157143 0.023362858 0.66300005
-0.0019000001 0.023433335 0.66500002
-0.00063428574 0.023468573 0.66600001
0.00063428574 0.023468573 0.66600001
0.0019057144 0.02350381 0.66700006
0.0031761907 0.02350381 0.66700006
0.0044466672 0.02350381 0.66700006
