# .PCD v0.7 - Point Cloud Data file format
VERSION 0.7
FIELDS x y z
SIZE 4 4 4
TYPE F F F
COUNT 1 1 1
WIDTH 1377
HEIGHT 1
VIEWPOINT 0 0 0 1 0 0 0
POINTS 1377
DATA ascii
0.073497146 0.018205715 0.708
0.074845716 0.018205715 0.708
0.063682862 0.019858096 0.71900004
0.064600006 0.019720001 0.71400005
0.065867625 0.019692382 0.71300006
0.067225717 0.019692382 0.71300006
0.068391435 0.019637143 0.71100003
0.069745719 0.019637143 0.71100003
0.071100004 0.019637143 0.71100003
0.072148576 0.019554287 0.708
0.073497146 0.019554287 0.708
0.074740008 0.019526668 0.70700002
0.07608667 0.019526668 0.70700002
0.10226572 0.024111429 0.87300003
0.060520004 0.021080002 0.71400005
0.061880004 0.021080002 0.71400005
0.063151434 0.021050477 0.71300006
0.064509526 0.021050477 0.71300006
0.065682858 0.02099143 0.71100003
0.06703715 0.02099143 0.71100003
0.06829524 0.020961907 0.71000004
0.069451436 0.020902859 0.708
0.070800006 0.020902859 0.708
0.072046675 0.020873334 0.70700002
0.073393337 0.020873334 0.70700002
0.074528575 0.020814287 0.70500004
0.075656198 0.020755239 0.70300001
0.076995246 0.020755239 0.70300001
0.078334294 0.020755239 0.70300001
0.079333335 0.020666668 0.70000005
0.080436192 0.02060762 0.69800001
0.06026572 0.022345716 0.71100003
0.061620004 0.022345716 0.71100003
0.062885717 0.022314288 0.71000004
0.064238101 0.022314288 0.71000004
0.065405719 0.022251431 0.708
0.066754289 0.022251431 0.708
0.068102859 0.022251431 0.708
0.069353335 0.022220001 0.70700002
0.070700005 0.022220001 0.70700002
0.071842864 0.022157144 0.70500004
0.073081911 0.022125715 0.70400006
0.07431715 0.022094287 0.70300001
0.075656198 0.022094287 0.70300001
0.076995246 0.022094287 0.70300001
0.078111432 0.02203143 0.70100003
0.079333335 0.022000002 0.70000005
0.080436192 0.021937145 0.69800001
0.08141429 0.021842858 0.69500005
0.058911432 0.023700001 0.71100003
0.06026572 0.023700001 0.71100003
0.061533336 0.023666669 0.71000004
0.062885717 0.023666669 0.71000004
0.064057149 0.023600001 0.708
0.065405719 0.023600001 0.708
0.066754289 0.023600001 0.708
0.068006672 0.023566669 0.70700002
0.069353335 0.023566669 0.70700002
0.070500001 0.023500001 0.70500004
0.071740955 0.023466669 0.70400006
0.072978102 0.023433335 0.70300001
0.07431715 0.023433335 0.70300001
0.075440958 0.023366667 0.70100003
0.076776199 0.023366667 0.70100003
0.078111432 0.023366667 0.70100003
0.079333335 0.023333335 0.70000005
0.080436192 0.023266668 0.69800001
0.081648573 0.023233335 0.69700003
0.058662862 0.024948573 0.708
0.060180955 0.02501905 0.71000004
0.061360005 0.024948573 0.708
0.062708579 0.024948573 0.708
0.064057149 0.024948573 0.708
0.065405719 0.024948573 0.708
0.066660002 0.024913335 0.70700002
0.068006672 0.024913335 0.70700002
0.069157146 0.024842858 0.70500004
0.070400007 0.024807621 0.70400006
0.071639054 0.024772383 0.70300001
0.072978102 0.024772383 0.70300001
0.074105717 0.024701906 0.70100003
0.075440958 0.024701906 0.70100003
0.076776199 0.024701906 0.70100003
0.078000002 0.024666669 0.70000005
0.079333335 0.024666669 0.70000005
0.080436192 0.024596192 0.69800001
0.081648573 0.024560954 0.69700003
0.082976192 0.024560954 0.69700003
0.055649526 0.026148573 0.70400006
0.057233337 0.026260002 0.70700002
0.058580004 0.026260002 0.70700002
0.060011432 0.026297145 0.708
0.061273336 0.026260002 0.70700002
0.062620007 0.026260002 0.70700002
0.063785717 0.026185716 0.70500004
0.065128572 0.026185716 0.70500004
0.066471435 0.026185716 0.70500004
0.067814291 0.026185716 0.70500004
0.069059052 0.026148573 0.70400006
0.070300005 0.02611143 0.70300001
0.071435243 0.026037145 0.70100003
0.072770484 0.026037145 0.70100003
0.074000008 0.026000002 0.70000005
0.075333342 0.026000002 0.70000005
0.076666668 0.026000002 0.70000005
0.077777147 0.025925716 0.69800001
0.079106674 0.025925716 0.69800001
0.080436192 0.025925716 0.69800001
0.081648573 0.025888573 0.69700003
0.082976192 0.025888573 0.69700003
0.084303819 0.025888573 0.69700003
0.085631438 0.025888573 0.69700003
0.086959057 0.025888573 0.69700003
0.05140667 0.027372383 0.70100003
0.052892383 0.027450478 0.70300001
0.054077145 0.027372383 0.70100003
0.055570479 0.027450478 0.70300001
0.057071432 0.027528573 0.70500004
0.058331434 0.027489526 0.70400006
0.05992667 0.027606668 0.70700002
0.060926672 0.027450478 0.70300001
0.062354289 0.027489526 0.70400006
0.063604765 0.027450478 0.70300001
0.064943813 0.027450478 0.70300001
0.066282861 0.027450478 0.70300001
0.067429528 0.027372383 0.70100003
0.068764769 0.027372383 0.70100003
0.070100002 0.027372383 0.70100003
0.071333341 0.027333336 0.70000005
0.072666675 0.027333336 0.70000005
0.074000008 0.027333336 0.70000005
0.075333342 0.027333336 0.70000005
0.076447621 0.027255239 0.69800001
0.077777147 0.027255239 0.69800001
0.079106674 0.027255239 0.69800001
0.080436192 0.027255239 0.69800001
0.081648573 0.027216192 0.69700003
0.082976192 0.027216192 0.69700003
0.084424764 0.027255239 0.69800001
0.085631438 0.027216192 0.69700003
0.086959057 0.027216192 0.69700003
0.048875242 0.028789526 0.70300001
0.050071433 0.028707622 0.70100003
0.05140667 0.028707622 0.70100003
0.052741908 0.028707622 0.70100003
0.054000005 0.028666668 0.70000005
0.055412386 0.028707622 0.70100003
0.056666672 0.028666668 0.70000005
0.05783429 0.028584763 0.69800001
0.059079051 0.028543811 0.69700003
0.060493339 0.028584763 0.69800001
0.062000003 0.028666668 0.70000005
0.06333334 0.028666668 0.70000005
0.064481907 0.028584763 0.69800001
0.065811433 0.028584763 0.69800001
0.067044765 0.028543811 0.69700003
0.068666674 0.028666668 0.70000005
0.070000008 0.028666668 0.70000005
0.071129531 0.028584763 0.69800001
0.07245905 0.028584763 0.69800001
0.073788576 0.028584763 0.69800001
0.075118102 0.028584763 0.69800001
0.076447621 0.028584763 0.69800001
0.077665716 0.028543811 0.69700003
0.078993335 0.028543811 0.69700003
0.080320954 0.028543811 0.69700003
0.081648573 0.028543811 0.69700003
0.082976192 0.028543811 0.69700003
0.084061913 0.028461907 0.69500005
0.085631438 0.028543811 0.69700003
0.086959057 0.028543811 0.69700003
0.088033341 0.028461907 0.69500005
0.089357145 0.028461907 0.69500005
0.047536194 0.030128574 0.70300001
0.048875242 0.030128574 0.70300001
0.050071433 0.030042859 0.70100003
0.05140667 0.030042859 0.70100003
0.052741908 0.030042859 0.70100003
0.054000005 0.030000001 0.70000005
0.055333339 0.030000001 0.70000005
0.056666672 0.030000001 0.70000005
0.05783429 0.029914288 0.69800001
0.059079051 0.02987143 0.69700003
0.06040667 0.02987143 0.69700003
0.061822861 0.029914288 0.69800001
0.063152388 0.029914288 0.69800001
0.064389527 0.02987143 0.69700003
0.065717146 0.02987143 0.69700003
0.067044765 0.02987143 0.69700003
0.068372384 0.02987143 0.69700003
0.069700003 0.02987143 0.69700003
0.071027622 0.02987143 0.69700003
0.072355241 0.02987143 0.69700003
0.07368286 0.02987143 0.69700003
0.075010478 0.02987143 0.69700003
0.076338097 0.02987143 0.69700003
0.077665716 0.02987143 0.69700003
0.078993335 0.02987143 0.69700003
0.080320954 0.02987143 0.69700003
0.081648573 0.02987143 0.69700003
0.082976192 0.02987143 0.69700003
0.084303819 0.02987143 0.69700003
0.085631438 0.02987143 0.69700003
0.086709529 0.029785717 0.69500005
0.088033341 0.029785717 0.69500005
0.089357145 0.029785717 0.69500005
0.090550482 0.029742859 0.69400001
0.044985719 0.031557146 0.70500004
0.046197146 0.03146762 0.70300001
0.047536194 0.03146762 0.70300001
0.048736192 0.031378098 0.70100003
0.050071433 0.031378098 0.70100003
0.051333338 0.031333335 0.70000005
0.052666672 0.031333335 0.70000005
0.053845719 0.031243812 0.69800001
0.055333339 0.031333335 0.70000005
0.056504767 0.031243812 0.69800001
0.057751432 0.031199049 0.69700003
0.059079051 0.031199049 0.69700003
0.06040667 0.031199049 0.69700003
0.061734289 0.031199049 0.69700003
0.063061908 0.031199049 0.69700003
0.064389527 0.031199049 0.69700003
0.065528579 0.031109527 0.69500005
0.066852383 0.031109527 0.69500005
0.068176195 0.031109527 0.69500005
0.069500007 0.031109527 0.69500005
0.070823811 0.031109527 0.69500005
0.072147623 0.031109527 0.69500005
0.073471434 0.031109527 0.69500005
0.074795246 0.031109527 0.69500005
0.07611905 0.031109527 0.69500005
0.077442862 0.031109527 0.69500005
0.078993335 0.031199049 0.69700003
0.080320954 0.031199049 0.69700003
0.08141429 0.031109527 0.69500005
0.082976192 0.031199049 0.69700003
0.084303819 0.031199049 0.69700003
0.085631438 0.031199049 0.69700003
0.086959057 0.031199049 0.69700003
0.088286676 0.031199049 0.69700003
0.089614294 0.031199049 0.69700003
0.091072388 0.031243812 0.69800001
0.044985719 0.032900002 0.70500004
0.046197146 0.032806668 0.70300001
0.047400955 0.032713335 0.70100003
0.048736192 0.032713335 0.70100003
0.050000004 0.032666668 0.70000005
0.05118667 0.032573335 0.69800001
0.052516192 0.032573335 0.69800001
0.053768575 0.032526668 0.69700003
0.055175241 0.032573335 0.69800001
0.056423813 0.032526668 0.69700003
0.057751432 0.032526668 0.69700003
0.059079051 0.032526668 0.69700003
0.060233336 0.032433335 0.69500005
0.061734289 0.032526668 0.69700003
0.062880956 0.032433335 0.69500005
0.064204767 0.032433335 0.69500005
0.065434292 0.032386668 0.69400001
0.066756196 0.032386668 0.69400001
0.068078101 0.032386668 0.69400001
0.069400005 0.032386668 0.69400001
0.070721909 0.032386668 0.69400001
0.072147623 0.032433335 0.69500005
0.073365718 0.032386668 0.69400001
0.074795246 0.032433335 0.69500005
0.07611905 0.032433335 0.69500005
0.077442862 0.032433335 0.69500005
0.078766674 0.032433335 0.69500005
0.080090478 0.032433335 0.69500005
0.08141429 0.032433335 0.69500005
0.082738101 0.032433335 0.69500005
0.084303819 0.032526668 0.69700003
0.085631438 0.032526668 0.69700003
0.086959057 0.032526668 0.69700003
0.088286676 0.032526668 0.69700003
0.089742862 0.032573335 0.69800001
0.091333337 0.032666668 0.70000005
0.039220955 0.033902861 0.69800001
0.040550478 0.033902861 0.69800001
0.041880004 0.033902861 0.69800001
0.043209527 0.033902861 0.69800001
0.044539049 0.033902861 0.69800001
0.045802861 0.033854287 0.69700003
0.04713048 0.033854287 0.69700003
0.048458099 0.033854287 0.69700003
0.049785718 0.033854287 0.69700003
0.050893337 0.033708572 0.69400001
0.052215241 0.033708572 0.69400001
0.053614289 0.033757146 0.69500005
0.0549381 0.033757146 0.69500005
0.056261908 0.033757146 0.69500005
0.057585716 0.033757146 0.69500005
0.058909528 0.033757146 0.69500005
0.060233336 0.033757146 0.69500005
0.061557148 0.033757146 0.69500005
0.062880956 0.033757146 0.69500005
0.064112388 0.033708572 0.69400001
0.065340005 0.033660002 0.69300002
0.06646762 0.033562858 0.69100004
0.067783818 0.033562858 0.69100004
0.069100007 0.033562858 0.69100004
0.070416197 0.033562858 0.69100004
0.071732387 0.033562858 0.69100004
0.073048577 0.033562858 0.69100004
0.074364766 0.033562858 0.69100004
0.076009527 0.033708572 0.69400001
0.077331431 0.033708572 0.69400001
0.078653336 0.033708572 0.69400001
0.07997524 0.033708572 0.69400001
0.081297152 0.033708572 0.69400001
0.082619056 0.033708572 0.69400001
0.08394096 0.033708572 0.69400001
0.085385717 0.033757146 0.69500005
0.086210482 0.033562858 0.69100004
0.087526672 0.033562858 0.69100004
0.088842861 0.033562858 0.69100004
0.090159051 0.033562858 0.69100004
0.037837144 0.035181906 0.69700003
0.039164763 0.035181906 0.69700003
0.040492382 0.035181906 0.69700003
0.041820005 0.035181906 0.69700003
0.043147624 0.035181906 0.69700003
0.044475242 0.035181906 0.69700003
0.045671433 0.035080954 0.69500005
0.046995241 0.035080954 0.69500005
0.048319049 0.035080954 0.69500005
0.049642861 0.035080954 0.69500005
0.050893337 0.035030477 0.69400001
0.052215241 0.035030477 0.69400001
0.053537145 0.035030477 0.69400001
0.05485905 0.035030477 0.69400001
0.056180958 0.035030477 0.69400001
0.057502862 0.035030477 0.69400001
0.058824766 0.035030477 0.69400001
0.060146671 0.035030477 0.69400001
0.061468575 0.035030477 0.69400001
0.062790483 0.035030477 0.69400001
0.063835241 0.034879051 0.69100004
0.065151431 0.034879051 0.69100004
0.06646762 0.034879051 0.69100004
0.067783818 0.034879051 0.69100004
0.069100007 0.034879051 0.69100004
0.070416197 0.034879051 0.69100004
0.071732387 0.034879051 0.69100004
0.073048577 0.034879051 0.69100004
0.074580006 0.034980003 0.69300002
0.075900003 0.034980003 0.69300002
0.077220008 0.034980003 0.69300002
0.078540005 0.034980003 0.69300002
0.07997524 0.035030477 0.69400001
0.081297152 0.035030477 0.69400001
0.082500003 0.034980003 0.69300002
0.083820008 0.034980003 0.69300002
0.084894292 0.034879051 0.69100004
0.086210482 0.034879051 0.69100004
0.087526672 0.034879051 0.69100004
0.088842861 0.034879051 0.69100004
0.090159051 0.034879051 0.69100004
0.091475241 0.034879051 0.69100004
0.033708572 0.036352385 0.69400001
0.035080954 0.036404766 0.69500005
0.036404766 0.036404766 0.69500005
0.037728574 0.036404766 0.69500005
0.039052382 0.036404766 0.69500005
0.040376194 0.036404766 0.69500005
0.041700002 0.036404766 0.69500005
0.043023814 0.036404766 0.69500005
0.044347622 0.036404766 0.69500005
0.045605719 0.036352385 0.69400001
0.046927623 0.036352385 0.69400001
0.048180003 0.036300004 0.69300002
0.049571432 0.036352385 0.69400001
0.050820004 0.036300004 0.69300002
0.052140005 0.036300004 0.69300002
0.053460002 0.036300004 0.69300002
0.054780003 0.036300004 0.69300002
0.056100003 0.036300004 0.69300002
0.057420004 0.036300004 0.69300002
0.058740005 0.036300004 0.69300002
0.059886672 0.036195241 0.69100004
0.061202861 0.036195241 0.69100004
0.062519051 0.036195241 0.69100004
0.063835241 0.036195241 0.69100004
0.065151431 0.036195241 0.69100004
0.06646762 0.036195241 0.69100004
0.067783818 0.036195241 0.69100004
0.069100007 0.036195241 0.69100004
0.070416197 0.036195241 0.69100004
0.071732387 0.036195241 0.69100004
0.073048577 0.036195241 0.69100004
0.074580006 0.036300004 0.69300002
0.075900003 0.036300004 0.69300002
0.077220008 0.036300004 0.69300002
0.078540005 0.036300004 0.69300002
0.079860002 0.036300004 0.69300002
0.081180006 0.036300004 0.69300002
0.082500003 0.036300004 0.69300002
0.083820008 0.036300004 0.69300002
0.085140005 0.036300004 0.69300002
0.086460009 0.036300004 0.69300002
0.087526672 0.036195241 0.69100004
0.088842861 0.036195241 0.69100004
0.090159051 0.036195241 0.69100004
0.091740005 0.036300004 0.69300002
0.093060009 0.036300004 0.69300002
0.032340001 0.037620004 0.69300002
0.033708572 0.037674289 0.69400001
0.035030477 0.037674289 0.69400001
0.036404766 0.037728574 0.69500005
0.037728574 0.037728574 0.69500005
0.039052382 0.037728574 0.69500005
0.040376194 0.037728574 0.69500005
0.041700002 0.037728574 0.69500005
0.042961907 0.037674289 0.69400001
0.044220004 0.037620004 0.69300002
0.045408573 0.037511431 0.69100004
0.046860002 0.037620004 0.69300002
0.048040956 0.037511431 0.69100004
0.049357146 0.037511431 0.69100004
0.050673336 0.037511431 0.69100004
0.051989526 0.037511431 0.69100004
0.053305719 0.037511431 0.69100004
0.054780003 0.037620004 0.69300002
0.056100003 0.037620004 0.69300002
0.057420004 0.037620004 0.69300002
0.058570482 0.037511431 0.69100004
0.059886672 0.037511431 0.69100004
0.061380003 0.037620004 0.69300002
0.062519051 0.037511431 0.69100004
0.063835241 0.037511431 0.69100004
0.065151431 0.037511431 0.69100004
0.06646762 0.037511431 0.69100004
0.067783818 0.037511431 0.69100004
0.069100007 0.037511431 0.69100004
0.070416197 0.037511431 0.69100004
0.071732387 0.037511431 0.69100004
0.073048577 0.037511431 0.69100004
0.074364766 0.037511431 0.69100004
0.075680956 0.037511431 0.69100004
0.077220008 0.037620004 0.69300002
0.078540005 0.037620004 0.69300002
0.079860002 0.037620004 0.69300002
0.081180006 0.037620004 0.69300002
0.082500003 0.037620004 0.69300002
0.083820008 0.037620004 0.69300002
0.085140005 0.037620004 0.69300002
0.086460009 0.037620004 0.69300002
0.087780006 0.037620004 0.69300002
0.088842861 0.037511431 0.69100004
0.090159051 0.037511431 0.69100004
0.091740005 0.037620004 0.69300002
0.093060009 0.037620004 0.69300002
0.094380006 0.037620004 0.69300002
0.028380001 0.038940001 0.69300002
0.029614288 0.03882762 0.69100004
0.031020002 0.038940001 0.69300002
0.032340001 0.038940001 0.69300002
0.033708572 0.038996194 0.69400001
0.035030477 0.038996194 0.69400001
0.036352385 0.038996194 0.69400001
0.037674289 0.038996194 0.69400001
0.038996194 0.038996194 0.69400001
0.040318098 0.038996194 0.69400001
0.041460004 0.03882762 0.69100004
0.042900003 0.038940001 0.69300002
0.044092383 0.03882762 0.69100004
0.045408573 0.03882762 0.69100004
0.046724766 0.03882762 0.69100004
0.048040956 0.03882762 0.69100004
0.049357146 0.03882762 0.69100004
0.050600003 0.038771432 0.69000006
0.05191429 0.038771432 0.69000006
0.053228576 0.038771432 0.69000006
0.054621909 0.03882762 0.69100004
0.055857148 0.038771432 0.69000006
0.057171434 0.038771432 0.69000006
0.058485717 0.038771432 0.69000006
0.059800003 0.038771432 0.69000006
0.061202861 0.03882762 0.69100004
0.062519051 0.03882762 0.69100004
0.063742861 0.038771432 0.69000006
0.065057144 0.038771432 0.69000006
0.066371433 0.038771432 0.69000006
0.067685716 0.038771432 0.69000006
0.069000006 0.038771432 0.69000006
0.070314288 0.038771432 0.69000006
0.071628578 0.038771432 0.69000006
0.07294286 0.038771432 0.69000006
0.074364766 0.03882762 0.69100004
0.075680956 0.03882762 0.69100004
0.076997146 0.03882762 0.69100004
0.078313336 0.03882762 0.69100004
0.079629526 0.03882762 0.69100004
0.080945723 0.03882762 0.69100004
0.082261913 0.03882762 0.69100004
0.083578102 0.03882762 0.69100004
0.084894292 0.03882762 0.69100004
0.086210482 0.03882762 0.69100004
0.087526672 0.03882762 0.69100004
0.088842861 0.03882762 0.69100004
0.090159051 0.03882762 0.69100004
0.091740005 0.038940001 0.69300002
0.093060009 0.038940001 0.69300002
0.094380006 0.038940001 0.69300002
0.095700003 0.038940001 0.69300002
0.028380001 0.040260002 0.69300002
0.029700002 0.040260002 0.69300002
0.030930478 0.040143814 0.69100004
0.032246668 0.040143814 0.69100004
0.033660002 0.040260002 0.69300002
0.034980003 0.040260002 0.69300002
0.036300004 0.040260002 0.69300002
0.037620004 0.040260002 0.69300002
0.038940001 0.040260002 0.69300002
0.040260002 0.040260002 0.69300002
0.041460004 0.040143814 0.69100004
0.042776193 0.040143814 0.69100004
0.044028573 0.040085718 0.69000006
0.045342859 0.040085718 0.69000006
0.046657145 0.040085718 0.69000006
0.047971431 0.040085718 0.69000006
0.049285717 0.040085718 0.69000006
0.050526671 0.040027622 0.68900001
0.05191429 0.040085718 0.69000006
0.053151432 0.040027622 0.68900001
0.054463815 0.040027622 0.68900001
0.055776194 0.040027622 0.68900001
0.057088576 0.040027622 0.68900001
0.058400955 0.040027622 0.68900001
0.059713338 0.040027622 0.68900001
0.06102572 0.040027622 0.68900001
0.062428575 0.040085718 0.69000006
0.063742861 0.040085718 0.69000006
0.065057144 0.040085718 0.69000006
0.066371433 0.040085718 0.69000006
0.067685716 0.040085718 0.69000006
0.069000006 0.040085718 0.69000006
0.070314288 0.040085718 0.69000006
0.071524769 0.040027622 0.68900001
0.072837144 0.040027622 0.68900001
0.074364766 0.040143814 0.69100004
0.075680956 0.040143814 0.69100004
0.076997146 0.040143814 0.69100004
0.078313336 0.040143814 0.69100004
0.079629526 0.040143814 0.69100004
0.080945723 0.040143814 0.69100004
0.082261913 0.040143814 0.69100004
0.083578102 0.040143814 0.69100004
0.084894292 0.040143814 0.69100004
0.086210482 0.040143814 0.69100004
0.087526672 0.040143814 0.69100004
0.088842861 0.040143814 0.69100004
0.090159051 0.040143814 0.69100004
0.091740005 0.040260002 0.69300002
0.092791438 0.040143814 0.69100004
0.094107628 0.040143814 0.69100004
0.095700003 0.040260002 0.69300002
0.096740007 0.040143814 0.69100004
0.027060002 0.041580003 0.69300002
0.028380001 0.041580003 0.69300002
0.029614288 0.041460004 0.69100004
0.030930478 0.041460004 0.69100004
0.032246668 0.041460004 0.69100004
0.033562858 0.041460004 0.69100004
0.034879051 0.041460004 0.69100004
0.036195241 0.041460004 0.69100004
0.037511431 0.041460004 0.69100004
0.03882762 0.041460004 0.69100004
0.040143814 0.041460004 0.69100004
0.041400004 0.041400004 0.69000006
0.04271429 0.041400004 0.69000006
0.043964766 0.041340001 0.68900001
0.045277145 0.041340001 0.68900001
0.046589527 0.041340001 0.68900001
0.047901906 0.041340001 0.68900001
0.049214289 0.041340001 0.68900001
0.050526671 0.041340001 0.68900001
0.05183905 0.041340001 0.68900001
0.053151432 0.041340001 0.68900001
0.054463815 0.041340001 0.68900001
0.055776194 0.041340001 0.68900001
0.05692286 0.041220002 0.68700004
0.058231432 0.041220002 0.68700004
0.059540004 0.041220002 0.68700004
0.06102572 0.041340001 0.68900001
0.062338099 0.041340001 0.68900001
0.063650481 0.041340001 0.68900001
0.065057144 0.041400004 0.69000006
0.066371433 0.041400004 0.69000006
0.067685716 0.041400004 0.69000006
0.069000006 0.041400004 0.69000006
0.070314288 0.041400004 0.69000006
0.071628578 0.041400004 0.69000006
0.072837144 0.041340001 0.68900001
0.07425715 0.041400004 0.69000006
0.075571433 0.041400004 0.69000006
0.076885723 0.041400004 0.69000006
0.078313336 0.041460004 0.69100004
0.079629526 0.041460004 0.69100004
0.080945723 0.041460004 0.69100004
0.082261913 0.041460004 0.69100004
0.083578102 0.041460004 0.69100004
0.084894292 0.041460004 0.69100004
0.086210482 0.041460004 0.69100004
0.087526672 0.041460004 0.69100004
0.088842861 0.041460004 0.69100004
0.090159051 0.041460004 0.69100004
0.091475241 0.041460004 0.69100004
0.092791438 0.041460004 0.69100004
0.094107628 0.041460004 0.69100004
0.095423818 0.041460004 0.69100004
0.096740007 0.041460004 0.69100004
0.025740001 0.042900003 0.69300002
0.027060002 0.042900003 0.69300002
0.028298097 0.042776193 0.69100004
0.029614288 0.042776193 0.69100004
0.030885717 0.04271429 0.69000006
0.032200001 0.04271429 0.69000006
0.033562858 0.042776193 0.69100004
0.034828573 0.04271429 0.69000006
0.03614286 0.04271429 0.69000006
0.037457146 0.04271429 0.69000006
0.03871524 0.042652383 0.68900001
0.040085718 0.04271429 0.69000006
0.041340001 0.042652383 0.68900001
0.042652383 0.042652383 0.68900001
0.043837145 0.042528573 0.68700004
0.045145717 0.042528573 0.68700004
0.046454288 0.042528573 0.68700004
0.04776286 0.042528573 0.68700004
0.049071431 0.042528573 0.68700004
0.050380003 0.042528573 0.68700004
0.051688574 0.042528573 0.68700004
0.052997146 0.042528573 0.68700004
0.054305717 0.042528573 0.68700004
0.055614289 0.042528573 0.68700004
0.056840003 0.04246667 0.68600005
0.058231432 0.042528573 0.68700004
0.059540004 0.042528573 0.68700004
0.060848575 0.042528573 0.68700004
0.062157147 0.042528573 0.68700004
0.063465722 0.042528573 0.68700004
0.064962864 0.042652383 0.68900001
0.066275239 0.042652383 0.68900001
0.067587622 0.042652383 0.68900001
0.068900004 0.042652383 0.68900001
0.070212387 0.042652383 0.68900001
0.071628578 0.04271429 0.69000006
0.07294286 0.04271429 0.69000006
0.07425715 0.04271429 0.69000006
0.075571433 0.04271429 0.69000006
0.076885723 0.04271429 0.69000006
0.078200005 0.04271429 0.69000006
0.079514287 0.04271429 0.69000006
0.080828577 0.04271429 0.69000006
0.082261913 0.042776193 0.69100004
0.08345715 0.04271429 0.69000006
0.084894292 0.042776193 0.69100004
0.086210482 0.042776193 0.69100004
0.087526672 0.042776193 0.69100004
0.088842861 0.042776193 0.69100004
0.090159051 0.042776193 0.69100004
0.091475241 0.042776193 0.69100004
0.092791438 0.042776193 0.69100004
0.094107628 0.042776193 0.69100004
0.095700003 0.042900003 0.69300002
0.096740007 0.042776193 0.69100004
0.024349526 0.044092383 0.69100004
0.025665715 0.044092383 0.69100004
0.027060002 0.044220004 0.69300002
0.028298097 0.044092383 0.69100004
0.029614288 0.044092383 0.69100004
0.030930478 0.044092383 0.69100004
0.032200001 0.044028573 0.69000006
0.033514287 0.044028573 0.69000006
0.034828573 0.044028573 0.69000006
0.036090478 0.043964766 0.68900001
0.037294287 0.043837145 0.68700004
0.038602859 0.043837145 0.68700004
0.03991143 0.043837145 0.68700004
0.041220002 0.043837145 0.68700004
0.04246667 0.043773334 0.68600005
0.043773334 0.043773334 0.68600005
0.045080002 0.043773334 0.68600005
0.04638667 0.043773334 0.68600005
0.047693338 0.043773334 0.68600005
0.049000002 0.043773334 0.68600005
0.05030667 0.043773334 0.68600005
0.051613338 0.043773334 0.68600005
0.052920002 0.043773334 0.68600005
0.05422667 0.043773334 0.68600005
0.055533338 0.043773334 0.68600005
0.056840003 0.043773334 0.68600005
0.05814667 0.043773334 0.68600005
0.059453338 0.043773334 0.68600005
0.060760003 0.043773334 0.68600005
0.062157147 0.043837145 0.68700004
0.063465722 0.043837145 0.68700004
0.06477429 0.043837145 0.68700004
0.066082865 0.043837145 0.68700004
0.067391433 0.043837145 0.68700004
0.068600006 0.043773334 0.68600005
0.070212387 0.043964766 0.68900001
0.071317151 0.043837145 0.68700004
0.072625719 0.043837145 0.68700004
0.074149527 0.043964766 0.68900001
0.075461909 0.043964766 0.68900001
0.076885723 0.044028573 0.69000006
0.078200005 0.044028573 0.69000006
0.079514287 0.044028573 0.69000006
0.080828577 0.044028573 0.69000006
0.08214286 0.044028573 0.69000006
0.08345715 0.044028573 0.69000006
0.084894292 0.044092383 0.69100004
0.086210482 0.044092383 0.69100004
0.087526672 0.044092383 0.69100004
0.088842861 0.044092383 0.69100004
0.090159051 0.044092383 0.69100004
0.091475241 0.044092383 0.69100004
0.092791438 0.044092383 0.69100004
0.094380006 0.044220004 0.69300002
0.095423818 0.044092383 0.69100004
0.096740007 0.044092383 0.69100004
0.098056197 0.044092383 0.69100004
0.023033334 0.045408573 0.69100004
0.024349526 0.045408573 0.69100004
0.025665715 0.045408573 0.69100004
0.026981907 0.045408573 0.69100004
0.028298097 0.045408573 0.69100004
0.029571431 0.045342859 0.69000006
0.030885717 0.045342859 0.69000006
0.032200001 0.045342859 0.69000006
0.033514287 0.045342859 0.69000006
0.034677144 0.045145717 0.68700004
0.035933334 0.045080002 0.68600005
0.037240002 0.045080002 0.68600005
0.038434289 0.044948574 0.68400002
0.039737146 0.044948574 0.68400002
0.041040003 0.044948574 0.68400002
0.04234286 0.044948574 0.68400002
0.043645717 0.044948574 0.68400002
0.044948574 0.044948574 0.68400002
0.046251431 0.044948574 0.68400002
0.047693338 0.045080002 0.68600005
0.048857145 0.044948574 0.68400002
0.050160002 0.044948574 0.68400002
0.051462859 0.044948574 0.68400002
0.05276572 0.044948574 0.68400002
0.05422667 0.045080002 0.68600005
0.055533338 0.045080002 0.68600005
0.056840003 0.045080002 0.68600005
0.05814667 0.045080002 0.68600005
0.059453338 0.045080002 0.68600005
0.060760003 0.045080002 0.68600005
0.062066671 0.045080002 0.68600005
0.063373335 0.045080002 0.68600005
0.064680003 0.045080002 0.68600005
0.065986671 0.045080002 0.68600005
0.067293338 0.045080002 0.68600005
0.068600006 0.045080002 0.68600005
0.070008576 0.045145717 0.68700004
0.071213335 0.045080002 0.68600005
0.072625719 0.045145717 0.68700004
0.073934294 0.045145717 0.68700004
0.075461909 0.045277145 0.68900001
0.076774292 0.045277145 0.68900001
0.078086674 0.045277145 0.68900001
0.079514287 0.045342859 0.69000006
0.080828577 0.045342859 0.69000006
0.08214286 0.045342859 0.69000006
0.08345715 0.045342859 0.69000006
0.084771432 0.045342859 0.69000006
0.086210482 0.045408573 0.69100004
0.087526672 0.045408573 0.69100004
0.088842861 0.045408573 0.69100004
0.090159051 0.045408573 0.69100004
0.091475241 0.045408573 0.69100004
0.092791438 0.045408573 0.69100004
0.094107628 0.045408573 0.69100004
0.095423818 0.045408573 0.69100004
0.096740007 0.045408573 0.69100004
0.098056197 0.045408573 0.69100004
0.021685716 0.046657145 0.69000006
0.023000002 0.046657145 0.69000006
0.024314288 0.046657145 0.69000006
0.025628572 0.046657145 0.69000006
0.026942858 0.046657145 0.69000006
0.028257145 0.046657145 0.69000006
0.029528573 0.046589527 0.68900001
0.030840954 0.046589527 0.68900001
0.032060001 0.046454288 0.68700004
0.033320002 0.04638667 0.68600005
0.03462667 0.04638667 0.68600005
0.035828575 0.046251431 0.68400002
0.037131432 0.046251431 0.68400002
0.038434289 0.046251431 0.68400002
0.03967905 0.046183813 0.68300003
0.040980004 0.046183813 0.68300003
0.04234286 0.046251431 0.68400002
0.043645717 0.046251431 0.68400002
0.04488286 0.046183813 0.68300003
0.046251431 0.046251431 0.68400002
0.047554288 0.046251431 0.68400002
0.048857145 0.046251431 0.68400002
0.050160002 0.046251431 0.68400002
0.051462859 0.046251431 0.68400002
0.05276572 0.046251431 0.68400002
0.054068577 0.046251431 0.68400002
0.055371433 0.046251431 0.68400002
0.05667429 0.046251431 0.68400002
0.057977147 0.046251431 0.68400002
0.059280004 0.046251431 0.68400002
0.060760003 0.04638667 0.68600005
0.062066671 0.04638667 0.68600005
0.063373335 0.04638667 0.68600005
0.064680003 0.04638667 0.68600005
0.065986671 0.04638667 0.68600005
0.067293338 0.04638667 0.68600005
0.068400003 0.046251431 0.68400002
0.069906674 0.04638667 0.68600005
0.071213335 0.04638667 0.68600005
0.072520003 0.04638667 0.68600005
0.073826671 0.04638667 0.68600005
0.075242862 0.046454288 0.68700004
0.076774292 0.046589527 0.68900001
0.078086674 0.046589527 0.68900001
0.079399049 0.046589527 0.68900001
0.080711432 0.046589527 0.68900001
0.08214286 0.046657145 0.69000006
0.08345715 0.046657145 0.69000006
0.084771432 0.046657145 0.69000006
0.086085722 0.046657145 0.69000006
0.087400004 0.046657145 0.69000006
0.088842861 0.046724766 0.69100004
0.090159051 0.046724766 0.69100004
0.091475241 0.046724766 0.69100004
0.092791438 0.046724766 0.69100004
0.094107628 0.046724766 0.69100004
0.095423818 0.046724766 0.69100004
0.096740007 0.046724766 0.69100004
0.097914293 0.046657145 0.69000006
0.099228576 0.046657145 0.69000006
0.016333334 0.047693338 0.68600005
0.017640002 0.047693338 0.68600005
0.018974287 0.04776286 0.68700004
0.020253334 0.047693338 0.68600005
0.021560002 0.047693338 0.68600005
0.022866668 0.047693338 0.68600005
0.024173334 0.047693338 0.68600005
0.025480002 0.047693338 0.68600005
0.026786668 0.047693338 0.68600005
0.028093334 0.047693338 0.68600005
0.029314287 0.047554288 0.68400002
0.030617144 0.047554288 0.68400002
0.031920001 0.047554288 0.68400002
0.033174288 0.047484767 0.68300003
0.034475241 0.047484767 0.68300003
0.035723813 0.047415242 0.68200004
0.037022859 0.047415242 0.68200004
0.038321909 0.047415242 0.68200004
0.039620955 0.047415242 0.68200004
0.040920004 0.047415242 0.68200004
0.04221905 0.047415242 0.68200004
0.0435181 0.047415242 0.68200004
0.044817146 0.047415242 0.68200004
0.046116192 0.047415242 0.68200004
0.047415242 0.047415242 0.68200004
0.048714288 0.047415242 0.68200004
0.05008667 0.047484767 0.68300003
0.051387623 0.047484767 0.68300003
0.052611433 0.047415242 0.68200004
0.053989526 0.047484767 0.68300003
0.055290479 0.047484767 0.68300003
0.056591433 0.047484767 0.68300003
0.057892386 0.047484767 0.68300003
0.059193335 0.047484767 0.68300003
0.060494289 0.047484767 0.68300003
0.061885718 0.047554288 0.68400002
0.063188575 0.047554288 0.68400002
0.064491436 0.047554288 0.68400002
0.065794289 0.047554288 0.68400002
0.06709715 0.047554288 0.68400002
0.068400003 0.047554288 0.68400002
0.069702864 0.047554288 0.68400002
0.071005717 0.047554288 0.68400002
0.072520003 0.047693338 0.68600005
0.073826671 0.047693338 0.68600005
0.075133339 0.047693338 0.68600005
0.07655143 0.04776286 0.68700004
0.077860005 0.04776286 0.68700004
0.079168573 0.04776286 0.68700004
0.080477148 0.04776286 0.68700004
0.082023814 0.047901906 0.68900001
0.083336197 0.047901906 0.68900001
0.084771432 0.047971431 0.69000006
0.086085722 0.047971431 0.69000006
0.087400004 0.047971431 0.69000006
0.088842861 0.048040956 0.69100004
0.090159051 0.048040956 0.69100004
0.091475241 0.048040956 0.69100004
0.093060009 0.048180003 0.69300002
0.094107628 0.048040956 0.69100004
0.095423818 0.048040956 0.69100004
0.096740007 0.048040956 0.69100004
0.098056197 0.048040956 0.69100004
0.099947624 0.048319049 0.69500005
0.014982858 0.048857145 0.68400002
0.016285716 0.048857145 0.68400002
0.017588573 0.048857145 0.68400002
0.018946668 0.049000002 0.68600005
0.020194286 0.048857145 0.68400002
0.021497143 0.048857145 0.68400002
0.022800002 0.048857145 0.68400002
0.024102859 0.048857145 0.68400002
0.025405716 0.048857145 0.68400002
0.026708573 0.048857145 0.68400002
0.02801143 0.048857145 0.68400002
0.029271431 0.048785716 0.68300003
0.030572383 0.048785716 0.68300003
0.031826667 0.048714288 0.68200004
0.033174288 0.048785716 0.68300003
0.034424763 0.048714288 0.68200004
0.035723813 0.048714288 0.68200004
0.036914289 0.04857143 0.68000001
0.038209528 0.04857143 0.68000001
0.039504763 0.04857143 0.68000001
0.040800001 0.04857143 0.68000001
0.04209524 0.04857143 0.68000001
0.043390479 0.04857143 0.68000001
0.044685718 0.04857143 0.68000001
0.045980956 0.04857143 0.68000001
0.047415242 0.048714288 0.68200004
0.04857143 0.04857143 0.68000001
0.050013337 0.048714288 0.68200004
0.051312383 0.048714288 0.68200004
0.052611433 0.048714288 0.68200004
0.053910479 0.048714288 0.68200004
0.055209529 0.048714288 0.68200004
0.056508575 0.048714288 0.68200004
0.057807624 0.048714288 0.68200004
0.05910667 0.048714288 0.68200004
0.06040572 0.048714288 0.68200004
0.061795242 0.048785716 0.68300003
0.063096195 0.048785716 0.68300003
0.064491436 0.048857145 0.68400002
0.065794289 0.048857145 0.68400002
0.066999055 0.048785716 0.68300003
0.068300001 0.048785716 0.68300003
0.069702864 0.048857145 0.68400002
0.071005717 0.048857145 0.68400002
0.072308578 0.048857145 0.68400002
0.073611431 0.048857145 0.68400002
0.075133339 0.049000002 0.68600005
0.076440006 0.049000002 0.68600005
0.077746674 0.049000002 0.68600005
0.079168573 0.049071431 0.68700004
0.080477148 0.049071431 0.68700004
0.082023814 0.049214289 0.68900001
0.083336197 0.049214289 0.68900001
0.084771432 0.049285717 0.69000006
0.086085722 0.049285717 0.69000006
0.087400004 0.049285717 0.69000006
0.088714294 0.049285717 0.69000006
0.090159051 0.049357146 0.69100004
0.091475241 0.049357146 0.69100004
0.093060009 0.049500003 0.69300002
0.094516195 0.049571432 0.69400001
0.0958381 0.049571432 0.69400001
0.097160004 0.049571432 0.69400001
0.09862382 0.049642861 0.69500005
0.10023525 0.049785718 0.69700003
0.012359048 0.05008667 0.68300003
0.013660001 0.05008667 0.68300003
0.014960953 0.05008667 0.68300003
0.016261905 0.05008667 0.68300003
0.017562859 0.05008667 0.68300003
0.01886381 0.05008667 0.68300003
0.020164764 0.05008667 0.68300003
0.021465715 0.05008667 0.68300003
0.022766668 0.05008667 0.68300003
0.024032382 0.050013337 0.68200004
0.02533143 0.050013337 0.68200004
0.026630478 0.050013337 0.68200004
0.027929526 0.050013337 0.68200004
0.029228574 0.050013337 0.68200004
0.030527622 0.050013337 0.68200004
0.031826667 0.050013337 0.68200004
0.033125717 0.050013337 0.68200004
0.034424763 0.050013337 0.68200004
0.03561905 0.049866669 0.68000001
0.036914289 0.049866669 0.68000001
0.038209528 0.049866669 0.68000001
0.039504763 0.049866669 0.68000001
0.040800001 0.049866669 0.68000001
0.04209524 0.049866669 0.68000001
0.043390479 0.049866669 0.68000001
0.044685718 0.049866669 0.68000001
0.045980956 0.049866669 0.68000001
0.047276195 0.049866669 0.68000001
0.04857143 0.049866669 0.68000001
0.049866669 0.049866669 0.68000001
0.051161908 0.049866669 0.68000001
0.052457146 0.049866669 0.68000001
0.053752385 0.049866669 0.68000001
0.055047624 0.049866669 0.68000001
0.056342863 0.049866669 0.68000001
0.057638098 0.049866669 0.68000001
0.05910667 0.050013337 0.68200004
0.06040572 0.050013337 0.68200004
0.061523814 0.049866669 0.68000001
0.062819049 0.049866669 0.68000001
0.064302862 0.050013337 0.68200004
0.065601908 0.050013337 0.68200004
0.066900954 0.050013337 0.68200004
0.068300001 0.05008667 0.68300003
0.069702864 0.050160002 0.68400002
0.071005717 0.050160002 0.68400002
0.072308578 0.050160002 0.68400002
0.073611431 0.050160002 0.68400002
0.075133339 0.05030667 0.68600005
0.076440006 0.05030667 0.68600005
0.077746674 0.05030667 0.68600005
0.079053335 0.05030667 0.68600005
0.080477148 0.050380003 0.68700004
0.082023814 0.050526671 0.68900001
0.083336197 0.050526671 0.68900001
0.084771432 0.050600003 0.69000006
0.086085722 0.050600003 0.69000006
0.087400004 0.050600003 0.69000006
0.088714294 0.050600003 0.69000006
0.090159051 0.050673336 0.69100004
0.091475241 0.050673336 0.69100004
0.093060009 0.050820004 0.69300002
0.094516195 0.050893337 0.69400001
0.0958381 0.050893337 0.69400001
0.097300008 0.050966669 0.69500005
0.098907627 0.051113337 0.69700003
0.10023525 0.051113337 0.69700003
0.011058096 0.051387623 0.68300003
0.012359048 0.051387623 0.68300003
0.01364 0.051312383 0.68200004
0.014960953 0.051387623 0.68300003
0.016261905 0.051387623 0.68300003
0.017562859 0.051387623 0.68300003
0.01886381 0.051387623 0.68300003
0.020135239 0.051312383 0.68200004
0.021434287 0.051312383 0.68200004
0.022733334 0.051312383 0.68200004
0.023961907 0.051161908 0.68000001
0.025257144 0.051161908 0.68000001
0.026552383 0.051161908 0.68000001
0.027847622 0.051161908 0.68000001
0.029142858 0.051161908 0.68000001
0.030438097 0.051161908 0.68000001
0.031733334 0.051161908 0.68000001
0.033028573 0.051161908 0.68000001
0.034323812 0.051161908 0.68000001
0.03561905 0.051161908 0.68000001
0.036914289 0.051161908 0.68000001
0.038209528 0.051161908 0.68000001
0.039504763 0.051161908 0.68000001
0.040800001 0.051161908 0.68000001
0.04209524 0.051161908 0.68000001
0.043390479 0.051161908 0.68000001
0.044685718 0.051161908 0.68000001
0.045980956 0.051161908 0.68000001
0.047276195 0.051161908 0.68000001
0.04857143 0.051161908 0.68000001
0.049793337 0.051086672 0.67900002
0.051161908 0.051161908 0.68000001
0.052457146 0.051161908 0.68000001
0.053752385 0.051161908 0.68000001
0.055047624 0.051161908 0.68000001
0.056342863 0.051161908 0.68000001
0.057638098 0.051161908 0.68000001
0.058933336 0.051161908 0.68000001
0.060228575 0.051161908 0.68000001
0.061523814 0.051161908 0.68000001
0.062819049 0.051161908 0.68000001
0.064114287 0.051161908 0.68000001
0.065409526 0.051161908 0.68000001
0.066900954 0.051312383 0.68200004
0.068200007 0.051312383 0.68200004
0.069499053 0.051312383 0.68200004
0.070901908 0.051387623 0.68300003
0.072308578 0.051462859 0.68400002
0.073611431 0.051462859 0.68400002
0.075133339 0.051613338 0.68600005
0.076440006 0.051613338 0.68600005
0.077746674 0.051613338 0.68600005
0.079053335 0.051613338 0.68600005
0.080477148 0.051688574 0.68700004
0.081785716 0.051688574 0.68700004
0.083336197 0.05183905 0.68900001
0.084771432 0.05191429 0.69000006
0.086085722 0.05191429 0.69000006
0.087400004 0.05191429 0.69000006
0.088714294 0.05191429 0.69000006
0.090159051 0.051989526 0.69100004
0.091475241 0.051989526 0.69100004
0.093060009 0.052140005 0.69300002
0.094516195 0.052215241 0.69400001
0.0958381 0.052215241 0.69400001
0.097300008 0.052290481 0.69500005
0.098907627 0.052440956 0.69700003
0.10023525 0.052440956 0.69700003
0.1205162 0.060641907 0.80600005
0.0097428579 0.052611433 0.68200004
0.011058096 0.052688576 0.68300003
0.012359048 0.052688576 0.68300003
0.01364 0.052611433 0.68200004
0.014939048 0.052611433 0.68200004
0.016238097 0.052611433 0.68200004
0.017537143 0.052611433 0.68200004
0.018836191 0.052611433 0.68200004
0.020076191 0.052457146 0.68000001
0.02137143 0.052457146 0.68000001
0.022666669 0.052457146 0.68000001
0.023961907 0.052457146 0.68000001
0.025220001 0.052380003 0.67900002
0.026513334 0.052380003 0.67900002
0.027806668 0.052380003 0.67900002
0.029100003 0.052380003 0.67900002
0.030393336 0.052380003 0.67900002
0.031733334 0.052457146 0.68000001
0.033028573 0.052457146 0.68000001
0.034323812 0.052457146 0.68000001
0.03561905 0.052457146 0.68000001
0.036860004 0.052380003 0.67900002
0.038153335 0.052380003 0.67900002
0.039446671 0.052380003 0.67900002
0.040740002 0.052380003 0.67900002
0.042033337 0.052380003 0.67900002
0.043326668 0.052380003 0.67900002
0.044620004 0.052380003 0.67900002
0.045913335 0.052380003 0.67900002
0.04720667 0.052380003 0.67900002
0.048500001 0.052380003 0.67900002
0.049793337 0.052380003 0.67900002
0.051086672 0.052380003 0.67900002
0.052380003 0.052380003 0.67900002
0.053673338 0.052380003 0.67900002
0.05496667 0.052380003 0.67900002
0.056260005 0.052380003 0.67900002
0.057553336 0.052380003 0.67900002
0.058933336 0.052457146 0.68000001
0.060228575 0.052457146 0.68000001
0.061523814 0.052457146 0.68000001
0.062819049 0.052457146 0.68000001
0.064114287 0.052457146 0.68000001
0.065409526 0.052457146 0.68000001
0.066704765 0.052457146 0.68000001
0.068200007 0.052611433 0.68200004
0.069499053 0.052611433 0.68200004
0.070798099 0.052611433 0.68200004
0.072202861 0.052688576 0.68300003
0.073611431 0.05276572 0.68400002
0.074914292 0.05276572 0.68400002
0.076440006 0.052920002 0.68600005
0.077746674 0.052920002 0.68600005
0.079053335 0.052920002 0.68600005
0.080477148 0.052997146 0.68700004
0.081785716 0.052997146 0.68700004
0.083094291 0.052997146 0.68700004
0.084771432 0.053228576 0.69000006
0.085960954 0.053151432 0.68900001
0.087400004 0.053228576 0.69000006
0.088714294 0.053228576 0.69000006
0.090159051 0.053305719 0.69100004
0.091475241 0.053305719 0.69100004
0.093060009 0.053460002 0.69300002
0.094380006 0.053460002 0.69300002
0.0958381 0.053537145 0.69400001
0.097160004 0.053537145 0.69400001
0.09862382 0.053614289 0.69500005
0.10023525 0.053768575 0.69700003
0.10156287 0.053768575 0.69700003
0.12174858 0.062022861 0.80400002
0.00844381 0.053910479 0.68200004
0.0097571434 0.053989526 0.68300003
0.011058096 0.053989526 0.68300003
0.012359048 0.053989526 0.68300003
0.01364 0.053910479 0.68200004
0.014939048 0.053910479 0.68200004
0.016190477 0.053752385 0.68000001
0.017485715 0.053752385 0.68000001
0.018780954 0.053752385 0.68000001
0.020076191 0.053752385 0.68000001
0.021340001 0.053673338 0.67900002
0.022633335 0.053673338 0.67900002
0.023926668 0.053673338 0.67900002
0.025220001 0.053673338 0.67900002
0.026513334 0.053673338 0.67900002
0.027806668 0.053673338 0.67900002
0.029100003 0.053673338 0.67900002
0.030393336 0.053673338 0.67900002
0.031686667 0.053673338 0.67900002
0.032980002 0.053673338 0.67900002
0.034273334 0.053673338 0.67900002
0.035566669 0.053673338 0.67900002
0.036860004 0.053673338 0.67900002
0.038153335 0.053673338 0.67900002
0.039446671 0.053673338 0.67900002
0.040740002 0.053673338 0.67900002
0.042033337 0.053673338 0.67900002
0.043262862 0.053594287 0.67800003
0.044620004 0.053673338 0.67900002
0.045913335 0.053673338 0.67900002
0.04720667 0.053673338 0.67900002
0.048500001 0.053673338 0.67900002
0.049793337 0.053673338 0.67900002
0.051086672 0.053673338 0.67900002
0.052380003 0.053673338 0.67900002
0.053673338 0.053673338 0.67900002
0.05496667 0.053673338 0.67900002
0.056260005 0.053673338 0.67900002
0.057553336 0.053673338 0.67900002
0.058846671 0.053673338 0.67900002
0.060140003 0.053673338 0.67900002
0.061523814 0.053752385 0.68000001
0.062819049 0.053752385 0.68000001
0.064114287 0.053752385 0.68000001
0.065409526 0.053752385 0.68000001
0.066704765 0.053752385 0.68000001
0.068000004 0.053752385 0.68000001
0.069295242 0.053752385 0.68000001
0.070798099 0.053910479 0.68200004
0.072097145 0.053910479 0.68200004
0.073503815 0.053989526 0.68300003
0.075133339 0.05422667 0.68600005
0.076440006 0.05422667 0.68600005
0.077746674 0.05422667 0.68600005
0.079168573 0.054305717 0.68700004
0.080477148 0.054305717 0.68700004
0.081785716 0.054305717 0.68700004
0.083094291 0.054305717 0.68700004
0.084648579 0.054463815 0.68900001
0.085960954 0.054463815 0.68900001
0.087273337 0.054463815 0.68900001
0.088714294 0.054542862 0.69000006
0.090159051 0.054621909 0.69100004
0.091475241 0.054621909 0.69100004
0.093060009 0.054780003 0.69300002
0.094516195 0.05485905 0.69400001
0.0958381 0.05485905 0.69400001
0.097160004 0.05485905 0.69400001
0.098481908 0.05485905 0.69400001
0.099947624 0.0549381 0.69500005
0.0071447622 0.055209529 0.68200004
0.008419048 0.055047624 0.68000001
0.0097428579 0.055209529 0.68200004
0.011041906 0.055209529 0.68200004
0.012340954 0.055209529 0.68200004
0.013600001 0.055047624 0.68000001
0.014895239 0.055047624 0.68000001
0.016190477 0.055047624 0.68000001
0.017460002 0.05496667 0.67900002
0.018753335 0.05496667 0.67900002
0.020046668 0.05496667 0.67900002
0.021308573 0.054885719 0.67800003
0.022600001 0.054885719 0.67800003
0.02389143 0.054885719 0.67800003
0.025182858 0.054885719 0.67800003
0.026474288 0.054885719 0.67800003
0.027765715 0.054885719 0.67800003
0.029057145 0.054885719 0.67800003
0.030348573 0.054885719 0.67800003
0.031686667 0.05496667 0.67900002
0.032980002 0.05496667 0.67900002
0.034273334 0.05496667 0.67900002
0.035566669 0.05496667 0.67900002
0.036860004 0.05496667 0.67900002
0.038153335 0.05496667 0.67900002
0.039388575 0.054885719 0.67800003
0.040680002 0.054885719 0.67800003
0.04197143 0.054885719 0.67800003
0.043262862 0.054885719 0.67800003
0.044554289 0.054885719 0.67800003
0.045913335 0.05496667 0.67900002
0.04720667 0.05496667 0.67900002
0.048500001 0.05496667 0.67900002
0.049720004 0.054885719 0.67800003
0.051011432 0.054885719 0.67800003
0.052380003 0.05496667 0.67900002
0.053673338 0.05496667 0.67900002
0.054885719 0.054885719 0.67800003
0.056260005 0.05496667 0.67900002
0.057553336 0.05496667 0.67900002
0.058846671 0.05496667 0.67900002
0.060140003 0.05496667 0.67900002
0.061433338 0.05496667 0.67900002
0.062726669 0.05496667 0.67900002
0.064114287 0.055047624 0.68000001
0.065409526 0.055047624 0.68000001
0.066704765 0.055047624 0.68000001
0.068000004 0.055047624 0.68000001
0.069295242 0.055047624 0.68000001
0.070590481 0.055047624 0.68000001
0.072097145 0.055209529 0.68200004
0.073503815 0.055290479 0.68300003
0.075133339 0.055533338 0.68600005
0.076440006 0.055533338 0.68600005
0.077746674 0.055533338 0.68600005
0.079168573 0.055614289 0.68700004
0.080477148 0.055614289 0.68700004
0.081785716 0.055614289 0.68700004
0.083094291 0.055614289 0.68700004
0.084648579 0.055776194 0.68900001
0.085960954 0.055776194 0.68900001
0.087273337 0.055776194 0.68900001
0.088714294 0.055857148 0.69000006
0.090159051 0.055938099 0.69100004
0.091475241 0.055938099 0.69100004
0.093060009 0.056100003 0.69300002
0.094380006 0.056100003 0.69300002
0.095700003 0.056100003 0.69300002
0.097020008 0.056100003 0.69300002
0.098340005 0.056100003 0.69300002
0.099660009 0.056100003 0.69300002
0.0045266668 0.056260005 0.67900002
0.0058200005 0.056260005 0.67900002
0.0071238098 0.056342863 0.68000001
0.008419048 0.056342863 0.68000001
0.0097142868 0.056342863 0.68000001
0.011009525 0.056342863 0.68000001
0.012304762 0.056342863 0.68000001
0.013580001 0.056260005 0.67900002
0.014873334 0.056260005 0.67900002
0.016166668 0.056260005 0.67900002
0.017434286 0.056177147 0.67800003
0.018725716 0.056177147 0.67800003
0.020017143 0.056177147 0.67800003
0.021245716 0.056011431 0.67600006
0.022600001 0.056177147 0.67800003
0.023820953 0.056011431 0.67600006
0.025108574 0.056011431 0.67600006
0.026396193 0.056011431 0.67600006
0.027683811 0.056011431 0.67600006
0.02897143 0.056011431 0.67600006
0.030348573 0.056177147 0.67800003
0.031640001 0.056177147 0.67800003
0.032931432 0.056177147 0.67800003
0.03422286 0.056177147 0.67800003
0.035514288 0.056177147 0.67800003
0.036805715 0.056177147 0.67800003
0.038097147 0.056177147 0.67800003
0.039272383 0.056011431 0.67600006
0.040560003 0.056011431 0.67600006
0.04184762 0.056011431 0.67600006
0.043135241 0.056011431 0.67600006
0.044422861 0.056011431 0.67600006
0.045845717 0.056177147 0.67800003
0.047137145 0.056177147 0.67800003
0.048428576 0.056177147 0.67800003
0.049720004 0.056177147 0.67800003
0.051011432 0.056177147 0.67800003
0.05230286 0.056177147 0.67800003
0.053594287 0.056177147 0.67800003
0.054885719 0.056177147 0.67800003
0.056177147 0.056177147 0.67800003
0.057468574 0.056177147 0.67800003
0.058846671 0.056260005 0.67900002
0.060140003 0.056260005 0.67900002
0.061433338 0.056260005 0.67900002
0.062726669 0.056260005 0.67900002
0.064020008 0.056260005 0.67900002
0.065313339 0.056260005 0.67900002
0.066704765 0.056342863 0.68000001
0.068000004 0.056342863 0.68000001
0.069295242 0.056342863 0.68000001
0.070590481 0.056342863 0.68000001
0.072097145 0.056508575 0.68200004
0.073503815 0.056591433 0.68300003
0.075133339 0.056840003 0.68600005
0.076440006 0.056840003 0.68600005
