# .PCD v0.7 - Point Cloud Data file format
VERSION 0.7
FIELDS x y z
SIZE 4 4 4
TYPE F F F
COUNT 1 1 1
WIDTH 1418
HEIGHT 1
VIEWPOINT 0 0 0 1 0 0 0
POINTS 1418
DATA ascii
0.081891432 0.076539055 0.56200004
0.083109528 0.076675244 0.56300002
0.084181912 0.076675244 0.56300002
0.086011432 0.077356197 0.56800002
0.086940005 0.077220008 0.56700003
0.088330485 0.077492386 0.56900001
0.029961906 0.078990482 0.57200003
0.030888574 0.078576192 0.56900001
0.031916194 0.078438103 0.56800002
0.032940004 0.078300007 0.56700003
0.033900004 0.078023814 0.565
0.034914289 0.077885717 0.56400001
0.035924762 0.077747621 0.56300002
0.036931433 0.077609532 0.56200004
0.038001906 0.077609532 0.56200004
0.039002858 0.077471435 0.56100005
0.040000003 0.077333339 0.56
0.040993337 0.077195242 0.55900002
0.042058099 0.077195242 0.55900002
0.043122862 0.077195242 0.55900002
0.044108573 0.077057146 0.55800003
0.045090478 0.076919049 0.55700004
0.046151433 0.076919049 0.55700004
0.047127623 0.07678096 0.55600005
0.048100002 0.076642863 0.55500001
0.049157146 0.076642863 0.55500001
0.050214291 0.076642863 0.55500001
0.051179051 0.076504767 0.55400002
0.052234288 0.076504767 0.55400002
0.053289529 0.076504767 0.55400002
0.054246671 0.07636667 0.55300003
0.055300005 0.07636667 0.55300003
0.056353338 0.07636667 0.55300003
0.057406671 0.07636667 0.55300003
0.058460005 0.07636667 0.55300003
0.059513338 0.07636667 0.55300003
0.060566671 0.07636667 0.55300003
0.061620004 0.07636667 0.55300003
0.062786669 0.076504767 0.55400002
0.063841909 0.076504767 0.55400002
0.06489715 0.076504767 0.55400002
0.065952383 0.076504767 0.55400002
0.067007624 0.076504767 0.55400002
0.068185717 0.076642863 0.55500001
0.069242865 0.076642863 0.55500001
0.070426673 0.07678096 0.55600005
0.071614288 0.076919049 0.55700004
0.072805718 0.077057146 0.55800003
0.074000955 0.077195242 0.55900002
0.075200006 0.077333339 0.56
0.076266669 0.077333339 0.56
0.077333339 0.077333339 0.56
0.078540005 0.077471435 0.56100005
0.079892389 0.077747621 0.56300002
0.080964766 0.077747621 0.56300002
0.082182862 0.077885717 0.56400001
0.083257146 0.077885717 0.56400001
0.084480956 0.078023814 0.565
0.086011432 0.078438103 0.56800002
0.086940005 0.078300007 0.56700003
0.088020004 0.078300007 0.56700003
0.027928574 0.080500007 0.57500005
0.028973335 0.080360003 0.574
0.030014288 0.080220006 0.57300001
0.030997144 0.079940006 0.57100004
0.032028574 0.079800002 0.57000005
0.033056192 0.079660006 0.56900001
0.033960003 0.079240002 0.56600004
0.034976192 0.079100005 0.565
0.035988573 0.078960001 0.56400001
0.036997147 0.078820005 0.56300002
0.038069528 0.078820005 0.56300002
0.039072383 0.078680009 0.56200004
0.040071432 0.078540005 0.56100005
0.041066669 0.078400008 0.56
0.042133335 0.078400008 0.56
0.043122862 0.078260005 0.55900002
0.044108573 0.078120008 0.55800003
0.045090478 0.077980004 0.55700004
0.046151433 0.077980004 0.55700004
0.047127623 0.077840008 0.55600005
0.048186671 0.077840008 0.55600005
0.049245719 0.077840008 0.55600005
0.050214291 0.077700004 0.55500001
0.051271431 0.077700004 0.55500001
0.052328575 0.077700004 0.55500001
0.053289529 0.077560008 0.55400002
0.054344766 0.077560008 0.55400002
0.055400003 0.077560008 0.55400002
0.056455243 0.077560008 0.55400002
0.05751048 0.077560008 0.55400002
0.058565717 0.077560008 0.55400002
0.059620958 0.077560008 0.55400002
0.060676195 0.077560008 0.55400002
0.061731432 0.077560008 0.55400002
0.062786669 0.077560008 0.55400002
0.063957147 0.077700004 0.55500001
0.065014288 0.077700004 0.55500001
0.066071436 0.077700004 0.55500001
0.067128576 0.077700004 0.55500001
0.068185717 0.077700004 0.55500001
0.069367625 0.077840008 0.55600005
0.07055334 0.077980004 0.55700004
0.071742862 0.078120008 0.55800003
0.072936192 0.078260005 0.55900002
0.074133337 0.078400008 0.56
0.075200006 0.078400008 0.56
0.076402865 0.078540005 0.56100005
0.077471435 0.078540005 0.56100005
0.078680009 0.078680009 0.56200004
0.079892389 0.078820005 0.56300002
0.081108578 0.078960001 0.56400001
0.08232858 0.079100005 0.565
0.083404765 0.079100005 0.565
0.085079052 0.079660006 0.56900001
0.086162865 0.079660006 0.56900001
0.087246671 0.079660006 0.56900001
0.027928574 0.081595242 0.57500005
0.028973335 0.081453338 0.574
0.030014288 0.081311435 0.57300001
0.031051431 0.081169531 0.57200003
0.032084763 0.081027627 0.57100004
0.033114288 0.080885723 0.57000005
0.034140002 0.080743812 0.56900001
0.035038099 0.080318101 0.56600004
0.036052383 0.080176197 0.565
0.037062861 0.080034293 0.56400001
0.038069528 0.079892389 0.56300002
0.039072383 0.079750478 0.56200004
0.04014286 0.079750478 0.56200004
0.041213337 0.079750478 0.56200004
0.042133335 0.079466671 0.56
0.043200001 0.079466671 0.56
0.04418762 0.079324767 0.55900002
0.045171432 0.079182863 0.55800003
0.046234287 0.079182863 0.55800003
0.047212385 0.079040959 0.55700004
0.048186671 0.078899056 0.55600005
0.049245719 0.078899056 0.55600005
0.050214291 0.078757145 0.55500001
0.051271431 0.078757145 0.55500001
0.052328575 0.078757145 0.55500001
0.053385716 0.078757145 0.55500001
0.05444286 0.078757145 0.55500001
0.055500004 0.078757145 0.55500001
0.056455243 0.078615241 0.55400002
0.05751048 0.078615241 0.55400002
0.058565717 0.078615241 0.55400002
0.059728574 0.078757145 0.55500001
0.060785718 0.078757145 0.55500001
0.061842863 0.078757145 0.55500001
0.062900007 0.078757145 0.55500001
0.063957147 0.078757145 0.55500001
0.065014288 0.078757145 0.55500001
0.066071436 0.078757145 0.55500001
0.067249529 0.078899056 0.55600005
0.068308577 0.078899056 0.55600005
0.069492385 0.079040959 0.55700004
0.070680007 0.079182863 0.55800003
0.07187143 0.079324767 0.55900002
0.073066674 0.079466671 0.56
0.074133337 0.079466671 0.56
0.075200006 0.079466671 0.56
0.076402865 0.079608575 0.56100005
0.077609532 0.079750478 0.56200004
0.078820005 0.079892389 0.56300002
0.080034293 0.080034293 0.56400001
0.081252389 0.080176197 0.565
0.08232858 0.080176197 0.565
0.083552383 0.080318101 0.56600004
0.085228577 0.080885723 0.57000005
0.086162865 0.080743812 0.56900001
0.087246671 0.080743812 0.56900001
0.027977144 0.082834288 0.57600003
0.029124765 0.0829781 0.57700002
0.030066669 0.082546674 0.574
0.031105716 0.082402863 0.57300001
0.032084763 0.08211524 0.57100004
0.033172384 0.08211524 0.57100004
0.034140002 0.081827626 0.56900001
0.035100002 0.081540003 0.56700003
0.036116194 0.081396192 0.56600004
0.037194289 0.081396192 0.56600004
0.038137145 0.081108578 0.56400001
0.039141908 0.080964766 0.56300002
0.040214289 0.080964766 0.56300002
0.041213337 0.080820955 0.56200004
0.042283811 0.080820955 0.56200004
0.043277144 0.080677152 0.56100005
0.044266671 0.080533341 0.56
0.045252383 0.080389529 0.55900002
0.046317145 0.080389529 0.55900002
0.047297146 0.080245718 0.55800003
0.048360005 0.080245718 0.55800003
0.049334288 0.080101907 0.55700004
0.050304767 0.079958104 0.55600005
0.051363815 0.079958104 0.55600005
0.052422859 0.079958104 0.55600005
0.053385716 0.079814292 0.55500001
0.05444286 0.079814292 0.55500001
0.055500004 0.079814292 0.55500001
0.056557145 0.079814292 0.55500001
0.057614289 0.079814292 0.55500001
0.058671433 0.079814292 0.55500001
0.059728574 0.079814292 0.55500001
0.060785718 0.079814292 0.55500001
0.061842863 0.079814292 0.55500001
0.062900007 0.079814292 0.55500001
0.064072385 0.079958104 0.55600005
0.065131433 0.079958104 0.55600005
0.066190481 0.079958104 0.55600005
0.067370482 0.080101907 0.55700004
0.06843143 0.080101907 0.55700004
0.069617145 0.080245718 0.55800003
0.070680007 0.080245718 0.55800003
0.07187143 0.080389529 0.55900002
0.073066674 0.080533341 0.56
0.074265718 0.080677152 0.56100005
0.075334288 0.080677152 0.56100005
0.076539055 0.080820955 0.56200004
0.077747621 0.080964766 0.56300002
0.078960001 0.081108578 0.56400001
0.080176197 0.081252389 0.565
0.081396192 0.081396192 0.56600004
0.082620002 0.081540003 0.56700003
0.083995245 0.081827626 0.56900001
0.085228577 0.081971437 0.57000005
0.086314291 0.081971437 0.57000005
0.087400004 0.081971437 0.57000005
0.15630573 0.10397429 0.72300005
0.029175241 0.084222861 0.57800001
0.030223811 0.08407715 0.57700002
0.031160003 0.083640009 0.574
0.032197144 0.083494291 0.57300001
0.03323048 0.08334858 0.57200003
0.034200002 0.08305715 0.57000005
0.035285715 0.08305715 0.57000005
0.036180001 0.082620002 0.56700003
0.037260003 0.082620002 0.56700003
0.038204763 0.08232858 0.565
0.03921143 0.082182862 0.56400001
0.040214289 0.082037151 0.56300002
0.04128667 0.082037151 0.56300002
0.042283811 0.081891432 0.56200004
0.043354288 0.081891432 0.56200004
0.044345718 0.081745721 0.56100005
0.045333337 0.081600003 0.56
0.046400003 0.081600003 0.56
0.047381908 0.081454292 0.55900002
0.04844667 0.081454292 0.55900002
0.04942286 0.081308573 0.55800003
0.050304767 0.081017151 0.55600005
0.051363815 0.081017151 0.55600005
0.052422859 0.081017151 0.55600005
0.053481907 0.081017151 0.55600005
0.05444286 0.080871433 0.55500001
0.055500004 0.080871433 0.55500001
0.056557145 0.080871433 0.55500001
0.057614289 0.080871433 0.55500001
0.058671433 0.080871433 0.55500001
0.059728574 0.080871433 0.55500001
0.060785718 0.080871433 0.55500001
0.06195429 0.081017151 0.55600005
0.063013338 0.081017151 0.55600005
0.064072385 0.081017151 0.55600005
0.065248579 0.081162862 0.55700004
0.066428579 0.081308573 0.55800003
0.067491435 0.081308573 0.55800003
0.06855429 0.081308573 0.55800003
0.069741912 0.081454292 0.55900002
0.070806675 0.081454292 0.55900002
0.072000004 0.081600003 0.56
0.073197149 0.081745721 0.56100005
0.0743981 0.081891432 0.56200004
0.075468577 0.081891432 0.56200004
0.076675244 0.082037151 0.56300002
0.077885717 0.082182862 0.56400001
0.079100005 0.08232858 0.565
0.080176197 0.08232858 0.565
0.081540003 0.082620002 0.56700003
0.082765721 0.082765721 0.56800002
0.084142864 0.08305715 0.57000005
0.085378103 0.083202861 0.57100004
0.086465716 0.083202861 0.57100004
0.087553337 0.083202861 0.57100004
0.028220002 0.085766673 0.58100003
0.029276192 0.085619055 0.58000004
0.030276192 0.085323818 0.57800001
0.031214288 0.084880956 0.57500005
0.032309525 0.084880956 0.57500005
0.033288572 0.084585719 0.57300001
0.034320001 0.0844381 0.57200003
0.035347622 0.084290482 0.57100004
0.036307622 0.083995245 0.56900001
0.037325718 0.083847627 0.56800002
0.038340002 0.083700009 0.56700003
0.039280955 0.083404765 0.565
0.040285718 0.083257146 0.56400001
0.041360002 0.083257146 0.56400001
0.04235905 0.083109528 0.56300002
0.043431431 0.083109528 0.56300002
0.044503812 0.083109528 0.56300002
0.045495242 0.082961909 0.56200004
0.046565719 0.082961909 0.56200004
0.047466669 0.082666673 0.56
0.04844667 0.082519054 0.55900002
0.049511433 0.082519054 0.55900002
0.050395243 0.082223818 0.55700004
0.051456194 0.082223818 0.55700004
0.052517146 0.082223818 0.55700004
0.053481907 0.082076199 0.55600005
0.054540955 0.082076199 0.55600005
0.055600002 0.082076199 0.55600005
0.05665905 0.082076199 0.55600005
0.057821907 0.082223818 0.55700004
0.058777146 0.082076199 0.55600005
0.059836194 0.082076199 0.55600005
0.060895242 0.082076199 0.55600005
0.062065717 0.082223818 0.55700004
0.063240007 0.082371436 0.55800003
0.064302862 0.082371436 0.55800003
0.065365717 0.082371436 0.55800003
0.066547625 0.082519054 0.55900002
0.067612387 0.082519054 0.55900002
0.06867715 0.082519054 0.55900002
0.069741912 0.082519054 0.55900002
0.070933335 0.082666673 0.56
0.072128579 0.082814291 0.56100005
0.073197149 0.082814291 0.56100005
0.0743981 0.082961909 0.56200004
0.075602859 0.083109528 0.56300002
0.076811433 0.083257146 0.56400001
0.077885717 0.083257146 0.56400001
0.079100005 0.083404765 0.565
0.080318101 0.083552383 0.56600004
0.081540003 0.083700009 0.56700003
0.082765721 0.083847627 0.56800002
0.084142864 0.084142864 0.57000005
0.085527621 0.0844381 0.57200003
0.086465716 0.084290482 0.57100004
0.087553337 0.084290482 0.57100004
0.027393335 0.087770484 0.58700001
0.028317144 0.087172389 0.583
0.029377146 0.087022863 0.58200002
0.030328574 0.086574294 0.57900006
0.031322859 0.086275242 0.57700002
0.032365717 0.086125717 0.57600003
0.033404764 0.085976198 0.57500005
0.034440003 0.085826673 0.574
0.035471432 0.085677147 0.57300001
0.036435239 0.085378103 0.57100004
0.037457146 0.085228577 0.57000005
0.038475242 0.085079052 0.56900001
0.039489526 0.084929526 0.56800002
0.040428575 0.084630482 0.56600004
0.041433334 0.084480956 0.565
0.042509526 0.084480956 0.565
0.043585718 0.084480956 0.565
0.044582859 0.08433143 0.56400001
0.045657147 0.08433143 0.56400001
0.046648573 0.084181912 0.56300002
0.047720954 0.084181912 0.56300002
0.048706669 0.084032387 0.56200004
0.049777146 0.084032387 0.56200004
0.050757147 0.083882861 0.56100005
0.051733337 0.083733335 0.56
0.052800003 0.083733335 0.56
0.053770479 0.083583817 0.55900002
0.054737147 0.083434291 0.55800003
0.055900004 0.083583817 0.55900002
0.056964766 0.083583817 0.55900002
0.058029529 0.083583817 0.55900002
0.059094291 0.083583817 0.55900002
0.059943814 0.083284765 0.55700004
0.061223812 0.083583817 0.55900002
0.062288575 0.083583817 0.55900002
0.063353337 0.083583817 0.55900002
0.0644181 0.083583817 0.55900002
0.065482862 0.083583817 0.55900002
0.06666667 0.083733335 0.56
0.06773334 0.083733335 0.56
0.068800002 0.083733335 0.56
0.069991432 0.083882861 0.56100005
0.071186669 0.084032387 0.56200004
0.072385721 0.084181912 0.56300002
0.073458098 0.084181912 0.56300002
0.074662864 0.08433143 0.56400001
0.075737149 0.08433143 0.56400001
0.076947622 0.084480956 0.565
0.078023814 0.084480956 0.565
0.079240002 0.084630482 0.56600004
0.080601908 0.084929526 0.56800002
0.081971437 0.085228577 0.57000005
0.083202861 0.085378103 0.57100004
0.0844381 0.085527621 0.57200003
0.085677147 0.085677147 0.57300001
0.086768575 0.085677147 0.57300001
0.087860003 0.085677147 0.57300001
0.029427622 0.088282861 0.583
0.030380955 0.087828577 0.58000004
0.031377144 0.087525718 0.57800001
0.032478098 0.087525718 0.57800001
0.03346286 0.087222859 0.57600003
0.034500003 0.087071434 0.57500005
0.035533335 0.086920008 0.574
0.036435239 0.086465716 0.57100004
0.037457146 0.086314291 0.57000005
0.038542859 0.086314291 0.57000005
0.039559051 0.086162865 0.56900001
0.040500004 0.085860007 0.56700003
0.04150667 0.085708573 0.56600004
0.042509526 0.085557148 0.565
0.043585718 0.085557148 0.565
0.044582859 0.085405722 0.56400001
0.045657147 0.085405722 0.56400001
0.046731431 0.085405722 0.56400001
0.047720954 0.085254289 0.56300002
0.048793338 0.085254289 0.56300002
0.049777146 0.085102864 0.56200004
0.050847623 0.085102864 0.56200004
0.051825717 0.084951431 0.56100005
0.052800003 0.084800005 0.56
0.05386667 0.084800005 0.56
0.054835241 0.084648579 0.55900002
0.055900004 0.084648579 0.55900002
0.057066672 0.084800005 0.56
0.058133338 0.084800005 0.56
0.059094291 0.084648579 0.55900002
0.06015905 0.084648579 0.55900002
0.061223812 0.084648579 0.55900002
0.062400006 0.084800005 0.56
0.063353337 0.084648579 0.55900002
0.0644181 0.084648579 0.55900002
0.065482862 0.084648579 0.55900002
0.06666667 0.084800005 0.56
0.06773334 0.084800005 0.56
0.068922862 0.084951431 0.56100005
0.070116192 0.085102864 0.56200004
0.071186669 0.085102864 0.56200004
0.072385721 0.085254289 0.56300002
0.07358858 0.085405722 0.56400001
0.074795246 0.085557148 0.565
0.07587143 0.085557148 0.565
0.076947622 0.085557148 0.565
0.078023814 0.085557148 0.565
0.079380006 0.085860007 0.56700003
0.080743812 0.086162865 0.56900001
0.08211524 0.086465716 0.57100004
0.083202861 0.086465716 0.57100004
0.084585719 0.086768575 0.57300001
0.085677147 0.086768575 0.57300001
0.086314291 0.086314291 0.57000005
0.087553337 0.086465716 0.57100004
0.029528573 0.089700006 0.58500004
0.030380955 0.088933341 0.58000004
0.031431429 0.088780008 0.57900006
0.032478098 0.088626675 0.57800001
0.033520956 0.088473342 0.57700002
0.034560002 0.088320009 0.57600003
0.035533335 0.088013336 0.574
0.03656286 0.087860003 0.57300001
0.03752286 0.087553337 0.57100004
0.038542859 0.087400004 0.57000005
0.039559051 0.087246671 0.56900001
0.040571433 0.087093338 0.56800002
0.041580003 0.086940005 0.56700003
0.042584766 0.086786672 0.56600004
0.043585718 0.08663334 0.565
0.044661909 0.08663334 0.565
0.045738097 0.08663334 0.565
0.046731431 0.086480007 0.56400001
0.047805719 0.086480007 0.56400001
0.048793338 0.086326674 0.56300002
0.049865719 0.086326674 0.56300002
0.050847623 0.086173341 0.56200004
0.051918097 0.086173341 0.56200004
0.052894291 0.086020008 0.56100005
0.05386667 0.085866675 0.56
0.054933336 0.085866675 0.56
0.056000005 0.085866675 0.56
0.057168577 0.086020008 0.56100005
0.058237147 0.086020008 0.56100005
0.059200004 0.085866675 0.56
0.06037429 0.086020008 0.56100005
0.061442859 0.086020008 0.56100005
0.062511429 0.086020008 0.56100005
0.063466668 0.085866675 0.56
0.064533338 0.085866675 0.56
0.065600008 0.085866675 0.56
0.066785716 0.086020008 0.56100005
0.067854293 0.086020008 0.56100005
0.068922862 0.086020008 0.56100005
0.070116192 0.086173341 0.56200004
0.071313336 0.086326674 0.56300002
0.072514288 0.086480007 0.56400001
0.07358858 0.086480007 0.56400001
0.074795246 0.08663334 0.565
0.07587143 0.08663334 0.565
0.077083811 0.086786672 0.56600004
0.078300007 0.086940005 0.56700003
0.079520002 0.087093338 0.56800002
0.080885723 0.087400004 0.57000005
0.08211524 0.087553337 0.57100004
0.08334858 0.08770667 0.57200003
0.084585719 0.087860003 0.57300001
0.085079052 0.087246671 0.56900001
0.086162865 0.087246671 0.56900001
0.087246671 0.087246671 0.56900001
0.027533336 0.091590479 0.59000003
0.028608574 0.091435246 0.58900005
0.029579049 0.090969533 0.58600003
0.03064286 0.090814292 0.58500004
0.031485718 0.090038098 0.58000004
0.032534286 0.089882866 0.57900006
0.033579051 0.089727625 0.57800001
0.034620002 0.089572385 0.57700002
0.035657145 0.089417152 0.57600003
0.036626671 0.089106672 0.574
0.03752286 0.088640958 0.57100004
0.038610477 0.088640958 0.57100004
0.039628573 0.088485718 0.57000005
0.040571433 0.088175245 0.56800002
0.041653335 0.088175245 0.56800002
0.042660002 0.088020004 0.56700003
0.043662861 0.087864764 0.56600004
0.044661909 0.087709531 0.565
0.045738097 0.087709531 0.565
0.046814289 0.087709531 0.565
0.047890481 0.087709531 0.565
0.048880003 0.087554291 0.56400001
0.049954288 0.087554291 0.56400001
0.0509381 0.087399051 0.56300002
0.05201048 0.087399051 0.56300002
0.052988574 0.087243818 0.56200004
0.05396286 0.087088577 0.56100005
0.055031434 0.087088577 0.56100005
0.056100003 0.087088577 0.56100005
0.057270478 0.087243818 0.56200004
0.058237147 0.087088577 0.56100005
0.05930572 0.087088577 0.56100005
0.06048191 0.087243818 0.56200004
0.061552387 0.087243818 0.56200004
0.06262286 0.087243818 0.56200004
0.063693337 0.087243818 0.56200004
0.064763814 0.087243818 0.56200004
0.065834291 0.087243818 0.56200004
0.066904768 0.087243818 0.56200004
0.067975245 0.087243818 0.56200004
0.069045722 0.087243818 0.56200004
0.07024096 0.087399051 0.56300002
0.071440004 0.087554291 0.56400001
0.072642863 0.087709531 0.565
0.073719054 0.087709531 0.565
0.074795246 0.087709531 0.565
0.07600572 0.087864764 0.56600004
0.077220008 0.088020004 0.56700003
0.078438103 0.088175245 0.56800002
0.079660006 0.088330485 0.56900001
0.080885723 0.088485718 0.57000005
0.08211524 0.088640958 0.57100004
0.083202861 0.088640958 0.57100004
0.084733337 0.089106672 0.574
0.085976198 0.089261912 0.57500005
0.086314291 0.088485718 0.57000005
0.087400004 0.088485718 0.57000005
0.02649905 0.093028575 0.59200001
0.027580002 0.092871435 0.59100002
0.028657144 0.092714295 0.59000003
0.029680002 0.092400007 0.588
0.030695241 0.092085719 0.58600003
0.031485718 0.091142863 0.58000004
0.032590479 0.091142863 0.58000004
0.033637144 0.090985723 0.57900006
0.034680001 0.090828575 0.57800001
0.035719048 0.090671435 0.57700002
0.036690477 0.090357147 0.57500005
0.037588574 0.089885719 0.57200003
0.038610477 0.089728579 0.57100004
0.039628573 0.089571431 0.57000005
0.040642861 0.089414291 0.56900001
0.041726671 0.089414291 0.56900001
0.042735241 0.089257151 0.56800002
0.043740004 0.089100003 0.56700003
0.044740956 0.088942863 0.56600004
0.045738097 0.088785723 0.565
0.046814289 0.088785723 0.565
0.047890481 0.088785723 0.565
0.048880003 0.088628575 0.56400001
0.049954288 0.088628575 0.56400001
0.0509381 0.088471435 0.56300002
0.05201048 0.088471435 0.56300002
0.053082861 0.088471435 0.56300002
0.054059051 0.088314295 0.56200004
0.055129528 0.088314295 0.56200004
0.056200005 0.088314295 0.56200004
0.057270478 0.088314295 0.56200004
0.058340956 0.088314295 0.56200004
0.059411433 0.088314295 0.56200004
0.06058953 0.088471435 0.56300002
0.06166191 0.088471435 0.56300002
0.062734291 0.088471435 0.56300002
0.063806668 0.088471435 0.56300002
0.064879052 0.088471435 0.56300002
0.065951429 0.088471435 0.56300002
0.067023814 0.088471435 0.56300002
0.068096198 0.088471435 0.56300002
0.069168575 0.088471435 0.56300002
0.070365719 0.088628575 0.56400001
0.071440004 0.088628575 0.56400001
0.072642863 0.088785723 0.565
0.073849529 0.088942863 0.56600004
0.074927621 0.088942863 0.56600004
0.076140001 0.089100003 0.56700003
0.077356197 0.089257151 0.56800002
0.078576192 0.089414291 0.56900001
0.079800002 0.089571431 0.57000005
0.081027627 0.089728579 0.57100004
0.08211524 0.089728579 0.57100004
0.083494291 0.090042867 0.57300001
0.085028574 0.090514295 0.57600003
0.086125717 0.090514295 0.57600003
0.087071434 0.090357147 0.57500005
0.027580002 0.093997151 0.59100002
0.028657144 0.093838103 0.59000003
0.029680002 0.093520008 0.588
0.030695241 0.093201913 0.58600003
0.031757146 0.093042865 0.58500004
0.032702859 0.092565723 0.58200002
0.03369524 0.092247628 0.58000004
0.034740001 0.09208858 0.57900006
0.035719048 0.091770485 0.57700002
0.036754288 0.091611437 0.57600003
0.037654288 0.091134295 0.57300001
0.038678098 0.090975247 0.57200003
0.039698098 0.0908162 0.57100004
0.04071429 0.090657152 0.57000005
0.041800003 0.090657152 0.57000005
0.042810477 0.090498105 0.56900001
0.043817144 0.090339057 0.56800002
0.044820003 0.09018001 0.56700003
0.045819052 0.090020955 0.56600004
0.046897147 0.090020955 0.56600004
0.047890481 0.089861907 0.565
0.048966669 0.089861907 0.565
0.05004286 0.089861907 0.565
0.051028576 0.08970286 0.56400001
0.05210286 0.08970286 0.56400001
0.053082861 0.089543812 0.56300002
0.054155242 0.089543812 0.56300002
0.055227622 0.089543812 0.56300002
0.056300003 0.089543812 0.56300002
0.057372384 0.089543812 0.56300002
0.058444764 0.089543812 0.56300002
0.059517145 0.089543812 0.56300002
0.060697146 0.08970286 0.56400001
0.06166191 0.089543812 0.56300002
0.062845722 0.08970286 0.56400001
0.063806668 0.089543812 0.56300002
0.064879052 0.089543812 0.56300002
0.066068575 0.08970286 0.56400001
0.067142859 0.08970286 0.56400001
0.068217151 0.08970286 0.56400001
0.069414288 0.089861907 0.565
0.070490479 0.089861907 0.565
0.071693338 0.090020955 0.56600004
0.072900005 0.09018001 0.56700003
0.074110478 0.090339057 0.56800002
0.075192384 0.090339057 0.56800002
0.07640858 0.090498105 0.56900001
0.077492386 0.090498105 0.56900001
0.078714289 0.090657152 0.57000005
0.079940006 0.0908162 0.57100004
0.081027627 0.0908162 0.57100004
0.082259052 0.090975247 0.57200003
0.083931431 0.091611437 0.57600003
0.085028574 0.091611437 0.57600003
0.086275242 0.091770485 0.57700002
0.027580002 0.095122866 0.59100002
0.028657144 0.094961911 0.59000003
0.029730478 0.094800957 0.58900005
0.03074762 0.094479054 0.58700001
0.031811431 0.094318099 0.58600003
0.032759048 0.093835242 0.583
0.033753335 0.09351334 0.58100003
0.034740001 0.093191437 0.57900006
0.035780955 0.093030483 0.57800001
0.036754288 0.09270858 0.57600003
0.037785716 0.092547625 0.57500005
0.038678098 0.092064768 0.57200003
0.039767623 0.092064768 0.57200003
0.040785719 0.091903813 0.57100004
0.041800003 0.091742866 0.57000005
0.042885717 0.091742866 0.57000005
0.043894287 0.091581911 0.56900001
0.04489905 0.091420956 0.56800002
0.045819052 0.091099054 0.56600004
0.046897147 0.091099054 0.56600004
0.047975242 0.091099054 0.56600004
0.048966669 0.090938099 0.565
0.05004286 0.090938099 0.565
0.051119052 0.090938099 0.565
0.05210286 0.090777151 0.56400001
0.053177148 0.090777151 0.56400001
0.054251432 0.090777151 0.56400001
0.055227622 0.090616196 0.56300002
0.056400005 0.090777151 0.56400001
0.057372384 0.090616196 0.56300002
0.058444764 0.090616196 0.56300002
0.059622861 0.090777151 0.56400001
0.060697146 0.090777151 0.56400001
0.061771434 0.090777151 0.56400001
0.062845722 0.090777151 0.56400001
0.063920006 0.090777151 0.56400001
0.06499429 0.090777151 0.56400001
0.06618572 0.090938099 0.565
0.067261912 0.090938099 0.565
0.068217151 0.090777151 0.56400001
0.069414288 0.090938099 0.565
0.070615239 0.091099054 0.56600004
0.071820006 0.091260009 0.56700003
0.073028579 0.091420956 0.56800002
0.07424096 0.091581911 0.56900001
0.075324766 0.091581911 0.56900001
0.076542862 0.091742866 0.57000005
0.077628575 0.091742866 0.57000005
0.078852385 0.091903813 0.57100004
0.080080003 0.092064768 0.57200003
0.081311435 0.092225723 0.57300001
0.082834288 0.09270858 0.57600003
0.08407715 0.092869528 0.57700002
0.0851762 0.092869528 0.57700002
0.086424768 0.093030483 0.57800001
0.087374292 0.092869528 0.57700002
0.028657144 0.09608572 0.59000003
0.029730478 0.095922865 0.58900005
0.030800002 0.095760003 0.588
0.031865716 0.095597148 0.58700001
0.03281524 0.095108576 0.58400005
0.033811431 0.094782867 0.58200002
0.034740001 0.094294295 0.57900006
0.035780955 0.094131432 0.57800001
0.036818098 0.093968578 0.57700002
0.037785716 0.093642861 0.57500005
0.038745716 0.093317151 0.57300001
0.039767623 0.093154289 0.57200003
0.040785719 0.092991434 0.57100004
0.041873336 0.092991434 0.57100004
0.042885717 0.092828579 0.57000005
0.043971431 0.092828579 0.57000005
0.044978097 0.092665717 0.56900001
0.045900002 0.092340007 0.56700003
0.046980005 0.092340007 0.56700003
0.047975242 0.092177153 0.56600004
0.049053337 0.092177153 0.56600004
0.05004286 0.09201429 0.565
0.051119052 0.09201429 0.565
0.05219524 0.09201429 0.565
0.053177148 0.091851436 0.56400001
0.054347623 0.09201429 0.565
0.055325717 0.091851436 0.56400001
0.056400005 0.091851436 0.56400001
0.057474289 0.091851436 0.56400001
0.058548577 0.091851436 0.56400001
0.059728574 0.09201429 0.565
0.060804766 0.09201429 0.565
0.061880957 0.09201429 0.565
0.062957145 0.09201429 0.565
0.064033337 0.09201429 0.565
0.065109529 0.09201429 0.565
0.06618572 0.09201429 0.565
0.067261912 0.09201429 0.565
0.068338096 0.09201429 0.565
0.069537148 0.092177153 0.56600004
0.070740007 0.092340007 0.56700003
0.071946673 0.092502862 0.56800002
0.073157147 0.092665717 0.56900001
0.074371435 0.092828579 0.57000005
0.075457148 0.092828579 0.57000005
0.076677151 0.092991434 0.57100004
0.077764764 0.092991434 0.57100004
0.078990482 0.093154289 0.57200003
0.080220006 0.093317151 0.57300001
0.081595242 0.093642861 0.57500005
0.0829781 0.093968578 0.57700002
0.084222861 0.094131432 0.57800001
0.085323818 0.094131432 0.57800001
0.086574294 0.094294295 0.57900006
0.029730478 0.097044766 0.58900005
0.030800002 0.096880004 0.588
0.031865716 0.096715242 0.58700001
0.032871429 0.096385717 0.58500004
0.033869527 0.096056193 0.583
0.034740001 0.095397152 0.57900006
0.035842858 0.095397152 0.57900006
0.036881909 0.09523239 0.57800001
0.037917145 0.095067628 0.57700002
0.038880955 0.094738103 0.57500005
0.039906669 0.094573341 0.574
0.040928572 0.094408579 0.57300001
0.041946668 0.094243817 0.57200003
0.042960957 0.094079055 0.57100004
0.043971431 0.093914293 0.57000005
0.045057144 0.093914293 0.57000005
0.045980956 0.093584768 0.56800002
0.046980005 0.093420006 0.56700003
0.048060004 0.093420006 0.56700003
0.049140003 0.093420006 0.56700003
0.050131433 0.093255244 0.56600004
0.051209528 0.093255244 0.56600004
0.05219524 0.093090482 0.565
0.053271431 0.093090482 0.565
0.054347623 0.093090482 0.565
0.055423815 0.093090482 0.565
0.056500003 0.093090482 0.565
0.057576194 0.093090482 0.565
0.058652386 0.093090482 0.565
0.059728574 0.093090482 0.565
0.060804766 0.093090482 0.565
0.061880957 0.093090482 0.565
0.062957145 0.093090482 0.565
0.064033337 0.093090482 0.565
0.065109529 0.093090482 0.565
0.06618572 0.093090482 0.565
0.067380957 0.093255244 0.56600004
0.068459049 0.093255244 0.56600004
0.069660008 0.093420006 0.56700003
0.070864767 0.093584768 0.56800002
0.07207334 0.093749531 0.56900001
0.073285721 0.093914293 0.57000005
0.074371435 0.093914293 0.57000005
0.07558953 0.094079055 0.57100004
0.076677151 0.094079055 0.57100004
0.077900961 0.094243817 0.57200003
0.079128578 0.094408579 0.57300001
0.080500007 0.094738103 0.57500005
0.081737146 0.094902866 0.57600003
0.083121911 0.09523239 0.57800001
0.084222861 0.09523239 0.57800001
0.085471436 0.095397152 0.57900006
0.086574294 0.095397152 0.57900006
0.029730478 0.098166674 0.58900005
0.030800002 0.098000005 0.588
0.031865716 0.097833343 0.58700001
0.032983813 0.097833343 0.58700001
0.033985715 0.097500004 0.58500004
0.034920003 0.097000003 0.58200002
0.035842858 0.096500009 0.57900006
0.036881909 0.09633334 0.57800001
0.037917145 0.09616667 0.57700002
0.038948573 0.096000008 0.57600003
0.039976195 0.095833339 0.57500005
0.041000001 0.095666669 0.574
0.042020004 0.095500007 0.57300001
0.043036193 0.095333338 0.57200003
0.044048574 0.095166676 0.57100004
0.045057144 0.095000006 0.57000005
0.046142861 0.095000006 0.57000005
0.047062859 0.094666675 0.56800002
0.048144765 0.094666675 0.56800002
0.049140003 0.094500005 0.56700003
0.050220001 0.094500005 0.56700003
0.051209528 0.094333343 0.56600004
0.052287623 0.094333343 0.56600004
0.053271431 0.094166674 0.565
0.054443814 0.094333343 0.56600004
0.055423815 0.094166674 0.565
0.056500003 0.094166674 0.565
0.057576194 0.094166674 0.565
0.058652386 0.094166674 0.565
0.05983429 0.094333343 0.56600004
0.060912386 0.094333343 0.56600004
0.061880957 0.094166674 0.565
0.062957145 0.094166674 0.565
0.064033337 0.094166674 0.565
0.065109529 0.094166674 0.565
0.066302858 0.094333343 0.56600004
0.067380957 0.094333343 0.56600004
0.068580002 0.094500005 0.56700003
0.069782861 0.094666675 0.56800002
0.070989527 0.094833337 0.56900001
0.072200008 0.095000006 0.57000005
0.073414288 0.095166676 0.57100004
0.074501909 0.095166676 0.57100004
0.07558953 0.095166676 0.57100004
0.076811433 0.095333338 0.57200003
0.07803715 0.095500007 0.57300001
0.079266675 0.095666669 0.574
0.080640003 0.096000008 0.57600003
0.081737146 0.096000008 0.57600003
0.083121911 0.09633334 0.57800001
0.084222861 0.09633334 0.57800001
0.085471436 0.096500009 0.57900006
0.086723812 0.096666671 0.58000004
0.02983143 0.099625722 0.59100002
0.030904764 0.099457152 0.59000003
0.031920001 0.099120006 0.588
0.033040002 0.099120006 0.588
0.034043811 0.098782867 0.58600003
0.035100002 0.09861429 0.58500004
0.036090478 0.098277152 0.583
0.037073337 0.097940005 0.58100003
0.038048573 0.097602867 0.57900006
0.039083812 0.09743429 0.57800001
0.040115241 0.09726572 0.57700002
0.041142859 0.097097151 0.57600003
0.042166669 0.096928574 0.57500005
0.043186668 0.096760005 0.574
0.04420286 0.096591435 0.57300001
0.045215242 0.096422866 0.57200003
0.046304766 0.096422866 0.57200003
0.047228575 0.09608572 0.57000005
0.048314288 0.09608572 0.57000005
0.049313337 0.09591715 0.56900001
0.050308574 0.095748581 0.56800002
0.051300004 0.095580004 0.56700003
0.052380003 0.095580004 0.56700003
0.053460002 0.095580004 0.56700003
0.054540005 0.095580004 0.56700003
0.055620003 0.095580004 0.56700003
0.056700002 0.095580004 0.56700003
0.057780005 0.095580004 0.56700003
0.058860004 0.095580004 0.56700003
0.059940003 0.095580004 0.56700003
0.061020005 0.095580004 0.56700003
0.062100004 0.095580004 0.56700003
0.063180007 0.095580004 0.56700003
0.064260006 0.095580004 0.56700003
0.065340005 0.095580004 0.56700003
0.066420004 0.095580004 0.56700003
0.067619056 0.095748581 0.56800002
0.068821907 0.09591715 0.56900001
0.069905721 0.09591715 0.56900001
0.071114287 0.09608572 0.57000005
0.072326675 0.096254289 0.57100004
0.073542863 0.096422866 0.57200003
0.074632384 0.096422866 0.57200003
0.075854294 0.096591435 0.57300001
0.077080004 0.096760005 0.574
0.078309529 0.096928574 0.57500005
0.07954286 0.097097151 0.57600003
0.080780007 0.09726572 0.57700002
0.082020961 0.09743429 0.57800001
0.083121911 0.09743429 0.57800001
0.084368579 0.097602867 0.57900006
0.085619055 0.097771436 0.58000004
0.086723812 0.097771436 0.58000004
0.087828577 0.097771436 0.58000004
0.030904764 0.10058096 0.59000003
0.03197429 0.10041048 0.58900005
0.033040002 0.10024001 0.588
0.034101907 0.10006953 0.58700001
0.035160001 0.099899054 0.58600003
0.036152385 0.0995581 0.58400005
0.037073337 0.09904667 0.58100003
0.038114287 0.098876201 0.58000004
0.03915143 0.098705724 0.57900006
0.040184766 0.098535247 0.57800001
0.041214287 0.09836477 0.57700002
0.042313337 0.09836477 0.57700002
0.043337144 0.098194294 0.57600003
0.044357147 0.098023817 0.57500005
0.045373335 0.09785334 0.574
0.046385717 0.097682863 0.57300001
0.047477145 0.097682863 0.57300001
0.048314288 0.097171433 0.57000005
0.049400002 0.097171433 0.57000005
0.050397146 0.097000957 0.56900001
0.05139048 0.09683048 0.56800002
0.052564766 0.097000957 0.56900001
0.053554289 0.09683048 0.56800002
0.054636195 0.09683048 0.56800002
0.055718098 0.09683048 0.56800002
0.056800004 0.09683048 0.56800002
0.05788191 0.09683048 0.56800002
0.058963813 0.09683048 0.56800002
0.060045719 0.09683048 0.56800002
0.061127622 0.09683048 0.56800002
0.062209528 0.09683048 0.56800002
0.06329143 0.09683048 0.56800002
0.064373337 0.09683048 0.56800002
0.065455243 0.09683048 0.56800002
0.066654287 0.097000957 0.56900001
0.067738101 0.097000957 0.56900001
0.06894286 0.097171433 0.57000005
0.070028573 0.097171433 0.57000005
0.071239054 0.09734191 0.57100004
0.072453335 0.097512387 0.57200003
0.07367143 0.097682863 0.57300001
0.07489334 0.09785334 0.574
0.07611905 0.098023817 0.57500005
0.077214293 0.098023817 0.57500005
0.078445718 0.098194294 0.57600003
0.079680957 0.09836477 0.57700002
0.080920003 0.098535247 0.57800001
0.082020961 0.098535247 0.57800001
0.083121911 0.098535247 0.57800001
0.084368579 0.098705724 0.57900006
0.085619055 0.098876201 0.58000004
0.086873338 0.09904667 0.58100003
0.030957146 0.10187715 0.59100002
0.032028574 0.10170477 0.59000003
0.033096194 0.10153238 0.58900005
0.034101907 0.10118762 0.58700001
0.035220001 0.10118762 0.58700001
0.036214288 0.10084286 0.58500004
0.037200954 0.1004981 0.583
0.038180001 0.10015334 0.58100003
0.03915143 0.099808581 0.57900006
0.040254287 0.099808581 0.57900006
0.041285716 0.099636197 0.57800001
0.042313337 0.099463813 0.57700002
0.043412384 0.099463813 0.57700002
0.044357147 0.099119052 0.57500005
0.045452382 0.099119052 0.57500005
0.046466671 0.098946676 0.574
0.047560003 0.098946676 0.574
0.04839905 0.098429531 0.57100004
0.049486671 0.098429531 0.57100004
0.050485719 0.098257147 0.57000005
0.051480956 0.09808477 0.56900001
0.052564766 0.09808477 0.56900001
0.053648576 0.09808477 0.56900001
0.054732386 0.09808477 0.56900001
0.055816196 0.09808477 0.56900001
0.056900002 0.09808477 0.56900001
0.057983812 0.09808477 0.56900001
0.059067622 0.09808477 0.56900001
0.060151432 0.09808477 0.56900001
0.061235242 0.09808477 0.56900001
0.062319051 0.09808477 0.56900001
0.063402861 0.09808477 0.56900001
0.064486668 0.09808477 0.56900001
0.065570481 0.09808477 0.56900001
0.066771433 0.098257147 0.57000005
0.067857146 0.098257147 0.57000005
0.069063812 0.098429531 0.57100004
0.070151433 0.098429531 0.57100004
0.071363814 0.098601915 0.57200003
0.072580002 0.098774292 0.57300001
0.073800005 0.098946676 0.574
0.075023815 0.099119052 0.57500005
0.07611905 0.099119052 0.57500005
0.077348575 0.099291436 0.57600003
0.078581907 0.099463813 0.57700002
0.079819053 0.099636197 0.57800001
0.080920003 0.099636197 0.57800001
0.082162865 0.099808581 0.57900006
0.083265722 0.099808581 0.57900006
0.08451429 0.099980958 0.58000004
0.085914291 0.10032572 0.58200002
0.087172389 0.1004981 0.583
0.032028574 0.10282858 0.59000003
0.033096194 0.10265429 0.58900005
0.034218099 0.10265429 0.58900005
0.035220001 0.10230572 0.58700001
0.036276191 0.10213143 0.58600003
0.037264764 0.10178287 0.58400005
0.038245715 0.10143429 0.58200002
0.039286669 0.10126001 0.58100003
0.040254287 0.10091144 0.57900006
0.041285716 0.10073715 0.57800001
0.04238667 0.10073715 0.57800001
0.043412384 0.10056286 0.57700002
0.04443429 0.10038858 0.57600003
0.045452382 0.1002143 0.57500005
0.046547621 0.1002143 0.57500005
0.047560003 0.10004 0.574
0.048483811 0.099691436 0.57200003
0.049486671 0.099517152 0.57100004
0.050574288 0.099517152 0.57100004
0.051661909 0.099517152 0.57100004
0.052657146 0.09934286 0.57000005
0.05374286 0.09934286 0.57000005
0.054828577 0.09934286 0.57000005
0.05591429 0.09934286 0.57000005
0.057000004 0.09934286 0.57000005
0.058085717 0.09934286 0.57000005
0.059171431 0.09934286 0.57000005
0.060257148 0.09934286 0.57000005
0.061342862 0.09934286 0.57000005
0.062428575 0.09934286 0.57000005
0.063514292 0.09934286 0.57000005
0.064600006 0.09934286 0.57000005
0.065685719 0.09934286 0.57000005
0.066771433 0.09934286 0.57000005
0.067976192 0.099517152 0.57100004
0.069063812 0.099517152 0.57100004
0.070151433 0.099517152 0.57100004
0.071363814 0.099691436 0.57200003
0.072580002 0.09986572 0.57300001
0.073800005 0.10004 0.574
0.07515429 0.10038858 0.57600003
0.076383814 0.10056286 0.57700002
0.077617146 0.10073715 0.57800001
0.078718103 0.10073715 0.57800001
0.07995715 0.10091144 0.57900006
0.081060007 0.10091144 0.57900006
0.082304768 0.10108572 0.58000004
0.083409533 0.10108572 0.58000004
0.08480572 0.10143429 0.58200002
0.08606191 0.10160857 0.583
0.03197429 0.10377619 0.58900005
0.033040002 0.10360001 0.588
0.034101907 0.10342382 0.58700001
0.035220001 0.10342382 0.58700001
0.036276191 0.10324763 0.58600003
0.037328575 0.10307144 0.58500004
0.038377147 0.10289524 0.58400005
0.039354287 0.10254286 0.58200002
0.040323813 0.10219048 0.58000004
0.041357145 0.1020143 0.57900006
0.04238667 0.1018381 0.57800001
0.043487623 0.1018381 0.57800001
0.04451143 0.10166191 0.57700002
0.045452382 0.10130953 0.57500005
0.046547621 0.10130953 0.57500005
0.047642861 0.10130953 0.57500005
0.048653338 0.10113334 0.574
0.049660005 0.10095715 0.57300001
0.050751433 0.10095715 0.57300001
0.051752385 0.10078096 0.57200003
0.052841909 0.10078096 0.57200003
0.053837147 0.10060477 0.57100004
0.054924764 0.10060477 0.57100004
0.056012385 0.10060477 0.57100004
0.057100005 0.10060477 0.57100004
0.058187623 0.10060477 0.57100004
0.059171431 0.10042858 0.57000005
0.060257148 0.10042858 0.57000005
0.061342862 0.10042858 0.57000005
0.062428575 0.10042858 0.57000005
0.063625716 0.10060477 0.57100004
0.064600006 0.10042858 0.57000005
0.065800957 0.10060477 0.57100004
0.066888578 0.10060477 0.57100004
0.068095244 0.10078096 0.57200003
0.069184765 0.10078096 0.57200003
0.070274293 0.10078096 0.57200003
0.071363814 0.10078096 0.57200003
0.072580002 0.10095715 0.57300001
0.073800005 0.10113334 0.574
0.07515429 0.10148572 0.57600003
0.076383814 0.10166191 0.57700002
0.077617146 0.1018381 0.57800001
0.078854293 0.1020143 0.57900006
0.07995715 0.1020143 0.57900006
0.081060007 0.1020143 0.57900006
0.082304768 0.10219048 0.58000004
0.083409533 0.10219048 0.58000004
0.08451429 0.10219048 0.58000004
0.032028574 0.10507619 0.59000003
0.033096194 0.1048981 0.58900005
0.034218099 0.1048981 0.58900005
0.035280004 0.10472 0.588
0.036338098 0.10454191 0.58700001
0.037392382 0.10436381 0.58600003
0.038442861 0.10418572 0.58500004
0.039421909 0.10382953 0.583
0.040393338 0.10347334 0.58100003
0.041357145 0.10311715 0.57900006
0.04238667 0.10293905 0.57800001
0.043487623 0.10293905 0.57800001
0.04451143 0.10276096 0.57700002
0.045531433 0.10258286 0.57600003
0.046547621 0.10240477 0.57500005
0.047642861 0.10240477 0.57500005
0.0487381 0.10240477 0.57500005
0.04974667 0.10222667 0.574
0.050840002 0.10222667 0.574
0.051842861 0.10204858 0.57300001
0.052934289 0.10204858 0.57300001
0.053931434 0.10187048 0.57200003
0.055020954 0.10187048 0.57200003
0.056110479 0.10187048 0.57200003
0.057200003 0.10187048 0.57200003
0.058187623 0.10169239 0.57100004
0.059275243 0.10169239 0.57100004
0.060362861 0.10169239 0.57100004
0.061450481 0.10169239 0.57100004
0.062538102 0.10169239 0.57100004
0.063625716 0.10169239 0.57100004
0.064713337 0.10169239 0.57100004
0.065916196 0.10187048 0.57200003
0.067005716 0.10187048 0.57200003
0.06821429 0.10204858 0.57300001
0.069305718 0.10204858 0.57300001
0.070397146 0.10204858 0.57300001
0.071488574 0.10204858 0.57300001
0.07270667 0.10222667 0.574
0.07392858 0.10240477 0.57500005
0.075284764 0.10276096 0.57700002
0.076516196 0.10293905 0.57800001
0.077751435 0.10311715 0.57900006
0.078854293 0.10311715 0.57900006
0.080095246 0.10329524 0.58000004
0.081200004 0.10329524 0.58000004
0.082304768 0.10329524 0.58000004
0.083553337 0.10347334 0.58100003
0.08524286 0.10418572 0.58500004
0.033152383 0.10620001 0.59000003
0.034276191 0.10620001 0.59000003
0.035280004 0.10584 0.588
0.036338098 0.10566001 0.58700001
0.037392382 0.10548001 0.58600003
0.038442861 0.10530001 0.58500004
0.039489526 0.10512 0.58400005
0.040462859 0.10476001 0.58200002
0.041500002 0.10458001 0.58100003
0.042460002 0.10422001 0.57900006
0.043487623 0.10404 0.57800001
0.044588573 0.10404 0.57800001
0.04561048 0.10386001 0.57700002
0.046628576 0.10368001 0.57600003
0.047725718 0.10368001 0.57600003
0.0487381 0.10350001 0.57500005
0.04974667 0.10332001 0.574
0.050928574 0.10350001 0.57500005
0.051933337 0.10332001 0.574
0.053026669 0.10332001 0.574
0.054025717 0.10314 0.57300001
0.055117145 0.10314 0.57300001
0.056208573 0.10314 0.57300001
0.057300005 0.10314 0.57300001
0.058289528 0.10296001 0.57200003
0.059379052 0.10296001 0.57200003
0.060468577 0.10296001 0.57200003
0.061558098 0.10296001 0.57200003
0.062647626 0.10296001 0.57200003
0.063737147 0.10296001 0.57200003
0.064826667 0.10296001 0.57200003
0.066031434 0.10314 0.57300001
0.067122862 0.10314 0.57300001
0.068333335 0.10332001 0.574
0.069426671 0.10332001 0.574
0.070520006 0.10332001 0.574
0.071613342 0.10332001 0.574
0.07270667 0.10332001 0.574
0.074057147 0.10368001 0.57600003
0.075415246 0.10404 0.57800001
0.076648578 0.10422001 0.57900006
0.077885717 0.10440001 0.58000004
0.078990482 0.10440001 0.58000004
0.080095246 0.10440001 0.58000004
0.081200004 0.10440001 0.58000004
0.082304768 0.10440001 0.58000004
0.083553337 0.10458001 0.58100003
0.08524286 0.10530001 0.58500004
0.034334287 0.10750572 0.59100002
0.035340004 0.10714191 0.58900005
0.036400001 0.10696001 0.588
0.037456192 0.1067781 0.58700001
0.038508575 0.10659619 0.58600003
0.039557144 0.1064143 0.58500004
0.040532384 0.10605048 0.583
0.041500002 0.10568667 0.58100003
0.042460002 0.10532287 0.57900006
0.043562859 0.10532287 0.57900006
0.044588573 0.10514096 0.57800001
0.04561048 0.10495906 0.57700002
0.046628576 0.10477715 0.57600003
0.047725718 0.10477715 0.57600003
0.048822861 0.10477715 0.57600003
0.049833335 0.10459524 0.57500005
0.050928574 0.10459524 0.57500005
0.052023813 0.10459524 0.57500005
0.053026669 0.10441334 0.574
0.054120004 0.10441334 0.574
0.055213336 0.10441334 0.574
0.056306671 0.10441334 0.574
0.057300005 0.10423143 0.57300001
0.058391433 0.10423143 0.57300001
0.059482861 0.10423143 0.57300001
0.060574289 0.10423143 0.57300001
0.061665718 0.10423143 0.57300001
0.062757149 0.10423143 0.57300001
0.063960001 0.10441334 0.574
0.064940006 0.10423143 0.57300001
0.066146672 0.10441334 0.574
0.067240007 0.10441334 0.574
0.068333335 0.10441334 0.574
0.069426671 0.10441334 0.574
0.070642859 0.10459524 0.57500005
0.071613342 0.10441334 0.574
0.072833337 0.10459524 0.57500005
0.075415246 0.10514096 0.57800001
0.07678096 0.10550477 0.58000004
0.078020006 0.10568667 0.58100003
0.079126671 0.10568667 0.58100003
0.080233335 0.10568667 0.58100003
0.081200004 0.10550477 0.58000004
0.08273048 0.10605048 0.583
0.08398477 0.10623239 0.58400005
0.08524286 0.1064143 0.58500004
0.035460003 0.10863143 0.59100002
0.036523812 0.10844763 0.59000003
0.037520003 0.10808001 0.588
0.038508575 0.10771239 0.58600003
0.039557144 0.10752858 0.58500004
0.040601909 0.10734477 0.58400005
0.041571431 0.10697715 0.58200002
0.042533334 0.10660953 0.58000004
0.043562859 0.10642572 0.57900006
0.044588573 0.10624191 0.57800001
0.045689527 0.10624191 0.57800001
0.046709526 0.10605811 0.57700002
0.047808576 0.10605811 0.57700002
0.048907623 0.10605811 0.57700002
0.049920004 0.10587429 0.57600003
0.051017147 0.10587429 0.57600003
0.052023813 0.10569049 0.57500005
0.053119052 0.10569049 0.57500005
0.054214288 0.10569049 0.57500005
0.055309527 0.10569049 0.57500005
0.056306671 0.10550667 0.574
0.057400003 0.10550667 0.574
0.058493339 0.10550667 0.574
0.05958667 0.10550667 0.574
0.060680006 0.10550667 0.574
0.061773337 0.10550667 0.574
0.062866673 0.10550667 0.574
0.064071432 0.10569049 0.57500005
0.065166675 0.10569049 0.57500005
0.06626191 0.10569049 0.57500005
0.067357145 0.10569049 0.57500005
0.068452388 0.10569049 0.57500005
0.069547623 0.10569049 0.57500005
0.070642859 0.10569049 0.57500005
0.071738102 0.10569049 0.57500005
0.072960004 0.10587429 0.57600003
0.074057147 0.10587429 0.57600003
0.075545721 0.10642572 0.57900006
0.07678096 0.10660953 0.58000004
0.078154288 0.10697715 0.58200002
0.07926286 0.10697715 0.58200002
0.080233335 0.10679334 0.58100003
0.081200004 0.10660953 0.58000004
0.082872383 0.10734477 0.58400005
0.084272385 0.10771239 0.58600003
0.085388578 0.10771239 0.58600003
0.034508575 0.11031429 0.59400004
0.035580002 0.11012858 0.59300005
0.036585718 0.10975715 0.59100002
0.037520003 0.10920001 0.588
0.03857429 0.1090143 0.58700001
0.039624766 0.10882858 0.58600003
0.040671431 0.10864286 0.58500004
0.041714288 0.10845715 0.58400005
0.04260667 0.10790001 0.58100003
0.043713335 0.10790001 0.58100003
0.044665717 0.10752858 0.57900006
0.045689527 0.10734286 0.57800001
0.046790481 0.10734286 0.57800001
0.047808576 0.10715715 0.57700002
0.048907623 0.10715715 0.57700002
0.050006669 0.10715715 0.57700002
0.051017147 0.10697144 0.57600003
0.052114289 0.10697144 0.57600003
0.053211432 0.10697144 0.57600003
0.054308575 0.10697144 0.57600003
0.055309527 0.10678572 0.57500005
0.056404766 0.10678572 0.57500005
0.057500005 0.10678572 0.57500005
0.058493339 0.10660001 0.574
0.05958667 0.10660001 0.574
0.060680006 0.10660001 0.574
0.061880957 0.10678572 0.57500005
0.062976196 0.10678572 0.57500005
0.064071432 0.10678572 0.57500005
0.065166675 0.10678572 0.57500005
0.066377148 0.10697144 0.57600003
0.067474291 0.10697144 0.57600003
0.068571433 0.10697144 0.57600003
0.069668576 0.10697144 0.57600003
0.070765719 0.10697144 0.57600003
0.071862862 0.10697144 0.57600003
0.073086672 0.10715715 0.57700002
0.074314289 0.10734286 0.57800001
0.075676195 0.1077143 0.58000004
0.077045716 0.10808572 0.58200002
0.078288577 0.10827143 0.583
0.07926286 0.10808572 0.58200002
0.080233335 0.10790001 0.58100003
0.081340007 0.10790001 0.58100003
0.034508575 0.11144572 0.59400004
0.035580002 0.1112581 0.59300005
0.036585718 0.11088286 0.59100002
0.037583813 0.11050763 0.58900005
0.03857429 0.11013239 0.58700001
0.039624766 0.10994477 0.58600003
0.040740956 0.10994477 0.58600003
0.041714288 0.10956953 0.58400005
0.042680003 0.10919429 0.58200002
0.043713335 0.10900667 0.58100003
0.04474286 0.10881905 0.58000004
0.045768574 0.10863143 0.57900006
0.046871431 0.10863143 0.57900006
0.047891431 0.10844382 0.57800001
0.048992384 0.10844382 0.57800001
0.050006669 0.1082562 0.57700002
0.051105719 0.1082562 0.57700002
0.052204765 0.1082562 0.57700002
0.053211432 0.10806858 0.57600003
0.054308575 0.10806858 0.57600003
0.055405717 0.10806858 0.57600003
0.056404766 0.10788096 0.57500005
0.057500005 0.10788096 0.57500005
0.05859524 0.10788096 0.57500005
0.059690479 0.10788096 0.57500005
0.060785718 0.10788096 0.57500005
0.061880957 0.10788096 0.57500005
0.06308572 0.10806858 0.57600003
0.064182863 0.10806858 0.57600003
0.065393336 0.1082562 0.57700002
0.066492386 0.1082562 0.57700002
0.067591436 0.1082562 0.57700002
0.068690479 0.1082562 0.57700002
0.069789529 0.1082562 0.57700002
0.070888579 0.1082562 0.57700002
