# .PCD v0.7 - Point Cloud Data file format
VERSION 0.7
FIELDS x y z
SIZE 4 4 4
TYPE F F F
COUNT 1 1 1
WIDTH 1348
HEIGHT 1
VIEWPOINT 0 0 0 1 0 0 0
POINTS 1348
DATA ascii
-0.058900002 0.027900001 0.65100002
-0.057660002 0.027900001 0.65100002
-0.056506671 0.027942859 0.65200001
-0.055264767 0.027942859 0.65200001
-0.05402286 0.027942859 0.65200001
-0.052780956 0.027942859 0.65200001
-0.051539052 0.027942859 0.65200001
-0.050297145 0.027942859 0.65200001
-0.049055241 0.027942859 0.65200001
-0.047813337 0.027942859 0.65200001
-0.04657143 0.027942859 0.65200001
-0.045329526 0.027942859 0.65200001
-0.044087622 0.027942859 0.65200001
-0.042845719 0.027942859 0.65200001
-0.041603811 0.027942859 0.65200001
-0.040361907 0.027942859 0.65200001
-0.039120004 0.027942859 0.65200001
-0.037878096 0.027942859 0.65200001
-0.036636192 0.027942859 0.65200001
-0.035340004 0.027900001 0.65100002
-0.034047622 0.027857145 0.65000004
-0.032708574 0.02777143 0.648
-0.031474289 0.02777143 0.648
-0.030193334 0.027728572 0.64700001
-0.028960954 0.027728572 0.64700001
-0.027685717 0.027685717 0.64600003
-0.026414288 0.027642859 0.64500004
-0.025185715 0.027642859 0.64500004
-0.023845715 0.027514288 0.64200002
-0.022622859 0.027514288 0.64200002
-0.021366669 0.027471431 0.64100003
-0.020114288 0.027428573 0.64000005
-0.018865716 0.027385715 0.63900006
-0.017620953 0.02734286 0.63800001
-0.016328573 0.027214287 0.63500005
-0.01509524 0.027171431 0.634
-0.013865715 0.027128574 0.63300002
-0.012640001 0.027085716 0.63200003
-0.011418096 0.027042858 0.63100004
-0.010216191 0.027042858 0.63100004
-0.008985715 0.026957145 0.62900001
-0.0077876197 0.026957145 0.62900001
-0.083794288 0.027931431 0.62400001
-0.082738101 0.027976193 0.625
-0.0816781 0.028020954 0.62600005
-0.080614291 0.028065717 0.62700003
-0.079420008 0.028065717 0.62700003
-0.078475244 0.028155239 0.62900001
-0.077768579 0.028334288 0.63300002
-0.076804765 0.028423812 0.63500005
-0.07571429 0.028468573 0.63600004
-0.074737146 0.028558098 0.63800001
-0.07363715 0.028602859 0.63900006
-0.07264667 0.028692383 0.64100003
-0.071537144 0.028737145 0.64200002
-0.070533335 0.028826669 0.64400005
-0.069414288 0.02887143 0.64500004
-0.068185717 0.02887143 0.64500004
-0.067164764 0.028960954 0.64700001
-0.065932386 0.028960954 0.64700001
-0.064800002 0.029005716 0.648
-0.063565716 0.029005716 0.648
-0.062523812 0.02909524 0.65000004
-0.061285719 0.02909524 0.65000004
-0.060140003 0.029140001 0.65100002
-0.058900002 0.029140001 0.65100002
-0.057748575 0.029184764 0.65200001
-0.056506671 0.029184764 0.65200001
-0.055349529 0.029229525 0.65300006
-0.054105718 0.029229525 0.65300006
-0.052861907 0.029229525 0.65300006
-0.051618099 0.029229525 0.65300006
-0.050374288 0.029229525 0.65300006
-0.049130481 0.029229525 0.65300006
-0.04788667 0.029229525 0.65300006
-0.046642859 0.029229525 0.65300006
-0.045399051 0.029229525 0.65300006
-0.04415524 0.029229525 0.65300006
-0.042911433 0.029229525 0.65300006
-0.041603811 0.029184764 0.65200001
-0.040361907 0.029184764 0.65200001
-0.039120004 0.029184764 0.65200001
-0.037878096 0.029184764 0.65200001
-0.036636192 0.029184764 0.65200001
-0.035340004 0.029140001 0.65100002
-0.034047622 0.02909524 0.65000004
-0.032809526 0.02909524 0.65000004
-0.031474289 0.029005716 0.648
-0.030240001 0.029005716 0.648
-0.028960954 0.028960954 0.64700001
-0.027728572 0.028960954 0.64700001
-0.02645524 0.028916193 0.64600003
-0.025185715 0.02887143 0.64500004
-0.023920001 0.028826669 0.64400005
-0.022622859 0.028737145 0.64200002
-0.021366669 0.028692383 0.64100003
-0.020114288 0.02864762 0.64000005
-0.018865716 0.028602859 0.63900006
-0.017620953 0.028558098 0.63800001
-0.016354287 0.028468573 0.63600004
-0.01509524 0.028379049 0.634
-0.013865715 0.028334288 0.63300002
-0.01266 0.028334288 0.63300002
-0.011436191 0.028289525 0.63200003
-0.010232382 0.028289525 0.63200003
-0.0090285717 0.028289525 0.63200003
-0.0078247627 0.028289525 0.63200003
0.14210573 0.037734289 0.84300005
0.14371143 0.037734289 0.84300005
-0.0816781 0.029213335 0.62600005
-0.080485716 0.029213335 0.62600005
-0.079420008 0.029260002 0.62700003
-0.078724764 0.029446669 0.63100004
-0.077645719 0.029493336 0.63200003
-0.076925717 0.029680002 0.63600004
-0.07571429 0.029680002 0.63600004
-0.074737146 0.029773336 0.63800001
-0.073752388 0.029866669 0.64000005
-0.07264667 0.029913336 0.64100003
-0.071537144 0.029960003 0.64200002
-0.070533335 0.030053336 0.64400005
-0.069414288 0.030100003 0.64500004
-0.068185717 0.030100003 0.64500004
-0.067164764 0.030193334 0.64700001
-0.065932386 0.030193334 0.64700001
-0.064800002 0.030240001 0.648
-0.063565716 0.030240001 0.648
-0.062523812 0.030333335 0.65000004
-0.061380003 0.030380001 0.65100002
-0.060140003 0.030380001 0.65100002
-0.058990479 0.030426668 0.65200001
-0.057748575 0.030426668 0.65200001
-0.056593336 0.030473335 0.65300006
-0.055349529 0.030473335 0.65300006
-0.054105718 0.030473335 0.65300006
-0.052861907 0.030473335 0.65300006
-0.051618099 0.030473335 0.65300006
-0.050374288 0.030473335 0.65300006
-0.049130481 0.030473335 0.65300006
-0.04788667 0.030473335 0.65300006
-0.046642859 0.030473335 0.65300006
-0.045399051 0.030473335 0.65300006
-0.04415524 0.030473335 0.65300006
-0.042911433 0.030473335 0.65300006
-0.041667622 0.030473335 0.65300006
-0.040361907 0.030426668 0.65200001
-0.039120004 0.030426668 0.65200001
-0.037878096 0.030426668 0.65200001
-0.036636192 0.030426668 0.65200001
-0.035394289 0.030426668 0.65200001
-0.034100004 0.030380001 0.65100002
-0.032809526 0.030333335 0.65000004
-0.031571429 0.030333335 0.65000004
-0.030333335 0.030333335 0.65000004
-0.029005716 0.030240001 0.648
-0.027728572 0.030193334 0.64700001
-0.026496192 0.030193334 0.64700001
-0.025224764 0.030146668 0.64600003
-0.023920001 0.030053336 0.64400005
-0.022693334 0.030053336 0.64400005
-0.021400001 0.029960003 0.64200002
-0.020145716 0.029913336 0.64100003
-0.018895239 0.029866669 0.64000005
-0.017648572 0.029820003 0.63900006
-0.016354287 0.029680002 0.63600004
-0.015119049 0.029633336 0.63500005
-0.01388762 0.029586669 0.634
-0.012680001 0.029586669 0.634
-0.011454286 0.029540002 0.63300002
-0.010232382 0.029493336 0.63200003
-0.0086000003 0.028093334 0.60200006
0.13536096 0.039246671 0.84100002
0.16060857 0.039153337 0.83900005
0.16220668 0.039153337 0.83900005
0.16380477 0.039153337 0.83900005
0.16540287 0.039153337 0.83900005
0.16700096 0.039153337 0.83900005
0.16859905 0.039153337 0.83900005
0.17019716 0.039153337 0.83900005
0.17179525 0.039153337 0.83900005
0.17339334 0.039153337 0.83900005
-0.081808574 0.030454287 0.62700003
-0.080742866 0.03050286 0.62800002
-0.079673335 0.03055143 0.62900001
-0.078849532 0.030697145 0.63200003
-0.077768579 0.030745717 0.63300002
-0.076804765 0.030842859 0.63500005
-0.075952388 0.030988574 0.63800001
-0.074854292 0.031037144 0.63900006
-0.073752388 0.031085717 0.64000005
-0.07264667 0.031134287 0.64100003
-0.071537144 0.031182859 0.64200002
-0.070533335 0.031280003 0.64400005
-0.069414288 0.031328574 0.64500004
-0.068185717 0.031328574 0.64500004
-0.067164764 0.031425714 0.64700001
-0.066034287 0.031474289 0.648
-0.064800002 0.031474289 0.648
-0.063761912 0.031571429 0.65000004
-0.062620007 0.031620003 0.65100002
-0.06147429 0.031668574 0.65200001
-0.060232386 0.031668574 0.65200001
-0.058990479 0.031668574 0.65200001
-0.057837147 0.031717144 0.65300006
-0.056593336 0.031717144 0.65300006
-0.055349529 0.031717144 0.65300006
-0.054105718 0.031717144 0.65300006
-0.052861907 0.031717144 0.65300006
-0.051618099 0.031717144 0.65300006
-0.050374288 0.031717144 0.65300006
-0.049130481 0.031717144 0.65300006
-0.04788667 0.031717144 0.65300006
-0.046642859 0.031717144 0.65300006
-0.045399051 0.031717144 0.65300006
-0.04415524 0.031717144 0.65300006
-0.042911433 0.031717144 0.65300006
-0.041667622 0.031717144 0.65300006
-0.04042381 0.031717144 0.65300006
-0.039120004 0.031668574 0.65200001
-0.037878096 0.031668574 0.65200001
-0.036636192 0.031668574 0.65200001
-0.035394289 0.031668574 0.65200001
-0.034152385 0.031668574 0.65200001
-0.032860003 0.031620003 0.65100002
-0.031620003 0.031620003 0.65100002
-0.030333335 0.031571429 0.65000004
-0.029005716 0.031474289 0.648
-0.02777143 0.031474289 0.648
-0.026496192 0.031425714 0.64700001
-0.025263811 0.031425714 0.64700001
-0.023994287 0.031377144 0.64600003
-0.022693334 0.031280003 0.64400005
-0.021400001 0.031182859 0.64200002
-0.020145716 0.031134287 0.64100003
-0.018895239 0.031085717 0.64000005
-0.017648572 0.031037144 0.63900006
-0.016405715 0.030988574 0.63800001
-0.015119049 0.030842859 0.63500005
-0.01388762 0.030794287 0.634
-0.01204 0.029240001 0.60200006
-0.010893334 0.029240001 0.60200006
-0.0097304769 0.029191431 0.60100001
-0.0086000003 0.029240001 0.60200006
-0.0074533341 0.029240001 0.60200006
-0.0063171433 0.029288573 0.60300004
-0.081939057 0.03169905 0.62800002
-0.080871433 0.031749524 0.62900001
-0.079673335 0.031749524 0.62900001
-0.078849532 0.031900954 0.63200003
-0.077768579 0.031951431 0.63300002
-0.076804765 0.032052383 0.63500005
-0.075952388 0.032203812 0.63800001
-0.074854292 0.032254286 0.63900006
-0.073752388 0.032304764 0.64000005
-0.072760008 0.032405715 0.64200002
-0.071760006 0.032506667 0.64400005
-0.070642859 0.032557145 0.64500004
-0.069521911 0.032607622 0.64600003
-0.068397149 0.032658096 0.64700001
-0.067268573 0.032708574 0.648
-0.066238098 0.032809526 0.65000004
-0.065100007 0.032860003 0.65100002
-0.063860007 0.032860003 0.65100002
-0.062716193 0.032910477 0.65200001
-0.06147429 0.032910477 0.65200001
-0.060232386 0.032910477 0.65200001
-0.059080955 0.032960955 0.65300006
-0.057837147 0.032960955 0.65300006
-0.056593336 0.032960955 0.65300006
-0.055519052 0.033061907 0.65500003
-0.054271434 0.033061907 0.65500003
-0.053023811 0.033061907 0.65500003
-0.051776193 0.033061907 0.65500003
-0.050528575 0.033061907 0.65500003
-0.049280956 0.033061907 0.65500003
-0.048033338 0.033061907 0.65500003
-0.046785716 0.033061907 0.65500003
-0.045399051 0.032960955 0.65300006
-0.04415524 0.032960955 0.65300006
-0.042911433 0.032960955 0.65300006
-0.041667622 0.032960955 0.65300006
-0.04042381 0.032960955 0.65300006
-0.039180003 0.032960955 0.65300006
-0.037936192 0.032960955 0.65300006
-0.036692385 0.032960955 0.65300006
-0.035394289 0.032910477 0.65200001
-0.034152385 0.032910477 0.65200001
-0.032910477 0.032910477 0.65200001
-0.031620003 0.032860003 0.65100002
-0.030380001 0.032860003 0.65100002
-0.02909524 0.032809526 0.65000004
-0.027857145 0.032809526 0.65000004
-0.026537145 0.032708574 0.648
-0.025302859 0.032708574 0.648
-0.02403143 0.032658096 0.64700001
-0.022728574 0.032557145 0.64500004
-0.021466669 0.032506667 0.64400005
-0.020177145 0.032405715 0.64200002
-0.018924763 0.032355241 0.64100003
-0.017676191 0.032304764 0.64000005
-0.01643143 0.032254286 0.63900006
-0.015214287 0.032254286 0.63900006
-0.013909524 0.032052383 0.63500005
-0.012680001 0.032001905 0.634
-0.010857143 0.030285716 0.60000002
-0.0096980957 0.03023524 0.59900004
-0.0085571436 0.03023524 0.59900004
-0.007379048 0.030083811 0.59600002
-0.081939057 0.032895241 0.62800002
-0.080871433 0.032947622 0.62900001
-0.079673335 0.032947622 0.62900001
-0.078849532 0.033104762 0.63200003
-0.077891432 0.033209525 0.634
-0.076804765 0.033261906 0.63500005
-0.075952388 0.03341905 0.63800001
-0.074854292 0.033471432 0.63900006
-0.073867626 0.033576194 0.64100003
-0.072760008 0.033628572 0.64200002
-0.071760006 0.033733334 0.64400005
-0.070642859 0.033785716 0.64500004
-0.069521911 0.033838097 0.64600003
-0.068397149 0.033890478 0.64700001
-0.067476198 0.034047622 0.65000004
-0.066238098 0.034047622 0.65000004
-0.065100007 0.034100004 0.65100002
-0.063958101 0.034152385 0.65200001
-0.062716193 0.034152385 0.65200001
-0.06147429 0.034152385 0.65200001
-0.060232386 0.034152385 0.65200001
-0.059080955 0.034204762 0.65300006
-0.057837147 0.034204762 0.65300006
-0.056593336 0.034204762 0.65300006
-0.055519052 0.034309525 0.65500003
-0.054271434 0.034309525 0.65500003
-0.053104766 0.034361906 0.65600002
-0.05185524 0.034361906 0.65600002
-0.050605718 0.034361906 0.65600002
-0.049356192 0.034361906 0.65600002
-0.04810667 0.034361906 0.65600002
-0.046857145 0.034361906 0.65600002
-0.045538098 0.034309525 0.65500003
-0.044290479 0.034309525 0.65500003
-0.043042861 0.034309525 0.65500003
-0.041667622 0.034204762 0.65300006
-0.04042381 0.034204762 0.65300006
-0.039180003 0.034204762 0.65300006
-0.037936192 0.034204762 0.65300006
-0.036692385 0.034204762 0.65300006
-0.035448574 0.034204762 0.65300006
-0.034152385 0.034152385 0.65200001
-0.032910477 0.034152385 0.65200001
-0.031668574 0.034152385 0.65200001
-0.030426668 0.034152385 0.65200001
-0.029140001 0.034100004 0.65100002
-0.027857145 0.034047622 0.65000004
-0.026619049 0.034047622 0.65000004
-0.025302859 0.03394286 0.648
-0.024068573 0.03394286 0.648
-0.022763811 0.033838097 0.64600003
-0.021500001 0.033785716 0.64500004
-0.020240001 0.033733334 0.64400005
-0.018954286 0.033628572 0.64200002
-0.017703811 0.033576194 0.64100003
-0.016457144 0.033523813 0.64000005
-0.015214287 0.033471432 0.63900006
-0.01393143 0.033314288 0.63600004
-0.011960001 0.031323813 0.59800005
-0.010820953 0.031323813 0.59800005
-0.0096495245 0.03121905 0.59600002
-0.008514286 0.03121905 0.59600002
-0.007379048 0.03121905 0.59600002
-0.0062438101 0.03121905 0.59600002
0.16224287 0.043528575 0.83100003
-0.081578098 0.032517146 0.59900004
-0.080437146 0.032517146 0.59900004
-0.079428576 0.032571431 0.60000002
-0.078285716 0.032571431 0.60000002
-0.07701429 0.032517146 0.59900004
-0.078974292 0.03436286 0.63300002
-0.077891432 0.034417145 0.634
-0.076804765 0.03447143 0.63500005
-0.075952388 0.034634288 0.63800001
-0.074854292 0.034688573 0.63900006
-0.073867626 0.034797147 0.64100003
-0.072760008 0.034851432 0.64200002
-0.07187143 0.035014287 0.64500004
-0.070752382 0.035068575 0.64600003
-0.069629528 0.03512286 0.64700001
-0.068502858 0.035177145 0.648
-0.067476198 0.035285715 0.65000004
-0.066340007 0.035340004 0.65100002
-0.065200001 0.035394289 0.65200001
-0.063958101 0.035394289 0.65200001
-0.062716193 0.035394289 0.65200001
-0.061568577 0.035448574 0.65300006
-0.060324766 0.035448574 0.65300006
-0.059080955 0.035448574 0.65300006
-0.057837147 0.035448574 0.65300006
-0.05676667 0.035557143 0.65500003
-0.055603813 0.035611432 0.65600002
-0.054354288 0.035611432 0.65600002
-0.053104766 0.035611432 0.65600002
-0.05185524 0.035611432 0.65600002
-0.050605718 0.035611432 0.65600002
-0.049356192 0.035611432 0.65600002
-0.04810667 0.035611432 0.65600002
-0.046857145 0.035611432 0.65600002
-0.045607623 0.035611432 0.65600002
-0.044290479 0.035557143 0.65500003
-0.043042861 0.035557143 0.65500003
-0.041795243 0.035557143 0.65500003
-0.040547621 0.035557143 0.65500003
-0.039300002 0.035557143 0.65500003
-0.037936192 0.035448574 0.65300006
-0.036692385 0.035448574 0.65300006
-0.035448574 0.035448574 0.65300006
-0.034204762 0.035448574 0.65300006
-0.032910477 0.035394289 0.65200001
-0.031668574 0.035394289 0.65200001
-0.030426668 0.035394289 0.65200001
-0.029140001 0.035340004 0.65100002
-0.027857145 0.035285715 0.65000004
-0.026619049 0.035285715 0.65000004
-0.025302859 0.035177145 0.648
-0.024068573 0.035177145 0.648
-0.022763811 0.035068575 0.64600003
-0.021533335 0.035068575 0.64600003
-0.020240001 0.034960002 0.64400005
-0.018954286 0.034851432 0.64200002
-0.017703811 0.034797147 0.64100003
-0.016457144 0.034742858 0.64000005
-0.015214287 0.034688573 0.63900006
-0.01393143 0.034525715 0.63600004
-0.01192 0.032354288 0.59600002
-0.010784763 0.032354288 0.59600002
-0.0096333344 0.032300003 0.59500003
-0.0085000005 0.032300003 0.59500003
-0.007379048 0.032354288 0.59600002
-0.0062438101 0.032354288 0.59600002
0.15079905 0.045002859 0.82900006
0.15395716 0.045002859 0.82900006
-0.081578098 0.033658098 0.59900004
-0.080571435 0.033714287 0.60000002
-0.079428576 0.033714287 0.60000002
-0.078285716 0.033714287 0.60000002
-0.07701429 0.033658098 0.59900004
-0.079099052 0.035624765 0.634
-0.077891432 0.035624765 0.634
-0.076804765 0.035680953 0.63500005
-0.075952388 0.035849527 0.63800001
-0.07497143 0.035961907 0.64000005
-0.073982865 0.036074288 0.64200002
-0.07298667 0.036186669 0.64400005
-0.07187143 0.036242861 0.64500004
-0.070752382 0.03629905 0.64600003
-0.069629528 0.036355242 0.64700001
-0.068502858 0.036411431 0.648
-0.067580007 0.036580004 0.65100002
-0.066340007 0.036580004 0.65100002
-0.065200001 0.036636192 0.65200001
-0.063958101 0.036636192 0.65200001
-0.062716193 0.036636192 0.65200001
-0.061568577 0.036692385 0.65300006
-0.060324766 0.036692385 0.65300006
-0.059080955 0.036692385 0.65300006
-0.058014289 0.036804765 0.65500003
-0.056853335 0.036860954 0.65600002
-0.055603813 0.036860954 0.65600002
-0.054354288 0.036860954 0.65600002
-0.053185716 0.036917146 0.65700001
-0.051934291 0.036917146 0.65700001
-0.050682861 0.036917146 0.65700001
-0.049431432 0.036917146 0.65700001
-0.048180003 0.036917146 0.65700001
-0.046928573 0.036917146 0.65700001
-0.045607623 0.036860954 0.65600002
-0.044358097 0.036860954 0.65600002
-0.043108575 0.036860954 0.65600002
-0.041859049 0.036860954 0.65600002
-0.040609527 0.036860954 0.65600002
-0.039360002 0.036860954 0.65600002
-0.038052384 0.036804765 0.65500003
-0.036804765 0.036804765 0.65500003
-0.035448574 0.036692385 0.65300006
-0.034204762 0.036692385 0.65300006
-0.032960955 0.036692385 0.65300006
-0.031668574 0.036636192 0.65200001
-0.030426668 0.036636192 0.65200001
-0.029184764 0.036636192 0.65200001
-0.027900001 0.036580004 0.65100002
-0.026619049 0.036523812 0.65000004
-0.025302859 0.036411431 0.648
-0.024068573 0.036411431 0.648
-0.022799049 0.036355242 0.64700001
-0.021533335 0.03629905 0.64600003
-0.02027143 0.036242861 0.64500004
-0.018954286 0.036074288 0.64200002
-0.017703811 0.036018096 0.64100003
-0.016457144 0.035961907 0.64000005
-0.015238096 0.035961907 0.64000005
-0.013033334 0.033433337 0.59500003
-0.011900001 0.033433337 0.59500003
-0.010766667 0.033433337 0.59500003
-0.0096333344 0.033433337 0.59500003
-0.0085000005 0.033433337 0.59500003
-0.007379048 0.033489525 0.59600002
-0.0062438101 0.033489525 0.59600002
-0.08271905 0.034799051 0.59900004
-0.081578098 0.034799051 0.59900004
-0.080437146 0.034799051 0.59900004
-0.079296194 0.034799051 0.59900004
-0.078285716 0.034857146 0.60000002
-0.076885723 0.034740955 0.59800005
-0.078014292 0.036890477 0.63500005
-0.076804765 0.036890477 0.63500005
-0.075952388 0.037064765 0.63800001
-0.075088575 0.037239049 0.64100003
-0.073982865 0.037297145 0.64200002
-0.07298667 0.037413336 0.64400005
-0.07187143 0.037471432 0.64500004
-0.070752382 0.037529524 0.64600003
-0.069629528 0.03758762 0.64700001
-0.068502858 0.037645716 0.648
-0.067580007 0.037820004 0.65100002
-0.066441908 0.037878096 0.65200001
-0.065200001 0.037878096 0.65200001
-0.063958101 0.037878096 0.65200001
-0.062812388 0.037936192 0.65300006
-0.061568577 0.037936192 0.65300006
-0.060324766 0.037936192 0.65300006
-0.059261907 0.038052384 0.65500003
-0.058014289 0.038052384 0.65500003
-0.056853335 0.03811048 0.65600002
-0.055603813 0.03811048 0.65600002
-0.054437146 0.038168576 0.65700001
-0.053185716 0.038168576 0.65700001
-0.051934291 0.038168576 0.65700001
-0.050682861 0.038168576 0.65700001
-0.049431432 0.038168576 0.65700001
-0.048180003 0.038168576 0.65700001
-0.046928573 0.038168576 0.65700001
-0.045677144 0.038168576 0.65700001
-0.044425718 0.038168576 0.65700001
-0.043174289 0.038168576 0.65700001
-0.041859049 0.03811048 0.65600002
-0.040609527 0.03811048 0.65600002
-0.039360002 0.03811048 0.65600002
-0.03811048 0.03811048 0.65600002
-0.036804765 0.038052384 0.65500003
-0.035557143 0.038052384 0.65500003
-0.034204762 0.037936192 0.65300006
-0.032960955 0.037936192 0.65300006
-0.031717144 0.037936192 0.65300006
-0.030426668 0.037878096 0.65200001
-0.029184764 0.037878096 0.65200001
-0.027900001 0.037820004 0.65100002
-0.026619049 0.037761908 0.65000004
-0.025380954 0.037761908 0.65000004
-0.024068573 0.037645716 0.648
-0.022799049 0.03758762 0.64700001
-0.021566669 0.03758762 0.64700001
-0.020302858 0.037529524 0.64600003
-0.019013334 0.037413336 0.64400005
-0.017703811 0.037239049 0.64100003
-0.016457144 0.037180956 0.64000005
-0.014119049 0.034450479 0.59300005
-0.012989525 0.034450479 0.59300005
-0.011900001 0.034566671 0.59500003
-0.010766667 0.034566671 0.59500003
-0.0096333344 0.034566671 0.59500003
-0.0085000005 0.034566671 0.59500003
-0.007379048 0.034624763 0.59600002
-0.0062438101 0.034624763 0.59600002
-0.082580961 0.035880003 0.59800005
-0.081441909 0.035880003 0.59800005
-0.080302864 0.035880003 0.59800005
-0.079163812 0.035880003 0.59800005
-0.078155242 0.035940003 0.59900004
-0.076757148 0.035820004 0.597
-0.077891432 0.038040001 0.634
-0.076804765 0.038100004 0.63500005
-0.075952388 0.038280003 0.63800001
-0.075205721 0.038520001 0.64200002
-0.074213341 0.038640004 0.64400005
-0.07298667 0.038640004 0.64400005
-0.07187143 0.038700003 0.64500004
-0.070752382 0.038760003 0.64600003
-0.069629528 0.038820002 0.64700001
-0.068714291 0.039000001 0.65000004
-0.067683816 0.039120004 0.65200001
-0.066441908 0.039120004 0.65200001
-0.065200001 0.039120004 0.65200001
-0.063958101 0.039120004 0.65200001
-0.062812388 0.039180003 0.65300006
-0.061568577 0.039180003 0.65300006
-0.060509529 0.039300002 0.65500003
-0.059261907 0.039300002 0.65500003
-0.058014289 0.039300002 0.65500003
-0.056853335 0.039360002 0.65600002
-0.055688575 0.039420001 0.65700001
-0.054437146 0.039420001 0.65700001
-0.053185716 0.039420001 0.65700001
-0.051934291 0.039420001 0.65700001
-0.050682861 0.039420001 0.65700001
-0.049431432 0.039420001 0.65700001
-0.048180003 0.039420001 0.65700001
-0.046928573 0.039420001 0.65700001
-0.045677144 0.039420001 0.65700001
-0.044425718 0.039420001 0.65700001
-0.043174289 0.039420001 0.65700001
-0.04192286 0.039420001 0.65700001
-0.040671431 0.039420001 0.65700001
-0.039420001 0.039420001 0.65700001
-0.03811048 0.039360002 0.65600002
-0.036860954 0.039360002 0.65600002
-0.035611432 0.039360002 0.65600002
-0.034309525 0.039300002 0.65500003
-0.032960955 0.039180003 0.65300006
-0.031717144 0.039180003 0.65300006
-0.030473335 0.039180003 0.65300006
-0.029184764 0.039120004 0.65200001
-0.027942859 0.039120004 0.65200001
-0.026660001 0.039060004 0.65100002
-0.025380954 0.039000001 0.65000004
-0.02414286 0.039000001 0.65000004
-0.022834288 0.038880002 0.648
-0.021566669 0.038820002 0.64700001
-0.020302858 0.038760003 0.64600003
-0.019013334 0.038640004 0.64400005
-0.016322859 0.035460003 0.59100002
-0.015197144 0.035460003 0.59100002
-0.014119049 0.035580002 0.59300005
-0.012989525 0.035580002 0.59300005
-0.011880001 0.035640001 0.59400004
-0.010766667 0.035700001 0.59500003
-0.0096333344 0.035700001 0.59500003
-0.0085000005 0.035700001 0.59500003
-0.007379048 0.035760004 0.59600002
-0.082580961 0.037019052 0.59800005
-0.081441909 0.037019052 0.59800005
-0.080168575 0.036957145 0.597
-0.079163812 0.037019052 0.59800005
-0.077894293 0.036957145 0.597
-0.076628573 0.036895242 0.59600002
-0.075366668 0.036833335 0.59500003
-0.076925717 0.039371431 0.63600004
-0.075952388 0.039495241 0.63800001
-0.074213341 0.039866671 0.64400005
-0.073100008 0.039928574 0.64500004
-0.07187143 0.039928574 0.64500004
-0.070752382 0.039990477 0.64600003
-0.069737144 0.040114287 0.648
-0.068820007 0.040300004 0.65100002
-0.067683816 0.040361907 0.65200001
-0.066441908 0.040361907 0.65200001
-0.065200001 0.040361907 0.65200001
-0.064056195 0.04042381 0.65300006
-0.062812388 0.04042381 0.65300006
-0.061568577 0.04042381 0.65300006
-0.060509529 0.040547621 0.65500003
-0.059261907 0.040547621 0.65500003
-0.058102861 0.040609527 0.65600002
-0.056853335 0.040609527 0.65600002
-0.055688575 0.040671431 0.65700001
-0.054437146 0.040671431 0.65700001
-0.053185716 0.040671431 0.65700001
-0.051934291 0.040671431 0.65700001
-0.050682861 0.040671431 0.65700001
-0.049431432 0.040671431 0.65700001
-0.048180003 0.040671431 0.65700001
-0.046928573 0.040671431 0.65700001
-0.045677144 0.040671431 0.65700001
-0.044425718 0.040671431 0.65700001
-0.043174289 0.040671431 0.65700001
-0.04192286 0.040671431 0.65700001
-0.040671431 0.040671431 0.65700001
-0.039420001 0.040671431 0.65700001
-0.038168576 0.040671431 0.65700001
-0.036917146 0.040671431 0.65700001
-0.035611432 0.040609527 0.65600002
-0.034309525 0.040547621 0.65500003
-0.032960955 0.04042381 0.65300006
-0.031717144 0.04042381 0.65300006
-0.030473335 0.04042381 0.65300006
-0.029184764 0.040361907 0.65200001
-0.027942859 0.040361907 0.65200001
-0.026660001 0.040300004 0.65100002
-0.025380954 0.040238097 0.65000004
-0.02414286 0.040238097 0.65000004
-0.022834288 0.040114287 0.648
-0.021566669 0.040052384 0.64700001
-0.020334287 0.040052384 0.64700001
-0.019042859 0.039928574 0.64500004
-0.016322859 0.036585718 0.59100002
-0.015197144 0.036585718 0.59100002
-0.014071429 0.036585718 0.59100002
-0.012989525 0.036709525 0.59300005
-0.011880001 0.036771432 0.59400004
-0.010748572 0.036771432 0.59400004
-0.0096333344 0.036833335 0.59500003
-0.0085000005 0.036833335 0.59500003
-0.007366667 0.036833335 0.59500003
-0.0062333336 0.036833335 0.59500003
-0.081441909 0.038158096 0.59800005
-0.080168575 0.03809429 0.597
-0.07903143 0.03809429 0.597
-0.077763818 0.038030479 0.59600002
-0.076500006 0.037966669 0.59500003
-0.075240009 0.037902858 0.59400004
-0.076925717 0.040582858 0.63600004
-0.075952388 0.040710479 0.63800001
-0.075205721 0.040965717 0.64200002
-0.074213341 0.041093335 0.64400005
-0.07298667 0.041093335 0.64400005
-0.07187143 0.041157145 0.64500004
-0.070752382 0.041220956 0.64600003
-0.069952384 0.041476194 0.65000004
-0.068820007 0.041540004 0.65100002
-0.067683816 0.041603811 0.65200001
-0.066441908 0.041603811 0.65200001
-0.065200001 0.041603811 0.65200001
-0.064056195 0.041667622 0.65300006
-0.062812388 0.041667622 0.65300006
-0.061757147 0.041795243 0.65500003
-0.060601909 0.041859049 0.65600002
-0.059352383 0.041859049 0.65600002
-0.058102861 0.041859049 0.65600002
-0.056940004 0.04192286 0.65700001
-0.055688575 0.04192286 0.65700001
-0.054520003 0.04198667 0.65800005
-0.053266671 0.04198667 0.65800005
-0.051934291 0.04192286 0.65700001
-0.050682861 0.04192286 0.65700001
-0.049431432 0.04192286 0.65700001
-0.048180003 0.04192286 0.65700001
-0.046928573 0.04192286 0.65700001
-0.045677144 0.04192286 0.65700001
-0.044425718 0.04192286 0.65700001
-0.043174289 0.04192286 0.65700001
-0.04198667 0.04198667 0.65800005
-0.040733337 0.04198667 0.65800005
-0.039480001 0.04198667 0.65800005
-0.038226668 0.04198667 0.65800005
-0.036973335 0.04198667 0.65800005
-0.035665717 0.04192286 0.65700001
-0.034309525 0.041795243 0.65500003
-0.033061907 0.041795243 0.65500003
-0.031717144 0.041667622 0.65300006
-0.030473335 0.041667622 0.65300006
-0.029229525 0.041667622 0.65300006
-0.027942859 0.041603811 0.65200001
-0.026660001 0.041540004 0.65100002
-0.025420001 0.041540004 0.65100002
-0.02414286 0.041476194 0.65000004
-0.022834288 0.041348573 0.648
-0.021566669 0.041284766 0.64700001
-0.020302858 0.041220956 0.64600003
-0.017448572 0.03771143 0.59100002
-0.016322859 0.03771143 0.59100002
-0.015197144 0.03771143 0.59100002
-0.014071429 0.03771143 0.59100002
-0.012989525 0.037839051 0.59300005
-0.011860001 0.037839051 0.59300005
-0.010748572 0.037902858 0.59400004
-0.0096171433 0.037902858 0.59400004
-0.0084857149 0.037902858 0.59400004
-0.007366667 0.037966669 0.59500003
-0.080168575 0.039231431 0.597
-0.078899056 0.039165717 0.59600002
-0.077633336 0.039100002 0.59500003
-0.076500006 0.039100002 0.59500003
-0.075240009 0.039034288 0.59400004
-0.076925717 0.041794289 0.63600004
-0.075952388 0.041925717 0.63800001
-0.075205721 0.042188574 0.64200002
-0.074213341 0.042320002 0.64400005
-0.07298667 0.042320002 0.64400005
-0.07187143 0.042385716 0.64500004
-0.070752382 0.04245143 0.64600003
-0.069737144 0.042582858 0.648
-0.068820007 0.042780004 0.65100002
-0.067683816 0.042845719 0.65200001
-0.066441908 0.042845719 0.65200001
-0.065200001 0.042845719 0.65200001
-0.064056195 0.042911433 0.65300006
-0.062812388 0.042911433 0.65300006
-0.061757147 0.043042861 0.65500003
-0.060601909 0.043108575 0.65600002
-0.059352383 0.043108575 0.65600002
-0.058191434 0.043174289 0.65700001
-0.056940004 0.043174289 0.65700001
-0.055773336 0.043240003 0.65800005
-0.054520003 0.043240003 0.65800005
-0.053266671 0.043240003 0.65800005
-0.052013338 0.043240003 0.65800005
-0.050760005 0.043240003 0.65800005
-0.049506672 0.043240003 0.65800005
-0.048253335 0.043240003 0.65800005
-0.046928573 0.043174289 0.65700001
-0.045677144 0.043174289 0.65700001
-0.044425718 0.043174289 0.65700001
-0.043240003 0.043240003 0.65800005
-0.04198667 0.043240003 0.65800005
-0.040733337 0.043240003 0.65800005
-0.039480001 0.043240003 0.65800005
-0.038226668 0.043240003 0.65800005
-0.036973335 0.043240003 0.65800005
-0.035665717 0.043174289 0.65700001
-0.034309525 0.043042861 0.65500003
-0.032960955 0.042911433 0.65300006
-0.031717144 0.042911433 0.65300006
-0.030473335 0.042911433 0.65300006
-0.029229525 0.042911433 0.65300006
-0.027942859 0.042845719 0.65200001
-0.026660001 0.042780004 0.65100002
-0.025380954 0.04271429 0.65000004
-0.02414286 0.04271429 0.65000004
-0.022799049 0.042517144 0.64700001
-0.021566669 0.042517144 0.64700001
-0.020302858 0.04245143 0.64600003
-0.017448572 0.038837146 0.59100002
-0.016295239 0.038771432 0.59000003
-0.015197144 0.038837146 0.59100002
-0.014071429 0.038837146 0.59100002
-0.01296762 0.03890286 0.59200001
-0.011840001 0.03890286 0.59200001
-0.010730477 0.038968574 0.59300005
-0.0096171433 0.039034288 0.59400004
-0.0084857149 0.039034288 0.59400004
0.11720477 0.053557146 0.81500006
0.11875715 0.053557146 0.81500006
-0.078766674 0.040233336 0.59500003
-0.077633336 0.040233336 0.59500003
-0.076371431 0.040165719 0.59400004
-0.078014292 0.042938098 0.63500005
-0.076925717 0.043005716 0.63600004
-0.075952388 0.043140955 0.63800001
-0.075088575 0.043343812 0.64100003
-0.073982865 0.04341143 0.64200002
-0.072760008 0.04341143 0.64200002
-0.071760006 0.043546669 0.64400005
-0.070642859 0.043614287 0.64500004
-0.069629528 0.043749526 0.64700001
-0.068820007 0.044020005 0.65100002
-0.067683816 0.044087622 0.65200001
-0.066441908 0.044087622 0.65200001
-0.065200001 0.044087622 0.65200001
-0.064056195 0.04415524 0.65300006
-0.063004769 0.044290479 0.65500003
-0.061851434 0.044358097 0.65600002
-0.060694288 0.044425718 0.65700001
-0.059352383 0.044358097 0.65600002
-0.058191434 0.044425718 0.65700001
-0.056940004 0.044425718 0.65700001
-0.055773336 0.044493336 0.65800005
-0.054520003 0.044493336 0.65800005
-0.053266671 0.044493336 0.65800005
-0.052013338 0.044493336 0.65800005
-0.050760005 0.044493336 0.65800005
-0.049506672 0.044493336 0.65800005
-0.048253335 0.044493336 0.65800005
-0.047000002 0.044493336 0.65800005
-0.045746669 0.044493336 0.65800005
-0.044493336 0.044493336 0.65800005
-0.043240003 0.044493336 0.65800005
-0.04198667 0.044493336 0.65800005
-0.040733337 0.044493336 0.65800005
-0.039480001 0.044493336 0.65800005
-0.038226668 0.044493336 0.65800005
-0.036973335 0.044493336 0.65800005
-0.035665717 0.044425718 0.65700001
-0.034309525 0.044290479 0.65500003
-0.032960955 0.04415524 0.65300006
-0.031717144 0.04415524 0.65300006
-0.030473335 0.04415524 0.65300006
-0.029229525 0.04415524 0.65300006
-0.027942859 0.044087622 0.65200001
-0.02387524 0.039421909 0.583
-0.022803811 0.039489526 0.58400005
-0.02169143 0.039489526 0.58400005
-0.020579049 0.039489526 0.58400005
-0.019533334 0.039624766 0.58600003
-0.018574286 0.039962858 0.59100002
-0.017448572 0.039962858 0.59100002
-0.016322859 0.039962858 0.59100002
-0.015197144 0.039962858 0.59100002
-0.014071429 0.039962858 0.59100002
-0.01296762 0.040030479 0.59200001
-0.011840001 0.040030479 0.59200001
-0.010730477 0.040098097 0.59300005
-0.0096009532 0.040098097 0.59300005
-0.074860007 0.041088574 0.59100002
-0.073609531 0.041019049 0.59000003
-0.072362863 0.040949527 0.58900005
-0.071120001 0.040880002 0.588
-0.069880955 0.040810481 0.58700001
-0.068762861 0.040810481 0.58700001
-0.073982865 0.04463429 0.64200002
-0.072760008 0.04463429 0.64200002
-0.071537144 0.04463429 0.64200002
-0.063742861 0.040462859 0.58200002
-0.069414288 0.044842862 0.64500004
-0.068820007 0.045260005 0.65100002
-0.067683816 0.045329526 0.65200001
-0.066441908 0.045329526 0.65200001
-0.065200001 0.045329526 0.65200001
-0.064056195 0.045399051 0.65300006
-0.063004769 0.045538098 0.65500003
-0.061851434 0.045607623 0.65600002
-0.060694288 0.045677144 0.65700001
-0.059442863 0.045677144 0.65700001
-0.058191434 0.045677144 0.65700001
-0.056940004 0.045677144 0.65700001
-0.055773336 0.045746669 0.65800005
-0.054520003 0.045746669 0.65800005
-0.053266671 0.045746669 0.65800005
-0.052171431 0.045885716 0.66000003
-0.050914288 0.045885716 0.66000003
-0.049657147 0.045885716 0.66000003
-0.048400003 0.045885716 0.66000003
-0.047000002 0.045746669 0.65800005
-0.045746669 0.045746669 0.65800005
-0.044493336 0.045746669 0.65800005
-0.043240003 0.045746669 0.65800005
-0.04198667 0.045746669 0.65800005
-0.040733337 0.045746669 0.65800005
-0.039480001 0.045746669 0.65800005
-0.038226668 0.045746669 0.65800005
-0.036973335 0.045746669 0.65800005
-0.035665717 0.045677144 0.65700001
-0.034361906 0.045607623 0.65600002
-0.032960955 0.045399051 0.65300006
-0.031668574 0.045329526 0.65200001
-0.026973335 0.040184766 0.57800001
-0.026096193 0.040532384 0.583
-0.024985716 0.040532384 0.583
-0.02387524 0.040532384 0.583
-0.022803811 0.040601909 0.58400005
-0.02169143 0.040601909 0.58400005
-0.020579049 0.040601909 0.58400005
-0.019533334 0.040740956 0.58600003
-0.018480001 0.040880002 0.588
-0.017360002 0.040880002 0.588
-0.016295239 0.041019049 0.59000003
-0.015171429 0.041019049 0.59000003
-0.014071429 0.041088574 0.59100002
-0.01296762 0.041158099 0.59200001
-0.011820001 0.041088574 0.59100002
-0.010730477 0.04122762 0.59300005
-0.074860007 0.042214289 0.59100002
-0.073609531 0.042142861 0.59000003
-0.072485723 0.042142861 0.59000003
-0.071120001 0.042000003 0.588
-0.069880955 0.041928574 0.58700001
-0.068762861 0.041928574 0.58700001
-0.067644767 0.041928574 0.58700001
-0.066300005 0.041785717 0.58500004
-0.065074287 0.041714288 0.58400005
-0.063852385 0.04164286 0.583
-0.062634289 0.041571431 0.58200002
-0.060209528 0.041428573 0.58000004
-0.066543818 0.046642859 0.65300006
-0.063293338 0.047000002 0.65800005
-0.062040005 0.047000002 0.65800005
-0.060786672 0.047000002 0.65800005
-0.059533339 0.047000002 0.65800005
-0.058191434 0.046928573 0.65700001
-0.056940004 0.046928573 0.65700001
-0.055773336 0.047000002 0.65800005
-0.054520003 0.047000002 0.65800005
-0.053266671 0.047000002 0.65800005
-0.052013338 0.047000002 0.65800005
-0.050914288 0.04714286 0.66000003
-0.049657147 0.04714286 0.66000003
-0.048400003 0.04714286 0.66000003
-0.04714286 0.04714286 0.66000003
-0.045885716 0.04714286 0.66000003
-0.044493336 0.047000002 0.65800005
-0.043240003 0.047000002 0.65800005
-0.04198667 0.047000002 0.65800005
-0.040733337 0.047000002 0.65800005
-0.039480001 0.047000002 0.65800005
-0.038226668 0.047000002 0.65800005
-0.032421906 0.041214287 0.57700002
-0.031322859 0.041214287 0.57700002
-0.030223811 0.041214287 0.57700002
-0.029175241 0.041285716 0.57800001
-0.028074287 0.041285716 0.57800001
-0.024985716 0.04164286 0.583
-0.02387524 0.04164286 0.583
-0.022764763 0.04164286 0.583
-0.02169143 0.041714288 0.58400005
-0.020614287 0.041785717 0.58500004
-0.019566668 0.041928574 0.58700001
-0.018417144 0.041857146 0.58600003
-0.017330477 0.041928574 0.58700001
-0.016295239 0.042142861 0.59000003
-0.015197144 0.042214289 0.59100002
-0.014071429 0.042214289 0.59100002
-0.01296762 0.042285718 0.59200001
-0.011840001 0.042285718 0.59200001
-0.072485723 0.043266669 0.59000003
-0.071120001 0.043120004 0.588
-0.069880955 0.043046668 0.58700001
-0.068645716 0.042973336 0.58600003
-0.067529529 0.042973336 0.58600003
-0.066300005 0.042900003 0.58500004
-0.065185718 0.042900003 0.58500004
-0.063852385 0.042753335 0.583
-0.062634289 0.042680003 0.58200002
-0.061420005 0.04260667 0.58100003
-0.060313337 0.04260667 0.58100003
-0.059104767 0.042533334 0.58000004
-0.062228575 0.048400003 0.66000003
-0.060971431 0.048400003 0.66000003
-0.059533339 0.048253335 0.65800005
-0.058280002 0.048253335 0.65800005
-0.057026669 0.048253335 0.65800005
-0.055773336 0.048253335 0.65800005
-0.054520003 0.048253335 0.65800005
-0.053266671 0.048253335 0.65800005
-0.052013338 0.048253335 0.65800005
-0.050760005 0.048253335 0.65800005
-0.049657147 0.048400003 0.66000003
-0.048400003 0.048400003 0.66000003
-0.047214288 0.048473336 0.66100001
-0.045885716 0.048400003 0.66000003
-0.044493336 0.048253335 0.65800005
-0.043240003 0.048253335 0.65800005
-0.04198667 0.048253335 0.65800005
-0.040733337 0.048253335 0.65800005
-0.039480001 0.048253335 0.65800005
-0.033520956 0.042313337 0.57700002
-0.032421906 0.042313337 0.57700002
-0.031322859 0.042313337 0.57700002
-0.030223811 0.042313337 0.57700002
-0.029175241 0.04238667 0.57800001
-0.028074287 0.04238667 0.57800001
-0.027066668 0.042533334 0.58000004
-0.02605143 0.042680003 0.58200002
-0.024985716 0.042753335 0.583
-0.02387524 0.042753335 0.583
-0.022764763 0.042753335 0.583
-0.02169143 0.042826671 0.58400005
-0.020614287 0.042900003 0.58500004
-0.019533334 0.042973336 0.58600003
-0.018448573 0.043046668 0.58700001
-0.017360002 0.043120004 0.588
-0.016322859 0.043340001 0.59100002
-0.015222858 0.043413337 0.59200001
-0.014095239 0.043413337 0.59200001
-0.013011429 0.043560002 0.59400004
-0.072485723 0.044390481 0.59000003
-0.069880955 0.044164766 0.58700001
-0.068645716 0.044089526 0.58600003
-0.067529529 0.044089526 0.58600003
-0.066413336 0.044089526 0.58600003
-0.065185718 0.04401429 0.58500004
-0.063961908 0.04393905 0.58400005
-0.062741905 0.043863811 0.583
-0.061420005 0.043713335 0.58100003
-0.060313337 0.043713335 0.58100003
-0.059104767 0.043638099 0.58000004
-0.058000002 0.043638099 0.58000004
-0.056895241 0.043638099 0.58000004
-0.05579048 0.043638099 0.58000004
-0.054685719 0.043638099 0.58000004
-0.053580955 0.043638099 0.58000004
-0.056940004 0.049431432 0.65700001
-0.055688575 0.049431432 0.65700001
-0.054437146 0.049431432 0.65700001
-0.053185716 0.049431432 0.65700001
-0.052013338 0.049506672 0.65800005
-0.050760005 0.049506672 0.65800005
-0.049657147 0.049657147 0.66000003
-0.048473336 0.049732383 0.66100001
-0.047214288 0.049732383 0.66100001
-0.045885716 0.049657147 0.66000003
-0.044493336 0.049506672 0.65800005
-0.043240003 0.049506672 0.65800005
-0.04198667 0.049506672 0.65800005
-0.035657145 0.043337144 0.57600003
-0.034620002 0.043412384 0.57700002
-0.033520956 0.043412384 0.57700002
-0.032478098 0.043487623 0.57800001
-0.031377144 0.043487623 0.57800001
-0.030276192 0.043487623 0.57800001
-0.029175241 0.043487623 0.57800001
-0.028122859 0.043562859 0.57900006
-0.027066668 0.043638099 0.58000004
-0.02605143 0.043788575 0.58200002
-0.024985716 0.043863811 0.583
-0.02387524 0.043863811 0.583
-0.022764763 0.043863811 0.583
-0.02169143 0.04393905 0.58400005
-0.020579049 0.04393905 0.58400005
-0.019533334 0.044089526 0.58600003
-0.018542858 0.044390481 0.59000003
-0.017448572 0.044465717 0.59100002
-0.016378097 0.044616193 0.59300005
-0.015274286 0.044691432 0.59400004
-0.014142858 0.044691432 0.59400004
-0.013011429 0.044691432 0.59400004
-0.069880955 0.045282859 0.58700001
-0.068645716 0.045205716 0.58600003
-0.067529529 0.045205716 0.58600003
-0.066413336 0.045205716 0.58600003
-0.065185718 0.045128573 0.58500004
-0.064071432 0.045128573 0.58500004
-0.062741905 0.04497429 0.583
-0.061525717 0.044897147 0.58200002
-0.060417145 0.044897147 0.58200002
-0.059206672 0.044820003 0.58100003
-0.058000002 0.04474286 0.58000004
-0.056895241 0.04474286 0.58000004
-0.055886671 0.044820003 0.58100003
-0.054685719 0.04474286 0.58000004
-0.053673338 0.044820003 0.58100003
-0.052476194 0.04474286 0.58000004
-0.051371433 0.04474286 0.58000004
-0.050266668 0.04474286 0.58000004
-0.049161907 0.04474286 0.58000004
-0.051934291 0.050682861 0.65700001
-0.050760005 0.050760005 0.65800005
-0.049657147 0.050914288 0.66000003
-0.048400003 0.050914288 0.66000003
-0.047000002 0.050760005 0.65800005
-0.045746669 0.050760005 0.65800005
-0.038948573 0.04443429 0.57600003
-0.03785143 0.04443429 0.57600003
-0.036754288 0.04443429 0.57600003
-0.035657145 0.04443429 0.57600003
-0.034620002 0.04451143 0.57700002
-0.033520956 0.04451143 0.57700002
-0.032478098 0.044588573 0.57800001
-0.031377144 0.044588573 0.57800001
-0.030276192 0.044588573 0.57800001
-0.029225716 0.044665717 0.57900006
-0.028122859 0.044665717 0.57900006
-0.027066668 0.04474286 0.58000004
-0.02605143 0.044897147 0.58200002
-0.024985716 0.04497429 0.583
-0.02387524 0.04497429 0.583
-0.022764763 0.04497429 0.583
-0.02169143 0.045051433 0.58400005
-0.020579049 0.045051433 0.58400005
-0.019700002 0.045591433 0.59100002
-0.018574286 0.045591433 0.59100002
-0.01750762 0.045745715 0.59300005
-0.016378097 0.045745715 0.59300005
-0.015274286 0.045822859 0.59400004
-0.014166668 0.045900002 0.59500003
-0.013077144 0.046054289 0.597
-0.076904766 0.051064767 0.64600003
-0.07555715 0.050985716 0.64500004
-0.067529529 0.046321906 0.58600003
-0.065297149 0.046321906 0.58600003
-0.064071432 0.046242859 0.58500004
-0.062849529 0.046163812 0.58400005
-0.061631434 0.046084765 0.583
-0.060417145 0.046005718 0.58200002
-0.059206672 0.045926671 0.58100003
-0.058000002 0.045847621 0.58000004
-0.056895241 0.045847621 0.58000004
-0.055886671 0.045926671 0.58100003
-0.054780003 0.045926671 0.58100003
-0.053673338 0.045926671 0.58100003
-0.052476194 0.045847621 0.58000004
-0.051460002 0.045926671 0.58100003
-0.050266668 0.045847621 0.58000004
-0.049077146 0.045768574 0.57900006
-0.047974288 0.045768574 0.57900006
-0.046871431 0.045768574 0.57900006
-0.045768574 0.045768574 0.57900006
-0.044588573 0.045689527 0.57800001
-0.043487623 0.045689527 0.57800001
-0.04238667 0.045689527 0.57800001
-0.041285716 0.045689527 0.57800001
-0.040115241 0.04561048 0.57700002
-0.038948573 0.045531433 0.57600003
-0.037917145 0.04561048 0.57700002
-0.036818098 0.04561048 0.57700002
-0.035719048 0.04561048 0.57700002
-0.034680001 0.045689527 0.57800001
-0.033579051 0.045689527 0.57800001
-0.032478098 0.045689527 0.57800001
-0.031377144 0.045689527 0.57800001
-0.030328574 0.045768574 0.57900006
-0.029225716 0.045768574 0.57900006
-0.028171431 0.045847621 0.58000004
-0.027066668 0.045847621 0.58000004
-0.02605143 0.046005718 0.58200002
-0.024985716 0.046084765 0.583
-0.023957144 0.046242859 0.58500004
-0.022803811 0.046163812 0.58400005
-0.02195143 0.046717145 0.59100002
-0.020825716 0.046717145 0.59100002
-0.019766668 0.046875242 0.59300005
-0.018637145 0.046875242 0.59300005
-0.017537143 0.046954289 0.59400004
-0.016405715 0.046954289 0.59400004
-0.015300001 0.047033336 0.59500003
-0.014214287 0.04719143 0.597
-0.013120953 0.047349527 0.59900004
-0.011980001 0.047349527 0.59900004
-0.076785721 0.052214291 0.64500004
-0.07555715 0.052214291 0.64500004
-0.074328579 0.052214291 0.64500004
-0.064071432 0.047357146 0.58500004
-0.062849529 0.047276195 0.58400005
-0.061631434 0.047195241 0.583
-0.060417145 0.04711429 0.58200002
-0.059206672 0.047033336 0.58100003
-0.058100004 0.047033336 0.58100003
-0.056993335 0.047033336 0.58100003
-0.055886671 0.047033336 0.58100003
-0.054780003 0.047033336 0.58100003
-0.053673338 0.047033336 0.58100003
-0.052476194 0.046952385 0.58000004
-0.051371433 0.046952385 0.58000004
-0.050180003 0.046871431 0.57900006
-0.049077146 0.046871431 0.57900006
-0.047891431 0.046790481 0.57800001
-0.046871431 0.046871431 0.57900006
-0.045768574 0.046871431 0.57900006
-0.044588573 0.046790481 0.57800001
-0.043487623 0.046790481 0.57800001
-0.04238667 0.046790481 0.57800001
-0.041285716 0.046790481 0.57800001
-0.040184766 0.046790481 0.57800001
-0.039016195 0.046709526 0.57700002
-0.037917145 0.046709526 0.57700002
-0.036818098 0.046709526 0.57700002
-0.035719048 0.046709526 0.57700002
-0.034680001 0.046790481 0.57800001
-0.033579051 0.046790481 0.57800001
-0.032534286 0.046871431 0.57900006
-0.031431429 0.046871431 0.57900006
-0.030328574 0.046871431 0.57900006
-0.029225716 0.046871431 0.57900006
-0.028171431 0.046952385 0.58000004
-0.027066668 0.046952385 0.58000004
-0.026096193 0.047195241 0.583
-0.025242859 0.047680955 0.58900005
-0.024080001 0.047600005 0.588
-0.022960002 0.047600005 0.588
-0.02195143 0.04784286 0.59100002
-0.020860953 0.047923815 0.59200001
-0.019766668 0.048004765 0.59300005
-0.018637145 0.048004765 0.59300005
-0.017537143 0.048085716 0.59400004
-0.016405715 0.048085716 0.59400004
-0.015300001 0.04816667 0.59500003
-0.014238096 0.048409525 0.59800005
-0.013120953 0.04849048 0.59900004
-0.011980001 0.04849048 0.59900004
-0.010857143 0.04857143 0.60000002
0.17748097 0.064195246 0.79300004
0.17899144 0.064195246 0.79300004
0.18050192 0.064195246 0.79300004
-0.064180955 0.04855429 0.58600003
-0.063064769 0.04855429 0.58600003
-0.061842863 0.048471432 0.58500004
-0.060624767 0.048388574 0.58400005
-0.059410479 0.048305716 0.583
-0.058300003 0.048305716 0.583
-0.057091434 0.048222858 0.58200002
-0.055982862 0.048222858 0.58200002
-0.05487429 0.048222858 0.58200002
-0.053673338 0.048140004 0.58100003
-0.05256667 0.048140004 0.58100003
-0.051460002 0.048140004 0.58100003
-0.050266668 0.048057146 0.58000004
-0.049077146 0.047974288 0.57900006
-0.047974288 0.047974288 0.57900006
-0.046871431 0.047974288 0.57900006
-0.045768574 0.047974288 0.57900006
-0.044588573 0.047891431 0.57800001
-0.043487623 0.047891431 0.57800001
-0.04238667 0.047891431 0.57800001
-0.041285716 0.047891431 0.57800001
-0.040184766 0.047891431 0.57800001
-0.039083812 0.047891431 0.57800001
-0.037982859 0.047891431 0.57800001
-0.036881909 0.047891431 0.57800001
-0.035780955 0.047891431 0.57800001
-0.034740001 0.047974288 0.57900006
-0.033637144 0.047974288 0.57900006
-0.032590479 0.048057146 0.58000004
-0.031431429 0.047974288 0.57900006
-0.030380955 0.048057146 0.58000004
-0.029276192 0.048057146 0.58000004
-0.028220002 0.048140004 0.58100003
-0.027206669 0.048305716 0.583
-0.026185716 0.048471432 0.58500004
-0.025285715 0.048885718 0.59000003
-0.024161907 0.048885718 0.59000003
-0.023038097 0.048885718 0.59000003
-0.02195143 0.048968576 0.59100002
-0.020860953 0.04905143 0.59200001
-0.019800002 0.049217146 0.59400004
-0.018668573 0.049217146 0.59400004
-0.017566668 0.049300004 0.59500003
-0.016433334 0.049300004 0.59500003
-0.015325715 0.049382862 0.59600002
-0.014238096 0.049548574 0.59800005
-0.013120953 0.049631432 0.59900004
-0.012000001 0.04971429 0.60000002
-0.010857143 0.04971429 0.60000002
-0.0097142868 0.04971429 0.60000002
0.14576097 0.065705717 0.79300004
0.17703335 0.065540001 0.79100001
0.17854001 0.065540001 0.79100001
0.18004668 0.065540001 0.79100001
-0.066980004 0.050094288 0.59100002
-0.065408573 0.049755242 0.58700001
-0.064290479 0.049755242 0.58700001
-0.063172385 0.049755242 0.58700001
-0.061948575 0.04967048 0.58600003
-0.060832385 0.04967048 0.58600003
-0.059716195 0.04967048 0.58600003
-0.058500003 0.049585719 0.58500004
-0.057287622 0.049500957 0.58400005
-0.056175243 0.049500957 0.58400005
-0.054968577 0.049416192 0.583
-0.053765718 0.04933143 0.58200002
-0.052657146 0.04933143 0.58200002
-0.051548574 0.04933143 0.58200002
-0.050440002 0.04933143 0.58200002
-0.049246669 0.049246669 0.58100003
-0.048140004 0.049246669 0.58100003
-0.047033336 0.049246669 0.58100003
-0.045926671 0.049246669 0.58100003
-0.044665717 0.049077146 0.57900006
-0.043562859 0.049077146 0.57900006
-0.042460002 0.049077146 0.57900006
-0.041357145 0.049077146 0.57900006
-0.040254287 0.049077146 0.57900006
-0.03915143 0.049077146 0.57900006
-0.038048573 0.049077146 0.57900006
-0.036945716 0.049077146 0.57900006
-0.035904765 0.049161907 0.58000004
-0.0348 0.049161907 0.58000004
-0.033753335 0.049246669 0.58100003
-0.032646667 0.049246669 0.58100003
-0.031540003 0.049246669 0.58100003
-0.030485716 0.04933143 0.58200002
-0.029427622 0.049416192 0.583
