# .PCD v0.7 - Point Cloud Data file format
VERSION 0.7
FIELDS x y z
SIZE 4 4 4
TYPE F F F
COUNT 1 1 1
WIDTH 1382
HEIGHT 1
VIEWPOINT 0 0 0 1 0 0 0
POINTS 1382
DATA ascii
0.037934288 0.05396286 0.56100005
0.039072383 0.054059051 0.56200004
0.040214289 0.054155242 0.56300002
0.041360002 0.054251432 0.56400001
0.04235905 0.054155242 0.56300002
0.043431431 0.054155242 0.56300002
0.044582859 0.054251432 0.56400001
0.045738097 0.054347623 0.565
-0.013523811 0.055718098 0.56800002
-0.01246381 0.055816196 0.56900001
-0.011360001 0.055718098 0.56800002
-0.010241905 0.055521909 0.56600004
-0.0091476198 0.055423815 0.565
-0.0080714291 0.055423815 0.565
-0.0069828578 0.055325717 0.56400001
-0.0059085716 0.055325717 0.56400001
-0.0048257145 0.055227622 0.56300002
-0.0037466669 0.055129528 0.56200004
-0.0026666669 0.054933336 0.56
-0.0016000001 0.054933336 0.56
-0.000532381 0.054835241 0.55900002
0.0005333334 0.054933336 0.56
0.001597143 0.054835241 0.55900002
0.0066523813 0.062290478 0.63500005
0.0078990478 0.062584765 0.63800001
0.0091142859 0.062584765 0.63800001
0.010345715 0.06268286 0.63900006
0.011544763 0.062584765 0.63800001
0.01278 0.06268286 0.63900006
0.013997144 0.06268286 0.63900006
0.015214287 0.06268286 0.63900006
0.016405715 0.062584765 0.63800001
0.017620953 0.062584765 0.63800001
0.018836191 0.062584765 0.63800001
0.020051429 0.062584765 0.63800001
0.021300001 0.06268286 0.63900006
0.022481907 0.062584765 0.63800001
0.023697145 0.062584765 0.63800001
0.024912383 0.062584765 0.63800001
0.026045715 0.062388577 0.63600004
0.027257144 0.062388577 0.63600004
0.028468573 0.062388577 0.63600004
0.025900003 0.05444286 0.55500001
0.026957145 0.05444286 0.55500001
0.028014287 0.05444286 0.55500001
0.02907143 0.05444286 0.55500001
0.030128574 0.05444286 0.55500001
0.031298097 0.054639053 0.55700004
0.032417145 0.054737147 0.55800003
0.033480003 0.054737147 0.55800003
0.034666669 0.054933336 0.56
0.035733335 0.054933336 0.56
0.036931433 0.055129528 0.56200004
0.037934288 0.055031434 0.56100005
0.039002858 0.055031434 0.56100005
0.040214289 0.055227622 0.56300002
0.041360002 0.055325717 0.56400001
0.04235905 0.055227622 0.56300002
0.043431431 0.055227622 0.56300002
0.044582859 0.055325717 0.56400001
-0.012485716 0.057000004 0.57000005
-0.011380001 0.056900002 0.56900001
-0.010260001 0.056700002 0.56700003
-0.009180001 0.056700002 0.56700003
-0.0080714291 0.056500003 0.565
-0.0069828578 0.056400005 0.56400001
-0.0058980957 0.056300003 0.56300002
-0.0048171431 0.056200005 0.56200004
-0.0037466669 0.056200005 0.56200004
-0.0026666669 0.056000005 0.56
-0.0016000001 0.056000005 0.56
-0.000532381 0.055900004 0.55900002
0.000532381 0.055900004 0.55900002
0.001597143 0.055900004 0.55900002
0.0026523811 0.055700004 0.55700004
0.0037133335 0.055700004 0.55700004
0.0047657145 0.055600002 0.55600005
0.010345715 0.063900001 0.63900006
0.011544763 0.063800007 0.63800001
0.011120001 0.055600002 0.55600005
0.012179049 0.055600002 0.55600005
0.015190477 0.063800007 0.63800001
0.018836191 0.063800007 0.63800001
0.020051429 0.063800007 0.63800001
0.021300001 0.063900001 0.63900006
0.022481907 0.063800007 0.63800001
0.02065143 0.055600002 0.55600005
0.021710478 0.055600002 0.55600005
0.022769526 0.055600002 0.55600005
0.023828574 0.055600002 0.55600005
0.024887621 0.055600002 0.55600005
0.025946669 0.055600002 0.55600005
0.026957145 0.055500004 0.55500001
0.028014287 0.055500004 0.55500001
0.02907143 0.055500004 0.55500001
0.030182859 0.055600002 0.55600005
0.031298097 0.055700004 0.55700004
0.032417145 0.055800002 0.55800003
0.033600003 0.056000005 0.56
0.034728575 0.056100003 0.56100005
0.035797145 0.056100003 0.56100005
0.036931433 0.056200005 0.56200004
0.038001906 0.056200005 0.56200004
0.039002858 0.056100003 0.56100005
0.040214289 0.056300003 0.56300002
0.041360002 0.056400005 0.56400001
0.04235905 0.056300003 0.56300002
0.043431431 0.056300003 0.56300002
-0.013571429 0.058085717 0.57000005
-0.012485716 0.058085717 0.57000005
-0.011400001 0.058085717 0.57000005
-0.010296191 0.057983812 0.56900001
-0.0091961911 0.05788191 0.56800002
-0.0081000002 0.057780005 0.56700003
-0.0069952384 0.057576194 0.565
-0.0059085716 0.057474289 0.56400001
-0.0048257145 0.057372384 0.56300002
-0.0037533336 0.057372384 0.56300002
-0.0026761906 0.057270478 0.56200004
-0.0016000001 0.057066672 0.56
-0.0005333334 0.057066672 0.56
0.0005333334 0.057066672 0.56
0.001597143 0.056964766 0.55900002
0.0026523811 0.056760956 0.55700004
0.0037133335 0.056760956 0.55700004
0.0047657145 0.05665905 0.55600005
0.0058352384 0.056760956 0.55700004
0.0068714288 0.056557145 0.55500001
0.0079285717 0.056557145 0.55500001
0.008985715 0.056557145 0.55500001
0.010060953 0.05665905 0.55600005
0.011120001 0.05665905 0.55600005
0.012200953 0.056760956 0.55700004
0.013238096 0.05665905 0.55600005
0.014297144 0.05665905 0.55600005
0.015328572 0.056557145 0.55500001
0.016385715 0.056557145 0.55500001
0.017442858 0.056557145 0.55500001
0.018466668 0.056455243 0.55400002
0.019521907 0.056455243 0.55400002
0.02065143 0.05665905 0.55600005
0.021710478 0.05665905 0.55600005
0.022769526 0.05665905 0.55600005
0.023828574 0.05665905 0.55600005
0.024887621 0.05665905 0.55600005
0.025946669 0.05665905 0.55600005
0.026957145 0.056557145 0.55500001
0.028064763 0.05665905 0.55600005
0.02907143 0.056557145 0.55500001
0.030182859 0.05665905 0.55600005
0.031298097 0.056760956 0.55700004
0.032417145 0.056862861 0.55800003
0.033540003 0.056964766 0.55900002
0.034666669 0.057066672 0.56
0.035797145 0.057168577 0.56100005
0.036997147 0.057372384 0.56300002
0.038001906 0.057270478 0.56200004
0.039002858 0.057168577 0.56100005
0.040285718 0.057474289 0.56400001
0.041433334 0.057576194 0.565
0.04243429 0.057474289 0.56400001
-0.01250762 0.059275243 0.57100004
-0.011400001 0.059171431 0.57000005
-0.010314287 0.059171431 0.57000005
-0.0092123812 0.059067622 0.56900001
-0.0081142867 0.058963813 0.56800002
-0.0070076194 0.058756195 0.56600004
-0.0059190481 0.058652386 0.565
-0.0048342859 0.058548577 0.56400001
-0.0037533336 0.058444764 0.56300002
-0.0026761906 0.058340956 0.56200004
-0.0016000001 0.058133338 0.56
-0.0005333334 0.058133338 0.56
0.0005333334 0.058133338 0.56
0.001597143 0.058029529 0.55900002
0.0026571429 0.05792572 0.55800003
0.0037133335 0.057821907 0.55700004
0.0047742859 0.057821907 0.55700004
0.0058352384 0.057821907 0.55700004
0.0068838098 0.057718098 0.55600005
0.0079428572 0.057718098 0.55600005
0.0090180961 0.057821907 0.55700004
0.010079049 0.057821907 0.55700004
0.011140001 0.057821907 0.55700004
0.012200953 0.057821907 0.55700004
0.013261906 0.057821907 0.55700004
0.014297144 0.057718098 0.55600005
0.015356191 0.057718098 0.55600005
0.016415238 0.057718098 0.55600005
0.017442858 0.057614289 0.55500001
0.018500002 0.057614289 0.55500001
0.019557144 0.057614289 0.55500001
0.02065143 0.057718098 0.55600005
0.021710478 0.057718098 0.55600005
0.022769526 0.057718098 0.55600005
0.023828574 0.057718098 0.55600005
0.024887621 0.057718098 0.55600005
0.025946669 0.057718098 0.55600005
0.027005715 0.057718098 0.55600005
0.028064763 0.057718098 0.55600005
0.02907143 0.057614289 0.55500001
0.030182859 0.057718098 0.55600005
0.031298097 0.057821907 0.55700004
0.032417145 0.05792572 0.55800003
0.033540003 0.058029529 0.55900002
0.034604765 0.058029529 0.55900002
0.035669528 0.058029529 0.55900002
0.037062861 0.058548577 0.56400001
0.038069528 0.058444764 0.56300002
0.03921143 0.058548577 0.56400001
0.040357146 0.058652386 0.565
0.041433334 0.058652386 0.565
0.042509526 0.058652386 0.565
-0.01250762 0.060362861 0.57100004
-0.01142 0.060362861 0.57100004
-0.010332381 0.060362861 0.57100004
-0.0092285722 0.060257148 0.57000005
-0.0081285723 0.060151432 0.56900001
-0.0070323814 0.060045719 0.56800002
-0.0059190481 0.059728574 0.565
-0.0048428574 0.059728574 0.565
-0.0037533336 0.059517145 0.56300002
-0.0026761906 0.059411433 0.56200004
-0.0016028573 0.05930572 0.56100005
-0.0005333334 0.059200004 0.56
0.0005333334 0.059200004 0.56
0.0016000001 0.059200004 0.56
0.002661905 0.059094291 0.55900002
0.003726667 0.059094291 0.55900002
0.0047828574 0.058988575 0.55800003
0.0058457148 0.058988575 0.55800003
0.0068961908 0.058882862 0.55700004
0.0079571437 0.058882862 0.55700004
0.0090180961 0.058882862 0.55700004
0.010079049 0.058882862 0.55700004
0.011140001 0.058882862 0.55700004
0.012200953 0.058882862 0.55700004
0.013261906 0.058882862 0.55700004
0.014297144 0.058777146 0.55600005
0.015356191 0.058777146 0.55600005
0.016415238 0.058777146 0.55600005
0.017442858 0.058671433 0.55500001
0.018500002 0.058671433 0.55500001
0.019557144 0.058671433 0.55500001
0.02065143 0.058777146 0.55600005
0.021710478 0.058777146 0.55600005
0.022769526 0.058777146 0.55600005
0.023828574 0.058777146 0.55600005
0.024887621 0.058777146 0.55600005
0.025946669 0.058777146 0.55600005
0.027005715 0.058777146 0.55600005
0.028115241 0.058882862 0.55700004
0.029123811 0.058777146 0.55600005
0.030237146 0.058882862 0.55700004
0.03135429 0.058988575 0.55800003
0.032475241 0.059094291 0.55900002
0.033720002 0.059411433 0.56200004
0.034666669 0.059200004 0.56
0.035988573 0.059622861 0.56400001
0.037062861 0.059622861 0.56400001
0.038137145 0.059622861 0.56400001
0.039280955 0.059728574 0.565
0.040357146 0.059728574 0.565
0.041433334 0.059728574 0.565
-0.0092447624 0.061450481 0.57100004
-0.0081428578 0.061342862 0.57000005
-0.0070447624 0.061235242 0.56900001
-0.0059400005 0.061020005 0.56700003
-0.0048514288 0.060912386 0.56600004
-0.0037666669 0.060804766 0.565
-0.0026809527 0.06058953 0.56300002
-0.0016057144 0.06048191 0.56200004
-0.00053428573 0.06037429 0.56100005
0.00053428573 0.06037429 0.56100005
0.0016028573 0.06037429 0.56100005
0.0026714287 0.06037429 0.56100005
0.0037400003 0.06037429 0.56100005
0.0048000002 0.06026667 0.56
0.0058666673 0.06026667 0.56
0.0069209528 0.06015905 0.55900002
0.0079714293 0.060051434 0.55800003
0.0090342863 0.060051434 0.55800003
0.010097143 0.060051434 0.55800003
0.011140001 0.059943814 0.55700004
0.012200953 0.059943814 0.55700004
0.013261906 0.059943814 0.55700004
0.014322858 0.059943814 0.55700004
0.015356191 0.059836194 0.55600005
0.016415238 0.059836194 0.55600005
0.017442858 0.059728574 0.55500001
0.018533334 0.059836194 0.55600005
0.019592382 0.059836194 0.55600005
0.02065143 0.059836194 0.55600005
0.021749524 0.059943814 0.55700004
0.022810478 0.059943814 0.55700004
0.023871429 0.059943814 0.55700004
0.024932383 0.059943814 0.55700004
0.025993334 0.059943814 0.55700004
0.027054287 0.059943814 0.55700004
0.028165717 0.060051434 0.55800003
0.029228574 0.060051434 0.55800003
0.030291431 0.060051434 0.55800003
0.031410478 0.06015905 0.55900002
0.032591432 0.06037429 0.56100005
0.033780001 0.06058953 0.56300002
0.034852382 0.06058953 0.56300002
0.035988573 0.060697146 0.56400001
0.037128575 0.060804766 0.565
0.038204763 0.060804766 0.565
0.039280955 0.060804766 0.565
0.040357146 0.060804766 0.565
0.041873336 0.061450481 0.57100004
0.043036193 0.061558098 0.57200003
0.04420286 0.061665718 0.57300001
0.045373335 0.061773337 0.574
-0.035000004 0.08214286 0.75000006
-0.0081714289 0.062647626 0.57200003
-0.0070695244 0.062538102 0.57100004
-0.0059819054 0.062538102 0.57100004
-0.0048857145 0.062428575 0.57000005
-0.0037800001 0.062100004 0.56700003
-0.0026904764 0.061880957 0.565
-0.0016142859 0.061880957 0.565
-0.00053714291 0.061771434 0.56400001
0.00053714291 0.061771434 0.56400001
0.0016085715 0.06166191 0.56300002
0.0026809527 0.06166191 0.56300002
0.0037533336 0.06166191 0.56300002
0.0048257145 0.06166191 0.56300002
0.0058876192 0.061552387 0.56200004
0.0069457148 0.061442859 0.56100005
0.0080142859 0.061442859 0.56100005
0.0090828575 0.061442859 0.56100005
0.010133334 0.061333336 0.56
0.01118 0.061223812 0.55900002
0.012266668 0.061333336 0.56
0.013309524 0.061223812 0.55900002
0.014374287 0.061223812 0.55900002
0.015439048 0.061223812 0.55900002
0.016503811 0.061223812 0.55900002
0.017505715 0.061004765 0.55700004
0.018566668 0.061004765 0.55700004
0.01962762 0.061004765 0.55700004
0.020725716 0.061114289 0.55800003
0.021788573 0.061114289 0.55800003
0.02285143 0.061114289 0.55800003
0.023914287 0.061114289 0.55800003
0.024977144 0.061114289 0.55800003
0.026040001 0.061114289 0.55800003
0.02710286 0.061114289 0.55800003
0.028266668 0.061333336 0.56
0.029333334 0.061333336 0.56
0.030454287 0.061442859 0.56100005
0.031579051 0.061552387 0.56200004
0.03270762 0.06166191 0.56300002
0.033840001 0.061771434 0.56400001
0.034976192 0.061880957 0.565
0.036052383 0.061880957 0.565
0.037194289 0.061990481 0.56600004
0.03840762 0.062209528 0.56800002
0.039559051 0.062319051 0.56900001
0.040785719 0.062538102 0.57100004
0.041946668 0.062647626 0.57200003
0.043111432 0.062757149 0.57300001
0.044280004 0.062866673 0.574
0.045373335 0.062866673 0.574
0.046385717 0.062757149 0.57300001
0.047477145 0.062757149 0.57300001
-0.033481907 0.08334858 0.74800003
-0.0092933336 0.063960001 0.574
-0.0081857145 0.063848577 0.57300001
-0.0070695244 0.063625716 0.57100004
-0.0059714289 0.063514292 0.57000005
-0.0048857145 0.063514292 0.57000005
-0.003786667 0.06329143 0.56800002
-0.0027000001 0.063180007 0.56700003
-0.0016171429 0.063068576 0.56600004
-0.00053809525 0.062957145 0.565
0.00053809525 0.062957145 0.565
0.0016142859 0.062957145 0.565
0.0026857145 0.062845722 0.56400001
0.0037600002 0.062845722 0.56400001
0.0048342859 0.062845722 0.56400001
0.0058980957 0.062734291 0.56300002
0.0069580958 0.06262286 0.56200004
0.0080285715 0.06262286 0.56200004
0.0090828575 0.062511429 0.56100005
0.010151429 0.062511429 0.56100005
0.011200001 0.062400006 0.56
0.012266668 0.062400006 0.56
0.013333335 0.062400006 0.56
0.014400001 0.062400006 0.56
0.015466668 0.062400006 0.56
0.016533334 0.062400006 0.56
0.017600002 0.062400006 0.56
0.018666668 0.062400006 0.56
0.019662859 0.062177148 0.55800003
0.020762859 0.062288575 0.55900002
0.021788573 0.062177148 0.55800003
0.022892382 0.062288575 0.55900002
0.023957144 0.062288575 0.55900002
0.025021907 0.062288575 0.55900002
0.026086668 0.062288575 0.55900002
0.027200002 0.062400006 0.56
0.028317144 0.062511429 0.56100005
0.029385716 0.062511429 0.56100005
0.030508574 0.06262286 0.56200004
0.03163524 0.062734291 0.56300002
0.032765716 0.062845722 0.56400001
0.033900004 0.062957145 0.565
0.034976192 0.062957145 0.565
0.036116194 0.063068576 0.56600004
0.037325718 0.06329143 0.56800002
0.038475242 0.063402861 0.56900001
0.039628573 0.063514292 0.57000005
0.040857144 0.063737147 0.57200003
0.042020004 0.063848577 0.57300001
0.043186668 0.063960001 0.574
0.044280004 0.063960001 0.574
0.045373335 0.063960001 0.574
0.046385717 0.063848577 0.57300001
-0.008200001 0.065053336 0.574
-0.0070695244 0.064713337 0.57100004
-0.0059819054 0.064713337 0.57100004
-0.0048857145 0.064600006 0.57000005
-0.0037933337 0.064486668 0.56900001
-0.0027047622 0.064373337 0.56800002
-0.0016200001 0.064260006 0.56700003
-0.00053904764 0.064146668 0.56600004
0.00053809525 0.064033337 0.565
0.0016142859 0.064033337 0.565
0.0026904764 0.064033337 0.565
0.0037666669 0.064033337 0.565
0.0048428574 0.064033337 0.565
0.0059085716 0.063920006 0.56400001
0.0069828578 0.063920006 0.56400001
0.008042858 0.063806668 0.56300002
0.0091152387 0.063806668 0.56300002
0.010169525 0.063693337 0.56200004
0.011220001 0.063580006 0.56100005
0.012310477 0.063693337 0.56200004
0.013357144 0.063580006 0.56100005
0.014425715 0.063580006 0.56100005
0.015494287 0.063580006 0.56100005
0.016562859 0.063580006 0.56100005
0.01763143 0.063580006 0.56100005
0.018700002 0.063580006 0.56100005
0.019733334 0.063466668 0.56
0.020837145 0.063580006 0.56100005
0.021905717 0.063580006 0.56100005
0.022974288 0.063580006 0.56100005
0.024000002 0.063466668 0.56
0.025111429 0.063580006 0.56100005
0.026180001 0.063580006 0.56100005
0.027297145 0.063693337 0.56200004
0.028418098 0.063806668 0.56300002
0.029490478 0.063806668 0.56300002
0.030617144 0.063920006 0.56400001
0.031691432 0.063920006 0.56400001
0.032823812 0.064033337 0.565
0.033900004 0.064033337 0.565
0.035038099 0.064146668 0.56600004
0.036180001 0.064260006 0.56700003
0.037391432 0.064486668 0.56900001
0.038542859 0.064600006 0.57000005
0.039628573 0.064600006 0.57000005
0.040857144 0.064826667 0.57200003
0.042020004 0.064940006 0.57300001
0.043186668 0.065053336 0.574
0.044280004 0.065053336 0.574
0.045373335 0.065053336 0.574
0.046466671 0.065053336 0.574
-0.0070942864 0.066031434 0.57300001
-0.0059819054 0.065800957 0.57100004
-0.0048942859 0.065800957 0.57100004
-0.0038000003 0.065685719 0.57000005
-0.0027142859 0.065685719 0.57000005
-0.0016200001 0.065340005 0.56700003
-0.00053904764 0.065224767 0.56600004
0.00053904764 0.065224767 0.56600004
0.0016171429 0.065224767 0.56600004
0.0026904764 0.065109529 0.565
0.0037733335 0.065224767 0.56600004
0.0048428574 0.065109529 0.565
0.0059190481 0.065109529 0.565
0.0069952384 0.065109529 0.565
0.0080714291 0.065109529 0.565
0.0091314288 0.06499429 0.56400001
0.010187619 0.064879052 0.56300002
0.011260001 0.064879052 0.56300002
0.012332382 0.064879052 0.56300002
0.013404762 0.064879052 0.56300002
0.014477144 0.064879052 0.56300002
0.015521905 0.064763814 0.56200004
0.016621906 0.064879052 0.56300002
0.017694287 0.064879052 0.56300002
0.018766668 0.064879052 0.56300002
0.019839048 0.064879052 0.56300002
0.020911429 0.064879052 0.56300002
0.021983812 0.064879052 0.56300002
0.02301524 0.064763814 0.56200004
0.024128573 0.064879052 0.56300002
0.025200954 0.064879052 0.56300002
0.026226668 0.064763814 0.56200004
0.027394287 0.06499429 0.56400001
0.028468573 0.06499429 0.56400001
0.02954286 0.06499429 0.56400001
0.030671431 0.065109529 0.565
0.031747621 0.065109529 0.565
0.032823812 0.065109529 0.565
0.033960003 0.065224767 0.56600004
0.035100002 0.065340005 0.56700003
0.036243811 0.065455243 0.56800002
0.037391432 0.065570481 0.56900001
0.038610477 0.065800957 0.57100004
0.039698098 0.065800957 0.57100004
0.040857144 0.065916196 0.57200003
0.042020004 0.066031434 0.57300001
0.043186668 0.066146672 0.574
0.044280004 0.066146672 0.574
0.045452382 0.06626191 0.57500005
0.046547621 0.06626191 0.57500005
0.047642861 0.06626191 0.57500005
-0.0070942864 0.067122862 0.57300001
-0.0060028573 0.067122862 0.57300001
-0.0049114288 0.067122862 0.57300001
-0.0038133336 0.067005716 0.57200003
-0.0027190477 0.066888578 0.57100004
-0.0016285715 0.066771433 0.57000005
-0.00054000004 0.066420004 0.56700003
0.00053904764 0.066302858 0.56600004
0.0016200001 0.066420004 0.56700003
0.0026952382 0.066302858 0.56600004
0.0037733335 0.066302858 0.56600004
0.0048428574 0.06618572 0.565
0.0059190481 0.06618572 0.565
0.0069952384 0.06618572 0.565
0.0080714291 0.06618572 0.565
0.0091476198 0.06618572 0.565
0.010223811 0.06618572 0.565
0.011280001 0.066068575 0.56400001
0.012354286 0.066068575 0.56400001
0.013428573 0.066068575 0.56400001
0.014502858 0.066068575 0.56400001
0.015577144 0.066068575 0.56400001
0.016621906 0.065951429 0.56300002
0.017725715 0.066068575 0.56400001
0.018800002 0.066068575 0.56400001
0.019874288 0.066068575 0.56400001
0.020911429 0.065951429 0.56300002
0.021983812 0.065951429 0.56300002
0.023097144 0.066068575 0.56400001
0.024171431 0.066068575 0.56400001
0.025245717 0.066068575 0.56400001
0.026320001 0.066068575 0.56400001
0.027442859 0.06618572 0.565
0.028519049 0.06618572 0.565
0.029595241 0.06618572 0.565
0.030671431 0.06618572 0.565
0.031747621 0.06618572 0.565
0.032823812 0.06618572 0.565
0.033960003 0.066302858 0.56600004
0.035100002 0.066420004 0.56700003
0.036307622 0.066654287 0.56900001
0.037457146 0.066771433 0.57000005
0.038610477 0.066888578 0.57100004
0.039698098 0.066888578 0.57100004
0.040928572 0.067122862 0.57300001
0.042093337 0.067240007 0.574
0.043261908 0.067357145 0.57500005
0.044357147 0.067357145 0.57500005
0.045531433 0.067474291 0.57600003
0.046628576 0.067474291 0.57600003
-0.0093580959 0.068809532 0.57800001
-0.0082571432 0.068809532 0.57800001
-0.0071190479 0.068452388 0.57500005
-0.0060133338 0.068333335 0.574
-0.0049114288 0.06821429 0.57300001
-0.0038200002 0.06821429 0.57300001
-0.0027238098 0.068095244 0.57200003
-0.0016314287 0.067976192 0.57100004
-0.00054095243 0.067619056 0.56800002
0.00054000004 0.067500003 0.56700003
0.0016200001 0.067500003 0.56700003
0.0027000001 0.067500003 0.56700003
0.0037733335 0.067380957 0.56600004
0.0048514288 0.067380957 0.56600004
0.0059295241 0.067380957 0.56600004
0.0070076194 0.067380957 0.56600004
0.0080857147 0.067380957 0.56600004
0.0091476198 0.067261912 0.565
0.010223811 0.067261912 0.565
0.011280001 0.067142859 0.56400001
0.012376191 0.067261912 0.565
0.013452382 0.067261912 0.565
0.014502858 0.067142859 0.56400001
0.015577144 0.067142859 0.56400001
0.016651429 0.067142859 0.56400001
0.017725715 0.067142859 0.56400001
0.018800002 0.067142859 0.56400001
0.019874288 0.067142859 0.56400001
0.020911429 0.067023814 0.56300002
0.021983812 0.067023814 0.56300002
0.023097144 0.067142859 0.56400001
0.024171431 0.067142859 0.56400001
0.025245717 0.067142859 0.56400001
0.026320001 0.067142859 0.56400001
0.027442859 0.067261912 0.565
0.028519049 0.067261912 0.565
0.029595241 0.067261912 0.565
0.030725716 0.067380957 0.56600004
0.031803813 0.067380957 0.56600004
0.032940004 0.067500003 0.56700003
0.034080002 0.067619056 0.56800002
0.035161909 0.067619056 0.56800002
0.036371432 0.067857146 0.57000005
0.03752286 0.067976192 0.57100004
0.038678098 0.068095244 0.57200003
0.039767623 0.068095244 0.57200003
0.041000001 0.068333335 0.574
0.042166669 0.068452388 0.57500005
0.043337144 0.068571433 0.57600003
0.04443429 0.068571433 0.57600003
0.045689527 0.068809532 0.57800001
0.046790481 0.068809532 0.57800001
-0.016350478 0.071603812 0.59200001
-0.0093580959 0.069910482 0.57800001
-0.0082571432 0.069910482 0.57800001
-0.0071438099 0.069789529 0.57700002
-0.0060238098 0.069547623 0.57500005
-0.0049200002 0.069426671 0.574
-0.0038266669 0.069426671 0.574
-0.0027238098 0.069184765 0.57200003
-0.0016314287 0.069063812 0.57100004
-0.00054380955 0.069063812 0.57100004
0.00054000004 0.068580002 0.56700003
0.0016228573 0.068700954 0.56800002
0.0027000001 0.068580002 0.56700003
0.0037800001 0.068580002 0.56700003
0.0048600002 0.068580002 0.56700003
0.0059295241 0.068459049 0.56600004
0.0070076194 0.068459049 0.56600004
0.0080857147 0.068459049 0.56600004
0.0091638099 0.068459049 0.56600004
0.010223811 0.068338096 0.565
0.0113 0.068338096 0.565
0.012376191 0.068338096 0.565
0.013452382 0.068338096 0.565
0.014528573 0.068338096 0.565
0.015604763 0.068338096 0.565
0.016680954 0.068338096 0.565
0.017757144 0.068338096 0.565
0.018833335 0.068338096 0.565
0.019909525 0.068338096 0.565
0.020948572 0.068217151 0.56400001
0.022022858 0.068217151 0.56400001
0.023138097 0.068338096 0.565
0.024214288 0.068338096 0.565
0.025290478 0.068338096 0.565
0.026460001 0.068580002 0.56700003
0.027540002 0.068580002 0.56700003
0.028620003 0.068580002 0.56700003
0.029700002 0.068580002 0.56700003
0.030780002 0.068580002 0.56700003
0.031916194 0.068700954 0.56800002
0.032998096 0.068700954 0.56800002
0.034140002 0.068821907 0.56900001
0.035285715 0.06894286 0.57000005
0.036435239 0.069063812 0.57100004
0.03752286 0.069063812 0.57100004
0.038678098 0.069184765 0.57200003
0.039837144 0.069305718 0.57300001
0.041000001 0.069426671 0.574
0.042166669 0.069547623 0.57500005
0.043337144 0.069668576 0.57600003
0.04443429 0.069668576 0.57600003
0.045689527 0.069910482 0.57800001
0.046790481 0.069910482 0.57800001
0.048140004 0.07027334 0.58100003
-0.01750762 0.072854288 0.59300005
-0.016322859 0.072608575 0.59100002
-0.015197144 0.072608575 0.59100002
-0.009374286 0.071134292 0.57900006
-0.0082571432 0.071011432 0.57800001
-0.0071438099 0.070888579 0.57700002
-0.0060342862 0.070765719 0.57600003
-0.0049285716 0.070642859 0.57500005
-0.0038333335 0.070642859 0.57500005
-0.0027333335 0.070520006 0.574
-0.0016314287 0.070151433 0.57100004
-0.00054380955 0.070151433 0.57100004
0.00054095243 0.069782861 0.56800002
0.0016228573 0.069782861 0.56800002
0.0027047622 0.069782861 0.56800002
0.0037800001 0.069660008 0.56700003
0.0048600002 0.069660008 0.56700003
0.0059400005 0.069660008 0.56700003
0.0070200004 0.069660008 0.56700003
0.0081000002 0.069660008 0.56700003
0.009180001 0.069660008 0.56700003
0.010241905 0.069537148 0.56600004
0.011320001 0.069537148 0.56600004
0.012398096 0.069537148 0.56600004
0.013476191 0.069537148 0.56600004
0.014528573 0.069414288 0.565
0.015604763 0.069414288 0.565
0.016680954 0.069414288 0.565
0.017757144 0.069414288 0.565
0.018833335 0.069414288 0.565
0.019909525 0.069414288 0.565
0.020985715 0.069414288 0.565
0.022061907 0.069414288 0.565
0.023220001 0.069660008 0.56700003
0.024300002 0.069660008 0.56700003
0.025380002 0.069660008 0.56700003
0.026460001 0.069660008 0.56700003
0.027540002 0.069660008 0.56700003
0.028620003 0.069660008 0.56700003
0.029752383 0.069782861 0.56800002
0.030834287 0.069782861 0.56800002
0.032028574 0.070028573 0.57000005
0.033114288 0.070028573 0.57000005
0.034200002 0.070028573 0.57000005
0.035285715 0.070028573 0.57000005
0.036435239 0.070151433 0.57100004
0.037588574 0.070274293 0.57200003
0.038745716 0.070397146 0.57300001
0.039906669 0.070520006 0.574
0.04107143 0.070642859 0.57500005
0.042240001 0.070765719 0.57600003
0.043487623 0.071011432 0.57800001
0.044588573 0.071011432 0.57800001
0.045768574 0.071134292 0.57900006
0.047033336 0.071380004 0.58100003
0.048140004 0.071380004 0.58100003
-0.01750762 0.073983811 0.59300005
-0.016350478 0.073859051 0.59200001
-0.015197144 0.073734291 0.59100002
-0.0093904771 0.072361909 0.58000004
-0.0082714288 0.072237149 0.57900006
-0.0071561909 0.072112389 0.57800001
-0.0060552387 0.072112389 0.57800001
-0.0049371431 0.071862862 0.57600003
-0.0038333335 0.071738102 0.57500005
-0.0027333335 0.071613342 0.574
-0.001637143 0.071488574 0.57300001
-0.00054380955 0.071239054 0.57100004
0.00054095243 0.070864767 0.56800002
0.0016228573 0.070864767 0.56800002
0.0027047622 0.070864767 0.56800002
0.003786667 0.070864767 0.56800002
0.0048685716 0.070864767 0.56800002
0.0059400005 0.070740007 0.56700003
0.0070200004 0.070740007 0.56700003
0.0081142867 0.070864767 0.56800002
0.009180001 0.070740007 0.56700003
0.010260001 0.070740007 0.56700003
0.011340001 0.070740007 0.56700003
0.012398096 0.070615239 0.56600004
0.013476191 0.070615239 0.56600004
0.014554286 0.070615239 0.56600004
0.015604763 0.070490479 0.565
0.016680954 0.070490479 0.565
0.017788572 0.070615239 0.56600004
0.018866668 0.070615239 0.56600004
0.019944763 0.070615239 0.56600004
0.020985715 0.070490479 0.565
0.022100953 0.070615239 0.56600004
0.023179049 0.070615239 0.56600004
0.024300002 0.070740007 0.56700003
0.025380002 0.070740007 0.56700003
0.026460001 0.070740007 0.56700003
0.027588572 0.070864767 0.56800002
0.028670479 0.070864767 0.56800002
0.029752383 0.070864767 0.56800002
0.030888574 0.070989527 0.56900001
0.032028574 0.071114287 0.57000005
0.033172384 0.071239054 0.57100004
0.034260001 0.071239054 0.57100004
0.035347622 0.071239054 0.57100004
0.03649905 0.071363814 0.57200003
0.037588574 0.071363814 0.57200003
0.038745716 0.071488574 0.57300001
0.039976195 0.071738102 0.57500005
0.041142859 0.071862862 0.57600003
0.042313337 0.071987621 0.57700002
0.043562859 0.072237149 0.57900006
0.044665717 0.072237149 0.57900006
0.045847621 0.072361909 0.58000004
0.046952385 0.072361909 0.58000004
-0.018637145 0.075113341 0.59300005
-0.017478097 0.074986674 0.59200001
-0.016350478 0.074986674 0.59200001
-0.015197144 0.074860007 0.59100002
-0.014071429 0.074860007 0.59100002
-0.012923811 0.074733339 0.59000003
-0.011780001 0.074606672 0.58900005
-0.010658096 0.074606672 0.58900005
-0.0093904771 0.073466673 0.58000004
-0.0082857152 0.073466673 0.58000004
-0.0071685719 0.073340006 0.57900006
-0.0060552387 0.073213339 0.57800001
-0.0049457145 0.073086672 0.57700002
-0.0038400004 0.072960004 0.57600003
-0.0027380954 0.072833337 0.57500005
-0.0016400001 0.07270667 0.574
-0.00054476195 0.072453335 0.57200003
0.00054285716 0.072200008 0.57000005
0.0016285715 0.072200008 0.57000005
0.0027047622 0.071946673 0.56800002
0.003786667 0.071946673 0.56800002
0.0048685716 0.071946673 0.56800002
0.0059504765 0.071946673 0.56800002
0.0070323814 0.071946673 0.56800002
0.0081142867 0.071946673 0.56800002
0.0091961911 0.071946673 0.56800002
0.010278095 0.071946673 0.56800002
0.011360001 0.071946673 0.56800002
0.012420001 0.071820006 0.56700003
0.013500001 0.071820006 0.56700003
0.014580001 0.071820006 0.56700003
0.015660001 0.071820006 0.56700003
0.016710477 0.071693338 0.56600004
0.017788572 0.071693338 0.56600004
0.018866668 0.071693338 0.56600004
0.019944763 0.071693338 0.56600004
0.021022858 0.071693338 0.56600004
0.022140002 0.071820006 0.56700003
0.023220001 0.071820006 0.56700003
0.024342859 0.071946673 0.56800002
0.025424764 0.071946673 0.56800002
0.026506668 0.071946673 0.56800002
0.027588572 0.071946673 0.56800002
0.028670479 0.071946673 0.56800002
0.029752383 0.071946673 0.56800002
0.030942859 0.072200008 0.57000005
0.032084763 0.072326675 0.57100004
0.033172384 0.072326675 0.57100004
0.034320001 0.072453335 0.57200003
0.035409525 0.072453335 0.57200003
0.03649905 0.072453335 0.57200003
0.037654288 0.072580002 0.57300001
0.038880955 0.072833337 0.57500005
0.040045716 0.072960004 0.57600003
0.041142859 0.072960004 0.57600003
0.04238667 0.073213339 0.57800001
0.043638099 0.073466673 0.58000004
0.04474286 0.073466673 0.58000004
0.045847621 0.073466673 0.58000004
0.046952385 0.073466673 0.58000004
-0.028465716 0.09372858 0.72900003
-0.017448572 0.075985722 0.59100002
-0.016322859 0.075985722 0.59100002
-0.015197144 0.075985722 0.59100002
-0.01404762 0.075857148 0.59000003
-0.012901906 0.075728573 0.58900005
-0.011740001 0.075471431 0.58700001
-0.010585715 0.075214289 0.58500004
-0.0094228573 0.07482858 0.58200002
-0.0083000008 0.074700005 0.58100003
-0.0071685719 0.074442863 0.57900006
-0.0060657146 0.074442863 0.57900006
-0.0049457145 0.074185722 0.57700002
-0.0038400004 0.074057147 0.57600003
-0.0027380954 0.07392858 0.57500005
-0.0016400001 0.073800005 0.574
-0.00054571434 0.07367143 0.57300001
0.00054380955 0.073414288 0.57100004
0.0016314287 0.073414288 0.57100004
0.002709524 0.073157147 0.56900001
0.0037933337 0.073157147 0.56900001
0.0048771431 0.073157147 0.56900001
0.005960953 0.073157147 0.56900001
0.0070447624 0.073157147 0.56900001
0.0081285723 0.073157147 0.56900001
0.0092123812 0.073157147 0.56900001
0.010296191 0.073157147 0.56900001
0.011360001 0.073028579 0.56800002
0.012441905 0.073028579 0.56800002
0.013523811 0.073028579 0.56800002
0.014580001 0.072900005 0.56700003
0.015660001 0.072900005 0.56700003
0.016710477 0.07277143 0.56600004
0.017820001 0.072900005 0.56700003
0.018866668 0.07277143 0.56600004
0.019980002 0.072900005 0.56700003
0.021060001 0.072900005 0.56700003
0.022140002 0.072900005 0.56700003
0.023260955 0.073028579 0.56800002
0.024342859 0.073028579 0.56800002
0.025424764 0.073028579 0.56800002
0.026506668 0.073028579 0.56800002
0.027588572 0.073028579 0.56800002
0.028670479 0.073028579 0.56800002
0.029857146 0.073285721 0.57000005
0.030997144 0.073414288 0.57100004
0.032084763 0.073414288 0.57100004
0.03323048 0.073542863 0.57200003
0.034320001 0.073542863 0.57200003
0.035471432 0.07367143 0.57300001
0.03656286 0.07367143 0.57300001
0.037720002 0.073800005 0.574
0.038880955 0.07392858 0.57500005
0.040045716 0.074057147 0.57600003
0.041214287 0.074185722 0.57700002
0.042460002 0.074442863 0.57900006
0.043638099 0.074571431 0.58000004
0.04474286 0.074571431 0.58000004
0.045847621 0.074571431 0.58000004
-0.017448572 0.07711143 0.59100002
-0.016322859 0.07711143 0.59100002
-0.014071429 0.07711143 0.59100002
-0.012901906 0.076850481 0.58900005
-0.011740001 0.076589532 0.58700001
-0.010603811 0.07645905 0.58600003
-0.0094552385 0.076198101 0.58400005
-0.0083142864 0.075937144 0.58200002
-0.0071933339 0.07580667 0.58100003
-0.0060866671 0.07580667 0.58100003
-0.0049457145 0.075284764 0.57700002
-0.003846667 0.075284764 0.57700002
-0.0027380954 0.075023815 0.57500005
-0.0016428572 0.075023815 0.57500005
-0.00054666668 0.07489334 0.574
0.00054666668 0.07489334 0.574
0.0016400001 0.07489334 0.574
0.0027285716 0.074762858 0.57300001
0.0038133336 0.074632384 0.57200003
0.0048942859 0.074501909 0.57100004
0.0059819054 0.074501909 0.57100004
0.0070695244 0.074501909 0.57100004
0.0081428578 0.074371435 0.57000005
0.0092285722 0.074371435 0.57000005
0.010314287 0.074371435 0.57000005
0.011400001 0.074371435 0.57000005
0.012485716 0.074371435 0.57000005
0.01354762 0.07424096 0.56900001
0.01463143 0.07424096 0.56900001
0.01571524 0.07424096 0.56900001
0.016799049 0.07424096 0.56900001
0.017851429 0.074110478 0.56800002
0.018933335 0.074110478 0.56800002
0.02001524 0.074110478 0.56800002
0.021097144 0.074110478 0.56800002
0.022179049 0.074110478 0.56800002
0.023301907 0.07424096 0.56900001
0.024385717 0.07424096 0.56900001
0.025469525 0.07424096 0.56900001
0.026600001 0.074371435 0.57000005
0.027685717 0.074371435 0.57000005
0.028821906 0.074501909 0.57100004
0.029909525 0.074501909 0.57100004
0.031051431 0.074632384 0.57200003
0.032140955 0.074632384 0.57200003
0.033288572 0.074762858 0.57300001
0.034440003 0.07489334 0.574
0.035533335 0.07489334 0.574
0.036626671 0.07489334 0.574
0.037785716 0.075023815 0.57500005
0.039016195 0.075284764 0.57700002
0.040254287 0.075545721 0.57900006
0.041428573 0.075676195 0.58000004
0.042533334 0.075676195 0.58000004
0.04393905 0.076198101 0.58400005
-0.014071429 0.078237146 0.59100002
-0.012880001 0.077840008 0.588
-0.011740001 0.077707626 0.58700001
-0.010603811 0.077575244 0.58600003
-0.0094714295 0.077442862 0.58500004
-0.0083428575 0.07731048 0.58400005
-0.0072180959 0.077178098 0.583
-0.0060971431 0.077045716 0.58200002
-0.0049457145 0.076383814 0.57700002
-0.0038400004 0.076251432 0.57600003
-0.0027380954 0.07611905 0.57500005
-0.0016428572 0.07611905 0.57500005
-0.00054666668 0.075986668 0.574
0.00054666668 0.075986668 0.574
0.0016400001 0.075986668 0.574
0.0027333335 0.075986668 0.574
0.0038200002 0.075854294 0.57300001
0.0049028574 0.075721912 0.57200003
0.0059923814 0.075721912 0.57200003
0.0070819054 0.075721912 0.57200003
0.0081571434 0.07558953 0.57100004
0.0092447624 0.07558953 0.57100004
0.010332381 0.07558953 0.57100004
0.01142 0.07558953 0.57100004
0.01250762 0.07558953 0.57100004
0.013571429 0.075457148 0.57000005
0.014657144 0.075457148 0.57000005
0.015770476 0.07558953 0.57100004
0.016828572 0.075457148 0.57000005
0.017914288 0.075457148 0.57000005
0.019000001 0.075457148 0.57000005
0.020050477 0.075324766 0.56900001
0.021134287 0.075324766 0.56900001
0.022218097 0.075324766 0.56900001
0.023301907 0.075324766 0.56900001
0.024385717 0.075324766 0.56900001
0.025514288 0.075457148 0.57000005
0.026600001 0.075457148 0.57000005
0.027734287 0.07558953 0.57100004
0.028821906 0.07558953 0.57100004
0.029961906 0.075721912 0.57200003
0.031051431 0.075721912 0.57200003
0.032197144 0.075854294 0.57300001
0.033346668 0.075986668 0.574
0.034440003 0.075986668 0.574
0.035595242 0.07611905 0.57500005
0.036690477 0.07611905 0.57500005
0.037917145 0.076383814 0.57700002
0.03915143 0.076648578 0.57900006
0.040393338 0.076913342 0.58100003
0.041500002 0.076913342 0.58100003
0.042753335 0.077178098 0.583
0.043863811 0.077178098 0.583
0.045051433 0.07731048 0.58400005
-0.012901906 0.079094291 0.58900005
-0.011740001 0.07882572 0.58700001
-0.010621905 0.07882572 0.58700001
-0.0094876196 0.07869143 0.58600003
-0.008357143 0.078557149 0.58500004
-0.0072304765 0.078422859 0.58400005
-0.0061076195 0.078288577 0.583
-0.0049542859 0.077617146 0.57800001
-0.003846667 0.077482864 0.57700002
-0.0027428572 0.077348575 0.57600003
-0.0016428572 0.077214293 0.57500005
-0.00054761907 0.077214293 0.57500005
0.00054761907 0.077214293 0.57500005
0.0016428572 0.077214293 0.57500005
0.0027380954 0.077214293 0.57500005
0.0038333335 0.077214293 0.57500005
0.0049114288 0.076945722 0.57300001
0.0060028573 0.076945722 0.57300001
0.0070819054 0.076811433 0.57200003
0.0081714289 0.076811433 0.57200003
0.0092609534 0.076811433 0.57200003
0.010350477 0.076811433 0.57200003
0.01142 0.076677151 0.57100004
0.01250762 0.076677151 0.57100004
0.013595239 0.076677151 0.57100004
0.014682858 0.076677151 0.57100004
0.015770476 0.076677151 0.57100004
0.016858097 0.076677151 0.57100004
0.017945716 0.076677151 0.57100004
0.019000001 0.076542862 0.57000005
0.020085715 0.076542862 0.57000005
0.02117143 0.076542862 0.57000005
0.022257144 0.076542862 0.57000005
0.023342859 0.076542862 0.57000005
0.024428573 0.076542862 0.57000005
0.025514288 0.076542862 0.57000005
0.026693335 0.076811433 0.57200003
0.027782859 0.076811433 0.57200003
0.028872384 0.076811433 0.57200003
0.030014288 0.076945722 0.57300001
0.031105716 0.076945722 0.57300001
0.032197144 0.076945722 0.57300001
0.033346668 0.077080004 0.574
0.034500003 0.077214293 0.57500005
0.035595242 0.077214293 0.57500005
0.036754288 0.077348575 0.57600003
0.037982859 0.077617146 0.57800001
0.039219052 0.077885717 0.58000004
0.040393338 0.078020006 0.58100003
0.04164286 0.078288577 0.583
0.042753335 0.078288577 0.583
0.04393905 0.078422859 0.58400005
0.045051433 0.078422859 0.58400005
-0.012901906 0.080216199 0.58900005
-0.011740001 0.079943813 0.58700001
-0.010621905 0.079943813 0.58700001
-0.0094876196 0.079807624 0.58600003
-0.008357143 0.079671435 0.58500004
-0.0072428575 0.079671435 0.58500004
-0.0061180955 0.079535246 0.58400005
-0.0049885716 0.07926286 0.58200002
-0.0038600003 0.078854293 0.57900006
-0.0027476193 0.078581907 0.57700002
-0.0016485716 0.078581907 0.57700002
-0.00054857146 0.078445718 0.57600003
0.00054761907 0.078309529 0.57500005
0.0016457144 0.078445718 0.57600003
0.0027428572 0.078445718 0.57600003
0.0038333335 0.078309529 0.57500005
0.0049200002 0.078173339 0.574
0.0060133338 0.078173339 0.574
0.0070942864 0.07803715 0.57300001
0.0081857145 0.07803715 0.57300001
0.0092609534 0.077900961 0.57200003
0.010350477 0.077900961 0.57200003
0.01144 0.077900961 0.57200003
0.012529525 0.077900961 0.57200003
0.013619049 0.077900961 0.57200003
0.014682858 0.077764764 0.57100004
0.015798096 0.077900961 0.57200003
0.01688762 0.077900961 0.57200003
0.017945716 0.077764764 0.57100004
0.019033335 0.077764764 0.57100004
0.020120954 0.077764764 0.57100004
0.021208573 0.077764764 0.57100004
0.022296192 0.077764764 0.57100004
0.023383811 0.077764764 0.57100004
0.02447143 0.077764764 0.57100004
0.025559049 0.077764764 0.57100004
0.026693335 0.077900961 0.57200003
0.027782859 0.077900961 0.57200003
0.02892286 0.07803715 0.57300001
0.030014288 0.07803715 0.57300001
0.031160003 0.078173339 0.574
0.032253336 0.078173339 0.574
0.033404764 0.078309529 0.57500005
0.034500003 0.078309529 0.57500005
0.035657145 0.078445718 0.57600003
0.036818098 0.078581907 0.57700002
0.038048573 0.078854293 0.57900006
0.039219052 0.078990482 0.58000004
0.040462859 0.07926286 0.58200002
0.041571431 0.07926286 0.58200002
0.042753335 0.079399049 0.583
0.04393905 0.079535246 0.58400005
0.045128573 0.079671435 0.58500004
-0.014071429 0.081614293 0.59100002
-0.012923811 0.081476197 0.59000003
-0.011760001 0.081200004 0.588
-0.010621905 0.081061907 0.58700001
-0.0095038097 0.081061907 0.58700001
-0.0083714295 0.080923818 0.58600003
-0.0072552385 0.080923818 0.58600003
-0.0061285719 0.080785722 0.58500004
-0.0050142859 0.080785722 0.58500004
-0.0038866668 0.080509529 0.583
-0.0027523811 0.079819053 0.57800001
-0.0016485716 0.079680957 0.57700002
-0.00054857146 0.07954286 0.57600003
0.00054857146 0.07954286 0.57600003
0.0016485716 0.079680957 0.57700002
0.0027476193 0.079680957 0.57700002
0.0038400004 0.07954286 0.57600003
0.0049285716 0.079404764 0.57500005
0.0060238098 0.079404764 0.57500005
0.0071066669 0.079266675 0.574
0.008200001 0.079266675 0.574
0.0092771435 0.079128578 0.57300001
0.010350477 0.078990482 0.57200003
0.01144 0.078990482 0.57200003
0.012529525 0.078990482 0.57200003
0.013619049 0.078990482 0.57200003
0.014708572 0.078990482 0.57200003
0.015798096 0.078990482 0.57200003
0.01688762 0.078990482 0.57200003
0.017977145 0.078990482 0.57200003
0.019066667 0.078990482 0.57200003
0.020156192 0.078990482 0.57200003
0.021208573 0.078852385 0.57100004
0.022335239 0.078990482 0.57200003
0.023424763 0.078990482 0.57200003
0.024514288 0.078990482 0.57200003
0.02560381 0.078990482 0.57200003
0.026740002 0.079128578 0.57300001
0.027928574 0.079404764 0.57500005
0.029023811 0.079404764 0.57500005
0.03011905 0.079404764 0.57500005
0.031214288 0.079404764 0.57500005
0.032309525 0.079404764 0.57500005
0.033404764 0.079404764 0.57500005
0.034560002 0.07954286 0.57600003
0.035657145 0.07954286 0.57600003
0.036818098 0.079680957 0.57700002
0.038048573 0.07995715 0.57900006
0.039286669 0.080233335 0.58100003
0.040462859 0.080371432 0.58200002
0.04164286 0.080509529 0.583
0.042826671 0.080647625 0.58400005
0.04393905 0.080647625 0.58400005
-0.012945715 0.082740009 0.59100002
-0.0118 0.082600005 0.59000003
-0.010640001 0.082320005 0.588
-0.0095038097 0.082180008 0.58700001
-0.0083857151 0.082180008 0.58700001
-0.0072676195 0.082180008 0.58700001
-0.0061390479 0.082040004 0.58600003
-0.0050228573 0.082040004 0.58600003
-0.0039000004 0.081900008 0.58500004
-0.002757143 0.081060007 0.57900006
-0.0016514286 0.080920003 0.57800001
-0.00054952386 0.080780007 0.57700002
0.00054952386 0.080780007 0.57700002
0.0016485716 0.080780007 0.57700002
0.0027476193 0.080780007 0.57700002
0.003846667 0.080780007 0.57700002
0.0049371431 0.080640003 0.57600003
0.0060238098 0.080500007 0.57500005
0.0071190479 0.080500007 0.57500005
0.0082142865 0.080500007 0.57500005
0.0092933336 0.080360003 0.574
0.010386667 0.080360003 0.574
0.011480001 0.080360003 0.574
0.01255143 0.080220006 0.57300001
0.013642858 0.080220006 0.57300001
0.014708572 0.080080003 0.57200003
0.015798096 0.080080003 0.57200003
0.016917145 0.080220006 0.57300001
0.017977145 0.080080003 0.57200003
0.019100001 0.080220006 0.57300001
0.020156192 0.080080003 0.57200003
0.021245716 0.080080003 0.57200003
0.022335239 0.080080003 0.57200003
0.023465715 0.080220006 0.57300001
0.024514288 0.080080003 0.57200003
0.02560381 0.080080003 0.57200003
0.026740002 0.080220006 0.57300001
0.027880002 0.080360003 0.574
0.029074287 0.080640003 0.57600003
0.03017143 0.080640003 0.57600003
0.031268574 0.080640003 0.57600003
0.032365717 0.080640003 0.57600003
0.03346286 0.080640003 0.57600003
0.034620002 0.080780007 0.57700002
0.035719048 0.080780007 0.57700002
0.036945716 0.081060007 0.57900006
0.038114287 0.081200004 0.58000004
0.039354287 0.081480004 0.58200002
0.040532384 0.081620008 0.583
0.041714288 0.081760004 0.58400005
0.042826671 0.081760004 0.58400005
0.04401429 0.081900008 0.58500004
0.045282859 0.082180008 0.58700001
0.046559051 0.082460009 0.58900005
0.04784286 0.082740009 0.59100002
-0.014119049 0.084149532 0.59300005
-0.01296762 0.084007628 0.59200001
-0.011820001 0.083865717 0.59100002
-0.010658096 0.08358191 0.58900005
-0.0095200008 0.083440006 0.588
-0.0084000006 0.083440006 0.588
-0.0072676195 0.083298102 0.58700001
-0.0061495244 0.083298102 0.58700001
-0.0050228573 0.083156198 0.58600003
-0.0039000004 0.083014295 0.58500004
-0.0027666669 0.082446672 0.58100003
-0.0016542858 0.082162865 0.57900006
-0.00055047625 0.082020961 0.57800001
0.00054952386 0.08187905 0.57700002
0.0016514286 0.082020961 0.57800001
0.0027523811 0.082020961 0.57800001
0.003846667 0.08187905 0.57700002
0.0049457145 0.08187905 0.57700002
0.0060342862 0.081737146 0.57600003
0.0071314289 0.081737146 0.57600003
0.0082285721 0.081737146 0.57600003
0.0093095247 0.081595242 0.57500005
0.010404763 0.081595242 0.57500005
0.011500001 0.081595242 0.57500005
0.012573334 0.081453338 0.574
0.013666668 0.081453338 0.574
0.014708572 0.081169531 0.57200003
0.015798096 0.081169531 0.57200003
0.01688762 0.081169531 0.57200003
0.017977145 0.081169531 0.57200003
0.019066667 0.081169531 0.57200003
0.020191429 0.081311435 0.57300001
0.021282859 0.081311435 0.57300001
0.022374287 0.081311435 0.57300001
0.023506667 0.081453338 0.574
0.024600001 0.081453338 0.574
0.025693335 0.081453338 0.574
0.026833335 0.081595242 0.57500005
0.027928574 0.081595242 0.57500005
0.029124765 0.08187905 0.57700002
0.03017143 0.081737146 0.57600003
0.031322859 0.08187905 0.57700002
0.032421906 0.08187905 0.57700002
0.033520956 0.08187905 0.57700002
0.034620002 0.08187905 0.57700002
0.035780955 0.082020961 0.57800001
0.037009526 0.082304768 0.58000004
0.038245715 0.082588576 0.58200002
0.039421909 0.08273048 0.583
0.040601909 0.082872383 0.58400005
0.041785717 0.083014295 0.58500004
0.042900003 0.083014295 0.58500004
0.044164766 0.083298102 0.58700001
0.045282859 0.083298102 0.58700001
0.046559051 0.08358191 0.58900005
-0.014119049 0.085279055 0.59300005
-0.01296762 0.085135244 0.59200001
-0.011840001 0.085135244 0.59200001
-0.010676191 0.084847622 0.59000003
-0.0095361909 0.084703818 0.58900005
-0.0084142862 0.084703818 0.58900005
-0.0072800005 0.084560007 0.588
-0.0061495244 0.084416196 0.58700001
-0.0050314288 0.084416196 0.58700001
-0.0039066668 0.084272385 0.58600003
-0.0027714288 0.083697148 0.58200002
-0.001657143 0.083409533 0.58000004
-0.00055142859 0.083265722 0.57900006
0.00055142859 0.083265722 0.57900006
0.0016542858 0.083265722 0.57900006
0.002757143 0.083265722 0.57900006
0.0038533336 0.083121911 0.57800001
0.0049542859 0.083121911 0.57800001
0.0060447622 0.0829781 0.57700002
0.0071438099 0.0829781 0.57700002
0.0082428576 0.0829781 0.57700002
0.0093257148 0.082834288 0.57600003
0.010404763 0.082690485 0.57500005
0.011500001 0.082690485 0.57500005
0.012595239 0.082690485 0.57500005
0.013690477 0.082690485 0.57500005
0.014760001 0.082546674 0.574
0.015825715 0.082402863 0.57300001
0.016917145 0.082402863 0.57300001
0.017977145 0.082259052 0.57200003
0.019100001 0.082402863 0.57300001
0.020156192 0.082259052 0.57200003
0.021320002 0.082546674 0.574
0.022452382 0.082690485 0.57500005
0.023547621 0.082690485 0.57500005
0.024685716 0.082834288 0.57600003
0.025782859 0.082834288 0.57600003
0.026880002 0.082834288 0.57600003
0.027977144 0.082834288 0.57600003
0.029124765 0.0829781 0.57700002
0.030276192 0.083121911 0.57800001
0.031322859 0.0829781 0.57700002
0.032478098 0.083121911 0.57800001
0.033520956 0.0829781 0.57700002
0.034680001 0.083121911 0.57800001
0.035842858 0.083265722 0.57900006
0.037073337 0.083553337 0.58100003
0.038311429 0.083840959 0.583
0.039489526 0.08398477 0.58400005
0.040671431 0.084128574 0.58500004
0.041857146 0.084272385 0.58600003
0.042973336 0.084272385 0.58600003
0.044240002 0.084560007 0.588
0.045282859 0.084416196 0.58700001
0.046480004 0.084560007 0.588
-0.014095239 0.086262859 0.59200001
-0.01296762 0.086262859 0.59200001
-0.011820001 0.086117148 0.59100002
-0.010694287 0.086117148 0.59100002
-0.0095523819 0.085971437 0.59000003
-0.0084142862 0.085825719 0.58900005
-0.0072923815 0.085825719 0.58900005
-0.0061600003 0.085680008 0.588
-0.0050314288 0.085534289 0.58700001
-0.0039066668 0.085388578 0.58600003
-0.0027857146 0.08524286 0.58500004
-0.0016600001 0.084660009 0.58100003
-0.00055238098 0.08451429 0.58000004
0.00055142859 0.084368579 0.57900006
0.001657143 0.08451429 0.58000004
0.0027619048 0.08451429 0.58000004
0.0038600003 0.084368579 0.57900006
0.0049628573 0.084368579 0.57900006
0.0060657146 0.084368579 0.57900006
0.0071561909 0.084222861 0.57800001
0.0082571432 0.084222861 0.57800001
0.0093419058 0.08407715 0.57700002
0.010440953 0.08407715 0.57700002
0.011520001 0.083931431 0.57600003
0.012617144 0.083931431 0.57600003
0.013714286 0.083931431 0.57600003
0.014785715 0.08378572 0.57500005
0.015880954 0.08378572 0.57500005
0.016976191 0.08378572 0.57500005
0.018040001 0.083640009 0.574
0.019133335 0.083640009 0.574
0.020261906 0.08378572 0.57500005
0.021357145 0.08378572 0.57500005
0.022452382 0.08378572 0.57500005
0.023588574 0.083931431 0.57600003
0.024728574 0.08407715 0.57700002
0.025872383 0.084222861 0.57800001
0.026973335 0.084222861 0.57800001
0.028074287 0.084222861 0.57800001
0.029175241 0.084222861 0.57800001
