# .PCD v0.7 - Point Cloud Data file format
VERSION 0.7
FIELDS x y z
SIZE 4 4 4
TYPE F F F
COUNT 1 1 1
WIDTH 1349
HEIGHT 1
VIEWPOINT 0 0 0 1 0 0 0
POINTS 1349
DATA ascii
-0.032102861 0.016354287 0.63600004
-0.030891431 0.016354287 0.63600004
-0.029680002 0.016354287 0.63600004
-0.028468573 0.016354287 0.63600004
-0.027257144 0.016354287 0.63600004
-0.026127622 0.016405715 0.63800001
-0.024912383 0.016405715 0.63800001
-0.023734286 0.01643143 0.63900006
-0.022517145 0.01643143 0.63900006
-0.021333335 0.016457144 0.64000005
-0.020114288 0.016457144 0.64000005
-0.018954286 0.016508572 0.64200002
-0.017786669 0.016560001 0.64400005
-0.016585715 0.016585715 0.64500004
-0.015380953 0.016611429 0.64600003
-0.014194286 0.016662858 0.648
-0.01302 0.016740002 0.65100002
-0.075026669 0.01828381 0.66200006
-0.073654294 0.018256191 0.66100001
-0.072395243 0.018256191 0.66100001
-0.070490479 0.018090477 0.65500003
-0.068397149 0.017869525 0.64700001
-0.067164764 0.017869525 0.64700001
-0.065932386 0.017869525 0.64700001
-0.064700007 0.017869525 0.64700001
-0.063271433 0.017814286 0.64500004
-0.06175429 0.01773143 0.64200002
-0.060437147 0.017703811 0.64100003
-0.059123814 0.017676191 0.64000005
-0.057904765 0.017676191 0.64000005
-0.056597147 0.017648572 0.63900006
-0.055293337 0.017620953 0.63800001
-0.05416286 0.017648572 0.63900006
-0.052945718 0.017648572 0.63900006
-0.051728576 0.017648572 0.63900006
-0.050432384 0.017620953 0.63800001
-0.049062859 0.017565716 0.63600004
-0.047851432 0.017565716 0.63600004
-0.046566669 0.017538097 0.63500005
-0.045285717 0.017510477 0.634
-0.044078097 0.017510477 0.634
-0.042870481 0.017510477 0.634
-0.041662861 0.017510477 0.634
-0.04039143 0.017482858 0.63300002
-0.039185718 0.017482858 0.63300002
-0.038040001 0.017510477 0.634
-0.036832385 0.017510477 0.634
-0.035624765 0.017510477 0.634
-0.034417145 0.017510477 0.634
-0.033261906 0.017538097 0.63500005
-0.032102861 0.017565716 0.63600004
-0.030988574 0.017620953 0.63800001
-0.029680002 0.017565716 0.63600004
-0.028558098 0.017620953 0.63800001
-0.02734286 0.017620953 0.63800001
-0.026127622 0.017620953 0.63800001
-0.02495143 0.017648572 0.63900006
-0.023734286 0.017648572 0.63900006
-0.022552382 0.017676191 0.64000005
-0.021366669 0.017703811 0.64100003
-0.020145716 0.017703811 0.64100003
-0.019013334 0.017786669 0.64400005
-0.017814286 0.017814286 0.64500004
-0.016637145 0.017869525 0.64700001
-0.015404763 0.017869525 0.64700001
-0.014238096 0.017952383 0.65000004
-0.013000001 0.017952383 0.65000004
-0.011761906 0.017952383 0.65000004
-0.078928575 0.019574286 0.66300005
-0.077665716 0.019574286 0.66300005
-0.076287627 0.019544763 0.66200006
-0.075026669 0.019544763 0.66200006
-0.073654294 0.019515239 0.66100001
-0.072066672 0.019426668 0.65800005
-0.070598103 0.01936762 0.65600002
-0.069031432 0.01927905 0.65300006
-0.067580007 0.019220002 0.65100002
-0.066034287 0.019131429 0.648
-0.064700007 0.019101907 0.64700001
-0.063369527 0.019072382 0.64600003
-0.061946671 0.019013334 0.64400005
-0.060720004 0.019013334 0.64400005
-0.059308574 0.018954286 0.64200002
-0.057995241 0.018924763 0.64100003
-0.05668572 0.018895239 0.64000005
-0.055380005 0.018865716 0.63900006
-0.05416286 0.018865716 0.63900006
-0.052945718 0.018865716 0.63900006
-0.051728576 0.018865716 0.63900006
-0.050511431 0.018865716 0.63900006
-0.049217146 0.018836191 0.63800001
-0.048001908 0.018836191 0.63800001
-0.046640001 0.018777143 0.63600004
-0.045357145 0.01874762 0.63500005
-0.044078097 0.018718097 0.634
-0.042870481 0.018718097 0.634
-0.041662861 0.018718097 0.634
-0.040455241 0.018718097 0.634
-0.039247621 0.018718097 0.634
-0.038040001 0.018718097 0.634
-0.036890477 0.01874762 0.63500005
-0.035680953 0.01874762 0.63500005
-0.03447143 0.01874762 0.63500005
-0.033261906 0.01874762 0.63500005
-0.032203812 0.018836191 0.63800001
-0.030988574 0.018836191 0.63800001
-0.029773336 0.018836191 0.63800001
-0.028558098 0.018836191 0.63800001
-0.027385715 0.018865716 0.63900006
-0.026168574 0.018865716 0.63900006
-0.02495143 0.018865716 0.63900006
-0.023771429 0.018895239 0.64000005
-0.02258762 0.018924763 0.64100003
-0.021366669 0.018924763 0.64100003
-0.020177145 0.018954286 0.64200002
-0.019013334 0.019013334 0.64400005
-0.017814286 0.019042859 0.64500004
-0.016637145 0.019101907 0.64700001
-0.015428573 0.019131429 0.648
-0.014238096 0.019190477 0.65000004
-0.01302 0.019220002 0.65100002
-0.011761906 0.019190477 0.65000004
-0.076287627 0.020805717 0.66200006
-0.075026669 0.020805717 0.66200006
-0.073654294 0.020774286 0.66100001
-0.072285719 0.020742858 0.66000003
-0.070813335 0.020680001 0.65800005
-0.069242865 0.020585716 0.65500003
-0.067787625 0.020522859 0.65300006
-0.066441908 0.020491431 0.65200001
-0.065100007 0.020460002 0.65100002
-0.063761912 0.020428572 0.65000004
-0.062331434 0.020365715 0.648
-0.061002862 0.020334287 0.64700001
-0.0596781 0.020302858 0.64600003
-0.05826667 0.020240001 0.64400005
-0.057040002 0.020240001 0.64400005
-0.055640005 0.020177145 0.64200002
-0.054417148 0.020177145 0.64200002
-0.05311143 0.020145716 0.64100003
-0.051890481 0.020145716 0.64100003
-0.050590478 0.020114288 0.64000005
-0.049371433 0.020114288 0.64000005
-0.048077147 0.020082859 0.63900006
-0.046860002 0.020082859 0.63900006
-0.045571432 0.020051429 0.63800001
-0.044217147 0.019988572 0.63600004
-0.042938098 0.019957144 0.63500005
-0.041728575 0.019957144 0.63500005
-0.040519051 0.019957144 0.63500005
-0.039309528 0.019957144 0.63500005
-0.038100004 0.019957144 0.63500005
-0.036948573 0.019988572 0.63600004
-0.035849527 0.020051429 0.63800001
-0.034688573 0.020082859 0.63900006
-0.033471432 0.020082859 0.63900006
-0.032304764 0.020114288 0.64000005
-0.031085717 0.020114288 0.64000005
-0.029866669 0.020114288 0.64000005
-0.028692383 0.020145716 0.64100003
-0.027471431 0.020145716 0.64100003
-0.02629143 0.020177145 0.64200002
-0.025068574 0.020177145 0.64200002
-0.023845715 0.020177145 0.64200002
-0.022693334 0.020240001 0.64400005
-0.021500001 0.02027143 0.64500004
-0.02027143 0.02027143 0.64500004
-0.019072382 0.020302858 0.64600003
-0.017869525 0.020334287 0.64700001
-0.016662858 0.020365715 0.648
-0.015428573 0.020365715 0.648
-0.014238096 0.020428572 0.65000004
-0.01302 0.020460002 0.65100002
-0.077548578 0.022066668 0.66200006
-0.076287627 0.022066668 0.66200006
-0.074913338 0.022033336 0.66100001
-0.073542863 0.022000002 0.66000003
-0.072066672 0.021933334 0.65800005
-0.070813335 0.021933334 0.65800005
-0.069348574 0.021866668 0.65600002
-0.067995243 0.021833334 0.65500003
-0.066543818 0.021766668 0.65300006
-0.065200001 0.021733334 0.65200001
-0.063958101 0.021733334 0.65200001
-0.062620007 0.021700002 0.65100002
-0.061285719 0.021666668 0.65000004
-0.05986286 0.021600001 0.648
-0.058538098 0.021566669 0.64700001
-0.057217147 0.021533335 0.64600003
-0.055900004 0.021500001 0.64500004
-0.054586671 0.021466669 0.64400005
-0.053360004 0.021466669 0.64400005
-0.051971432 0.021400001 0.64200002
-0.050669529 0.021366669 0.64100003
-0.049448576 0.021366669 0.64100003
-0.048152383 0.021333335 0.64000005
-0.046933338 0.021333335 0.64000005
-0.04564286 0.021300001 0.63900006
-0.044356193 0.021266667 0.63800001
-0.043005716 0.021200001 0.63600004
-0.041794289 0.021200001 0.63600004
-0.040519051 0.021166667 0.63500005
-0.039371431 0.021200001 0.63600004
-0.038280003 0.021266667 0.63800001
-0.037122861 0.021300001 0.63900006
-0.035905715 0.021300001 0.63900006
-0.034742858 0.021333335 0.64000005
-0.033576194 0.021366669 0.64100003
-0.032355241 0.021366669 0.64100003
-0.031182859 0.021400001 0.64200002
-0.029960003 0.021400001 0.64200002
-0.028737145 0.021400001 0.64200002
-0.027514288 0.021400001 0.64200002
-0.026373334 0.021466669 0.64400005
-0.025146669 0.021466669 0.64400005
-0.023957144 0.021500001 0.64500004
-0.022728574 0.021500001 0.64500004
-0.021533335 0.021533335 0.64600003
-0.020302858 0.021533335 0.64600003
-0.019101907 0.021566669 0.64700001
-0.017869525 0.021566669 0.64700001
-0.016662858 0.021600001 0.648
-0.015428573 0.021600001 0.648
-0.014238096 0.021666668 0.65000004
-0.013000001 0.021666668 0.65000004
-0.077548578 0.023327621 0.66200006
-0.076287627 0.023327621 0.66200006
-0.074913338 0.023292383 0.66100001
-0.073542863 0.023257144 0.66000003
-0.072066672 0.023186669 0.65800005
-0.071028575 0.023257144 0.66000003
-0.06945429 0.023151429 0.65700001
-0.068099052 0.023116192 0.65600002
-0.066747621 0.023080954 0.65500003
-0.065300003 0.023010477 0.65300006
-0.063958101 0.02297524 0.65200001
-0.062716193 0.02297524 0.65200001
-0.061380003 0.022940002 0.65100002
-0.05986286 0.022834288 0.648
-0.058628574 0.022834288 0.648
-0.05730572 0.022799049 0.64700001
-0.056073338 0.022799049 0.64700001
-0.054756194 0.022763811 0.64600003
-0.053442862 0.022728574 0.64500004
-0.052133337 0.022693334 0.64400005
-0.050906669 0.022693334 0.64400005
-0.049525719 0.022622859 0.64200002
-0.048302859 0.022622859 0.64200002
-0.047080003 0.022622859 0.64200002
-0.045785718 0.02258762 0.64100003
-0.04449524 0.022552382 0.64000005
-0.043208573 0.022517145 0.63900006
-0.041991431 0.022517145 0.63900006
-0.040710479 0.022481907 0.63800001
-0.039495241 0.022481907 0.63800001
-0.038280003 0.022481907 0.63800001
-0.037180956 0.022552382 0.64000005
-0.035961907 0.022552382 0.64000005
-0.034797147 0.02258762 0.64100003
-0.033576194 0.02258762 0.64100003
-0.032355241 0.02258762 0.64100003
-0.031182859 0.022622859 0.64200002
-0.029960003 0.022622859 0.64200002
-0.028737145 0.022622859 0.64200002
-0.027600002 0.022693334 0.64400005
-0.026373334 0.022693334 0.64400005
-0.025185715 0.022728574 0.64500004
-0.023957144 0.022728574 0.64500004
-0.022763811 0.022763811 0.64600003
-0.021566669 0.022799049 0.64700001
-0.020334287 0.022799049 0.64700001
-0.019131429 0.022834288 0.648
-0.017897144 0.022834288 0.648
-0.016714286 0.022904763 0.65000004
-0.015476191 0.022904763 0.65000004
-0.014238096 0.022904763 0.65000004
-0.013000001 0.022904763 0.65000004
-0.011761906 0.022904763 0.65000004
-0.010718096 0.023327621 0.66200006
-0.009457143 0.023327621 0.66200006
-0.074913338 0.024551431 0.66100001
-0.073542863 0.024514288 0.66000003
-0.072285719 0.024514288 0.66000003
-0.071028575 0.024514288 0.66000003
-0.069560006 0.024440002 0.65800005
-0.068202861 0.024402859 0.65700001
-0.06684953 0.024365716 0.65600002
-0.065300003 0.024254287 0.65300006
-0.064056195 0.024254287 0.65300006
-0.062716193 0.024217144 0.65200001
-0.061380003 0.024180003 0.65100002
-0.060047623 0.02414286 0.65000004
-0.058628574 0.024068573 0.648
-0.05730572 0.02403143 0.64700001
-0.056073338 0.02403143 0.64700001
-0.054756194 0.023994287 0.64600003
-0.053442862 0.023957144 0.64500004
-0.052214291 0.023957144 0.64500004
-0.050906669 0.023920001 0.64400005
-0.049680002 0.023920001 0.64400005
-0.048453335 0.023920001 0.64400005
-0.047080003 0.023845715 0.64200002
-0.045857146 0.023845715 0.64200002
-0.04463429 0.023845715 0.64200002
-0.043343812 0.023808572 0.64100003
-0.04212286 0.023808572 0.64100003
-0.040901907 0.023808572 0.64100003
-0.039619051 0.023771429 0.64000005
-0.038460001 0.023808572 0.64100003
-0.037239049 0.023808572 0.64100003
-0.036018096 0.023808572 0.64100003
-0.034797147 0.023808572 0.64100003
-0.033628572 0.023845715 0.64200002
-0.032405715 0.023845715 0.64200002
-0.031182859 0.023845715 0.64200002
-0.029960003 0.023845715 0.64200002
-0.028826669 0.023920001 0.64400005
-0.027642859 0.023957144 0.64500004
-0.02645524 0.023994287 0.64600003
-0.025224764 0.023994287 0.64600003
-0.023994287 0.023994287 0.64600003
-0.022799049 0.02403143 0.64700001
-0.021566669 0.02403143 0.64700001
-0.020365715 0.024068573 0.648
-0.019131429 0.024068573 0.648
-0.017952383 0.02414286 0.65000004
-0.016714286 0.02414286 0.65000004
-0.015500001 0.024180003 0.65100002
-0.014260001 0.024180003 0.65100002
-0.013040001 0.024217144 0.65200001
-0.011942858 0.024514288 0.66000003
-0.010718096 0.024588574 0.66200006
-0.009457143 0.024588574 0.66200006
-0.072285719 0.02577143 0.66000003
-0.071028575 0.02577143 0.66000003
-0.069560006 0.025693335 0.65800005
-0.06830667 0.025693335 0.65800005
-0.066951431 0.025654288 0.65700001
-0.065600008 0.02561524 0.65600002
-0.064056195 0.025498098 0.65300006
-0.062812388 0.025498098 0.65300006
-0.06147429 0.025459049 0.65200001
-0.060140003 0.025420001 0.65100002
-0.058809526 0.025380954 0.65000004
-0.057394288 0.025302859 0.648
-0.056073338 0.025263811 0.64700001
-0.054840956 0.025263811 0.64700001
-0.053525716 0.025224764 0.64600003
-0.052214291 0.025185715 0.64500004
-0.050906669 0.025146669 0.64400005
-0.049680002 0.025146669 0.64400005
-0.048453335 0.025146669 0.64400005
-0.047080003 0.025068574 0.64200002
-0.045857146 0.025068574 0.64200002
-0.04463429 0.025068574 0.64200002
-0.04341143 0.025068574 0.64200002
-0.042188574 0.025068574 0.64200002
-0.040965717 0.025068574 0.64200002
-0.039742861 0.025068574 0.64200002
-0.038520001 0.025068574 0.64200002
-0.037297145 0.025068574 0.64200002
-0.036074288 0.025068574 0.64200002
-0.034851432 0.025068574 0.64200002
-0.033628572 0.025068574 0.64200002
-0.032405715 0.025068574 0.64200002
-0.031280003 0.025146669 0.64400005
-0.030053336 0.025146669 0.64400005
-0.02887143 0.025185715 0.64500004
-0.027642859 0.025185715 0.64500004
-0.02645524 0.025224764 0.64600003
-0.025224764 0.025224764 0.64600003
-0.02403143 0.025263811 0.64700001
-0.022799049 0.025263811 0.64700001
-0.021600001 0.025302859 0.648
-0.020365715 0.025302859 0.648
-0.019190477 0.025380954 0.65000004
-0.017980002 0.025420001 0.65100002
-0.016740002 0.025420001 0.65100002
-0.015523811 0.025459049 0.65200001
-0.014281905 0.025459049 0.65200001
-0.013100001 0.025576193 0.65500003
-0.011906668 0.025693335 0.65800005
-0.010718096 0.025849525 0.66200006
-0.009457143 0.025849525 0.66200006
-0.0039285715 0.032214288 0.82500005
-0.072285719 0.027028574 0.66000003
-0.071028575 0.027028574 0.66000003
-0.069560006 0.026946668 0.65800005
-0.06830667 0.026946668 0.65800005
-0.066951431 0.026905715 0.65700001
-0.065600008 0.026864763 0.65600002
-0.064252384 0.026823811 0.65500003
-0.062812388 0.026741907 0.65300006
-0.06147429 0.026700955 0.65200001
-0.060232386 0.026700955 0.65200001
-0.058900002 0.026660001 0.65100002
-0.057394288 0.026537145 0.648
-0.056160003 0.026537145 0.648
-0.054840956 0.026496192 0.64700001
-0.053608574 0.026496192 0.64700001
-0.052295242 0.02645524 0.64600003
-0.050985716 0.026414288 0.64500004
-0.049757145 0.026414288 0.64500004
-0.048453335 0.026373334 0.64400005
-0.047226671 0.026373334 0.64400005
-0.046000004 0.026373334 0.64400005
-0.044773336 0.026373334 0.64400005
-0.043546669 0.026373334 0.64400005
-0.042320002 0.026373334 0.64400005
-0.041093335 0.026373334 0.64400005
-0.039742861 0.02629143 0.64200002
-0.038520001 0.02629143 0.64200002
-0.037413336 0.026373334 0.64400005
-0.036074288 0.02629143 0.64200002
-0.034960002 0.026373334 0.64400005
-0.033733334 0.026373334 0.64400005
-0.032506667 0.026373334 0.64400005
-0.031280003 0.026373334 0.64400005
-0.030100003 0.026414288 0.64500004
-0.02887143 0.026414288 0.64500004
-0.027685717 0.02645524 0.64600003
-0.02645524 0.02645524 0.64600003
-0.025263811 0.026496192 0.64700001
-0.02403143 0.026496192 0.64700001
-0.022799049 0.026496192 0.64700001
-0.021600001 0.026537145 0.648
-0.020428572 0.026619049 0.65000004
-0.019220002 0.026660001 0.65100002
-0.018007619 0.026700955 0.65200001
-0.016765716 0.026700955 0.65200001
-0.01554762 0.026741907 0.65300006
-0.01434762 0.026823811 0.65500003
-0.013160001 0.026946668 0.65800005
-0.011942858 0.027028574 0.66000003
-0.010718096 0.027110478 0.66200006
-0.0094714295 0.02715143 0.66300005
-0.0039285715 0.033785716 0.82500005
-0.002357143 0.033785716 0.82500005
-0.072066672 0.028200002 0.65800005
-0.071136191 0.028328573 0.66100001
-0.069560006 0.028200002 0.65800005
-0.06830667 0.028200002 0.65800005
-0.066951431 0.028157145 0.65700001
-0.065700002 0.028157145 0.65700001
-0.064350478 0.028114287 0.65600002
-0.063004769 0.02807143 0.65500003
-0.061568577 0.027985716 0.65300006
-0.060232386 0.027942859 0.65200001
-0.058900002 0.027900001 0.65100002
-0.057571433 0.027857145 0.65000004
-0.056160003 0.02777143 0.648
-0.054925717 0.02777143 0.648
-0.053608574 0.027728572 0.64700001
-0.052376192 0.027728572 0.64700001
-0.051064767 0.027685717 0.64600003
-0.049834289 0.027685717 0.64600003
-0.048528574 0.027642859 0.64500004
-0.047226671 0.027600002 0.64400005
-0.046000004 0.027600002 0.64400005
-0.044773336 0.027600002 0.64400005
-0.043546669 0.027600002 0.64400005
-0.042320002 0.027600002 0.64400005
-0.041093335 0.027600002 0.64400005
-0.039866671 0.027600002 0.64400005
-0.038640004 0.027600002 0.64400005
-0.037413336 0.027600002 0.64400005
-0.036186669 0.027600002 0.64400005
-0.034960002 0.027600002 0.64400005
-0.033733334 0.027600002 0.64400005
-0.032557145 0.027642859 0.64500004
-0.031328574 0.027642859 0.64500004
-0.030100003 0.027642859 0.64500004
-0.028916193 0.027685717 0.64600003
-0.027685717 0.027685717 0.64600003
-0.026496192 0.027728572 0.64700001
-0.025263811 0.027728572 0.64700001
-0.02403143 0.027728572 0.64700001
-0.022799049 0.027728572 0.64700001
-0.021600001 0.02777143 0.648
-0.020460002 0.027900001 0.65100002
-0.019249525 0.027942859 0.65200001
-0.018035239 0.027985716 0.65300006
-0.016791429 0.027985716 0.65300006
-0.01554762 0.027985716 0.65300006
-0.014369525 0.028114287 0.65600002
-0.013160001 0.028200002 0.65800005
-0.011906668 0.028200002 0.65800005
-0.010701905 0.028328573 0.66100001
-0.0095000006 0.028500002 0.66500002
-0.0039476193 0.035528574 0.82900006
-0.073208578 0.029408574 0.65700001
-0.072066672 0.029453335 0.65800005
-0.071136191 0.029587621 0.66100001
-0.069771431 0.02954286 0.66000003
-0.068514287 0.02954286 0.66000003
-0.06705334 0.029453335 0.65800005
-0.065800004 0.029453335 0.65800005
-0.064448573 0.029408574 0.65700001
-0.063004769 0.02931905 0.65500003
-0.061568577 0.029229525 0.65300006
-0.060324766 0.029229525 0.65300006
-0.058990479 0.029184764 0.65200001
-0.057660002 0.029140001 0.65100002
-0.056333337 0.02909524 0.65000004
-0.054925717 0.029005716 0.648
-0.053691432 0.029005716 0.648
-0.052376192 0.028960954 0.64700001
-0.051143814 0.028960954 0.64700001
-0.049911432 0.028960954 0.64700001
-0.048603814 0.028916193 0.64600003
-0.047300003 0.02887143 0.64500004
-0.046071433 0.02887143 0.64500004
-0.044842862 0.02887143 0.64500004
-0.043614287 0.02887143 0.64500004
-0.042385716 0.02887143 0.64500004
-0.041157145 0.02887143 0.64500004
-0.039866671 0.028826669 0.64400005
-0.038640004 0.028826669 0.64400005
-0.037471432 0.02887143 0.64500004
-0.036186669 0.028826669 0.64400005
-0.034960002 0.028826669 0.64400005
-0.033785716 0.02887143 0.64500004
-0.032557145 0.02887143 0.64500004
-0.031377144 0.028916193 0.64600003
-0.030146668 0.028916193 0.64600003
-0.028960954 0.028960954 0.64700001
-0.027728572 0.028960954 0.64700001
-0.026496192 0.028960954 0.64700001
-0.025263811 0.028960954 0.64700001
-0.024068573 0.029005716 0.648
-0.022834288 0.029005716 0.648
-0.021666668 0.02909524 0.65000004
-0.020491431 0.029184764 0.65200001
-0.019249525 0.029184764 0.65200001
-0.018035239 0.029229525 0.65300006
-0.016842859 0.02931905 0.65500003
-0.015595239 0.02931905 0.65500003
-0.014369525 0.029363811 0.65600002
-0.013160001 0.029453335 0.65800005
-0.011906668 0.029453335 0.65800005
-0.010701905 0.029587621 0.66100001
-0.073097147 0.030613335 0.65600002
-0.072066672 0.030706668 0.65800005
-0.071136191 0.030846668 0.66100001
-0.069771431 0.030800002 0.66000003
-0.068514287 0.030800002 0.66000003
-0.067257144 0.030800002 0.66000003
-0.065800004 0.030706668 0.65800005
-0.064448573 0.030660002 0.65700001
-0.063100956 0.030613335 0.65600002
-0.061757147 0.030566668 0.65500003
-0.060324766 0.030473335 0.65300006
-0.058990479 0.030426668 0.65200001
-0.057660002 0.030380001 0.65100002
-0.056333337 0.030333335 0.65000004
-0.05509524 0.030333335 0.65000004
-0.053691432 0.030240001 0.648
-0.052457146 0.030240001 0.648
-0.051222861 0.030240001 0.648
-0.049911432 0.030193334 0.64700001
-0.04867905 0.030193334 0.64700001
-0.047373336 0.030146668 0.64600003
-0.046142861 0.030146668 0.64600003
-0.044912383 0.030146668 0.64600003
-0.043681908 0.030146668 0.64600003
-0.042385716 0.030100003 0.64500004
-0.041157145 0.030100003 0.64500004
-0.039928574 0.030100003 0.64500004
-0.038700003 0.030100003 0.64500004
-0.037471432 0.030100003 0.64500004
-0.036242861 0.030100003 0.64500004
-0.035068575 0.030146668 0.64600003
-0.033838097 0.030146668 0.64600003
-0.032607622 0.030146668 0.64600003
-0.031425714 0.030193334 0.64700001
-0.030193334 0.030193334 0.64700001
-0.028960954 0.030193334 0.64700001
-0.027728572 0.030193334 0.64700001
-0.026496192 0.030193334 0.64700001
-0.025302859 0.030240001 0.648
-0.024068573 0.030240001 0.648
-0.022904763 0.030333335 0.65000004
-0.021700002 0.030380001 0.65100002
-0.020491431 0.030426668 0.65200001
-0.01927905 0.030473335 0.65300006
-0.018035239 0.030473335 0.65300006
-0.016842859 0.030566668 0.65500003
-0.015595239 0.030566668 0.65500003
-0.01439143 0.030660002 0.65700001
-0.013160001 0.030706668 0.65800005
-0.011906668 0.030706668 0.65800005
-0.010685715 0.030800002 0.66000003
-0.072762862 0.031717144 0.65300006
-0.071738102 0.031814288 0.65500003
-0.070813335 0.031960003 0.65800005
-0.069560006 0.031960003 0.65800005
-0.068514287 0.032057144 0.66000003
-0.067359053 0.032105718 0.66100001
-0.066000007 0.032057144 0.66000003
-0.064546674 0.031960003 0.65800005
-0.063197143 0.031911429 0.65700001
-0.061851434 0.031862859 0.65600002
-0.060509529 0.031814288 0.65500003
-0.058990479 0.031668574 0.65200001
-0.057660002 0.031620003 0.65100002
-0.056420002 0.031620003 0.65100002
-0.05509524 0.031571429 0.65000004
-0.053691432 0.031474289 0.648
-0.052457146 0.031474289 0.648
-0.051222861 0.031474289 0.648
-0.049988575 0.031474289 0.648
-0.04867905 0.031425714 0.64700001
-0.047373336 0.031377144 0.64600003
-0.04621429 0.031425714 0.64700001
-0.044912383 0.031377144 0.64600003
-0.043681908 0.031377144 0.64600003
-0.04245143 0.031377144 0.64600003
-0.041220956 0.031377144 0.64600003
-0.039928574 0.031328574 0.64500004
-0.038700003 0.031328574 0.64500004
-0.037529524 0.031377144 0.64600003
-0.03629905 0.031377144 0.64600003
-0.035068575 0.031377144 0.64600003
-0.033890478 0.031425714 0.64700001
-0.032658096 0.031425714 0.64700001
-0.031425714 0.031425714 0.64700001
-0.030193334 0.031425714 0.64700001
-0.028960954 0.031425714 0.64700001
-0.02777143 0.031474289 0.648
-0.026537145 0.031474289 0.648
-0.025302859 0.031474289 0.648
-0.02414286 0.031571429 0.65000004
-0.022904763 0.031571429 0.65000004
-0.021700002 0.031620003 0.65100002
-0.020491431 0.031668574 0.65200001
-0.01927905 0.031717144 0.65300006
-0.018090477 0.031814288 0.65500003
-0.016868573 0.031862859 0.65600002
-0.015619049 0.031862859 0.65600002
-0.014413334 0.031960003 0.65800005
-0.013160001 0.031960003 0.65800005
-0.011888572 0.031911429 0.65700001
-0.010637144 0.031911429 0.65700001
-0.072651431 0.032910477 0.65200001
-0.071519054 0.032960955 0.65300006
-0.070490479 0.033061907 0.65500003
-0.068514287 0.033314288 0.66000003
-0.067359053 0.033364765 0.66100001
-0.066100001 0.033364765 0.66100001
-0.064742863 0.033314288 0.66000003
-0.063293338 0.033213336 0.65800005
-0.061945718 0.033162858 0.65700001
-0.060601909 0.033112384 0.65600002
-0.059261907 0.033061907 0.65500003
-0.057837147 0.032960955 0.65300006
-0.056506671 0.032910477 0.65200001
-0.055264767 0.032910477 0.65200001
-0.053940002 0.032860003 0.65100002
-0.052700002 0.032860003 0.65100002
-0.051460002 0.032860003 0.65100002
-0.050142862 0.032809526 0.65000004
-0.048904765 0.032809526 0.65000004
-0.047520004 0.032708574 0.648
-0.046285719 0.032708574 0.648
-0.045051433 0.032708574 0.648
-0.043749526 0.032658096 0.64700001
-0.042517144 0.032658096 0.64700001
-0.041284766 0.032658096 0.64700001
-0.040052384 0.032658096 0.64700001
-0.038820002 0.032658096 0.64700001
-0.03758762 0.032658096 0.64700001
-0.036355242 0.032658096 0.64700001
-0.035177145 0.032708574 0.648
-0.03394286 0.032708574 0.648
-0.032708574 0.032708574 0.648
-0.031474289 0.032708574 0.648
-0.030240001 0.032708574 0.648
-0.029005716 0.032708574 0.648
-0.027857145 0.032809526 0.65000004
-0.026619049 0.032809526 0.65000004
-0.025380954 0.032809526 0.65000004
-0.024180003 0.032860003 0.65100002
-0.02297524 0.032910477 0.65200001
-0.021766668 0.032960955 0.65300006
-0.020585716 0.033061907 0.65500003
-0.01936762 0.033112384 0.65600002
-0.018118097 0.033112384 0.65600002
-0.016894286 0.033162858 0.65700001
-0.015666667 0.033213336 0.65800005
-0.014457144 0.033314288 0.66000003
-0.013200001 0.033314288 0.66000003
-0.011906668 0.033213336 0.65800005
-0.072762862 0.034204762 0.65300006
-0.071519054 0.034204762 0.65300006
-0.069560006 0.034466669 0.65800005
-0.068618096 0.034623813 0.66100001
-0.067460954 0.034676194 0.66200006
-0.066100001 0.034623813 0.66100001
-0.064840958 0.034623813 0.66100001
-0.063485719 0.034571432 0.66000003
-0.062040005 0.034466669 0.65800005
-0.060694288 0.034414288 0.65700001
-0.059352383 0.034361906 0.65600002
-0.058014289 0.034309525 0.65500003
-0.056593336 0.034204762 0.65300006
-0.055264767 0.034152385 0.65200001
-0.05402286 0.034152385 0.65200001
-0.052780956 0.034152385 0.65200001
-0.051460002 0.034100004 0.65100002
-0.050220001 0.034100004 0.65100002
-0.048980001 0.034100004 0.65100002
-0.047740005 0.034100004 0.65100002
-0.046428576 0.034047622 0.65000004
-0.045051433 0.03394286 0.648
-0.043817144 0.03394286 0.648
-0.042582858 0.03394286 0.648
-0.041348573 0.03394286 0.648
-0.040114287 0.03394286 0.648
-0.038880002 0.03394286 0.648
-0.037645716 0.03394286 0.648
-0.036411431 0.03394286 0.648
-0.035177145 0.03394286 0.648
-0.03394286 0.03394286 0.648
-0.032708574 0.03394286 0.648
-0.031571429 0.034047622 0.65000004
-0.030333335 0.034047622 0.65000004
-0.02909524 0.034047622 0.65000004
-0.027857145 0.034047622 0.65000004
-0.026619049 0.034047622 0.65000004
-0.025420001 0.034100004 0.65100002
-0.024217144 0.034152385 0.65200001
-0.02297524 0.034152385 0.65200001
-0.021766668 0.034204762 0.65300006
-0.020585716 0.034309525 0.65500003
-0.01936762 0.034361906 0.65600002
-0.018145716 0.034414288 0.65700001
-0.01692 0.034466669 0.65800005
-0.015666667 0.034466669 0.65800005
-0.014479049 0.034623813 0.66100001
-0.013200001 0.034571432 0.66000003
-0.011942858 0.034571432 0.66000003
-0.069877148 0.03588286 0.66100001
-0.068618096 0.03588286 0.66100001
-0.067460954 0.035937145 0.66200006
-0.066200003 0.035937145 0.66200006
-0.064840958 0.03588286 0.66100001
-0.063581906 0.03588286 0.66100001
-0.062228575 0.035828575 0.66000003
-0.060786672 0.035720002 0.65800005
-0.059442863 0.035665717 0.65700001
-0.058102861 0.035611432 0.65600002
-0.05676667 0.035557143 0.65500003
-0.055349529 0.035448574 0.65300006
-0.05402286 0.035394289 0.65200001
-0.052780956 0.035394289 0.65200001
-0.051539052 0.035394289 0.65200001
-0.050297145 0.035394289 0.65200001
-0.048980001 0.035340004 0.65100002
-0.047740005 0.035340004 0.65100002
-0.046500005 0.035340004 0.65100002
-0.045260005 0.035340004 0.65100002
-0.044020005 0.035340004 0.65100002
-0.042780004 0.035340004 0.65100002
-0.041476194 0.035285715 0.65000004
-0.040238097 0.035285715 0.65000004
-0.039000001 0.035285715 0.65000004
-0.037761908 0.035285715 0.65000004
-0.036523812 0.035285715 0.65000004
-0.035285715 0.035285715 0.65000004
-0.034047622 0.035285715 0.65000004
-0.032809526 0.035285715 0.65000004
-0.031571429 0.035285715 0.65000004
-0.030333335 0.035285715 0.65000004
-0.02909524 0.035285715 0.65000004
-0.027900001 0.035340004 0.65100002
-0.026660001 0.035340004 0.65100002
-0.025459049 0.035394289 0.65200001
-0.024217144 0.035394289 0.65200001
-0.023010477 0.035448574 0.65300006
-0.021833334 0.035557143 0.65500003
-0.020617144 0.035611432 0.65600002
-0.019397143 0.035665717 0.65700001
-0.018145716 0.035665717 0.65700001
-0.01692 0.035720002 0.65800005
-0.015666667 0.035720002 0.65800005
-0.014500953 0.035937145 0.66200006
-0.013240001 0.035937145 0.66200006
-0.012033334 0.036100004 0.66500002
-0.068825722 0.037254289 0.66300005
-0.067562863 0.037254289 0.66300005
-0.066200003 0.037198097 0.66200006
-0.064939052 0.037198097 0.66200006
-0.063581906 0.037141908 0.66100001
-0.062322862 0.037141908 0.66100001
-0.060971431 0.037085716 0.66000003
-0.059533339 0.036973335 0.65800005
-0.058191434 0.036917146 0.65700001
-0.056853335 0.036860954 0.65600002
-0.055519052 0.036804765 0.65500003
-0.054105718 0.036692385 0.65300006
-0.052861907 0.036692385 0.65300006
-0.051539052 0.036636192 0.65200001
-0.050297145 0.036636192 0.65200001
-0.049055241 0.036636192 0.65200001
-0.047813337 0.036636192 0.65200001
-0.046500005 0.036580004 0.65100002
-0.045260005 0.036580004 0.65100002
-0.044020005 0.036580004 0.65100002
-0.042780004 0.036580004 0.65100002
-0.041540004 0.036580004 0.65100002
-0.040300004 0.036580004 0.65100002
-0.039060004 0.036580004 0.65100002
-0.037820004 0.036580004 0.65100002
-0.036523812 0.036523812 0.65000004
-0.035285715 0.036523812 0.65000004
-0.034047622 0.036523812 0.65000004
-0.032809526 0.036523812 0.65000004
-0.031620003 0.036580004 0.65100002
-0.030380001 0.036580004 0.65100002
-0.029140001 0.036580004 0.65100002
-0.027942859 0.036636192 0.65200001
-0.026700955 0.036636192 0.65200001
-0.025459049 0.036636192 0.65200001
-0.024254287 0.036692385 0.65300006
-0.023010477 0.036692385 0.65300006
-0.021833334 0.036804765 0.65500003
-0.020617144 0.036860954 0.65600002
-0.019397143 0.036917146 0.65700001
-0.018173335 0.036973335 0.65800005
-0.01697143 0.037085716 0.66000003
-0.015761906 0.037198097 0.66200006
-0.014522858 0.037254289 0.66300005
-0.013320001 0.037422858 0.66600001
-0.01205143 0.037422858 0.66600001
-0.067766674 0.038633335 0.66500002
-0.066300005 0.038517144 0.66300005
-0.064939052 0.038459051 0.66200006
-0.063678101 0.038459051 0.66200006
-0.062322862 0.038400955 0.66100001
-0.060971431 0.03834286 0.66000003
-0.059714291 0.03834286 0.66000003
-0.058280002 0.038226668 0.65800005
-0.056940004 0.038168576 0.65700001
-0.055603813 0.03811048 0.65600002
-0.054271434 0.038052384 0.65500003
-0.053023811 0.038052384 0.65500003
-0.051618099 0.037936192 0.65300006
-0.050374288 0.037936192 0.65300006
-0.049055241 0.037878096 0.65200001
-0.047813337 0.037878096 0.65200001
-0.04657143 0.037878096 0.65200001
-0.045329526 0.037878096 0.65200001
-0.044087622 0.037878096 0.65200001
-0.042845719 0.037878096 0.65200001
-0.041603811 0.037878096 0.65200001
-0.040361907 0.037878096 0.65200001
-0.039120004 0.037878096 0.65200001
-0.037820004 0.037820004 0.65100002
-0.036580004 0.037820004 0.65100002
-0.035340004 0.037820004 0.65100002
-0.034100004 0.037820004 0.65100002
-0.032860003 0.037820004 0.65100002
-0.031620003 0.037820004 0.65100002
-0.030380001 0.037820004 0.65100002
-0.029140001 0.037820004 0.65100002
-0.027942859 0.037878096 0.65200001
-0.026700955 0.037878096 0.65200001
-0.025498098 0.037936192 0.65300006
-0.024254287 0.037936192 0.65300006
-0.023080954 0.038052384 0.65500003
-0.021866668 0.03811048 0.65600002
-0.020648573 0.038168576 0.65700001
-0.019397143 0.038168576 0.65700001
-0.018228572 0.03834286 0.66000003
-0.01697143 0.03834286 0.66000003
-0.014566667 0.038633335 0.66500002
-0.013320001 0.038691431 0.66600001
-0.01205143 0.038691431 0.66600001
-0.010799048 0.038749527 0.66700006
-0.069552384 0.040200002 0.67000002
-0.067970477 0.040020004 0.66700006
-0.066500001 0.039900001 0.66500002
-0.065037146 0.039780002 0.66300005
-0.063678101 0.039720003 0.66200006
-0.062417146 0.039720003 0.66200006
-0.061063815 0.039660003 0.66100001
-0.059714291 0.039600004 0.66000003
-0.058280002 0.039480001 0.65800005
-0.057026669 0.039480001 0.65800005
-0.055688575 0.039420001 0.65700001
-0.054354288 0.039360002 0.65600002
-0.053023811 0.039300002 0.65500003
-0.051618099 0.039180003 0.65300006
-0.050374288 0.039180003 0.65300006
-0.049130481 0.039180003 0.65300006
-0.047813337 0.039120004 0.65200001
-0.04657143 0.039120004 0.65200001
-0.045329526 0.039120004 0.65200001
-0.044087622 0.039120004 0.65200001
-0.042845719 0.039120004 0.65200001
-0.041603811 0.039120004 0.65200001
-0.040361907 0.039120004 0.65200001
-0.039120004 0.039120004 0.65200001
-0.037878096 0.039120004 0.65200001
-0.036636192 0.039120004 0.65200001
-0.035394289 0.039120004 0.65200001
-0.034152385 0.039120004 0.65200001
-0.032910477 0.039120004 0.65200001
-0.031668574 0.039120004 0.65200001
-0.030426668 0.039120004 0.65200001
-0.029184764 0.039120004 0.65200001
-0.027985716 0.039180003 0.65300006
-0.026741907 0.039180003 0.65300006
-0.025576193 0.039300002 0.65500003
-0.024365716 0.039360002 0.65600002
-0.023116192 0.039360002 0.65600002
-0.021900002 0.039420001 0.65700001
-0.020648573 0.039420001 0.65700001
-0.019426668 0.039480001 0.65800005
-0.018228572 0.039600004 0.66000003
-0.017022857 0.039720003 0.66200006
-0.015785715 0.039780002 0.66300005
-0.014588572 0.039960004 0.66600001
-0.013340001 0.040020004 0.66700006
-0.012069524 0.040020004 0.66700006
-0.07125143 0.041723814 0.67400002
-0.069760002 0.041600004 0.67200005
-0.068378098 0.041538097 0.671
-0.066700004 0.041290481 0.66700006
-0.065233335 0.041166671 0.66500002
-0.063774288 0.041042861 0.66300005
-0.062417146 0.040980954 0.66200006
-0.061063815 0.040919051 0.66100001
-0.059804767 0.040919051 0.66100001
-0.058457147 0.040857144 0.66000003
-0.057026669 0.040733337 0.65800005
-0.055773336 0.040733337 0.65800005
-0.054437146 0.040671431 0.65700001
-0.053104766 0.040609527 0.65600002
-0.051776193 0.040547621 0.65500003
-0.050528575 0.040547621 0.65500003
-0.049130481 0.04042381 0.65300006
-0.04788667 0.04042381 0.65300006
-0.046642859 0.04042381 0.65300006
-0.045329526 0.040361907 0.65200001
-0.044087622 0.040361907 0.65200001
-0.042845719 0.040361907 0.65200001
-0.041603811 0.040361907 0.65200001
-0.040361907 0.040361907 0.65200001
-0.039120004 0.040361907 0.65200001
-0.037878096 0.040361907 0.65200001
-0.036636192 0.040361907 0.65200001
-0.035394289 0.040361907 0.65200001
-0.034152385 0.040361907 0.65200001
-0.032910477 0.040361907 0.65200001
-0.031717144 0.04042381 0.65300006
-0.030473335 0.04042381 0.65300006
-0.029229525 0.04042381 0.65300006
-0.02807143 0.040547621 0.65500003
-0.026823811 0.040547621 0.65500003
-0.02561524 0.040609527 0.65600002
-0.024365716 0.040609527 0.65600002
-0.023151429 0.040671431 0.65700001
-0.021933334 0.040733337 0.65800005
-0.020680001 0.040733337 0.65800005
-0.019485716 0.040857144 0.66000003
-0.01828381 0.040980954 0.66200006
-0.017048573 0.041042861 0.66300005
-0.015857143 0.041228574 0.66600001
-0.014610477 0.041290481 0.66700006
-0.013380001 0.041414287 0.66900003
-0.01212381 0.041476194 0.67000002
-0.07125143 0.043007623 0.67400002
-0.069760002 0.042880002 0.67200005
-0.068378098 0.042816192 0.671
-0.067100003 0.042816192 0.671
-0.065233335 0.042433336 0.66500002
-0.063774288 0.042305715 0.66300005
-0.062417146 0.042241909 0.66200006
-0.061156195 0.042241909 0.66200006
-0.059804767 0.042178098 0.66100001
-0.05854572 0.042178098 0.66100001
-0.057286669 0.042178098 0.66100001
-0.055773336 0.04198667 0.65800005
-0.054520003 0.04198667 0.65800005
-0.053185716 0.04192286 0.65700001
-0.05185524 0.041859049 0.65600002
-0.050528575 0.041795243 0.65500003
-0.049280956 0.041795243 0.65500003
-0.04788667 0.041667622 0.65300006
-0.046642859 0.041667622 0.65300006
-0.045329526 0.041603811 0.65200001
-0.044087622 0.041603811 0.65200001
-0.042845719 0.041603811 0.65200001
-0.041603811 0.041603811 0.65200001
-0.040361907 0.041603811 0.65200001
-0.039180003 0.041667622 0.65300006
-0.037878096 0.041603811 0.65200001
-0.036636192 0.041603811 0.65200001
-0.035394289 0.041603811 0.65200001
-0.034152385 0.041603811 0.65200001
-0.032960955 0.041667622 0.65300006
-0.031717144 0.041667622 0.65300006
-0.030566668 0.041795243 0.65500003
-0.02931905 0.041795243 0.65500003
-0.028114287 0.041859049 0.65600002
-0.026864763 0.041859049 0.65600002
-0.025654288 0.04192286 0.65700001
-0.024402859 0.04192286 0.65700001
-0.023186669 0.04198667 0.65800005
-0.021933334 0.04198667 0.65800005
-0.020680001 0.04198667 0.65800005
-0.019515239 0.042178098 0.66100001
-0.01828381 0.042241909 0.66200006
-0.017048573 0.042305715 0.66300005
-0.015833335 0.042433336 0.66500002
-0.014588572 0.042497147 0.66600001
-0.013400001 0.042752385 0.67000002
-0.012141906 0.042816192 0.671
-0.01086381 0.042816192 0.671
-0.07125143 0.044291433 0.67400002
-0.069760002 0.044160005 0.67200005
-0.068480007 0.044160005 0.67200005
-0.067200005 0.044160005 0.67200005
-0.065429531 0.04383143 0.66700006
-0.063966669 0.043700002 0.66500002
-0.062511429 0.043568574 0.66300005
-0.061156195 0.04350286 0.66200006
-0.059895243 0.04350286 0.66200006
-0.05854572 0.043437146 0.66100001
-0.057286669 0.043437146 0.66100001
-0.05594286 0.043371432 0.66000003
-0.054520003 0.043240003 0.65800005
-0.053266671 0.043240003 0.65800005
-0.051934291 0.043174289 0.65700001
-0.050605718 0.043108575 0.65600002
-0.049280956 0.043042861 0.65500003
-0.048033338 0.043042861 0.65500003
-0.046785716 0.043042861 0.65500003
-0.045399051 0.042911433 0.65300006
-0.04415524 0.042911433 0.65300006
-0.042911433 0.042911433 0.65300006
-0.041667622 0.042911433 0.65300006
-0.04042381 0.042911433 0.65300006
-0.039180003 0.042911433 0.65300006
-0.037936192 0.042911433 0.65300006
-0.036692385 0.042911433 0.65300006
-0.035448574 0.042911433 0.65300006
-0.034204762 0.042911433 0.65300006
-0.032960955 0.042911433 0.65300006
-0.031814288 0.043042861 0.65500003
-0.030613335 0.043108575 0.65600002
-0.029363811 0.043108575 0.65600002
-0.028157145 0.043174289 0.65700001
-0.026905715 0.043174289 0.65700001
-0.025654288 0.043174289 0.65700001
-0.024440002 0.043240003 0.65800005
-0.023186669 0.043240003 0.65800005
-0.022000002 0.043371432 0.66000003
-0.020742858 0.043371432 0.66000003
-0.019515239 0.043437146 0.66100001
-0.01828381 0.04350286 0.66200006
-0.017048573 0.043568574 0.66300005
-0.015880954 0.04383143 0.66700006
-0.014654287 0.043962859 0.66900003
-0.013420001 0.044094287 0.671
-0.012141906 0.044094287 0.671
-0.01086381 0.044094287 0.671
-0.07125143 0.045575242 0.67400002
-0.069760002 0.045440003 0.67200005
-0.068480007 0.045440003 0.67200005
-0.067200005 0.045440003 0.67200005
-0.065821908 0.045372386 0.671
-0.063966669 0.044966668 0.66500002
-0.062511429 0.044831432 0.66300005
-0.061248574 0.044831432 0.66300005
-0.059895243 0.044763811 0.66200006
-0.058634289 0.044763811 0.66200006
-0.057373337 0.044763811 0.66200006
-0.05594286 0.044628575 0.66000003
-0.054685719 0.044628575 0.66000003
-0.053266671 0.044493336 0.65800005
-0.052013338 0.044493336 0.65800005
-0.050682861 0.044425718 0.65700001
-0.049356192 0.044358097 0.65600002
-0.04810667 0.044358097 0.65600002
-0.046785716 0.044290479 0.65500003
-0.045399051 0.04415524 0.65300006
-0.04415524 0.04415524 0.65300006
-0.042911433 0.04415524 0.65300006
-0.041667622 0.04415524 0.65300006
-0.04042381 0.04415524 0.65300006
-0.039180003 0.04415524 0.65300006
-0.037936192 0.04415524 0.65300006
-0.036692385 0.04415524 0.65300006
-0.035557143 0.044290479 0.65500003
-0.034309525 0.044290479 0.65500003
-0.033061907 0.044290479 0.65500003
-0.031862859 0.044358097 0.65600002
-0.030613335 0.044358097 0.65600002
-0.029408574 0.044425718 0.65700001
-0.028157145 0.044425718 0.65700001
-0.026905715 0.044425718 0.65700001
-0.025693335 0.044493336 0.65800005
-0.024440002 0.044493336 0.65800005
-0.023257144 0.044628575 0.66000003
-0.022000002 0.044628575 0.66000003
-0.020774286 0.044696193 0.66100001
-0.019544763 0.044763811 0.66200006
-0.01831143 0.044831432 0.66300005
-0.017100001 0.044966668 0.66500002
-0.015880954 0.045101907 0.66700006
-0.014676192 0.045304764 0.67000002
-0.013420001 0.045372386 0.671
-0.012141906 0.045372386 0.671
-0.01086381 0.045372386 0.671
-0.06996762 0.046859052 0.67400002
-0.068683811 0.046859052 0.67400002
-0.067400001 0.046859052 0.67400002
-0.066116191 0.046859052 0.67400002
-0.064351432 0.04651143 0.66900003
-0.062700003 0.046233337 0.66500002
-0.061248574 0.046094287 0.66300005
-0.05998572 0.046094287 0.66300005
-0.058634289 0.046024766 0.66200006
-0.057373337 0.046024766 0.66200006
-0.056027621 0.045955241 0.66100001
-0.054768573 0.045955241 0.66100001
-0.053428575 0.045885716 0.66000003
-0.052013338 0.045746669 0.65800005
-0.050760005 0.045746669 0.65800005
-0.049431432 0.045677144 0.65700001
-0.048180003 0.045677144 0.65700001
-0.046928573 0.045677144 0.65700001
-0.045607623 0.045607623 0.65600002
-0.044290479 0.045538098 0.65500003
-0.043108575 0.045607623 0.65600002
-0.041795243 0.045538098 0.65500003
-0.040547621 0.045538098 0.65500003
-0.039300002 0.045538098 0.65500003
-0.038052384 0.045538098 0.65500003
-0.036860954 0.045607623 0.65600002
-0.035611432 0.045607623 0.65600002
-0.034361906 0.045607623 0.65600002
-0.033112384 0.045607623 0.65600002
-0.031862859 0.045607623 0.65600002
-0.030660002 0.045677144 0.65700001
-0.029408574 0.045677144 0.65700001
-0.028157145 0.045677144 0.65700001
-0.026946668 0.045746669 0.65800005
-0.025693335 0.045746669 0.65800005
-0.024514288 0.045885716 0.66000003
-0.023292383 0.045955241 0.66100001
-0.022066668 0.046024766 0.66200006
-0.020805717 0.046024766 0.66200006
-0.019544763 0.046024766 0.66200006
-0.01831143 0.046094287 0.66300005
-0.017125715 0.046302859 0.66600001
-0.015928572 0.04651143 0.66900003
-0.014676192 0.046580955 0.67000002
-0.013440001 0.046720002 0.67200005
-0.012141906 0.04665048 0.671
-0.01086381 0.04665048 0.671
-0.0095857149 0.04665048 0.671
-0.068683811 0.048142862 0.67400002
-0.067400001 0.048142862 0.67400002
-0.066116191 0.048142862 0.67400002
-0.064640008 0.048000004 0.67200005
-0.063265719 0.047928575 0.671
-0.061618101 0.047642861 0.66700006
-0.060166672 0.047500003 0.66500002
-0.058900002 0.047500003 0.66500002
-0.057460003 0.047357146 0.66300005
-0.056197148 0.047357146 0.66300005
-0.054851431 0.047285717 0.66200006
-0.053509526 0.047214288 0.66100001
-0.052250478 0.047214288 0.66100001
-0.050914288 0.04714286 0.66000003
-0.049657147 0.04714286 0.66000003
-0.048253335 0.047000002 0.65800005
-0.047000002 0.047000002 0.65800005
-0.045746669 0.047000002 0.65800005
-0.044425718 0.046928573 0.65700001
-0.043174289 0.046928573 0.65700001
-0.04192286 0.046928573 0.65700001
-0.040671431 0.046928573 0.65700001
-0.039420001 0.046928573 0.65700001
-0.038168576 0.046928573 0.65700001
-0.036917146 0.046928573 0.65700001
-0.035665717 0.046928573 0.65700001
-0.034414288 0.046928573 0.65700001
-0.033162858 0.046928573 0.65700001
-0.031911429 0.046928573 0.65700001
-0.030706668 0.047000002 0.65800005
-0.029453335 0.047000002 0.65800005
-0.028285716 0.04714286 0.66000003
-0.027028574 0.04714286 0.66000003
-0.025810478 0.047214288 0.66100001
-0.024588574 0.047285717 0.66200006
-0.023362858 0.047357146 0.66300005
-0.022100002 0.047357146 0.66300005
-0.020900002 0.047500003 0.66500002
-0.019633334 0.047500003 0.66500002
-0.018394288 0.047571432 0.66600001
-0.017125715 0.047571432 0.66600001
-0.015928572 0.047785718 0.66900003
-0.014676192 0.047857147 0.67000002
-0.013440001 0.048000004 0.67200005
-0.01216 0.048000004 0.67200005
-0.01086381 0.047928575 0.671
-0.067400001 0.049426671 0.67400002
-0.066116191 0.049426671 0.67400002
-0.064640008 0.049280003 0.67200005
-0.063265719 0.04920667 0.671
-0.061895244 0.049133338 0.67000002
-0.060347624 0.048913337 0.66700006
-0.058988575 0.048840005 0.66600001
-0.057633337 0.048766669 0.66500002
-0.056197148 0.048620004 0.66300005
-0.054851431 0.048546668 0.66200006
-0.05359048 0.048546668 0.66200006
-0.052250478 0.048473336 0.66100001
-0.050991431 0.048473336 0.66100001
-0.049732383 0.048473336 0.66100001
-0.048400003 0.048400003 0.66000003
-0.04714286 0.048400003 0.66000003
-0.045746669 0.048253335 0.65800005
-0.044493336 0.048253335 0.65800005
-0.043240003 0.048253335 0.65800005
-0.04198667 0.048253335 0.65800005
-0.040733337 0.048253335 0.65800005
-0.039480001 0.048253335 0.65800005
-0.038226668 0.048253335 0.65800005
-0.036973335 0.048253335 0.65800005
-0.035720002 0.048253335 0.65800005
-0.034466669 0.048253335 0.65800005
-0.033213336 0.048253335 0.65800005
-0.031960003 0.048253335 0.65800005
-0.030706668 0.048253335 0.65800005
-0.02954286 0.048400003 0.66000003
-0.028285716 0.048400003 0.66000003
-0.027069526 0.048473336 0.66100001
-0.025849525 0.048546668 0.66200006
-0.024625717 0.048620004 0.66300005
-0.023433335 0.048766669 0.66500002
-0.022166668 0.048766669 0.66500002
-0.02093143 0.048840005 0.66600001
-0.019662859 0.048840005 0.66600001
-0.018421905 0.048913337 0.66700006
-0.01715143 0.048913337 0.66700006
-0.015928572 0.049060002 0.66900003
-0.014698097 0.04920667 0.671
-0.013420001 0.04920667 0.671
-0.01216 0.049280003 0.67200005
-0.010880001 0.049280003 0.67200005
-0.066214293 0.050785717 0.67500001
-0.064640008 0.050560005 0.67200005
-0.063265719 0.050484765 0.671
-0.061895244 0.050409526 0.67000002
-0.060528576 0.05033429 0.66900003
-0.059077147 0.050183814 0.66700006
-0.057720006 0.050108574 0.66600001
-0.056366671 0.050033338 0.66500002
-0.054934289 0.049882859 0.66300005
-0.05359048 0.049807623 0.66200006
-0.052329529 0.049807623 0.66200006
-0.051068574 0.049807623 0.66200006
-0.049732383 0.049732383 0.66100001
-0.048473336 0.049732383 0.66100001
-0.047214288 0.049732383 0.66100001
-0.045885716 0.049657147 0.66000003
-0.044628575 0.049657147 0.66000003
-0.043371432 0.049657147 0.66000003
-0.042114288 0.049657147 0.66000003
-0.040857144 0.049657147 0.66000003
-0.039600004 0.049657147 0.66000003
-0.038226668 0.049506672 0.65800005
-0.036973335 0.049506672 0.65800005
-0.035828575 0.049657147 0.66000003
-0.034466669 0.049506672 0.65800005
-0.033213336 0.049506672 0.65800005
-0.032057144 0.049657147 0.66000003
-0.030800002 0.049657147 0.66000003
-0.029587621 0.049732383 0.66100001
-0.028371431 0.049807623 0.66200006
-0.02715143 0.049882859 0.66300005
-0.025966669 0.050033338 0.66500002
-0.024700001 0.050033338 0.66500002
-0.023468573 0.050108574 0.66600001
-0.022200001 0.050108574 0.66600001
-0.020962859 0.050183814 0.66700006
-0.019662859 0.050108574 0.66600001
-0.018421905 0.050183814 0.66700006
-0.017202858 0.05033429 0.66900003
-0.015952382 0.050409526 0.67000002
-0.014698097 0.050484765 0.671
-0.013440001 0.050560005 0.67200005
-0.012196192 0.050710481 0.67400002
-0.010912382 0.050710481 0.67400002
-0.066312388 0.052148573 0.67600006
-0.064640008 0.051840004 0.67200005
-0.063265719 0.05176286 0.671
-0.061895244 0.051685717 0.67000002
-0.060528576 0.051608574 0.66900003
-0.059077147 0.051454291 0.66700006
-0.057720006 0.051377147 0.66600001
-0.056366671 0.051300004 0.66500002
-0.054934289 0.051145718 0.66300005
-0.053671431 0.051145718 0.66300005
-0.052329529 0.051068574 0.66200006
-0.051068574 0.051068574 0.66200006
-0.049807623 0.051068574 0.66200006
-0.048546668 0.051068574 0.66200006
-0.047285717 0.051068574 0.66200006
-0.045955241 0.050991431 0.66100001
-0.044696193 0.050991431 0.66100001
-0.043437146 0.050991431 0.66100001
-0.042114288 0.050914288 0.66000003
-0.040857144 0.050914288 0.66000003
-0.039600004 0.050914288 0.66000003
-0.03834286 0.050914288 0.66000003
-0.037085716 0.050914288 0.66000003
-0.035828575 0.050914288 0.66000003
-0.034571432 0.050914288 0.66000003
-0.033364765 0.050991431 0.66100001
-0.032105718 0.050991431 0.66100001
-0.030846668 0.050991431 0.66100001
-0.029632382 0.051068574 0.66200006
-0.028414287 0.051145718 0.66300005
-0.027233334 0.051300004 0.66500002
-0.026005715 0.051377147 0.66600001
-0.024737144 0.051377147 0.66600001
-0.02350381 0.051454291 0.66700006
-0.022233335 0.051454291 0.66700006
-0.020962859 0.051454291 0.66700006
-0.019692382 0.051454291 0.66700006
-0.018477144 0.051608574 0.66900003
-0.017202858 0.051608574 0.66900003
-0.015976192 0.05176286 0.671
-0.014720001 0.051840004 0.67200005
-0.013440001 0.051840004 0.67200005
-0.01216 0.051840004 0.67200005
-0.066312388 0.053436194 0.67600006
-0.064832382 0.0532781 0.67400002
-0.063360006 0.053120002 0.67200005
-0.061987624 0.053040955 0.671
-0.060619052 0.052961908 0.67000002
-0.059254289 0.052882861 0.66900003
-0.057806671 0.052724764 0.66700006
