# .PCD v0.7 - Point Cloud Data file format
VERSION 0.7
FIELDS x y z
SIZE 4 4 4
TYPE F F F
COUNT 1 1 1
WIDTH 1293
HEIGHT 1
VIEWPOINT 0 0 0 1 0 0 0
POINTS 1293
DATA ascii
-0.030814288 -0.014380001 0.71900004
-0.029362859 -0.014340001 0.71700001
-0.027997145 -0.014340001 0.71700001
-0.02663143 -0.014340001 0.71700001
-0.025265716 -0.014340001 0.71700001
-0.023866668 -0.014320001 0.71600002
-0.022534287 -0.014340001 0.71700001
-0.021168573 -0.014340001 0.71700001
-0.019802859 -0.014340001 0.71700001
-0.018437143 -0.014340001 0.71700001
-0.017119048 -0.014380001 0.71900004
-0.015749525 -0.014380001 0.71900004
-0.014400001 -0.014400001 0.72000003
-0.013028572 -0.014400001 0.72000003
-0.011689524 -0.014440001 0.72200006
-0.010314287 -0.014440001 0.72200006
-0.0089390483 -0.014440001 0.72200006
-0.0075638099 -0.014440001 0.72200006
-0.0061885719 -0.014440001 0.72200006
-0.0048333337 -0.014500001 0.72500002
-0.0034523811 -0.014500001 0.72500002
-0.0020742859 -0.014520001 0.72600001
-0.00069142861 -0.014520001 0.72600001
0.00069333339 -0.014560001 0.72800004
0.0020828573 -0.014580001 0.72900003
0.0034857146 -0.014640001 0.73200005
0.0049066669 -0.014720001 0.73600006
0.0063428576 -0.014800001 0.74000001
0.0077733337 -0.014840001 0.74200004
0.0091619054 -0.014800001 0.74000001
0.010600001 -0.014840001 0.74200004
0.012013334 -0.014840001 0.74200004
-0.05264286 -0.013336191 0.73700005
-0.051030479 -0.013281906 0.73400003
-0.049497146 -0.013245715 0.73200005
-0.048102859 -0.013245715 0.73200005
-0.046644766 -0.01322762 0.73100001
-0.045128573 -0.01319143 0.72900003
-0.043680001 -0.013173334 0.72800004
-0.042177144 -0.013137144 0.72600001
-0.040625717 -0.013082858 0.72300005
-0.03919429 -0.013064763 0.72200006
-0.03781905 -0.013064763 0.72200006
-0.036342859 -0.013028572 0.72000003
-0.034971431 -0.013028572 0.72000003
-0.033600003 -0.013028572 0.72000003
-0.032183811 -0.013010477 0.71900004
-0.030814288 -0.013010477 0.71900004
-0.029444763 -0.013010477 0.71900004
-0.028075241 -0.013010477 0.71900004
-0.026705716 -0.013010477 0.71900004
-0.025265716 -0.012974286 0.71700001
-0.023900002 -0.012974286 0.71700001
-0.022534287 -0.012974286 0.71700001
-0.021227621 -0.013010477 0.71900004
-0.019858096 -0.013010477 0.71900004
-0.018488573 -0.013010477 0.71900004
-0.017119048 -0.013010477 0.71900004
-0.01577143 -0.013028572 0.72000003
-0.014400001 -0.013028572 0.72000003
-0.013028572 -0.013028572 0.72000003
-0.011705715 -0.013082858 0.72300005
-0.010328572 -0.013082858 0.72300005
-0.0089514293 -0.013082858 0.72300005
-0.0075952387 -0.013119048 0.72500002
-0.0061971433 -0.013082858 0.72300005
-0.0048333337 -0.013119048 0.72500002
-0.003457143 -0.013137144 0.72600001
-0.0020742859 -0.013137144 0.72600001
-0.00069333339 -0.013173334 0.72800004
0.00069428579 -0.01319143 0.72900003
0.0020828573 -0.01319143 0.72900003
0.0034857146 -0.013245715 0.73200005
0.0049133338 -0.013336191 0.73700005
0.0063428576 -0.013390477 0.74000001
0.0077733337 -0.013426668 0.74200004
0.0091866674 -0.013426668 0.74200004
0.010600001 -0.013426668 0.74200004
0.012013334 -0.013426668 0.74200004
-0.054266669 -0.011980954 0.74000001
-0.052785717 -0.011964763 0.73900002
-0.051169526 -0.011916191 0.73600006
-0.049632385 -0.01188381 0.73400003
-0.048102859 -0.011851429 0.73200005
-0.046708573 -0.011851429 0.73200005
-0.045252383 -0.011835239 0.73100001
-0.043740004 -0.011802858 0.72900003
-0.042293336 -0.011786668 0.72800004
-0.040738098 -0.011738096 0.72500002
-0.039248575 -0.011705715 0.72300005
-0.03781905 -0.011689524 0.72200006
-0.036443811 -0.011689524 0.72200006
-0.034971431 -0.011657144 0.72000003
-0.033600003 -0.011657144 0.72000003
-0.032228574 -0.011657144 0.72000003
-0.030857146 -0.011657144 0.72000003
-0.029485716 -0.011657144 0.72000003
-0.028114287 -0.011657144 0.72000003
-0.026742859 -0.011657144 0.72000003
-0.02537143 -0.011657144 0.72000003
-0.023966668 -0.011640953 0.71900004
-0.022597143 -0.011640953 0.71900004
-0.021227621 -0.011640953 0.71900004
-0.019858096 -0.011640953 0.71900004
-0.018488573 -0.011640953 0.71900004
-0.017119048 -0.011640953 0.71900004
-0.01577143 -0.011657144 0.72000003
-0.014400001 -0.011657144 0.72000003
-0.013064763 -0.011689524 0.72200006
-0.011705715 -0.011705715 0.72300005
-0.010328572 -0.011705715 0.72300005
-0.0089761913 -0.011738096 0.72500002
-0.0075952387 -0.011738096 0.72500002
-0.0062142862 -0.011738096 0.72500002
-0.0048333337 -0.011738096 0.72500002
-0.003457143 -0.011754286 0.72600001
-0.0020800002 -0.011786668 0.72800004
-0.00069428579 -0.011802858 0.72900003
0.00069619052 -0.011835239 0.73100001
0.0020885717 -0.011835239 0.73100001
0.0034857146 -0.011851429 0.73200005
0.0049266671 -0.011964763 0.73900002
0.0063428576 -0.011980954 0.74000001
0.0077733337 -0.012013334 0.74200004
0.0091866674 -0.012013334 0.74200004
0.010600001 -0.012013334 0.74200004
0.012013334 -0.012013334 0.74200004
-0.054266669 -0.01057143 0.74000001
-0.052785717 -0.010557144 0.73900002
-0.051239051 -0.010528572 0.73700005
-0.049767621 -0.010514286 0.73600006
-0.048234288 -0.010485715 0.73400003
-0.046708573 -0.010457143 0.73200005
-0.045252383 -0.010442858 0.73100001
-0.043860003 -0.010442858 0.73100001
-0.042351432 -0.010414287 0.72900003
-0.040906668 -0.010400001 0.72800004
-0.039411429 -0.010371429 0.72600001
-0.037976194 -0.010357143 0.72500002
-0.036494289 -0.010328572 0.72300005
-0.035068575 -0.010314287 0.72200006
-0.033693336 -0.010314287 0.72200006
-0.032318097 -0.010314287 0.72200006
-0.030857146 -0.010285715 0.72000003
-0.029567622 -0.010314287 0.72200006
-0.028192382 -0.010314287 0.72200006
-0.026742859 -0.010285715 0.72000003
-0.02537143 -0.010285715 0.72000003
-0.024000002 -0.010285715 0.72000003
-0.022628574 -0.010285715 0.72000003
-0.021227621 -0.010271429 0.71900004
-0.019885715 -0.010285715 0.72000003
-0.018488573 -0.010271429 0.71900004
-0.017142858 -0.010285715 0.72000003
-0.01577143 -0.010285715 0.72000003
-0.014440001 -0.010314287 0.72200006
-0.013064763 -0.010314287 0.72200006
-0.011705715 -0.010328572 0.72300005
-0.010357143 -0.010357143 0.72500002
-0.0089761913 -0.010357143 0.72500002
-0.0075952387 -0.010357143 0.72500002
-0.0062142862 -0.010357143 0.72500002
-0.0048333337 -0.010357143 0.72500002
-0.003457143 -0.010371429 0.72600001
-0.0020800002 -0.010400001 0.72800004
-0.00069619052 -0.010442858 0.73100001
0.00069619052 -0.010442858 0.73100001
0.0020914287 -0.010457143 0.73200005
0.0034857146 -0.010457143 0.73200005
0.0049466668 -0.010600001 0.74200004
0.0063600005 -0.010600001 0.74200004
0.0077838101 -0.010614286 0.74300003
0.0091866674 -0.010600001 0.74200004
-0.055826671 -0.0091866674 0.74200004
-0.054413337 -0.0091866674 0.74200004
-0.052857146 -0.0091619054 0.74000001
-0.051378097 -0.0091495244 0.73900002
-0.049835242 -0.0091247624 0.73700005
-0.048365716 -0.0091123814 0.73600006
-0.046836194 -0.0090876194 0.73400003
-0.04531429 -0.0090628574 0.73200005
-0.043860003 -0.0090504764 0.73100001
-0.04246762 -0.0090504764 0.73100001
-0.04096286 -0.0090257153 0.72900003
-0.039574288 -0.0090257153 0.72900003
-0.038133334 -0.0090133343 0.72800004
-0.036645718 -0.0089885723 0.72600001
-0.035214286 -0.0089761913 0.72500002
-0.033833336 -0.0089761913 0.72500002
-0.032452382 -0.0089761913 0.72500002
-0.030985717 -0.0089514293 0.72300005
-0.029608574 -0.0089514293 0.72300005
-0.028231431 -0.0089514293 0.72300005
-0.026817145 -0.0089390483 0.72200006
-0.025441907 -0.0089390483 0.72200006
-0.024000002 -0.0089142863 0.72000003
-0.022628574 -0.0089142863 0.72000003
-0.021227621 -0.0089019053 0.71900004
-0.019885715 -0.0089142863 0.72000003
-0.018514287 -0.0089142863 0.72000003
-0.017142858 -0.0089142863 0.72000003
-0.01577143 -0.0089142863 0.72000003
-0.014440001 -0.0089390483 0.72200006
-0.013082858 -0.0089514293 0.72300005
-0.011738096 -0.0089761913 0.72500002
-0.010357143 -0.0089761913 0.72500002
-0.0089761913 -0.0089761913 0.72500002
-0.0075952387 -0.0089761913 0.72500002
-0.0062142862 -0.0089761913 0.72500002
-0.0048400005 -0.0089885723 0.72600001
-0.0034666669 -0.0090133343 0.72800004
-0.0020828573 -0.0090257153 0.72900003
-0.00069619052 -0.0090504764 0.73100001
0.00069714291 -0.0090628574 0.73200005
0.0020971431 -0.0090876194 0.73400003
0.003509524 -0.0091247624 0.73700005
0.0049466668 -0.0091866674 0.74200004
0.0063685719 -0.0091990484 0.74300003
0.0077838101 -0.0091990484 0.74300003
0.0091866674 -0.0091866674 0.74200004
-0.056052383 -0.0078047626 0.74500006
-0.054413337 -0.0077733337 0.74200004
-0.052857146 -0.0077523813 0.74000001
-0.051378097 -0.0077419053 0.73900002
-0.049835242 -0.0077209529 0.73700005
-0.048365716 -0.0077104769 0.73600006
-0.046963811 -0.0077104769 0.73600006
-0.0454381 -0.0076895244 0.73400003
-0.043920003 -0.007668572 0.73200005
-0.04246762 -0.0076580956 0.73100001
-0.041075241 -0.0076580956 0.73100001
-0.039682861 -0.0076580956 0.73100001
-0.038185716 -0.0076371431 0.72900003
-0.036645718 -0.0076057147 0.72600001
-0.03526286 -0.0076057147 0.72600001
-0.033833336 -0.0075952387 0.72500002
-0.032452382 -0.0075952387 0.72500002
-0.030985717 -0.0075742863 0.72300005
-0.029608574 -0.0075742863 0.72300005
-0.028231431 -0.0075742863 0.72300005
-0.026854288 -0.0075742863 0.72300005
-0.025477145 -0.0075742863 0.72300005
-0.024066668 -0.0075638099 0.72200006
-0.022691431 -0.0075638099 0.72200006
-0.021257143 -0.0075428574 0.72000003
-0.019885715 -0.0075428574 0.72000003
-0.018514287 -0.0075428574 0.72000003
-0.017190477 -0.0075638099 0.72200006
-0.015815239 -0.0075638099 0.72200006
-0.014460001 -0.0075742863 0.72300005
-0.013082858 -0.0075742863 0.72300005
-0.011738096 -0.0075952387 0.72500002
-0.010357143 -0.0075952387 0.72500002
-0.0089885723 -0.0076057147 0.72600001
-0.0076057147 -0.0076057147 0.72600001
-0.0062142862 -0.0075952387 0.72500002
-0.0048400005 -0.0076057147 0.72600001
-0.0034666669 -0.0076266672 0.72800004
-0.0020828573 -0.0076371431 0.72900003
-0.00069619052 -0.0076580956 0.73100001
0.00069714291 -0.007668572 0.73200005
0.0020914287 -0.007668572 0.73200005
0.0035333335 -0.0077733337 0.74200004
0.0049533336 -0.0077838101 0.74300003
0.0063685719 -0.0077838101 0.74300003
0.0077838101 -0.0077838101 0.74300003
0.0091866674 -0.0077733337 0.74200004
-0.056052383 -0.0063857147 0.74500006
-0.05448667 -0.0063685719 0.74300003
-0.053000003 -0.0063600005 0.74200004
-0.051586669 -0.0063600005 0.74200004
-0.049970478 -0.0063342862 0.73900002
-0.04843143 -0.0063171433 0.73700005
-0.046963811 -0.0063085719 0.73600006
-0.0454381 -0.006291429 0.73400003
-0.043920003 -0.0062742862 0.73200005
-0.042525716 -0.0062742862 0.73200005
-0.041131433 -0.0062742862 0.73200005
-0.039737146 -0.0062742862 0.73200005
-0.038290478 -0.0062657148 0.73100001
-0.036797144 -0.0062485719 0.72900003
-0.035360001 -0.0062400005 0.72800004
-0.033880003 -0.0062228576 0.72600001
-0.032452382 -0.0062142862 0.72500002
-0.03107143 -0.0062142862 0.72500002
-0.029690478 -0.0062142862 0.72500002
-0.028309526 -0.0062142862 0.72500002
-0.026928574 -0.0062142862 0.72500002
-0.02554762 -0.0062142862 0.72500002
-0.024166668 -0.0062142862 0.72500002
-0.022785716 -0.0062142862 0.72500002
-0.021345716 -0.0061971433 0.72300005
-0.020023812 -0.0062142862 0.72500002
-0.018642858 -0.0062142862 0.72500002
-0.017261906 -0.0062142862 0.72500002
-0.015880954 -0.0062142862 0.72500002
-0.014520001 -0.0062228576 0.72600001
-0.013137144 -0.0062228576 0.72600001
-0.011754286 -0.0062228576 0.72600001
-0.010371429 -0.0062228576 0.72600001
-0.0089885723 -0.0062228576 0.72600001
-0.0076266672 -0.0062400005 0.72800004
-0.0062228576 -0.0062228576 0.72600001
-0.0048533338 -0.0062400005 0.72800004
-0.0034714288 -0.0062485719 0.72900003
-0.0020828573 -0.0062485719 0.72900003
-0.00069714291 -0.0062742862 0.73200005
0.00069904764 -0.006291429 0.73400003
0.0020971431 -0.006291429 0.73400003
0.0035333335 -0.0063600005 0.74200004
0.0049533336 -0.0063685719 0.74300003
0.0063685719 -0.0063685719 0.74300003
0.0077838101 -0.0063685719 0.74300003
-0.056052383 -0.0049666669 0.74500006
-0.054633338 -0.0049666669 0.74500006
-0.052785717 -0.0049266671 0.73900002
-0.051586669 -0.0049466668 0.74200004
-0.050038099 -0.0049333335 0.74000001
-0.048562862 -0.0049266671 0.73900002
-0.047027621 -0.0049133338 0.73700005
-0.0454381 -0.0048933337 0.73400003
-0.044040002 -0.0048933337 0.73400003
-0.042525716 -0.0048800004 0.73200005
-0.041131433 -0.0048800004 0.73200005
-0.039737146 -0.0048800004 0.73200005
-0.038290478 -0.0048733335 0.73100001
-0.036898099 -0.0048733335 0.73100001
-0.035408575 -0.0048600002 0.72900003
-0.033880003 -0.0048400005 0.72600001
-0.032497145 -0.0048400005 0.72600001
-0.031114288 -0.0048400005 0.72600001
-0.02973143 -0.0048400005 0.72600001
-0.028309526 -0.0048333337 0.72500002
-0.026928574 -0.0048333337 0.72500002
-0.02554762 -0.0048333337 0.72500002
-0.024166668 -0.0048333337 0.72500002
-0.022785716 -0.0048333337 0.72500002
-0.021404764 -0.0048333337 0.72500002
-0.020023812 -0.0048333337 0.72500002
-0.018642858 -0.0048333337 0.72500002
-0.017261906 -0.0048333337 0.72500002
-0.015880954 -0.0048333337 0.72500002
-0.014520001 -0.0048400005 0.72600001
-0.013137144 -0.0048400005 0.72600001
-0.011786668 -0.0048533338 0.72800004
-0.010400001 -0.0048533338 0.72800004
-0.0090133343 -0.0048533338 0.72800004
-0.0076266672 -0.0048533338 0.72800004
-0.0062400005 -0.0048533338 0.72800004
-0.0048533338 -0.0048533338 0.72800004
-0.0034714288 -0.0048600002 0.72900003
-0.0020885717 -0.0048733335 0.73100001
-0.00069904764 -0.0048933337 0.73400003
0.00070190482 -0.0049133338 0.73700005
0.0021200001 -0.0049466668 0.74200004
0.0035380954 -0.0049533336 0.74300003
0.0049666669 -0.0049666669 0.74500006
0.0063857147 -0.0049666669 0.74500006
0.0077838101 -0.0049533336 0.74300003
-0.056052383 -0.0035476193 0.74500006
-0.054633338 -0.0035476193 0.74500006
-0.053000003 -0.0035333335 0.74200004
-0.051586669 -0.0035333335 0.74200004
-0.050038099 -0.0035238098 0.74000001
-0.048562862 -0.0035190478 0.73900002
-0.047027621 -0.003509524 0.73700005
-0.0454381 -0.0034952383 0.73400003
-0.044040002 -0.0034952383 0.73400003
-0.042641908 -0.0034952383 0.73400003
-0.041131433 -0.0034857146 0.73200005
-0.039737146 -0.0034857146 0.73200005
-0.03834286 -0.0034857146 0.73200005
-0.036898099 -0.0034809527 0.73100001
-0.035408575 -0.0034714288 0.72900003
-0.033973336 -0.0034666669 0.72800004
-0.032586668 -0.0034666669 0.72800004
-0.031114288 -0.003457143 0.72600001
-0.02973143 -0.003457143 0.72600001
-0.028348573 -0.003457143 0.72600001
-0.026965717 -0.003457143 0.72600001
-0.025582859 -0.003457143 0.72600001
-0.024200002 -0.003457143 0.72600001
-0.022817144 -0.003457143 0.72600001
-0.021404764 -0.0034523811 0.72500002
-0.020023812 -0.0034523811 0.72500002
-0.018668573 -0.003457143 0.72600001
-0.017285716 -0.003457143 0.72600001
-0.015902858 -0.003457143 0.72600001
-0.014560001 -0.0034666669 0.72800004
-0.013173334 -0.0034666669 0.72800004
-0.011786668 -0.0034666669 0.72800004
-0.010400001 -0.0034666669 0.72800004
-0.0090257153 -0.0034714288 0.72900003
-0.0076371431 -0.0034714288 0.72900003
-0.0062485719 -0.0034714288 0.72900003
-0.0048600002 -0.0034714288 0.72900003
-0.0034809527 -0.0034809527 0.73100001
-0.0020914287 -0.0034857146 0.73200005
-0.00070095243 -0.0035047622 0.73600006
0.00070380955 -0.0035190478 0.73900002
0.0021200001 -0.0035333335 0.74200004
0.0035380954 -0.0035380954 0.74300003
0.0049533336 -0.0035380954 0.74300003
0.0063857147 -0.0035476193 0.74500006
0.0077838101 -0.0035380954 0.74300003
-0.054780003 -0.0021342859 0.74700004
-0.053214289 -0.0021285715 0.74500006
-0.051656194 -0.0021228574 0.74300003
-0.050038099 -0.0021142859 0.74000001
-0.048628576 -0.0021142859 0.74000001
-0.047027621 -0.0021057145 0.73700005
-0.045561906 -0.0021028572 0.73600006
-0.044040002 -0.0020971431 0.73400003
-0.042641908 -0.0020971431 0.73400003
-0.041243814 -0.0020971431 0.73400003
-0.039737146 -0.0020914287 0.73200005
-0.03834286 -0.0020914287 0.73200005
-0.036898099 -0.0020885717 0.73100001
-0.035505716 -0.0020885717 0.73100001
-0.034020003 -0.0020828573 0.72900003
-0.032586668 -0.0020800002 0.72800004
-0.031200003 -0.0020800002 0.72800004
-0.029813336 -0.0020800002 0.72800004
-0.028348573 -0.0020742859 0.72600001
-0.026965717 -0.0020742859 0.72600001
-0.025582859 -0.0020742859 0.72600001
-0.024200002 -0.0020742859 0.72600001
-0.022817144 -0.0020742859 0.72600001
-0.021434287 -0.0020742859 0.72600001
-0.020051429 -0.0020742859 0.72600001
-0.018668573 -0.0020742859 0.72600001
-0.017285716 -0.0020742859 0.72600001
-0.015902858 -0.0020742859 0.72600001
-0.014560001 -0.0020800002 0.72800004
-0.013173334 -0.0020800002 0.72800004
-0.011802858 -0.0020828573 0.72900003
-0.010414287 -0.0020828573 0.72900003
-0.0090257153 -0.0020828573 0.72900003
-0.0076580956 -0.0020885717 0.73100001
-0.0062657148 -0.0020885717 0.73100001
-0.0048733335 -0.0020885717 0.73100001
-0.0034857146 -0.0020914287 0.73200005
-0.0020971431 -0.0020971431 0.73400003
-0.00070190482 -0.0021057145 0.73700005
0.00070380955 -0.0021114287 0.73900002
0.0021200001 -0.0021200001 0.74200004
0.0035380954 -0.0021228574 0.74300003
0.0049666669 -0.0021285715 0.74500006
0.0063685719 -0.0021228574 0.74300003
0.0077838101 -0.0021228574 0.74300003
-0.054853339 -0.00071238098 0.74800003
-0.053214289 -0.00070952385 0.74500006
-0.05179524 -0.00070952385 0.74500006
-0.050173335 -0.00070666673 0.74200004
-0.048628576 -0.00070476194 0.74000001
-0.047155242 -0.00070380955 0.73900002
-0.045623813 -0.00070190482 0.73700005
-0.044160005 -0.00070095243 0.73600006
-0.0427581 -0.00070095243 0.73600006
-0.041243814 -0.00069904764 0.73400003
-0.039845716 -0.00069904764 0.73400003
-0.03834286 -0.00069714291 0.73200005
-0.036948573 -0.00069714291 0.73200005
-0.035505716 -0.00069619052 0.73100001
-0.034113336 -0.00069619052 0.73100001
-0.032631431 -0.00069428579 0.72900003
-0.031242859 -0.00069428579 0.72900003
-0.029854288 -0.00069428579 0.72900003
-0.028426668 -0.00069333339 0.72800004
-0.027040001 -0.00069333339 0.72800004
-0.025653334 -0.00069333339 0.72800004
-0.024266668 -0.00069333339 0.72800004
-0.022880001 -0.00069333339 0.72800004
-0.021493334 -0.00069333339 0.72800004
-0.020106668 -0.00069333339 0.72800004
-0.018720001 -0.00069333339 0.72800004
-0.017333334 -0.00069333339 0.72800004
-0.015946668 -0.00069333339 0.72800004
-0.014580001 -0.00069428579 0.72900003
-0.01319143 -0.00069428579 0.72900003
-0.011835239 -0.00069619052 0.73100001
-0.010442858 -0.00069619052 0.73100001
-0.0090504764 -0.00069619052 0.73100001
-0.0076580956 -0.00069619052 0.73100001
-0.0062742862 -0.00069714291 0.73200005
-0.0048800004 -0.00069714291 0.73200005
-0.0034952383 -0.00069904764 0.73400003
-0.0021028572 -0.00070095243 0.73600006
-0.00070380955 -0.00070380955 0.73900002
0.00070476194 -0.00070476194 0.74000001
0.0021228574 -0.00070761907 0.74300003
0.0035476193 -0.00070952385 0.74500006
0.0049666669 -0.00070952385 0.74500006
0.0063857147 -0.00070952385 0.74500006
0.0078047626 -0.00070952385 0.74500006
-0.054780003 0.00071142864 0.74700004
-0.053357147 0.00071142864 0.74700004
-0.05179524 0.00070952385 0.74500006
-0.050173335 0.00070666673 0.74200004
-0.048760004 0.00070666673 0.74200004
-0.047155242 0.00070380955 0.73900002
-0.045747623 0.00070380955 0.73900002
-0.044160005 0.00070095243 0.73600006
-0.0427581 0.00070095243 0.73600006
-0.041356195 0.00070095243 0.73600006
-0.039845716 0.00069904764 0.73400003
-0.03834286 0.00069714291 0.73200005
-0.036948573 0.00069714291 0.73200005
-0.03555429 0.00069714291 0.73200005
-0.034113336 0.00069619052 0.73100001
-0.032720953 0.00069619052 0.73100001
-0.031328574 0.00069619052 0.73100001
-0.029854288 0.00069428579 0.72900003
-0.028465716 0.00069428579 0.72900003
-0.027077144 0.00069428579 0.72900003
-0.025688574 0.00069428579 0.72900003
-0.024300002 0.00069428579 0.72900003
-0.022911429 0.00069428579 0.72900003
-0.021522859 0.00069428579 0.72900003
-0.020106668 0.00069333339 0.72800004
-0.018745715 0.00069428579 0.72900003
-0.017357145 0.00069428579 0.72900003
-0.015968572 0.00069428579 0.72900003
-0.01462 0.00069619052 0.73100001
-0.01322762 0.00069619052 0.73100001
-0.011835239 0.00069619052 0.73100001
-0.010442858 0.00069619052 0.73100001
-0.0090628574 0.00069714291 0.73200005
-0.007668572 0.00069714291 0.73200005
-0.0062742862 0.00069714291 0.73200005
-0.0048933337 0.00069904764 0.73400003
-0.0035047622 0.00070095243 0.73600006
-0.0021057145 0.00070190482 0.73700005
-0.00070476194 0.00070476194 0.74000001
0.00070476194 0.00070476194 0.74000001
0.0021228574 0.00070761907 0.74300003
0.0035476193 0.00070952385 0.74500006
0.0049666669 0.00070952385 0.74500006
0.0063857147 0.00070952385 0.74500006
0.0078047626 0.00070952385 0.74500006
-0.055000003 0.0021428573 0.75000006
-0.053428575 0.0021371429 0.74800003
-0.051934291 0.0021342859 0.74700004
-0.050376195 0.0021285715 0.74500006
-0.048825718 0.0021228574 0.74300003
-0.047219049 0.0021142859 0.74000001
-0.045809526 0.0021142859 0.74000001
-0.044220004 0.0021057145 0.73700005
-0.042816192 0.0021057145 0.73700005
-0.041356195 0.0021028572 0.73600006
-0.03995429 0.0021028572 0.73600006
-0.038447622 0.0020971431 0.73400003
-0.037049524 0.0020971431 0.73400003
-0.03555429 0.0020914287 0.73200005
-0.034160003 0.0020914287 0.73200005
-0.032720953 0.0020885717 0.73100001
-0.031328574 0.0020885717 0.73100001
-0.029936193 0.0020885717 0.73100001
-0.028543811 0.0020885717 0.73100001
-0.02715143 0.0020885717 0.73100001
-0.025759049 0.0020885717 0.73100001
-0.024366667 0.0020885717 0.73100001
-0.022911429 0.0020828573 0.72900003
-0.021522859 0.0020828573 0.72900003
-0.020134287 0.0020828573 0.72900003
-0.018745715 0.0020828573 0.72900003
-0.017357145 0.0020828573 0.72900003
-0.016012382 0.0020885717 0.73100001
-0.01462 0.0020885717 0.73100001
-0.013245715 0.0020914287 0.73200005
-0.011851429 0.0020914287 0.73200005
-0.010457143 0.0020914287 0.73200005
-0.0090876194 0.0020971431 0.73400003
-0.0076895244 0.0020971431 0.73400003
-0.0063085719 0.0021028572 0.73600006
-0.0049066669 0.0021028572 0.73600006
-0.003509524 0.0021057145 0.73700005
-0.0021114287 0.0021114287 0.73900002
-0.00070476194 0.0021142859 0.74000001
0.00070666673 0.0021200001 0.74200004
0.0021228574 0.0021228574 0.74300003
0.0035476193 0.0021285715 0.74500006
0.0049666669 0.0021285715 0.74500006
0.0063857147 0.0021285715 0.74500006
0.0078257145 0.0021342859 0.74700004
-0.055220004 0.0035857146 0.75300002
-0.053571433 0.0035714288 0.75000006
-0.051934291 0.003557143 0.74700004
-0.050376195 0.0035476193 0.74500006
-0.048825718 0.0035380954 0.74300003
-0.04734667 0.0035333335 0.74200004
-0.045809526 0.0035238098 0.74000001
-0.044340003 0.0035190478 0.73900002
-0.042816192 0.003509524 0.73700005
-0.041412383 0.003509524 0.73700005
-0.03995429 0.0035047622 0.73600006
-0.038447622 0.0034952383 0.73400003
-0.037049524 0.0034952383 0.73400003
-0.03555429 0.0034857146 0.73200005
-0.034160003 0.0034857146 0.73200005
-0.032765716 0.0034857146 0.73200005
-0.03137143 0.0034857146 0.73200005
-0.029936193 0.0034809527 0.73100001
-0.028543811 0.0034809527 0.73100001
-0.02715143 0.0034809527 0.73100001
-0.025759049 0.0034809527 0.73100001
-0.024366667 0.0034809527 0.73100001
-0.022974288 0.0034809527 0.73100001
-0.021522859 0.0034714288 0.72900003
-0.020189526 0.0034809527 0.73100001
-0.018797144 0.0034809527 0.73100001
-0.017404763 0.0034809527 0.73100001
-0.016012382 0.0034809527 0.73100001
-0.014640001 0.0034857146 0.73200005
-0.013245715 0.0034857146 0.73200005
-0.011851429 0.0034857146 0.73200005
-0.010485715 0.0034952383 0.73400003
-0.0090876194 0.0034952383 0.73400003
-0.0077104769 0.0035047622 0.73600006
-0.0063085719 0.0035047622 0.73600006
-0.0049133338 0.003509524 0.73700005
-0.0035190478 0.0035190478 0.73900002
-0.0021114287 0.0035190478 0.73900002
-0.00070476194 0.0035238098 0.74000001
0.00070476194 0.0035238098 0.74000001
0.0021228574 0.0035380954 0.74300003
0.0035476193 0.0035476193 0.74500006
0.0049666669 0.0035476193 0.74500006
0.0063857147 0.0035476193 0.74500006
0.0078047626 0.0035476193 0.74500006
-0.055366669 0.0050333338 0.75500005
-0.053785719 0.0050200005 0.75300002
-0.052142862 0.0050000004 0.75000006
-0.050714288 0.0050000004 0.75000006
-0.048825718 0.0049533336 0.74300003
-0.04734667 0.0049466668 0.74200004
-0.045809526 0.0049333335 0.74000001
-0.044340003 0.0049266671 0.73900002
-0.042932384 0.0049266671 0.73900002
-0.041412383 0.0049133338 0.73700005
-0.040008575 0.0049133338 0.73700005
-0.038447622 0.0048933337 0.73400003
-0.037049524 0.0048933337 0.73400003
-0.03555429 0.0048800004 0.73200005
-0.034160003 0.0048800004 0.73200005
-0.032765716 0.0048800004 0.73200005
-0.03137143 0.0048800004 0.73200005
-0.029977145 0.0048800004 0.73200005
-0.02858286 0.0048800004 0.73200005
-0.027188573 0.0048800004 0.73200005
-0.025794288 0.0048800004 0.73200005
-0.024400001 0.0048800004 0.73200005
-0.023005717 0.0048800004 0.73200005
-0.021581907 0.0048733335 0.73100001
-0.020189526 0.0048733335 0.73100001
-0.018797144 0.0048733335 0.73100001
-0.017428573 0.0048800004 0.73200005
-0.016034286 0.0048800004 0.73200005
-0.014640001 0.0048800004 0.73200005
-0.013281906 0.0048933337 0.73400003
-0.01188381 0.0048933337 0.73400003
-0.010514286 0.0049066669 0.73600006
-0.0091123814 0.0049066669 0.73600006
-0.0077104769 0.0049066669 0.73600006
-0.0063171433 0.0049133338 0.73700005
-0.0049133338 0.0049133338 0.73700005
-0.0035190478 0.0049266671 0.73900002
-0.0021142859 0.0049333335 0.74000001
-0.00070666673 0.0049466668 0.74200004
0.00070666673 0.0049466668 0.74200004
0.0021285715 0.0049666669 0.74500006
0.0035476193 0.0049666669 0.74500006
0.0049666669 0.0049666669 0.74500006
0.0064028576 0.0049800002 0.74700004
0.0078257145 0.0049800002 0.74700004
0.0092485724 0.0049800002 0.74700004
-0.053785719 0.0064542862 0.75300002
-0.052281909 0.0064457147 0.75200003
-0.050849527 0.0064457147 0.75200003
-0.048825718 0.0063685719 0.74300003
-0.04734667 0.0063600005 0.74200004
-0.045933336 0.0063600005 0.74200004
-0.044400003 0.0063428576 0.74000001
-0.042932384 0.0063342862 0.73900002
-0.041412383 0.0063171433 0.73700005
-0.040008575 0.0063171433 0.73700005
-0.038552385 0.0063085719 0.73600006
-0.037049524 0.006291429 0.73400003
-0.03565143 0.006291429 0.73400003
-0.034253336 0.006291429 0.73400003
-0.032765716 0.0062742862 0.73200005
-0.03137143 0.0062742862 0.73200005
-0.029977145 0.0062742862 0.73200005
-0.02858286 0.0062742862 0.73200005
-0.027188573 0.0062742862 0.73200005
-0.025794288 0.0062742862 0.73200005
-0.024400001 0.0062742862 0.73200005
-0.023005717 0.0062742862 0.73200005
-0.02161143 0.0062742862 0.73200005
-0.020217145 0.0062742862 0.73200005
-0.018822858 0.0062742862 0.73200005
-0.017428573 0.0062742862 0.73200005
-0.016034286 0.0062742862 0.73200005
-0.014680001 0.006291429 0.73400003
-0.013281906 0.006291429 0.73400003
-0.011916191 0.0063085719 0.73600006
-0.010514286 0.0063085719 0.73600006
-0.0091247624 0.0063171433 0.73700005
-0.0077209529 0.0063171433 0.73700005
-0.0063171433 0.0063171433 0.73700005
-0.0049266671 0.0063342862 0.73900002
-0.0035238098 0.0063428576 0.74000001
-0.0021142859 0.0063428576 0.74000001
-0.00070761907 0.0063685719 0.74300003
0.00070761907 0.0063685719 0.74300003
0.0021342859 0.0064028576 0.74700004
0.003557143 0.0064028576 0.74700004
0.0049800002 0.0064028576 0.74700004
0.006411429 0.006411429 0.74800003
0.0078047626 0.0063857147 0.74500006
0.0091866674 0.0063600005 0.74200004
-0.053785719 0.0078885723 0.75300002
-0.052281909 0.0078780958 0.75200003
-0.050849527 0.0078780958 0.75200003
-0.048957147 0.0078047626 0.74500006
-0.047410481 0.0077838101 0.74300003
-0.045995243 0.0077838101 0.74300003
-0.044520002 0.0077733337 0.74200004
-0.04299048 0.0077523813 0.74000001
-0.041524764 0.0077419053 0.73900002
-0.040117145 0.0077419053 0.73900002
-0.038604766 0.0077209529 0.73700005
-0.03715048 0.0077104769 0.73600006
-0.03565143 0.0076895244 0.73400003
-0.034253336 0.0076895244 0.73400003
-0.032855239 0.0076895244 0.73400003
-0.031457145 0.0076895244 0.73400003
-0.030059049 0.0076895244 0.73400003
-0.028660955 0.0076895244 0.73400003
-0.027262859 0.0076895244 0.73400003
-0.025864763 0.0076895244 0.73400003
-0.024466669 0.0076895244 0.73400003
-0.023068573 0.0076895244 0.73400003
-0.02161143 0.007668572 0.73200005
-0.020217145 0.007668572 0.73200005
-0.018822858 0.007668572 0.73200005
-0.017428573 0.007668572 0.73200005
-0.016078096 0.0076895244 0.73400003
-0.014680001 0.0076895244 0.73400003
-0.013318096 0.0077104769 0.73600006
-0.011916191 0.0077104769 0.73600006
-0.010528572 0.0077209529 0.73700005
-0.0091247624 0.0077209529 0.73700005
-0.0077209529 0.0077209529 0.73700005
-0.0063171433 0.0077209529 0.73700005
-0.0049266671 0.0077419053 0.73900002
-0.0035238098 0.0077523813 0.74000001
-0.0021200001 0.0077733337 0.74200004
-0.00070761907 0.0077838101 0.74300003
0.00070952385 0.0078047626 0.74500006
0.0021371429 0.007836191 0.74800003
0.0035619049 0.007836191 0.74800003
0.0049866671 0.007836191 0.74800003
0.0063857147 0.0078047626 0.74500006
0.0078047626 0.0078047626 0.74500006
-0.054000005 0.0093600005 0.75600004
-0.052560002 0.0093600005 0.75600004
-0.051120002 0.0093600005 0.75600004
-0.049614288 0.0093476195 0.75500005
-0.047857147 0.0092857145 0.75000006
-0.046242859 0.0092485724 0.74700004
-0.044700004 0.0092238104 0.74500006
-0.043164764 0.0091990484 0.74300003
-0.041580956 0.0091619054 0.74000001
-0.04017143 0.0091619054 0.74000001
-0.038709525 0.0091495244 0.73900002
-0.037200954 0.0091247624 0.73700005
-0.035797145 0.0091247624 0.73700005
-0.034393337 0.0091247624 0.73700005
-0.032944765 0.0091123814 0.73600006
-0.03154286 0.0091123814 0.73600006
-0.030140955 0.0091123814 0.73600006
-0.02873905 0.0091123814 0.73600006
-0.027337145 0.0091123814 0.73600006
-0.02593524 0.0091123814 0.73600006
-0.024466669 0.0090876194 0.73400003
-0.023068573 0.0090876194 0.73400003
-0.021670477 0.0090876194 0.73400003
-0.020272382 0.0090876194 0.73400003
-0.018874288 0.0090876194 0.73400003
-0.017476192 0.0090876194 0.73400003
-0.016078096 0.0090876194 0.73400003
-0.014720001 0.0091123814 0.73600006
-0.013318096 0.0091123814 0.73600006
-0.011932381 0.0091247624 0.73700005
-0.010528572 0.0091247624 0.73700005
-0.0091495244 0.0091495244 0.73900002
-0.0077419053 0.0091495244 0.73900002
-0.0063342862 0.0091495244 0.73900002
-0.0049466668 0.0091866674 0.74200004
-0.0035380954 0.0091990484 0.74300003
-0.0021228574 0.0091990484 0.74300003
-0.00070952385 0.0092238104 0.74500006
0.00071238098 0.0092609534 0.74800003
0.0021428573 0.0092857145 0.75000006
0.0035619049 0.0092609534 0.74800003
0.0050000004 0.0092857145 0.75000006
0.0064285719 0.0092857145 0.75000006
-0.05703048 0.010828572 0.75800002
-0.05558667 0.010828572 0.75800002
-0.054000005 0.0108 0.75600004
-0.052560002 0.0108 0.75600004
-0.051052384 0.010785715 0.75500005
-0.049614288 0.010785715 0.75500005
-0.047984764 0.010742858 0.75200003
-0.046304766 0.010685715 0.74800003
-0.044820003 0.010671429 0.74700004
-0.043280955 0.010642858 0.74500006
-0.041693337 0.010600001 0.74200004
-0.04017143 0.01057143 0.74000001
-0.038761906 0.01057143 0.74000001
-0.037301905 0.010557144 0.73900002
-0.035797145 0.010528572 0.73700005
-0.034393337 0.010528572 0.73700005
-0.032944765 0.010514286 0.73600006
-0.031585716 0.010528572 0.73700005
-0.030140955 0.010514286 0.73600006
-0.02873905 0.010514286 0.73600006
-0.027374288 0.010528572 0.73700005
-0.025970478 0.010528572 0.73700005
-0.024533335 0.010514286 0.73600006
-0.02313143 0.010514286 0.73600006
-0.021729525 0.010514286 0.73600006
-0.02032762 0.010514286 0.73600006
-0.018874288 0.010485715 0.73400003
-0.01752381 0.010514286 0.73600006
-0.016121905 0.010514286 0.73600006
-0.014720001 0.010514286 0.73600006
-0.013336191 0.010528572 0.73700005
-0.011932381 0.010528572 0.73700005
-0.010557144 0.010557144 0.73900002
-0.0091495244 0.010557144 0.73900002
-0.0077419053 0.010557144 0.73900002
-0.0063428576 0.01057143 0.74000001
-0.0049533336 0.010614286 0.74300003
-0.0035380954 0.010614286 0.74300003
-0.0021285715 0.010642858 0.74500006
-0.00071142864 0.010671429 0.74700004
0.00071428576 0.010714286 0.75000006
0.0021428573 0.010714286 0.75000006
0.0035714288 0.010714286 0.75000006
0.0050000004 0.010714286 0.75000006
-0.05558667 0.012272382 0.75800002
-0.054000005 0.012240001 0.75600004
-0.052560002 0.012240001 0.75600004
-0.051120002 0.012240001 0.75600004
-0.049614288 0.01222381 0.75500005
-0.048048574 0.01219143 0.75300002
-0.046428576 0.012142858 0.75000006
-0.044820003 0.012094286 0.74700004
-0.043280955 0.012061905 0.74500006
-0.041749526 0.012029525 0.74300003
-0.040280003 0.012013334 0.74200004
-0.038761906 0.011980954 0.74000001
-0.037301905 0.011964763 0.73900002
-0.03589429 0.011964763 0.73900002
-0.03448667 0.011964763 0.73900002
-0.032989524 0.011932381 0.73700005
-0.031585716 0.011932381 0.73700005
-0.030181907 0.011932381 0.73700005
-0.028778097 0.011932381 0.73700005
-0.027374288 0.011932381 0.73700005
-0.025970478 0.011932381 0.73700005
-0.024533335 0.011916191 0.73600006
-0.02313143 0.011916191 0.73600006
-0.021729525 0.011916191 0.73600006
-0.02032762 0.011916191 0.73600006
-0.018925715 0.011916191 0.73600006
-0.01752381 0.011916191 0.73600006
-0.016121905 0.011916191 0.73600006
-0.014740001 0.011932381 0.73700005
-0.013336191 0.011932381 0.73700005
-0.011964763 0.011964763 0.73900002
-0.010557144 0.011964763 0.73900002
-0.0091495244 0.011964763 0.73900002
-0.0077523813 0.011980954 0.74000001
-0.0063600005 0.012013334 0.74200004
-0.0049533336 0.012029525 0.74300003
-0.0035476193 0.012061905 0.74500006
-0.0021342859 0.012094286 0.74700004
-0.00071238098 0.012110477 0.74800003
0.00071428576 0.012142858 0.75000006
0.0021428573 0.012142858 0.75000006
0.0035714288 0.012142858 0.75000006
0.0050133336 0.012175239 0.75200003
0.0064457147 0.012175239 0.75200003
-0.05558667 0.013716191 0.75800002
-0.054000005 0.013680001 0.75600004
-0.052560002 0.013680001 0.75600004
-0.051052384 0.013661906 0.75500005
-0.049614288 0.013661906 0.75500005
-0.048048574 0.013625715 0.75300002
-0.046552382 0.01360762 0.75200003
-0.045000002 0.013571429 0.75000006
-0.043397147 0.013517144 0.74700004
-0.041861907 0.013480953 0.74500006
-0.040334288 0.013444763 0.74300003
-0.038866669 0.013426668 0.74200004
-0.037453335 0.013426668 0.74200004
-0.03594286 0.013390477 0.74000001
-0.03448667 0.013372382 0.73900002
-0.03307905 0.013372382 0.73900002
-0.031671431 0.013372382 0.73900002
-0.030181907 0.013336191 0.73700005
-0.028778097 0.013336191 0.73700005
-0.027374288 0.013336191 0.73700005
-0.025970478 0.013336191 0.73700005
-0.024566669 0.013336191 0.73700005
-0.023162859 0.013336191 0.73700005
-0.021729525 0.013318096 0.73600006
-0.02035524 0.013336191 0.73700005
-0.018951429 0.013336191 0.73700005
-0.01754762 0.013336191 0.73700005
-0.01614381 0.013336191 0.73700005
-0.014740001 0.013336191 0.73700005
-0.013372382 0.013372382 0.73900002
-0.011964763 0.013372382 0.73900002
-0.01057143 0.013390477 0.74000001
-0.0091619054 0.013390477 0.74000001
-0.0077733337 0.013426668 0.74200004
-0.0063685719 0.013444763 0.74300003
-0.0049666669 0.013480953 0.74500006
-0.0035476193 0.013480953 0.74500006
-0.0021371429 0.013535239 0.74800003
-0.00071238098 0.013535239 0.74800003
0.00071428576 0.013571429 0.75000006
0.0021485717 0.01360762 0.75200003
0.0035809525 0.01360762 0.75200003
0.0050133336 0.01360762 0.75200003
0.0064542862 0.013625715 0.75300002
0.0078885723 0.013625715 0.75300002
-0.055440005 0.015120001 0.75600004
-0.054000005 0.015120001 0.75600004
-0.052560002 0.015120001 0.75600004
-0.051052384 0.015100001 0.75500005
-0.049614288 0.015100001 0.75500005
-0.048048574 0.015060001 0.75300002
-0.046552382 0.015040001 0.75200003
-0.045000002 0.015000001 0.75000006
-0.043397147 0.014940001 0.74700004
-0.041861907 0.014900001 0.74500006
-0.040334288 0.014860001 0.74300003
-0.03891905 0.014860001 0.74300003
-0.037453335 0.014840001 0.74200004
-0.036040001 0.014840001 0.74200004
-0.034533337 0.014800001 0.74000001
-0.03312381 0.014800001 0.74000001
-0.031671431 0.014780001 0.73900002
-0.030263811 0.014780001 0.73900002
-0.028856192 0.014780001 0.73900002
-0.027448574 0.014780001 0.73900002
-0.026040955 0.014780001 0.73900002
-0.024633335 0.014780001 0.73900002
-0.023225715 0.014780001 0.73900002
-0.02175905 0.014740001 0.73700005
-0.020410478 0.014780001 0.73900002
-0.019002859 0.014780001 0.73900002
-0.017595239 0.014780001 0.73900002
-0.016187619 0.014780001 0.73900002
-0.014780001 0.014780001 0.73900002
-0.013372382 0.014780001 0.73900002
-0.011980954 0.014800001 0.74000001
-0.01057143 0.014800001 0.74000001
-0.0091866674 0.014840001 0.74200004
-0.0077733337 0.014840001 0.74200004
-0.0063685719 0.014860001 0.74300003
-0.0049666669 0.014900001 0.74500006
-0.003557143 0.014940001 0.74700004
-0.0021371429 0.014960001 0.74800003
-0.00071428576 0.015000001 0.75000006
0.00071619055 0.015040001 0.75200003
0.0021514287 0.015060001 0.75300002
0.0035857146 0.015060001 0.75300002
0.0050333338 0.015100001 0.75500005
0.0064971433 0.015160001 0.75800002
0.0079619056 0.015200001 0.76000005
-0.055440005 0.016560001 0.75600004
-0.054000005 0.016560001 0.75600004
-0.052560002 0.016560001 0.75600004
-0.051052384 0.016538097 0.75500005
-0.049614288 0.016538097 0.75500005
-0.048048574 0.016494287 0.75300002
-0.046552382 0.016472382 0.75200003
-0.045000002 0.016428573 0.75000006
-0.043455239 0.016384764 0.74800003
-0.041861907 0.01631905 0.74500006
-0.040442862 0.01631905 0.74500006
-0.03891905 0.016275238 0.74300003
-0.037453335 0.016253334 0.74200004
-0.036040001 0.016253334 0.74200004
-0.034533337 0.016209524 0.74000001
-0.03312381 0.016209524 0.74000001
-0.031714287 0.016209524 0.74000001
-0.030263811 0.016187619 0.73900002
-0.028856192 0.016187619 0.73900002
-0.027485715 0.016209524 0.74000001
-0.026040955 0.016187619 0.73900002
-0.024633335 0.016187619 0.73900002
-0.023225715 0.016187619 0.73900002
-0.021818096 0.016187619 0.73900002
-0.020410478 0.016187619 0.73900002
-0.019002859 0.016187619 0.73900002
-0.017619049 0.016209524 0.74000001
-0.016187619 0.016187619 0.73900002
-0.014800001 0.016209524 0.74000001
-0.013390477 0.016209524 0.74000001
-0.012013334 0.016253334 0.74200004
-0.010600001 0.016253334 0.74200004
-0.0091866674 0.016253334 0.74200004
-0.0077838101 0.016275238 0.74300003
-0.0063685719 0.016275238 0.74300003
-0.0049666669 0.01631905 0.74500006
-0.003557143 0.016362859 0.74700004
-0.0021371429 0.016384764 0.74800003
-0.00071428576 0.016428573 0.75000006
0.00071619055 0.016472382 0.75200003
0.0021514287 0.016494287 0.75300002
0.0035952383 0.016538097 0.75500005
0.0050400002 0.016560001 0.75600004
0.0064971433 0.016603811 0.75800002
0.0079619056 0.01664762 0.76000005
-0.055440005 0.018000001 0.75600004
-0.054000005 0.018000001 0.75600004
-0.052560002 0.018000001 0.75600004
-0.051120002 0.018000001 0.75600004
-0.049680002 0.018000001 0.75600004
-0.048176195 0.017976191 0.75500005
-0.046552382 0.017904762 0.75200003
-0.045000002 0.017857144 0.75000006
-0.043455239 0.017809525 0.74800003
-0.041974287 0.017785715 0.74700004
-0.040551431 0.017785715 0.74700004
-0.039023813 0.017738096 0.74500006
-0.037503812 0.017690478 0.74300003
-0.036088575 0.017690478 0.74300003
-0.03462667 0.017666668 0.74200004
-0.033213336 0.017666668 0.74200004
-0.031800002 0.017666668 0.74200004
-0.030304763 0.017619049 0.74000001
-0.02889524 0.017619049 0.74000001
-0.027485715 0.017619049 0.74000001
-0.026076192 0.017619049 0.74000001
-0.024666669 0.017619049 0.74000001
-0.023320001 0.017666668 0.74200004
-0.021847621 0.017619049 0.74000001
-0.020493334 0.017666668 0.74200004
-0.019028572 0.017619049 0.74000001
-0.017666668 0.017666668 0.74200004
-0.016253334 0.017666668 0.74200004
-0.014840001 0.017666668 0.74200004
-0.013426668 0.017666668 0.74200004
-0.012013334 0.017666668 0.74200004
-0.010614286 0.017690478 0.74300003
-0.0091990484 0.017690478 0.74300003
-0.0077838101 0.017690478 0.74300003
-0.0063857147 0.017738096 0.74500006
-0.0049800002 0.017785715 0.74700004
-0.003557143 0.017785715 0.74700004
-0.0021371429 0.017809525 0.74800003
-0.00071428576 0.017857144 0.75000006
0.00071619055 0.017904762 0.75200003
0.0021571431 0.017976191 0.75500005
0.0035952383 0.017976191 0.75500005
0.0050533335 0.01804762 0.75800002
0.0065142862 0.01809524 0.76000005
-0.054142863 0.01949143 0.75800002
-0.052699052 0.01949143 0.75800002
-0.051120002 0.019440001 0.75600004
-0.049680002 0.019440001 0.75600004
-0.048176195 0.019414287 0.75500005
-0.046614289 0.019362858 0.75300002
-0.045120005 0.019337144 0.75200003
-0.043571431 0.019285716 0.75000006
-0.04203048 0.019234287 0.74800003
-0.040551431 0.019208573 0.74700004
-0.039023813 0.019157143 0.74500006
-0.037604764 0.019157143 0.74500006
-0.036088575 0.019105716 0.74300003
-0.034673337 0.019105716 0.74300003
-0.033258099 0.019105716 0.74300003
-0.031800002 0.019080002 0.74200004
-0.03038667 0.019080002 0.74200004
-0.029012382 0.019105716 0.74300003
-0.027560001 0.019080002 0.74200004
-0.026181906 0.019105716 0.74300003
-0.024766669 0.019105716 0.74300003
-0.023351431 0.019105716 0.74300003
-0.021936191 0.019105716 0.74300003
-0.020493334 0.019080002 0.74200004
-0.019080002 0.019080002 0.74200004
-0.017666668 0.019080002 0.74200004
-0.016275238 0.019105716 0.74300003
-0.014860001 0.019105716 0.74300003
-0.013426668 0.019080002 0.74200004
-0.012029525 0.019105716 0.74300003
-0.010614286 0.019105716 0.74300003
-0.0092238104 0.019157143 0.74500006
-0.0078047626 0.019157143 0.74500006
-0.0063857147 0.019157143 0.74500006
-0.0049800002 0.019208573 0.74700004
-0.0035619049 0.019234287 0.74800003
-0.0021428573 0.019285716 0.75000006
-0.00071619055 0.019337144 0.75200003
0.00071714289 0.019362858 0.75300002
0.0021600001 0.019440001 0.75600004
0.0036095241 0.01949143 0.75800002
0.0050666672 0.019542858 0.76000005
0.0065228576 0.019568572 0.76100004
-0.052699052 0.020935239 0.75800002
-0.051255241 0.020935239 0.75800002
-0.04981143 0.020935239 0.75800002
-0.048240002 0.020880001 0.75600004
-0.046614289 0.020797145 0.75300002
-0.045120005 0.020769525 0.75200003
-0.043571431 0.020714287 0.75000006
-0.04203048 0.020659048 0.74800003
-0.040605716 0.020659048 0.74800003
-0.039128575 0.020631431 0.74700004
-0.037604764 0.020576192 0.74500006
-0.036185715 0.020576192 0.74500006
-0.034673337 0.020520953 0.74300003
-0.033258099 0.020520953 0.74300003
-0.031842858 0.020520953 0.74300003
-0.030427622 0.020520953 0.74300003
-0.029012382 0.020520953 0.74300003
-0.027597144 0.020520953 0.74300003
-0.026181906 0.020520953 0.74300003
-0.024766669 0.020520953 0.74300003
-0.023351431 0.020520953 0.74300003
-0.021936191 0.020520953 0.74300003
-0.020520953 0.020520953 0.74300003
-0.019080002 0.020493334 0.74200004
-0.017690478 0.020520953 0.74300003
-0.016275238 0.020520953 0.74300003
-0.014860001 0.020520953 0.74300003
-0.013444763 0.020520953 0.74300003
-0.012029525 0.020520953 0.74300003
-0.010614286 0.020520953 0.74300003
-0.0092238104 0.020576192 0.74500006
-0.0078047626 0.020576192 0.74500006
-0.0064028576 0.020631431 0.74700004
-0.0049866671 0.020659048 0.74800003
-0.0035714288 0.020714287 0.75000006
-0.0021485717 0.020769525 0.75200003
-0.00071714289 0.020797145 0.75300002
0.00072000007 0.020880001 0.75600004
0.0021600001 0.020880001 0.75600004
0.0036095241 0.020935239 0.75800002
0.0050666672 0.020990478 0.76000005
-0.052838098 0.022438096 0.76000005
-0.05139048 0.022438096 0.76000005
-0.04981143 0.022379048 0.75800002
-0.048367623 0.022379048 0.75800002
-0.046738099 0.022290478 0.75500005
-0.045180004 0.02223143 0.75300002
-0.043571431 0.022142859 0.75000006
-0.042142861 0.022142859 0.75000006
-0.040605716 0.022083811 0.74800003
-0.039128575 0.022054287 0.74700004
-0.037705716 0.022054287 0.74700004
-0.036185715 0.021995239 0.74500006
-0.03476667 0.021995239 0.74500006
-0.033347622 0.021995239 0.74500006
-0.031928573 0.021995239 0.74500006
-0.030427622 0.021936191 0.74300003
-0.029012382 0.021936191 0.74300003
-0.027597144 0.021936191 0.74300003
-0.026252383 0.021995239 0.74500006
-0.024833335 0.021995239 0.74500006
-0.023414288 0.021995239 0.74500006
-0.021995239 0.021995239 0.74500006
-0.020576192 0.021995239 0.74500006
-0.019105716 0.021936191 0.74300003
-0.017690478 0.021936191 0.74300003
-0.01631905 0.021995239 0.74500006
-0.014900001 0.021995239 0.74500006
-0.013444763 0.021936191 0.74300003
-0.012061905 0.021995239 0.74500006
-0.010642858 0.021995239 0.74500006
-0.0092485724 0.022054287 0.74700004
-0.0078257145 0.022054287 0.74700004
-0.0064028576 0.022054287 0.74700004
-0.0049866671 0.022083811 0.74800003
-0.0035809525 0.022201907 0.75200003
-0.0021514287 0.02223143 0.75300002
-0.00071904768 0.022290478 0.75500005
0.0007219048 0.022379048 0.75800002
0.0021657145 0.022379048 0.75800002
0.0036095241 0.022379048 0.75800002
0.0050666672 0.022438096 0.76000005
-0.051458098 0.023917144 0.76100004
-0.049942862 0.023885716 0.76000005
-0.048495241 0.023885716 0.76000005
-0.046923812 0.023822859 0.75800002
-0.045360003 0.023760002 0.75600004
-0.043745719 0.023665715 0.75300002
-0.042255241 0.023634287 0.75200003
-0.04071429 0.02357143 0.75000006
-0.039180957 0.023508573 0.74800003
-0.037756193 0.023508573 0.74800003
-0.03633143 0.023508573 0.74800003
-0.03490667 0.023508573 0.74800003
-0.033437144 0.023477145 0.74700004
-0.032014288 0.023477145 0.74700004
-0.03059143 0.023477145 0.74700004
-0.029090479 0.023414288 0.74500006
-0.02767143 0.023414288 0.74500006
-0.026252383 0.023414288 0.74500006
-0.024833335 0.023414288 0.74500006
-0.023414288 0.023414288 0.74500006
-0.021995239 0.023414288 0.74500006
-0.020576192 0.023414288 0.74500006
-0.019157143 0.023414288 0.74500006
-0.017738096 0.023414288 0.74500006
-0.01631905 0.023414288 0.74500006
-0.014900001 0.023414288 0.74500006
-0.013517144 0.023477145 0.74700004
-0.012094286 0.023477145 0.74700004
-0.010671429 0.023477145 0.74700004
-0.0092609534 0.023508573 0.74800003
-0.0078571429 0.02357143 0.75000006
-0.0064285719 0.02357143 0.75000006
-0.0050133336 0.023634287 0.75200003
-0.0035857146 0.023665715 0.75300002
-0.0021600001 0.023760002 0.75600004
-0.0007219048 0.023822859 0.75800002
0.0007219048 0.023822859 0.75800002
0.0021657145 0.023822859 0.75800002
0.0036190478 0.023885716 0.76000005
0.0050666672 0.023885716 0.76000005
-0.051593337 0.025433335 0.76300001
-0.050140005 0.025433335 0.76300001
-0.048559051 0.025366668 0.76100004
-0.047109526 0.025366668 0.76100004
-0.045480002 0.025266668 0.75800002
-0.043861907 0.025166668 0.75500005
-0.042255241 0.025066668 0.75200003
-0.04082286 0.025066668 0.75200003
-0.039285716 0.025000002 0.75000006
-0.037857145 0.025000002 0.75000006
-0.036428574 0.025000002 0.75000006
-0.03490667 0.024933334 0.74800003
-0.033481907 0.024933334 0.74800003
-0.032057144 0.024933334 0.74800003
-0.030632382 0.024933334 0.74800003
-0.029168574 0.024900002 0.74700004
-0.027745716 0.024900002 0.74700004
-0.026252383 0.024833335 0.74500006
-0.024833335 0.024833335 0.74500006
-0.023414288 0.024833335 0.74500006
-0.021995239 0.024833335 0.74500006
-0.020576192 0.024833335 0.74500006
-0.019157143 0.024833335 0.74500006
-0.017738096 0.024833335 0.74500006
-0.016362859 0.024900002 0.74700004
-0.014940001 0.024900002 0.74700004
-0.013517144 0.024900002 0.74700004
-0.012094286 0.024900002 0.74700004
-0.010685715 0.024933334 0.74800003
-0.0092857145 0.025000002 0.75000006
-0.0078571429 0.025000002 0.75000006
-0.0064457147 0.025066668 0.75200003
-0.0050200005 0.025100002 0.75300002
-0.0035952383 0.025166668 0.75500005
-0.0021600001 0.025200002 0.75600004
-0.0007219048 0.025266668 0.75800002
0.0007219048 0.025266668 0.75800002
0.0021657145 0.025266668 0.75800002
0.0036190478 0.025333336 0.76000005
0.0050666672 0.025333336 0.76000005
-0.050140005 0.026886668 0.76300001
-0.048559051 0.026816193 0.76100004
-0.047109526 0.026816193 0.76100004
-0.045600004 0.026780954 0.76000005
-0.043920003 0.026640002 0.75600004
-0.042423811 0.026604764 0.75500005
-0.04082286 0.02649905 0.75200003
-0.039390478 0.02649905 0.75200003
-0.037857145 0.026428573 0.75000006
-0.036428574 0.026428573 0.75000006
-0.035000004 0.026428573 0.75000006
-0.033481907 0.026358098 0.74800003
-0.032142859 0.026428573 0.75000006
