# .PCD v0.7 - Point Cloud Data file format
VERSION 0.7
FIELDS x y z
SIZE 4 4 4
TYPE F F F
COUNT 1 1 1
WIDTH 1352
HEIGHT 1
VIEWPOINT 0 0 0 1 0 0 0
POINTS 1352
DATA ascii
-0.022300001 0.051608574 0.66900003
-0.020962859 0.051454291 0.66700006
-0.019662859 0.051377147 0.66600001
-0.018366668 0.051300004 0.66500002
-0.017100001 0.051300004 0.66500002
-0.015833335 0.051300004 0.66500002
-0.014522858 0.051145718 0.66300005
-0.013260001 0.051145718 0.66300005
-0.011979048 0.051068574 0.66200006
-0.010718096 0.051068574 0.66200006
-0.0094428575 0.050991431 0.66100001
-0.0081838099 0.050991431 0.66100001
-0.0069247624 0.050991431 0.66100001
-0.0056657149 0.050991431 0.66100001
-0.0044066668 0.050991431 0.66100001
-0.0031476193 0.050991431 0.66100001
-0.0018885715 0.050991431 0.66100001
-0.00062952383 0.050991431 0.66100001
0.00062952383 0.050991431 0.66100001
0.0018885715 0.050991431 0.66100001
0.0031476193 0.050991431 0.66100001
0.0044133337 0.051068574 0.66200006
0.0056742863 0.051068574 0.66200006
0.0069352384 0.051068574 0.66200006
0.0081961909 0.051068574 0.66200006
0.0094714295 0.051145718 0.66300005
0.010734286 0.051145718 0.66300005
0.011997144 0.051145718 0.66300005
0.013300001 0.051300004 0.66500002
0.014566667 0.051300004 0.66500002
0.015833335 0.051300004 0.66500002
0.017125715 0.051377147 0.66600001
0.018421905 0.051454291 0.66700006
0.019692382 0.051454291 0.66700006
0.021025715 0.051608574 0.66900003
0.022333335 0.051685717 0.67000002
0.023644764 0.05176286 0.671
0.024960002 0.051840004 0.67200005
0.026240002 0.051840004 0.67200005
0.027601907 0.05199429 0.67400002
0.028928574 0.052071434 0.67500001
0.03025905 0.052148573 0.67600006
-0.027847622 0.053752385 0.68000001
-0.026474288 0.053594287 0.67800003
-0.025034288 0.0532781 0.67400002
-0.023644764 0.053040955 0.671
-0.022300001 0.052882861 0.66900003
-0.020962859 0.052724764 0.66700006
-0.019662859 0.052645717 0.66600001
-0.018394288 0.052645717 0.66600001
-0.017100001 0.05256667 0.66500002
-0.015833335 0.05256667 0.66500002
-0.014566667 0.05256667 0.66500002
-0.013260001 0.052408576 0.66300005
-0.011997144 0.052408576 0.66300005
-0.010734286 0.052408576 0.66300005
-0.009457143 0.052329529 0.66200006
-0.0081961909 0.052329529 0.66200006
-0.0069247624 0.052250478 0.66100001
-0.0056657149 0.052250478 0.66100001
-0.0044066668 0.052250478 0.66100001
-0.0031523812 0.052329529 0.66200006
-0.0018885715 0.052250478 0.66100001
-0.00063047622 0.052329529 0.66200006
0.00063047622 0.052329529 0.66200006
0.0018914287 0.052329529 0.66200006
0.0031523812 0.052329529 0.66200006
0.0044133337 0.052329529 0.66200006
0.0056742863 0.052329529 0.66200006
0.0069352384 0.052329529 0.66200006
0.0082085719 0.052408576 0.66300005
0.0094714295 0.052408576 0.66300005
0.010734286 0.052408576 0.66300005
0.011997144 0.052408576 0.66300005
0.013300001 0.05256667 0.66500002
0.014566667 0.05256667 0.66500002
0.015857143 0.052645717 0.66600001
0.017125715 0.052645717 0.66600001
0.018421905 0.052724764 0.66700006
0.01975143 0.052882861 0.66900003
0.021057144 0.052961908 0.67000002
0.022333335 0.052961908 0.67000002
0.023644764 0.053040955 0.671
0.025034288 0.0532781 0.67400002
0.026318097 0.0532781 0.67400002
0.027642859 0.053357147 0.67500001
0.02897143 0.053436194 0.67600006
0.030348573 0.053594287 0.67800003
-0.027847622 0.055047624 0.68000001
-0.026474288 0.054885719 0.67800003
-0.025034288 0.054561909 0.67400002
-0.023644764 0.05431905 0.671
-0.022333335 0.0542381 0.67000002
-0.021025715 0.054157145 0.66900003
-0.019692382 0.05399524 0.66700006
-0.018394288 0.05391429 0.66600001
-0.017100001 0.053833336 0.66500002
-0.015857143 0.05391429 0.66600001
-0.014566667 0.053833336 0.66500002
-0.013300001 0.053833336 0.66500002
-0.011997144 0.053671431 0.66300005
-0.010734286 0.053671431 0.66300005
-0.0094714295 0.053671431 0.66300005
-0.0082085719 0.053671431 0.66300005
-0.0069352384 0.05359048 0.66200006
-0.0056742863 0.05359048 0.66200006
-0.0044133337 0.05359048 0.66200006
-0.0031523812 0.05359048 0.66200006
-0.0018914287 0.05359048 0.66200006
-0.00063047622 0.05359048 0.66200006
0.00063047622 0.05359048 0.66200006
0.0018914287 0.05359048 0.66200006
0.0031523812 0.05359048 0.66200006
0.0044133337 0.05359048 0.66200006
0.0056828577 0.053671431 0.66300005
0.0069457148 0.053671431 0.66300005
0.0082085719 0.053671431 0.66300005
0.0095000006 0.053833336 0.66500002
0.010766667 0.053833336 0.66500002
0.012033334 0.053833336 0.66500002
0.013300001 0.053833336 0.66500002
0.014588572 0.05391429 0.66600001
0.015857143 0.05391429 0.66600001
0.01715143 0.05399524 0.66700006
0.018477144 0.054157145 0.66900003
0.019780954 0.0542381 0.67000002
0.021057144 0.0542381 0.67000002
0.022366669 0.05431905 0.671
0.023680001 0.054400004 0.67200005
0.025034288 0.054561909 0.67400002
0.026357144 0.05464286 0.67500001
0.027683811 0.054723814 0.67600006
0.02897143 0.054723814 0.67600006
-0.027847622 0.056342863 0.68000001
-0.026396193 0.056011431 0.67600006
-0.025034288 0.055845719 0.67400002
-0.023680001 0.055680003 0.67200005
-0.022366669 0.055597145 0.671
-0.021057144 0.055514291 0.67000002
-0.01975143 0.055431433 0.66900003
-0.018421905 0.055265717 0.66700006
-0.017125715 0.055182859 0.66600001
-0.015857143 0.055182859 0.66600001
-0.014588572 0.055182859 0.66600001
-0.013300001 0.055100005 0.66500002
-0.012033334 0.055100005 0.66500002
-0.010766667 0.055100005 0.66500002
-0.0095000006 0.055100005 0.66500002
-0.0082085719 0.054934289 0.66300005
-0.0069457148 0.054934289 0.66300005
-0.0056828577 0.054934289 0.66300005
-0.0044200001 0.054934289 0.66300005
-0.003157143 0.054934289 0.66300005
-0.0018942858 0.054934289 0.66300005
-0.00063142861 0.054934289 0.66300005
0.00063142861 0.054934289 0.66300005
0.0018942858 0.054934289 0.66300005
0.003157143 0.054934289 0.66300005
0.0044200001 0.054934289 0.66300005
0.0056828577 0.054934289 0.66300005
0.0069457148 0.054934289 0.66300005
0.0082333339 0.055100005 0.66500002
0.0095000006 0.055100005 0.66500002
0.010766667 0.055100005 0.66500002
0.012033334 0.055100005 0.66500002
0.013320001 0.055182859 0.66600001
0.014610477 0.055265717 0.66700006
0.015880954 0.055265717 0.66700006
0.017202858 0.055431433 0.66900003
0.018477144 0.055431433 0.66900003
0.019780954 0.055514291 0.67000002
0.021088572 0.055597145 0.671
0.022400001 0.055680003 0.67200005
0.023750478 0.055845719 0.67400002
0.025071431 0.055928577 0.67500001
0.026357144 0.055928577 0.67500001
0.027683811 0.056011431 0.67600006
0.02897143 0.056011431 0.67600006
0.03025905 0.056011431 0.67600006
-0.027806668 0.057553336 0.67900002
-0.026396193 0.057299051 0.67600006
-0.025034288 0.057129528 0.67400002
-0.023680001 0.056960005 0.67200005
-0.022366669 0.05687524 0.671
-0.021088572 0.05687524 0.671
-0.01975143 0.056705717 0.66900003
-0.018421905 0.056536194 0.66700006
-0.01715143 0.056536194 0.66700006
-0.015880954 0.056536194 0.66700006
-0.014588572 0.056451432 0.66600001
-0.013320001 0.056451432 0.66600001
-0.012033334 0.056366671 0.66500002
-0.010766667 0.056366671 0.66500002
-0.0095000006 0.056366671 0.66500002
-0.0082333339 0.056366671 0.66500002
-0.0069457148 0.056197148 0.66300005
-0.0056828577 0.056197148 0.66300005
-0.0044200001 0.056197148 0.66300005
-0.003157143 0.056197148 0.66300005
-0.0018942858 0.056197148 0.66300005
-0.00063142861 0.056197148 0.66300005
0.00063142861 0.056197148 0.66300005
0.0018942858 0.056197148 0.66300005
0.003157143 0.056197148 0.66300005
0.0044200001 0.056197148 0.66300005
0.0056828577 0.056197148 0.66300005
0.0069457148 0.056197148 0.66300005
0.0082333339 0.056366671 0.66500002
0.0095000006 0.056366671 0.66500002
0.010766667 0.056366671 0.66500002
0.01205143 0.056451432 0.66600001
0.013320001 0.056451432 0.66600001
0.014610477 0.056536194 0.66700006
0.015880954 0.056536194 0.66700006
0.017202858 0.056705717 0.66900003
0.018477144 0.056705717 0.66900003
0.019780954 0.056790479 0.67000002
0.021088572 0.05687524 0.671
0.022400001 0.056960005 0.67200005
0.023750478 0.057129528 0.67400002
0.025071431 0.05721429 0.67500001
0.026396193 0.057299051 0.67600006
0.027765715 0.057468574 0.67800003
0.029057145 0.057468574 0.67800003
0.030348573 0.057468574 0.67800003
-0.027806668 0.058846671 0.67900002
-0.026396193 0.058586672 0.67600006
-0.025034288 0.058413338 0.67400002
-0.023750478 0.058413338 0.67400002
-0.022400001 0.058240004 0.67200005
-0.021088572 0.058153339 0.671
-0.019780954 0.05806667 0.67000002
-0.018477144 0.057980005 0.66900003
-0.01715143 0.057806671 0.66700006
-0.015928572 0.057980005 0.66900003
-0.014610477 0.057806671 0.66700006
-0.013320001 0.057720006 0.66600001
-0.01205143 0.057720006 0.66600001
-0.010782857 0.057720006 0.66600001
-0.0095000006 0.057633337 0.66500002
-0.0082333339 0.057633337 0.66500002
-0.0069666672 0.057633337 0.66500002
-0.0057000006 0.057633337 0.66500002
-0.0044333334 0.057633337 0.66500002
-0.003157143 0.057460003 0.66300005
-0.0018942858 0.057460003 0.66300005
-0.00063142861 0.057460003 0.66300005
0.00063142861 0.057460003 0.66300005
0.0018942858 0.057460003 0.66300005
0.003157143 0.057460003 0.66300005
0.0044200001 0.057460003 0.66300005
0.0057000006 0.057633337 0.66500002
0.0069666672 0.057633337 0.66500002
0.0082333339 0.057633337 0.66500002
0.0095000006 0.057633337 0.66500002
0.010782857 0.057720006 0.66600001
0.01205143 0.057720006 0.66600001
0.013340001 0.057806671 0.66700006
0.014610477 0.057806671 0.66700006
0.015880954 0.057806671 0.66700006
0.017202858 0.057980005 0.66900003
0.018504763 0.05806667 0.67000002
0.019810477 0.058153339 0.671
0.021120001 0.058240004 0.67200005
0.022400001 0.058240004 0.67200005
0.023750478 0.058413338 0.67400002
0.025108574 0.058586672 0.67600006
0.026396193 0.058586672 0.67600006
0.027765715 0.058760002 0.67800003
0.029057145 0.058760002 0.67800003
0.030348573 0.058760002 0.67800003
0.13786002 0.068553336 0.79100001
0.14539334 0.068553336 0.79100001
0.14690001 0.068553336 0.79100001
-0.030527622 0.06040572 0.68200004
-0.029142858 0.060228575 0.68000001
-0.027806668 0.060140003 0.67900002
-0.026396193 0.059874289 0.67600006
-0.025071431 0.05978572 0.67500001
-0.023750478 0.059697147 0.67400002
-0.022400001 0.059520002 0.67200005
-0.021120001 0.059520002 0.67200005
-0.019780954 0.059342861 0.67000002
-0.018504763 0.059342861 0.67000002
-0.017202858 0.059254289 0.66900003
-0.015928572 0.059254289 0.66900003
-0.014654287 0.059254289 0.66900003
-0.013340001 0.059077147 0.66700006
-0.012069524 0.059077147 0.66700006
-0.010782857 0.058988575 0.66600001
-0.0095142862 0.058988575 0.66600001
-0.0082457149 0.058988575 0.66600001
-0.0069666672 0.058900002 0.66500002
-0.0057000006 0.058900002 0.66500002
-0.0044333334 0.058900002 0.66500002
-0.003166667 0.058900002 0.66500002
-0.0018942858 0.058722861 0.66300005
-0.00063142861 0.058722861 0.66300005
0.00063142861 0.058722861 0.66300005
0.0019000001 0.058900002 0.66500002
0.003166667 0.058900002 0.66500002
0.0044333334 0.058900002 0.66500002
0.0057000006 0.058900002 0.66500002
0.0069666672 0.058900002 0.66500002
0.0082333339 0.058900002 0.66500002
0.0095142862 0.058988575 0.66600001
0.010782857 0.058988575 0.66600001
0.012069524 0.059077147 0.66700006
0.013380001 0.059254289 0.66900003
0.014654287 0.059254289 0.66900003
0.015928572 0.059254289 0.66900003
0.017202858 0.059254289 0.66900003
0.018504763 0.059342861 0.67000002
0.019810477 0.059431434 0.671
0.021120001 0.059520002 0.67200005
0.022466669 0.059697147 0.67400002
0.023785716 0.05978572 0.67500001
0.025108574 0.059874289 0.67600006
0.026474288 0.060051434 0.67800003
0.027806668 0.060140003 0.67900002
0.029100003 0.060140003 0.67900002
0.030438097 0.060228575 0.68000001
-0.030438097 0.061523814 0.68000001
-0.029100003 0.061433338 0.67900002
-0.027806668 0.061433338 0.67900002
-0.026474288 0.061342862 0.67800003
-0.025108574 0.061161909 0.67600006
-0.023750478 0.060980957 0.67400002
-0.022466669 0.060980957 0.67400002
-0.021120001 0.060800005 0.67200005
-0.019810477 0.060709529 0.671
-0.018504763 0.060619052 0.67000002
-0.017228572 0.060619052 0.67000002
-0.015952382 0.060619052 0.67000002
-0.014676192 0.060619052 0.67000002
-0.013380001 0.060528576 0.66900003
-0.012105715 0.060528576 0.66900003
-0.01083143 0.060528576 0.66900003
-0.0095285717 0.060347624 0.66700006
-0.0082580959 0.060347624 0.66700006
-0.0069771432 0.060257148 0.66600001
-0.005708572 0.060257148 0.66600001
-0.0044333334 0.060166672 0.66500002
-0.003166667 0.060166672 0.66500002
-0.0019000001 0.060166672 0.66500002
-0.0006333334 0.060166672 0.66500002
0.0006333334 0.060166672 0.66500002
0.0019000001 0.060166672 0.66500002
0.003166667 0.060166672 0.66500002
0.0044333334 0.060166672 0.66500002
0.0057000006 0.060166672 0.66500002
0.0069771432 0.060257148 0.66600001
0.0082457149 0.060257148 0.66600001
0.0095142862 0.060257148 0.66600001
0.010799048 0.060347624 0.66700006
0.012105715 0.060528576 0.66900003
0.013380001 0.060528576 0.66900003
0.014676192 0.060619052 0.67000002
0.015952382 0.060619052 0.67000002
0.017228572 0.060619052 0.67000002
0.018532382 0.060709529 0.671
0.019840002 0.060800005 0.67200005
0.021182859 0.060980957 0.67400002
0.022500001 0.061071433 0.67500001
0.023820953 0.061161909 0.67600006
0.025220001 0.061433338 0.67900002
0.026513334 0.061433338 0.67900002
0.027847622 0.061523814 0.68000001
0.029142858 0.061523814 0.68000001
-0.029142858 0.062819049 0.68000001
-0.027806668 0.062726669 0.67900002
-0.026474288 0.062634289 0.67800003
-0.025108574 0.06244953 0.67600006
-0.023785716 0.062357146 0.67500001
-0.022466669 0.062264767 0.67400002
-0.021120001 0.062080003 0.67200005
-0.019810477 0.061987624 0.671
-0.018532382 0.061987624 0.671
-0.017228572 0.061895244 0.67000002
-0.015952382 0.061895244 0.67000002
-0.014676192 0.061895244 0.67000002
-0.013380001 0.06180286 0.66900003
-0.012105715 0.06180286 0.66900003
-0.01083143 0.06180286 0.66900003
-0.0095285717 0.061618101 0.66700006
-0.0082580959 0.061618101 0.66700006
-0.0069771432 0.061525717 0.66600001
-0.005708572 0.061525717 0.66600001
-0.0044400003 0.061525717 0.66600001
-0.003166667 0.061433338 0.66500002
-0.0019000001 0.061433338 0.66500002
-0.0006333334 0.061433338 0.66500002
0.0006333334 0.061433338 0.66500002
0.0019000001 0.061433338 0.66500002
0.003166667 0.061433338 0.66500002
0.0044333334 0.061433338 0.66500002
0.005708572 0.061525717 0.66600001
0.0069771432 0.061525717 0.66600001
0.0082580959 0.061618101 0.66700006
0.0095285717 0.061618101 0.66700006
0.010799048 0.061618101 0.66700006
0.012105715 0.06180286 0.66900003
0.013380001 0.06180286 0.66900003
0.014676192 0.061895244 0.67000002
0.015952382 0.061895244 0.67000002
0.017228572 0.061895244 0.67000002
0.018532382 0.061987624 0.671
0.019810477 0.061987624 0.671
0.021182859 0.062264767 0.67400002
0.022500001 0.062357146 0.67500001
0.02389143 0.062634289 0.67800003
0.025220001 0.062726669 0.67900002
0.026552383 0.062819049 0.68000001
0.027847622 0.062819049 0.68000001
0.029228574 0.063003816 0.68200004
0.030527622 0.063003816 0.68200004
-0.029142858 0.064114287 0.68000001
-0.027806668 0.064020008 0.67900002
-0.026513334 0.064020008 0.67900002
-0.025182858 0.063925721 0.67800003
-0.023820953 0.063737147 0.67600006
-0.022500001 0.063642859 0.67500001
-0.021182859 0.063548572 0.67400002
-0.019840002 0.063360006 0.67200005
-0.018532382 0.063265719 0.671
-0.017228572 0.063171431 0.67000002
-0.015976192 0.063265719 0.671
-0.014676192 0.063171431 0.67000002
-0.013380001 0.063077144 0.66900003
-0.012105715 0.063077144 0.66900003
-0.01083143 0.063077144 0.66900003
-0.0095285717 0.062888578 0.66700006
-0.0082580959 0.062888578 0.66700006
-0.0069771432 0.06279429 0.66600001
-0.005708572 0.06279429 0.66600001
-0.0044400003 0.06279429 0.66600001
-0.0031714288 0.06279429 0.66600001
-0.0019000001 0.062700003 0.66500002
-0.0006333334 0.062700003 0.66500002
0.0006333334 0.062700003 0.66500002
0.0019028572 0.06279429 0.66600001
0.003166667 0.062700003 0.66500002
0.0044400003 0.06279429 0.66600001
0.005708572 0.06279429 0.66600001
0.0069771432 0.06279429 0.66600001
0.0082580959 0.062888578 0.66700006
0.0095285717 0.062888578 0.66700006
0.01083143 0.063077144 0.66900003
0.012105715 0.063077144 0.66900003
0.013400001 0.063171431 0.67000002
0.014676192 0.063171431 0.67000002
0.015952382 0.063171431 0.67000002
0.017228572 0.063171431 0.67000002
0.018532382 0.063265719 0.671
0.019810477 0.063265719 0.671
0.021182859 0.063548572 0.67400002
0.022533335 0.063737147 0.67600006
0.023926668 0.064020008 0.67900002
0.025257144 0.064114287 0.68000001
0.026552383 0.064114287 0.68000001
0.027929526 0.064302862 0.68200004
0.029271431 0.064397149 0.68300003
0.030572383 0.064397149 0.68300003
-0.030438097 0.065409526 0.68000001
-0.029142858 0.065409526 0.68000001
-0.027806668 0.065313339 0.67900002
-0.026513334 0.065313339 0.67900002
-0.025182858 0.065217145 0.67800003
-0.023820953 0.065024763 0.67600006
-0.022533335 0.065024763 0.67600006
-0.021182859 0.064832382 0.67400002
-0.019840002 0.064640008 0.67200005
-0.018560002 0.064640008 0.67200005
-0.017254287 0.064543813 0.671
-0.015976192 0.064543813 0.671
-0.014676192 0.064447626 0.67000002
-0.013400001 0.064447626 0.67000002
-0.012105715 0.064351432 0.66900003
-0.01083143 0.064351432 0.66900003
-0.0095571438 0.064351432 0.66900003
-0.0082580959 0.064159051 0.66700006
-0.0069771432 0.064062864 0.66600001
-0.005708572 0.064062864 0.66600001
-0.0044400003 0.064062864 0.66600001
-0.0031714288 0.064062864 0.66600001
-0.0019000001 0.063966669 0.66500002
-0.00063428574 0.064062864 0.66600001
0.00063428574 0.064062864 0.66600001
0.0019028572 0.064062864 0.66600001
0.0031714288 0.064062864 0.66600001
0.0044400003 0.064062864 0.66600001
0.005708572 0.064062864 0.66600001
0.0069876197 0.064159051 0.66700006
0.0082580959 0.064159051 0.66700006
0.0095571438 0.064351432 0.66900003
0.01083143 0.064351432 0.66900003
0.012105715 0.064351432 0.66900003
0.013400001 0.064447626 0.67000002
0.014676192 0.064447626 0.67000002
0.015952382 0.064447626 0.67000002
0.017254287 0.064543813 0.671
0.018532382 0.064543813 0.671
0.01989905 0.064832382 0.67400002
0.021245716 0.065024763 0.67600006
0.022600001 0.065217145 0.67800003
0.023926668 0.065313339 0.67900002
0.025257144 0.065409526 0.68000001
0.026630478 0.065601908 0.68200004
0.027929526 0.065601908 0.68200004
0.029271431 0.065698102 0.68300003
0.030572383 0.065698102 0.68300003
-0.030527622 0.066900954 0.68200004
-0.029142858 0.066704765 0.68000001
-0.027847622 0.066704765 0.68000001
-0.026513334 0.066606671 0.67900002
-0.025220001 0.066606671 0.67900002
-0.02389143 0.066508576 0.67800003
-0.022533335 0.066312388 0.67600006
-0.021182859 0.066116191 0.67400002
-0.01989905 0.066116191 0.67400002
-0.018560002 0.065920003 0.67200005
-0.017254287 0.065821908 0.671
-0.016000001 0.065920003 0.67200005
-0.014698097 0.065821908 0.671
-0.013400001 0.065723814 0.67000002
-0.01212381 0.065723814 0.67000002
-0.01083143 0.06562572 0.66900003
-0.0095571438 0.06562572 0.66900003
-0.0082580959 0.065429531 0.66700006
-0.0069876197 0.065429531 0.66700006
-0.005708572 0.065331429 0.66600001
-0.0044400003 0.065331429 0.66600001
-0.0031714288 0.065331429 0.66600001
-0.0019028572 0.065331429 0.66600001
-0.00063428574 0.065331429 0.66600001
0.00063428574 0.065331429 0.66600001
0.0019057144 0.065429531 0.66700006
0.0031761907 0.065429531 0.66700006
0.0044466672 0.065429531 0.66700006
0.0057171434 0.065429531 0.66700006
0.0070085721 0.06562572 0.66900003
0.0082828579 0.06562572 0.66900003
0.0095571438 0.06562572 0.66900003
0.01083143 0.06562572 0.66900003
0.01212381 0.065723814 0.67000002
0.013400001 0.065723814 0.67000002
0.014698097 0.065821908 0.671
0.015976192 0.065821908 0.671
0.017254287 0.065821908 0.671
0.018560002 0.065920003 0.67200005
0.01989905 0.066116191 0.67400002
0.021245716 0.066312388 0.67600006
0.022600001 0.066508576 0.67800003
0.023961907 0.066704765 0.68000001
0.025257144 0.066704765 0.68000001
0.026630478 0.066900954 0.68200004
0.027929526 0.066900954 0.68200004
0.029271431 0.066999055 0.68300003
0.030572383 0.066999055 0.68300003
0.031920001 0.06709715 0.68400002
0.033222858 0.06709715 0.68400002
-0.031873334 0.068300001 0.68300003
-0.030527622 0.068200007 0.68200004
-0.029228574 0.068200007 0.68200004
-0.027847622 0.068000004 0.68000001
-0.026552383 0.068000004 0.68000001
-0.025220001 0.067900002 0.67900002
-0.02389143 0.067800008 0.67800003
-0.022533335 0.067600004 0.67600006
-0.021214288 0.067500003 0.67500001
-0.01989905 0.067400001 0.67400002
-0.018560002 0.067200005 0.67200005
-0.017280001 0.067200005 0.67200005
-0.016000001 0.067200005 0.67200005
-0.014720001 0.067200005 0.67200005
-0.013400001 0.067000002 0.67000002
-0.01212381 0.067000002 0.67000002
-0.01083143 0.066900007 0.66900003
-0.0095571438 0.066900007 0.66900003
-0.0082580959 0.066700004 0.66700006
-0.0069876197 0.066700004 0.66700006
-0.0057171434 0.066700004 0.66700006
-0.0044466672 0.066700004 0.66700006
-0.0031761907 0.066700004 0.66700006
-0.0019057144 0.066700004 0.66700006
-0.00063523813 0.066700004 0.66700006
0.00063523813 0.066700004 0.66700006
0.0019114286 0.066900007 0.66900003
0.0031761907 0.066700004 0.66700006
0.0044600004 0.066900007 0.66900003
0.0057342863 0.066900007 0.66900003
0.0070085721 0.066900007 0.66900003
0.0082828579 0.066900007 0.66900003
0.0095571438 0.066900007 0.66900003
0.01084762 0.067000002 0.67000002
0.01212381 0.067000002 0.67000002
0.013400001 0.067000002 0.67000002
0.014698097 0.067100003 0.671
0.015976192 0.067100003 0.671
0.017254287 0.067100003 0.671
0.018560002 0.067200005 0.67200005
0.01989905 0.067400001 0.67400002
0.021245716 0.067600004 0.67600006
0.022600001 0.067800008 0.67800003
0.023961907 0.068000004 0.68000001
0.02533143 0.068200007 0.68200004
0.026630478 0.068200007 0.68200004
0.027970478 0.068300001 0.68300003
0.029314287 0.068400003 0.68400002
0.030617144 0.068400003 0.68400002
0.032013334 0.068600006 0.68600005
-0.031873334 0.069600955 0.68300003
-0.030572383 0.069600955 0.68300003
-0.029271431 0.069600955 0.68300003
-0.027929526 0.069499053 0.68200004
-0.026552383 0.069295242 0.68000001
-0.025220001 0.069193341 0.67900002
-0.023926668 0.069193341 0.67900002
-0.022533335 0.068887621 0.67600006
-0.021214288 0.06878572 0.67500001
-0.01989905 0.068683811 0.67400002
-0.018560002 0.068480007 0.67200005
-0.017280001 0.068480007 0.67200005
-0.016047619 0.068683811 0.67400002
-0.014720001 0.068480007 0.67200005
-0.013440001 0.068480007 0.67200005
-0.012141906 0.068378098 0.671
-0.01084762 0.068276197 0.67000002
-0.0095571438 0.068174288 0.66900003
-0.0082828579 0.068174288 0.66900003
-0.0069876197 0.067970477 0.66700006
-0.0057171434 0.067970477 0.66700006
-0.0044466672 0.067970477 0.66700006
-0.0031857146 0.068174288 0.66900003
-0.0019114286 0.068174288 0.66900003
-0.00063714292 0.068174288 0.66900003
0.00063714292 0.068174288 0.66900003
0.0019114286 0.068174288 0.66900003
0.0031857146 0.068174288 0.66900003
0.0044600004 0.068174288 0.66900003
0.0057342863 0.068174288 0.66900003
0.0070190481 0.068276197 0.67000002
0.0082828579 0.068174288 0.66900003
0.0095714293 0.068276197 0.67000002
0.01084762 0.068276197 0.67000002
0.012141906 0.068378098 0.671
0.013420001 0.068378098 0.671
0.014698097 0.068378098 0.671
0.015976192 0.068378098 0.671
0.017280001 0.068480007 0.67200005
0.018560002 0.068480007 0.67200005
0.01989905 0.068683811 0.67400002
0.021245716 0.068887621 0.67600006
0.022600001 0.069091432 0.67800003
0.023961907 0.069295242 0.68000001
0.02533143 0.069499053 0.68200004
0.026630478 0.069499053 0.68200004
0.027970478 0.069600955 0.68300003
0.029271431 0.069600955 0.68300003
0.030617144 0.069702864 0.68400002
0.032013334 0.069906674 0.68600005
-0.031920001 0.071005717 0.68400002
-0.030617144 0.071005717 0.68400002
-0.029271431 0.070901908 0.68300003
-0.027929526 0.070798099 0.68200004
-0.026552383 0.070590481 0.68000001
-0.025220001 0.070486672 0.67900002
-0.023926668 0.070486672 0.67900002
-0.022600001 0.070382863 0.67800003
-0.021245716 0.070175245 0.67600006
-0.019928573 0.070071436 0.67500001
-0.01861524 0.06996762 0.67400002
-0.017280001 0.069760002 0.67200005
-0.016047619 0.06996762 0.67400002
-0.014763811 0.06996762 0.67400002
-0.013440001 0.069760002 0.67200005
-0.01216 0.069760002 0.67200005
-0.01086381 0.069656193 0.671
-0.0095714293 0.069552384 0.67000002
-0.0082828579 0.069448575 0.66900003
-0.0070085721 0.069448575 0.66900003
-0.0057342863 0.069448575 0.66900003
-0.0044600004 0.069448575 0.66900003
-0.0031857146 0.069448575 0.66900003
-0.0019114286 0.069448575 0.66900003
-0.00063714292 0.069448575 0.66900003
0.00063714292 0.069448575 0.66900003
0.0019142858 0.069552384 0.67000002
0.0031857146 0.069448575 0.66900003
0.0044666668 0.069552384 0.67000002
0.0057428577 0.069552384 0.67000002
0.0070190481 0.069552384 0.67000002
0.0082952389 0.069552384 0.67000002
0.0095714293 0.069552384 0.67000002
0.01084762 0.069552384 0.67000002
0.012141906 0.069656193 0.671
0.013420001 0.069656193 0.671
0.014698097 0.069656193 0.671
0.015976192 0.069656193 0.671
0.017280001 0.069760002 0.67200005
0.018560002 0.069760002 0.67200005
0.01989905 0.06996762 0.67400002
0.021245716 0.070175245 0.67600006
0.022633335 0.070486672 0.67900002
0.023961907 0.070590481 0.68000001
0.02533143 0.070798099 0.68200004
0.026669526 0.070901908 0.68300003
0.027970478 0.070901908 0.68300003
0.029314287 0.071005717 0.68400002
0.030617144 0.071005717 0.68400002
-0.032013334 0.072520003 0.68600005
-0.030617144 0.072308578 0.68400002
-0.029314287 0.072308578 0.68400002
-0.027970478 0.072202861 0.68300003
-0.026630478 0.072097145 0.68200004
-0.025257144 0.07188572 0.68000001
-0.023926668 0.071780004 0.67900002
-0.022600001 0.071674287 0.67800003
-0.021245716 0.071462862 0.67600006
-0.019928573 0.071357146 0.67500001
-0.01861524 0.07125143 0.67400002
-0.017331429 0.07125143 0.67400002
-0.016047619 0.07125143 0.67400002
-0.014763811 0.07125143 0.67400002
-0.013480001 0.07125143 0.67400002
-0.01216 0.071040004 0.67200005
-0.01086381 0.070934288 0.671
-0.0095714293 0.070828579 0.67000002
-0.0082952389 0.070828579 0.67000002
-0.0070085721 0.070722863 0.66900003
-0.0057342863 0.070722863 0.66900003
-0.0044600004 0.070722863 0.66900003
-0.0031857146 0.070722863 0.66900003
-0.0019114286 0.070722863 0.66900003
-0.00063809525 0.070828579 0.67000002
0.00063809525 0.070828579 0.67000002
0.0019142858 0.070828579 0.67000002
0.0031904764 0.070828579 0.67000002
0.0044666668 0.070828579 0.67000002
0.0057428577 0.070828579 0.67000002
0.0070190481 0.070828579 0.67000002
0.0082952389 0.070828579 0.67000002
0.0095714293 0.070828579 0.67000002
0.01086381 0.070934288 0.671
0.012141906 0.070934288 0.671
0.013420001 0.070934288 0.671
0.014698097 0.070934288 0.671
0.015976192 0.070934288 0.671
0.017280001 0.071040004 0.67200005
0.01861524 0.07125143 0.67400002
0.019928573 0.071357146 0.67500001
0.021308573 0.071674287 0.67800003
0.022633335 0.071780004 0.67900002
0.024032382 0.072097145 0.68200004
0.025405716 0.072308578 0.68400002
0.026669526 0.072202861 0.68300003
0.02801143 0.072308578 0.68400002
0.029314287 0.072308578 0.68400002
0.030617144 0.072308578 0.68400002
0.032013334 0.072520003 0.68600005
-0.032013334 0.073826671 0.68600005
-0.030706668 0.073826671 0.68600005
-0.029314287 0.073611431 0.68400002
-0.027970478 0.073503815 0.68300003
-0.026630478 0.073396198 0.68200004
-0.025257144 0.073180959 0.68000001
-0.023926668 0.073073335 0.67900002
-0.022600001 0.072965719 0.67800003
-0.021308573 0.072965719 0.67800003
-0.019958096 0.072750479 0.67600006
-0.018642858 0.072642863 0.67500001
-0.017331429 0.072535239 0.67400002
-0.016071429 0.072642863 0.67500001
-0.014763811 0.072535239 0.67400002
-0.013480001 0.072535239 0.67400002
-0.01216 0.072320007 0.67200005
-0.010880001 0.072320007 0.67200005
-0.0095857149 0.072212383 0.671
-0.0082952389 0.072104767 0.67000002
-0.0070085721 0.071997151 0.66900003
-0.0057342863 0.071997151 0.66900003
-0.0044600004 0.071997151 0.66900003
-0.0031857146 0.071997151 0.66900003
-0.0019114286 0.071997151 0.66900003
-0.00063809525 0.072104767 0.67000002
0.00063809525 0.072104767 0.67000002
0.0019142858 0.072104767 0.67000002
0.0031904764 0.072104767 0.67000002
0.0044666668 0.072104767 0.67000002
0.0057514291 0.072212383 0.671
0.0070295241 0.072212383 0.671
0.0082952389 0.072104767 0.67000002
0.0095857149 0.072212383 0.671
0.01086381 0.072212383 0.671
0.01216 0.072320007 0.67200005
0.013440001 0.072320007 0.67200005
0.014720001 0.072320007 0.67200005
0.016000001 0.072320007 0.67200005
0.017331429 0.072535239 0.67400002
0.018642858 0.072642863 0.67500001
0.019958096 0.072750479 0.67600006
0.021340001 0.073073335 0.67900002
0.022633335 0.073073335 0.67900002
0.024032382 0.073396198 0.68200004
0.025405716 0.073611431 0.68400002
0.026708573 0.073611431 0.68400002
0.02801143 0.073611431 0.68400002
0.029400002 0.073826671 0.68600005
0.030706668 0.073826671 0.68600005
0.032013334 0.073826671 0.68600005
-0.032200001 0.075571433 0.69000006
-0.030840954 0.075461909 0.68900001
-0.029400002 0.075133339 0.68600005
-0.02801143 0.074914292 0.68400002
-0.026708573 0.074914292 0.68400002
-0.02533143 0.074695244 0.68200004
-0.023961907 0.074476197 0.68000001
-0.022633335 0.074366674 0.67900002
-0.021308573 0.07425715 0.67800003
-0.019958096 0.074038103 0.67600006
-0.018670477 0.074038103 0.67600006
-0.017357145 0.07392858 0.67500001
-0.016071429 0.07392858 0.67500001
-0.014785715 0.07392858 0.67500001
-0.013500001 0.07392858 0.67500001
-0.012196192 0.073819056 0.67400002
-0.010912382 0.073819056 0.67400002
-0.0096000005 0.073600002 0.67200005
-0.008320001 0.073600002 0.67200005
-0.0070295241 0.073490478 0.671
-0.0057428577 0.073380955 0.67000002
-0.0044666668 0.073380955 0.67000002
-0.0031904764 0.073380955 0.67000002
-0.0019142858 0.073380955 0.67000002
-0.00063904765 0.073490478 0.671
0.00063904765 0.073490478 0.671
0.001917143 0.073490478 0.671
0.0031952383 0.073490478 0.671
0.0044800001 0.073600002 0.67200005
0.0057600006 0.073600002 0.67200005
0.0070400005 0.073600002 0.67200005
0.008320001 0.073600002 0.67200005
0.0096000005 0.073600002 0.67200005
0.010912382 0.073819056 0.67400002
0.012196192 0.073819056 0.67400002
0.013480001 0.073819056 0.67400002
0.014763811 0.073819056 0.67400002
0.016071429 0.07392858 0.67500001
0.017382858 0.074038103 0.67600006
0.018670477 0.074038103 0.67600006
0.019958096 0.074038103 0.67600006
0.021340001 0.074366674 0.67900002
0.022733334 0.074695244 0.68200004
0.02406762 0.074804768 0.68300003
0.025405716 0.074914292 0.68400002
0.026786668 0.075133339 0.68600005
0.028093334 0.075133339 0.68600005
0.029400002 0.075133339 0.68600005
0.030706668 0.075133339 0.68600005
0.032060001 0.075242862 0.68700004
-0.030885717 0.076885723 0.69000006
-0.029528573 0.076774292 0.68900001
-0.028093334 0.076440006 0.68600005
-0.026786668 0.076440006 0.68600005
-0.025368573 0.076105721 0.68300003
-0.023961907 0.075771436 0.68000001
-0.022633335 0.075660005 0.67900002
-0.021308573 0.075548574 0.67800003
-0.020017143 0.075548574 0.67800003
-0.018670477 0.07532572 0.67600006
-0.017382858 0.07532572 0.67600006
-0.01609524 0.07532572 0.67600006
-0.014785715 0.075214289 0.67500001
-0.013500001 0.075214289 0.67500001
-0.012214286 0.075214289 0.67500001
-0.010912382 0.075102866 0.67400002
-0.0096285725 0.075102866 0.67400002
-0.008320001 0.074880004 0.67200005
-0.0070400005 0.074880004 0.67200005
-0.0057514291 0.074768573 0.671
-0.0044733337 0.074768573 0.671
-0.0031904764 0.07465715 0.67000002
-0.0019142858 0.07465715 0.67000002
-0.00063904765 0.074768573 0.671
0.00063904765 0.074768573 0.671
0.001917143 0.074768573 0.671
0.0032000002 0.074880004 0.67200005
0.0044800001 0.074880004 0.67200005
0.0057600006 0.074880004 0.67200005
0.0070400005 0.074880004 0.67200005
0.008320001 0.074880004 0.67200005
0.0096000005 0.074880004 0.67200005
0.010912382 0.075102866 0.67400002
0.012196192 0.075102866 0.67400002
0.013500001 0.075214289 0.67500001
0.014785715 0.075214289 0.67500001
0.016071429 0.075214289 0.67500001
0.017382858 0.07532572 0.67600006
0.018670477 0.07532572 0.67600006
0.020017143 0.075548574 0.67800003
0.02137143 0.075771436 0.68000001
0.022733334 0.07599429 0.68200004
0.02406762 0.076105721 0.68300003
0.025480002 0.076440006 0.68600005
0.026825717 0.07655143 0.68700004
0.028216192 0.076774292 0.68900001
0.029528573 0.076774292 0.68900001
0.030840954 0.076774292 0.68900001
0.032246668 0.076997146 0.69100004
-0.032246668 0.078313336 0.69100004
-0.030885717 0.078200005 0.69000006
-0.029528573 0.078086674 0.68900001
-0.028134288 0.077860005 0.68700004
-0.026825717 0.077860005 0.68700004
-0.025405716 0.077520005 0.68400002
-0.024032382 0.077293336 0.68200004
-0.022633335 0.076953337 0.67900002
-0.021340001 0.076953337 0.67900002
-0.020017143 0.076840006 0.67800003
-0.018725716 0.076840006 0.67800003
-0.017382858 0.076613337 0.67600006
-0.01609524 0.076613337 0.67600006
-0.01480762 0.076613337 0.67600006
-0.013520001 0.076613337 0.67600006
-0.012214286 0.076500006 0.67500001
-0.010912382 0.076386675 0.67400002
-0.0096285725 0.076386675 0.67400002
-0.008320001 0.076160006 0.67200005
-0.0070400005 0.076160006 0.67200005
-0.0057600006 0.076160006 0.67200005
-0.0044733337 0.076046668 0.671
-0.0031952383 0.076046668 0.671
-0.001917143 0.076046668 0.671
-0.00063904765 0.076046668 0.671
0.00063904765 0.076046668 0.671
0.0019200002 0.076160006 0.67200005
0.0032000002 0.076160006 0.67200005
0.0044800001 0.076160006 0.67200005
0.0057600006 0.076160006 0.67200005
0.007060953 0.076386675 0.67400002
0.008344762 0.076386675 0.67400002
0.0096285725 0.076386675 0.67400002
0.010912382 0.076386675 0.67400002
0.012214286 0.076500006 0.67500001
0.013500001 0.076500006 0.67500001
0.014785715 0.076500006 0.67500001
0.01609524 0.076613337 0.67600006
0.017434286 0.076840006 0.67800003
0.018725716 0.076840006 0.67800003
0.020046668 0.076953337 0.67900002
0.02137143 0.077066675 0.68000001
0.022766668 0.077406675 0.68300003
0.024102859 0.077520005 0.68400002
0.025480002 0.077746674 0.68600005
0.026786668 0.077746674 0.68600005
0.028216192 0.078086674 0.68900001
0.029528573 0.078086674 0.68900001
0.030885717 0.078200005 0.69000006
0.032340001 0.078540005 0.69300002
-0.036404766 0.080090478 0.69500005
-0.035030477 0.07997524 0.69400001
-0.033708572 0.07997524 0.69400001
-0.032246668 0.079629526 0.69100004
-0.030885717 0.079514287 0.69000006
-0.029528573 0.079399049 0.68900001
-0.028216192 0.079399049 0.68900001
-0.026825717 0.079168573 0.68700004
-0.025405716 0.078822859 0.68400002
-0.02406762 0.078707621 0.68300003
-0.022633335 0.078246675 0.67900002
-0.021340001 0.078246675 0.67900002
-0.020017143 0.078131437 0.67800003
-0.018725716 0.078131437 0.67800003
-0.017434286 0.078131437 0.67800003
-0.016142858 0.078131437 0.67800003
-0.014851429 0.078131437 0.67800003
-0.013520001 0.077900961 0.67600006
-0.012232382 0.077900961 0.67600006
-0.010912382 0.077670485 0.67400002
-0.0096285725 0.077670485 0.67400002
-0.008344762 0.077670485 0.67400002
-0.007060953 0.077670485 0.67400002
-0.0057600006 0.077440009 0.67200005
-0.0044800001 0.077440009 0.67200005
-0.0031952383 0.07732477 0.671
-0.001917143 0.07732477 0.671
-0.00064000004 0.077440009 0.67200005
0.00063904765 0.07732477 0.671
0.0019200002 0.077440009 0.67200005
0.0032000002 0.077440009 0.67200005
0.0044800001 0.077440009 0.67200005
0.0057600006 0.077440009 0.67200005
0.007060953 0.077670485 0.67400002
0.008344762 0.077670485 0.67400002
0.0096285725 0.077670485 0.67400002
0.010912382 0.077670485 0.67400002
0.012214286 0.077785723 0.67500001
0.013500001 0.077785723 0.67500001
0.01480762 0.077900961 0.67600006
0.01609524 0.077900961 0.67600006
0.017434286 0.078131437 0.67800003
0.018753335 0.078246675 0.67900002
0.020046668 0.078246675 0.67900002
0.02137143 0.078361914 0.68000001
0.022766668 0.078707621 0.68300003
0.024102859 0.078822859 0.68400002
0.025517145 0.079168573 0.68700004
0.026903812 0.079399049 0.68900001
0.028257145 0.079514287 0.69000006
0.029571431 0.079514287 0.69000006
0.030930478 0.079629526 0.69100004
0.032340001 0.079860002 0.69300002
0.033660002 0.079860002 0.69300002
-0.036404766 0.08141429 0.69500005
-0.035080954 0.08141429 0.69500005
-0.033708572 0.081297152 0.69400001
-0.032386668 0.081297152 0.69400001
-0.031020002 0.081180006 0.69300002
-0.029571431 0.080828577 0.69000006
-0.028216192 0.080711432 0.68900001
-0.026825717 0.080477148 0.68700004
-0.025405716 0.080125719 0.68400002
-0.02406762 0.080008574 0.68300003
-0.022666669 0.079657145 0.68000001
-0.021340001 0.079540007 0.67900002
-0.020046668 0.079540007 0.67900002
-0.018725716 0.079422861 0.67800003
-0.017434286 0.079422861 0.67800003
-0.016142858 0.079422861 0.67800003
-0.014851429 0.079422861 0.67800003
-0.013560001 0.079422861 0.67800003
-0.012232382 0.079188578 0.67600006
-0.010912382 0.078954294 0.67400002
-0.0096285725 0.078954294 0.67400002
-0.008344762 0.078954294 0.67400002
-0.007060953 0.078954294 0.67400002
-0.0057600006 0.078720003 0.67200005
-0.0044800001 0.078720003 0.67200005
-0.0031952383 0.078602865 0.671
-0.0019200002 0.078720003 0.67200005
-0.00064000004 0.078720003 0.67200005
0.00064000004 0.078720003 0.67200005
0.0019200002 0.078720003 0.67200005
0.0032000002 0.078720003 0.67200005
0.0044933334 0.078954294 0.67400002
0.0057771434 0.078954294 0.67400002
0.007060953 0.078954294 0.67400002
0.008357143 0.079071432 0.67500001
0.0096428581 0.079071432 0.67500001
0.010928572 0.079071432 0.67500001
0.012232382 0.079188578 0.67600006
0.013560001 0.079422861 0.67800003
0.014851429 0.079422861 0.67800003
0.016142858 0.079422861 0.67800003
0.017434286 0.079422861 0.67800003
0.018753335 0.079540007 0.67900002
0.020076191 0.079657145 0.68000001
0.021434287 0.079891436 0.68200004
0.022766668 0.080008574 0.68300003
0.024173334 0.080360003 0.68600005
0.025517145 0.080477148 0.68700004
0.026903812 0.080711432 0.68900001
0.028257145 0.080828577 0.69000006
0.029571431 0.080828577 0.69000006
0.030930478 0.080945723 0.69100004
0.032246668 0.080945723 0.69100004
0.033660002 0.081180006 0.69300002
-0.036509525 0.082976192 0.69700003
-0.035181906 0.082976192 0.69700003
-0.033757146 0.082738101 0.69500005
-0.032433335 0.082738101 0.69500005
-0.031020002 0.082500003 0.69300002
-0.029614288 0.082261913 0.69100004
-0.028257145 0.08214286 0.69000006
-0.026903812 0.082023814 0.68900001
-0.025480002 0.081666671 0.68600005
-0.024102859 0.08142858 0.68400002
-0.022766668 0.081309527 0.68300003
-0.02137143 0.080952384 0.68000001
-0.020046668 0.080833338 0.67900002
-0.018753335 0.080833338 0.67900002
-0.017434286 0.080714293 0.67800003
-0.016166668 0.080833338 0.67900002
-0.014851429 0.080714293 0.67800003
-0.013560001 0.080714293 0.67800003
-0.012232382 0.080476195 0.67600006
-0.010928572 0.080357149 0.67500001
-0.0096285725 0.080238104 0.67400002
-0.008344762 0.080238104 0.67400002
-0.007060953 0.080238104 0.67400002
-0.0057771434 0.080238104 0.67400002
-0.0044933334 0.080238104 0.67400002
-0.0032000002 0.080000006 0.67200005
-0.0019200002 0.080000006 0.67200005
-0.00064000004 0.080000006 0.67200005
0.00064000004 0.080000006 0.67200005
0.0019257144 0.080238104 0.67400002
0.0032095241 0.080238104 0.67400002
0.0044933334 0.080238104 0.67400002
0.0057771434 0.080238104 0.67400002
0.0070714289 0.080357149 0.67500001
0.008357143 0.080357149 0.67500001
0.0096428581 0.080357149 0.67500001
0.010944762 0.080476195 0.67600006
0.012232382 0.080476195 0.67600006
0.013560001 0.080714293 0.67800003
0.014851429 0.080714293 0.67800003
0.016142858 0.080714293 0.67800003
0.017434286 0.080714293 0.67800003
0.018753335 0.080833338 0.67900002
0.020076191 0.080952384 0.68000001
0.021434287 0.081190482 0.68200004
0.022800002 0.08142858 0.68400002
0.024173334 0.081666671 0.68600005
0.025517145 0.081785716 0.68700004
0.026903812 0.082023814 0.68900001
0.028257145 0.08214286 0.69000006
0.029571431 0.08214286 0.69000006
0.030930478 0.082261913 0.69100004
0.032246668 0.082261913 0.69100004
0.033660002 0.082500003 0.69300002
-0.035181906 0.084303819 0.69700003
-0.033854287 0.084303819 0.69700003
-0.032526668 0.084303819 0.69700003
-0.031020002 0.083820008 0.69300002
-0.029614288 0.083578102 0.69100004
-0.028257145 0.08345715 0.69000006
-0.026903812 0.083336197 0.68900001
-0.025480002 0.082973339 0.68600005
-0.024102859 0.082731433 0.68400002
-0.022800002 0.082731433 0.68400002
-0.02137143 0.082247622 0.68000001
-0.020046668 0.08212667 0.67900002
-0.018753335 0.08212667 0.67900002
-0.017434286 0.082005717 0.67800003
-0.016166668 0.08212667 0.67900002
-0.014873334 0.08212667 0.67900002
-0.013560001 0.082005717 0.67800003
-0.012232382 0.081763811 0.67600006
-0.010928572 0.081642866 0.67500001
-0.0096285725 0.081521913 0.67400002
-0.008344762 0.081521913 0.67400002
-0.007060953 0.081521913 0.67400002
-0.0057771434 0.081521913 0.67400002
-0.0044933334 0.081521913 0.67400002
-0.0032095241 0.081521913 0.67400002
-0.0019257144 0.081521913 0.67400002
-0.00064190483 0.081521913 0.67400002
0.00064190483 0.081521913 0.67400002
0.0019257144 0.081521913 0.67400002
0.0032095241 0.081521913 0.67400002
0.0044933334 0.081521913 0.67400002
0.0057857148 0.081642866 0.67500001
0.0070714289 0.081642866 0.67500001
0.008369524 0.081763811 0.67600006
0.0096571436 0.081763811 0.67600006
0.010944762 0.081763811 0.67600006
0.012232382 0.081763811 0.67600006
0.013560001 0.082005717 0.67800003
0.014851429 0.082005717 0.67800003
0.016142858 0.082005717 0.67800003
0.017460002 0.08212667 0.67900002
0.018780954 0.082247622 0.68000001
0.020135239 0.082489528 0.68200004
0.021465715 0.08261048 0.68300003
0.022800002 0.082731433 0.68400002
0.024173334 0.082973339 0.68600005
0.025517145 0.083094291 0.68700004
0.026903812 0.083336197 0.68900001
0.028257145 0.08345715 0.69000006
0.029571431 0.08345715 0.69000006
0.030930478 0.083578102 0.69100004
0.032246668 0.083578102 0.69100004
0.033660002 0.083820008 0.69300002
0.034980003 0.083820008 0.69300002
-0.035181906 0.085631438 0.69700003
-0.033854287 0.085631438 0.69700003
-0.032433335 0.085385717 0.69500005
-0.031064764 0.085262865 0.69400001
-0.029700002 0.085140005 0.69300002
-0.028298097 0.084894292 0.69100004
-0.026903812 0.084648579 0.68900001
-0.025517145 0.084402859 0.68700004
-0.024173334 0.084280007 0.68600005
-0.022800002 0.084034294 0.68400002
-0.02137143 0.083542861 0.68000001
-0.020046668 0.083420008 0.67900002
-0.018753335 0.083420008 0.67900002
-0.017434286 0.083297148 0.67800003
-0.016166668 0.083420008 0.67900002
-0.014873334 0.083420008 0.67900002
-0.013560001 0.083297148 0.67800003
-0.012268572 0.083297148 0.67800003
-0.010928572 0.082928576 0.67500001
-0.0096285725 0.082805723 0.67400002
-0.008344762 0.082805723 0.67400002
-0.007060953 0.082805723 0.67400002
-0.0057771434 0.082805723 0.67400002
-0.0044933334 0.082805723 0.67400002
-0.0032095241 0.082805723 0.67400002
-0.0019257144 0.082805723 0.67400002
-0.00064190483 0.082805723 0.67400002
0.00064190483 0.082805723 0.67400002
0.0019285716 0.082928576 0.67500001
0.0032142859 0.082928576 0.67500001
0.0045000003 0.082928576 0.67500001
0.0057857148 0.082928576 0.67500001
0.0070819054 0.083051436 0.67600006
0.008369524 0.083051436 0.67600006
0.0096571436 0.083051436 0.67600006
0.010977143 0.083297148 0.67800003
0.012268572 0.083297148 0.67800003
0.013560001 0.083297148 0.67800003
0.014851429 0.083297148 0.67800003
0.016142858 0.083297148 0.67800003
0.017460002 0.083420008 0.67900002
0.018836191 0.083788574 0.68200004
0.020164764 0.083911434 0.68300003
0.021497143 0.084034294 0.68400002
0.022800002 0.084034294 0.68400002
0.024173334 0.084280007 0.68600005
0.025517145 0.084402859 0.68700004
0.026903812 0.084648579 0.68900001
0.028257145 0.084771432 0.69000006
0.029571431 0.084771432 0.69000006
0.030930478 0.084894292 0.69100004
0.032246668 0.084894292 0.69100004
0.033660002 0.085140005 0.69300002
-0.032433335 0.086709529 0.69500005
-0.031020002 0.086460009 0.69300002
-0.029700002 0.086460009 0.69300002
-0.028257145 0.086085722 0.69000006
-0.026903812 0.085960954 0.68900001
-0.025517145 0.085711434 0.68700004
-0.024173334 0.085586675 0.68600005
-0.022800002 0.085337147 0.68400002
-0.021434287 0.085087627 0.68200004
-0.020076191 0.0848381 0.68000001
-0.018753335 0.08471334 0.67900002
-0.017460002 0.08471334 0.67900002
-0.016190477 0.0848381 0.68000001
-0.014873334 0.08471334 0.67900002
-0.013580001 0.08471334 0.67900002
-0.012268572 0.08458858 0.67800003
-0.010928572 0.084214292 0.67500001
-0.0096428581 0.084214292 0.67500001
-0.008344762 0.084089532 0.67400002
-0.007060953 0.084089532 0.67400002
-0.0057771434 0.084089532 0.67400002
-0.0044933334 0.084089532 0.67400002
-0.0032095241 0.084089532 0.67400002
-0.0019257144 0.084089532 0.67400002
-0.00064285717 0.084214292 0.67500001
0.00064285717 0.084214292 0.67500001
0.0019285716 0.084214292 0.67500001
0.0032142859 0.084214292 0.67500001
0.0045000003 0.084214292 0.67500001
0.0057942863 0.084339052 0.67600006
0.0071028578 0.08458858 0.67800003
0.008394286 0.08458858 0.67800003
0.0096857147 0.08458858 0.67800003
0.010977143 0.08458858 0.67800003
0.012268572 0.08458858 0.67800003
0.013580001 0.08471334 0.67900002
0.014873334 0.08471334 0.67900002
0.016166668 0.08471334 0.67900002
0.017460002 0.08471334 0.67900002
0.018836191 0.085087627 0.68200004
0.020194286 0.085337147 0.68400002
0.021497143 0.085337147 0.68400002
0.022866668 0.085586675 0.68600005
0.024173334 0.085586675 0.68600005
0.025517145 0.085711434 0.68700004
0.026903812 0.085960954 0.68900001
0.028257145 0.086085722 0.69000006
0.029614288 0.086210482 0.69100004
0.030930478 0.086210482 0.69100004
0.032340001 0.086460009 0.69300002
0.033660002 0.086460009 0.69300002
0.034980003 0.086460009 0.69300002
-0.032433335 0.088033341 0.69500005
-0.030930478 0.087526672 0.69100004
-0.029614288 0.087526672 0.69100004
-0.028257145 0.087400004 0.69000006
-0.026903812 0.087273337 0.68900001
-0.025517145 0.087020002 0.68700004
-0.024173334 0.086893342 0.68600005
-0.022800002 0.086640008 0.68400002
-0.021434287 0.086386673 0.68200004
-0.020076191 0.086133339 0.68000001
-0.018780954 0.086133339 0.68000001
-0.017460002 0.086006671 0.67900002
-0.016190477 0.086133339 0.68000001
-0.014895239 0.086133339 0.68000001
-0.013580001 0.086006671 0.67900002
-0.012286668 0.086006671 0.67900002
-0.010944762 0.085626669 0.67600006
-0.0096428581 0.085500002 0.67500001
-0.008357143 0.085500002 0.67500001
-0.0070714289 0.085500002 0.67500001
-0.0057771434 0.085373342 0.67400002
-0.0044933334 0.085373342 0.67400002
-0.0032142859 0.085500002 0.67500001
-0.0019285716 0.085500002 0.67500001
-0.00064285717 0.085500002 0.67500001
0.00064285717 0.085500002 0.67500001
0.0019285716 0.085500002 0.67500001
0.0032190478 0.085626669 0.67600006
0.0045066671 0.085626669 0.67600006
0.0057942863 0.085626669 0.67600006
0.0071028578 0.085880004 0.67800003
0.008394286 0.085880004 0.67800003
0.0096857147 0.085880004 0.67800003
0.010977143 0.085880004 0.67800003
0.012286668 0.086006671 0.67900002
0.013580001 0.086006671 0.67900002
0.014873334 0.086006671 0.67900002
0.016166668 0.086006671 0.67900002
0.017485715 0.086133339 0.68000001
0.018836191 0.086386673 0.68200004
0.020194286 0.086640008 0.68400002
0.021497143 0.086640008 0.68400002
0.022866668 0.086893342 0.68600005
0.024173334 0.086893342 0.68600005
0.025517145 0.087020002 0.68700004
0.026825717 0.087020002 0.68700004
0.028257145 0.087400004 0.69000006
0.029571431 0.087400004 0.69000006
0.030930478 0.087526672 0.69100004
0.032340001 0.087780006 0.69300002
0.033660002 0.087780006 0.69300002
-0.038185716 0.09372858 0.72900003
-0.036797144 0.09372858 0.72900003
-0.033757146 0.089357145 0.69500005
-0.032433335 0.089357145 0.69500005
-0.031020002 0.089100003 0.69300002
-0.029700002 0.089100003 0.69300002
-0.028298097 0.088842861 0.69100004
-0.026942858 0.088714294 0.69000006
-0.025591429 0.088585719 0.68900001
-0.024173334 0.088200003 0.68600005
-0.022800002 0.087942861 0.68400002
-0.021434287 0.087685719 0.68200004
-0.020076191 0.087428577 0.68000001
-0.018780954 0.087428577 0.68000001
-0.017460002 0.087300003 0.67900002
-0.016190477 0.087428577 0.68000001
-0.014895239 0.087428577 0.68000001
-0.013600001 0.087428577 0.68000001
-0.012286668 0.087300003 0.67900002
-0.010977143 0.087171435 0.67800003
-0.0096571436 0.086914293 0.67600006
