# .PCD v0.7 - Point Cloud Data file format
VERSION 0.7
FIELDS x y z
SIZE 4 4 4
TYPE F F F
COUNT 1 1 1
WIDTH 1348
HEIGHT 1
VIEWPOINT 0 0 0 1 0 0 0
POINTS 1348
DATA ascii
-0.010042857 0.036823813 0.70300001
-0.0087161912 0.036876194 0.70400006
-0.0073752385 0.036876194 0.70400006
-0.0060428577 0.036928575 0.70500004
-0.0047000004 0.036928575 0.70500004
-0.0033666668 0.037033334 0.70700002
-0.0020200002 0.037033334 0.70700002
-0.00067333336 0.037033334 0.70700002
0.00067333336 0.037033334 0.70700002
0.0020200002 0.037033334 0.70700002
0.0033666668 0.037033334 0.70700002
0.0047133337 0.037033334 0.70700002
0.0060600005 0.037033334 0.70700002
0.0073857149 0.036928575 0.70500004
0.0087533342 0.037033334 0.70700002
0.010071429 0.036928575 0.70500004
0.011414287 0.036928575 0.70500004
-0.070620008 0.037620004 0.69300002
-0.069000006 0.037457146 0.69000006
-0.067587622 0.037402861 0.68900001
-0.066275239 0.037402861 0.68900001
-0.064962864 0.037402861 0.68900001
-0.063650481 0.037402861 0.68900001
-0.062428575 0.037457146 0.69000006
-0.06102572 0.037402861 0.68900001
-0.059800003 0.037457146 0.69000006
-0.058485717 0.037457146 0.69000006
-0.057171434 0.037457146 0.69000006
-0.055857148 0.037457146 0.69000006
-0.054621909 0.037511431 0.69100004
-0.053305719 0.037511431 0.69100004
-0.051989526 0.037511431 0.69100004
-0.050673336 0.037511431 0.69100004
-0.049357146 0.037511431 0.69100004
-0.048040956 0.037511431 0.69100004
-0.046860002 0.037620004 0.69300002
-0.045540001 0.037620004 0.69300002
-0.044220004 0.037620004 0.69300002
-0.042900003 0.037620004 0.69300002
-0.041580003 0.037620004 0.69300002
-0.040260002 0.037620004 0.69300002
-0.038996194 0.037674289 0.69400001
-0.037674289 0.037674289 0.69400001
-0.036352385 0.037674289 0.69400001
-0.035030477 0.037674289 0.69400001
-0.033708572 0.037674289 0.69400001
-0.032386668 0.037674289 0.69400001
-0.031109527 0.037728574 0.69500005
-0.029785717 0.037728574 0.69500005
-0.028461907 0.037728574 0.69500005
-0.027138097 0.037728574 0.69500005
-0.025888573 0.037837144 0.69700003
-0.024596192 0.037891433 0.69800001
-0.023266668 0.037891433 0.69800001
-0.021937145 0.037891433 0.69800001
-0.020578096 0.037837144 0.69700003
-0.019250477 0.037837144 0.69700003
-0.017948573 0.037891433 0.69800001
-0.016619049 0.037891433 0.69800001
-0.015333334 0.038000003 0.70000005
-0.014020001 0.038054287 0.70100003
-0.012720954 0.038162861 0.70300001
-0.011381906 0.038162861 0.70300001
-0.010042857 0.038162861 0.70300001
-0.0087038102 0.038162861 0.70300001
-0.0073752385 0.038217146 0.70400006
-0.0060342862 0.038217146 0.70400006
-0.0046933335 0.038217146 0.70400006
-0.0033571431 0.038271431 0.70500004
-0.0020142859 0.038271431 0.70500004
-0.00067142863 0.038271431 0.70500004
0.00067142863 0.038271431 0.70500004
0.0020142859 0.038271431 0.70500004
0.0033571431 0.038271431 0.70500004
0.0046933335 0.038217146 0.70400006
0.0060342862 0.038217146 0.70400006
0.0073857149 0.038271431 0.70500004
0.0087533342 0.038380001 0.70700002
0.010071429 0.038271431 0.70500004
0.011414287 0.038271431 0.70500004
0.012757144 0.038271431 0.70500004
0.014100001 0.038271431 0.70500004
-0.071628578 0.038771432 0.69000006
-0.070314288 0.038771432 0.69000006
-0.068900004 0.03871524 0.68900001
-0.067391433 0.038602859 0.68700004
-0.066082865 0.038602859 0.68700004
-0.06477429 0.038602859 0.68700004
-0.063650481 0.03871524 0.68900001
-0.062338099 0.03871524 0.68900001
-0.06102572 0.03871524 0.68900001
-0.059713338 0.03871524 0.68900001
-0.058485717 0.038771432 0.69000006
-0.057171434 0.038771432 0.69000006
-0.055857148 0.038771432 0.69000006
-0.054542862 0.038771432 0.69000006
-0.053228576 0.038771432 0.69000006
-0.05191429 0.038771432 0.69000006
-0.050600003 0.038771432 0.69000006
-0.049285717 0.038771432 0.69000006
-0.048040956 0.03882762 0.69100004
-0.046724766 0.03882762 0.69100004
-0.045408573 0.03882762 0.69100004
-0.044092383 0.03882762 0.69100004
-0.042776193 0.03882762 0.69100004
-0.041580003 0.038940001 0.69300002
-0.040143814 0.03882762 0.69100004
-0.038940001 0.038940001 0.69300002
-0.037620004 0.038940001 0.69300002
-0.036352385 0.038996194 0.69400001
-0.035030477 0.038996194 0.69400001
-0.033708572 0.038996194 0.69400001
-0.032386668 0.038996194 0.69400001
-0.031064764 0.038996194 0.69400001
-0.029785717 0.039052382 0.69500005
-0.028461907 0.039052382 0.69500005
-0.027138097 0.039052382 0.69500005
-0.025814287 0.039052382 0.69500005
-0.024560954 0.039164763 0.69700003
-0.023233335 0.039164763 0.69700003
-0.021905717 0.039164763 0.69700003
-0.020578096 0.039164763 0.69700003
-0.01919524 0.039052382 0.69500005
-0.017922858 0.039164763 0.69700003
-0.016595239 0.039164763 0.69700003
-0.015289525 0.039220955 0.69800001
-0.014000001 0.039333336 0.70000005
-0.012684762 0.039389525 0.70100003
-0.011349524 0.039389525 0.70100003
-0.010014286 0.039389525 0.70100003
-0.0086790482 0.039389525 0.70100003
-0.0073647625 0.039501909 0.70300001
-0.0060257148 0.039501909 0.70300001
-0.0046933335 0.039558098 0.70400006
-0.0033523813 0.039558098 0.70400006
-0.0020114286 0.039558098 0.70400006
-0.00067047623 0.039558098 0.70400006
0.00067047623 0.039558098 0.70400006
0.0020114286 0.039558098 0.70400006
0.0033523813 0.039558098 0.70400006
0.0046933335 0.039558098 0.70400006
0.0060257148 0.039501909 0.70300001
0.0073752385 0.039558098 0.70400006
0.0087161912 0.039558098 0.70400006
0.010057144 0.039558098 0.70400006
0.011398096 0.039558098 0.70400006
0.012757144 0.03961429 0.70500004
0.014100001 0.03961429 0.70500004
0.015552382 0.03989524 0.71000004
0.016904764 0.03989524 0.71000004
0.026297145 0.039782859 0.708
0.027645716 0.039782859 0.708
0.028953334 0.039726671 0.70700002
0.033180002 0.039951432 0.71100003
-0.071524769 0.040027622 0.68900001
-0.070212387 0.040027622 0.68900001
-0.068700008 0.03991143 0.68700004
-0.067293338 0.039853334 0.68600005
-0.065986671 0.039853334 0.68600005
-0.06477429 0.03991143 0.68700004
-0.063465722 0.03991143 0.68700004
-0.062338099 0.040027622 0.68900001
-0.06102572 0.040027622 0.68900001
-0.059713338 0.040027622 0.68900001
-0.058485717 0.040085718 0.69000006
-0.057171434 0.040085718 0.69000006
-0.055857148 0.040085718 0.69000006
-0.054542862 0.040085718 0.69000006
-0.053228576 0.040085718 0.69000006
-0.05191429 0.040085718 0.69000006
-0.050600003 0.040085718 0.69000006
-0.049285717 0.040085718 0.69000006
-0.047971431 0.040085718 0.69000006
-0.046657145 0.040085718 0.69000006
-0.045342859 0.040085718 0.69000006
-0.044028573 0.040085718 0.69000006
-0.04271429 0.040085718 0.69000006
-0.041460004 0.040143814 0.69100004
-0.040143814 0.040143814 0.69100004
-0.03882762 0.040143814 0.69100004
-0.037620004 0.040260002 0.69300002
-0.036300004 0.040260002 0.69300002
-0.035030477 0.040318098 0.69400001
-0.033708572 0.040318098 0.69400001
-0.032386668 0.040318098 0.69400001
-0.031064764 0.040318098 0.69400001
-0.029742859 0.040318098 0.69400001
-0.028461907 0.040376194 0.69500005
-0.027138097 0.040376194 0.69500005
-0.025814287 0.040376194 0.69500005
-0.024490478 0.040376194 0.69500005
-0.023166668 0.040376194 0.69500005
-0.021842858 0.040376194 0.69500005
-0.02051905 0.040376194 0.69500005
-0.01919524 0.040376194 0.69500005
-0.01787143 0.040376194 0.69500005
-0.016595239 0.040492382 0.69700003
-0.015289525 0.040550478 0.69800001
-0.013960001 0.040550478 0.69800001
-0.012666668 0.04066667 0.70000005
-0.011333334 0.04066667 0.70000005
-0.010000001 0.04066667 0.70000005
-0.0086666672 0.04066667 0.70000005
-0.0073438101 0.040724766 0.70100003
-0.0060085719 0.040724766 0.70100003
-0.0046866671 0.040840954 0.70300001
-0.0033476192 0.040840954 0.70300001
-0.0020085715 0.040840954 0.70300001
-0.00066952384 0.040840954 0.70300001
0.00067047623 0.040899049 0.70400006
0.0020114286 0.040899049 0.70400006
0.0033476192 0.040840954 0.70300001
0.0046866671 0.040840954 0.70300001
0.0060257148 0.040840954 0.70300001
0.0073647625 0.040840954 0.70300001
0.0087038102 0.040840954 0.70300001
0.010042857 0.040840954 0.70300001
0.011381906 0.040840954 0.70300001
0.012739048 0.040899049 0.70400006
0.014100001 0.040957145 0.70500004
0.015508573 0.041131433 0.708
0.016857143 0.041131433 0.708
0.020961907 0.041247621 0.71000004
0.022251431 0.041131433 0.708
0.023600001 0.041131433 0.708
0.024948573 0.041131433 0.708
0.026297145 0.041131433 0.708
0.027645716 0.041131433 0.708
0.028953334 0.041073337 0.70700002
0.030300003 0.041073337 0.70700002
0.031646669 0.041073337 0.70700002
0.033133335 0.041247621 0.71000004
0.034485716 0.041247621 0.71000004
-0.072837144 0.041340001 0.68900001
-0.071317151 0.041220002 0.68700004
-0.070008576 0.041220002 0.68700004
-0.068700008 0.041220002 0.68700004
-0.067293338 0.041160002 0.68600005
-0.065986671 0.041160002 0.68600005
-0.064680003 0.041160002 0.68600005
-0.063373335 0.041160002 0.68600005
-0.062157147 0.041220002 0.68700004
-0.060848575 0.041220002 0.68700004
-0.059713338 0.041340001 0.68900001
-0.058400955 0.041340001 0.68900001
-0.057088576 0.041340001 0.68900001
-0.055776194 0.041340001 0.68900001
-0.054463815 0.041340001 0.68900001
-0.053151432 0.041340001 0.68900001
-0.05183905 0.041340001 0.68900001
-0.050526671 0.041340001 0.68900001
-0.049214289 0.041340001 0.68900001
-0.047901906 0.041340001 0.68900001
-0.046657145 0.041400004 0.69000006
-0.045342859 0.041400004 0.69000006
-0.044028573 0.041400004 0.69000006
-0.04271429 0.041400004 0.69000006
-0.041400004 0.041400004 0.69000006
-0.040085718 0.041400004 0.69000006
-0.03882762 0.041460004 0.69100004
-0.037511431 0.041460004 0.69100004
-0.036195241 0.041460004 0.69100004
-0.034980003 0.041580003 0.69300002
-0.033660002 0.041580003 0.69300002
-0.032340001 0.041580003 0.69300002
-0.031064764 0.041640002 0.69400001
-0.029742859 0.041640002 0.69400001
-0.028420955 0.041640002 0.69400001
-0.027099049 0.041640002 0.69400001
-0.025777144 0.041640002 0.69400001
-0.024490478 0.041700002 0.69500005
-0.023166668 0.041700002 0.69500005
-0.021842858 0.041700002 0.69500005
-0.02051905 0.041700002 0.69500005
-0.01919524 0.041700002 0.69500005
-0.01787143 0.041700002 0.69500005
-0.01654762 0.041700002 0.69500005
-0.01526762 0.041820005 0.69700003
-0.013960001 0.041880004 0.69800001
-0.012630477 0.041880004 0.69800001
-0.011333334 0.042000003 0.70000005
-0.0099714296 0.041880004 0.69800001
-0.0086419052 0.041880004 0.69800001
-0.0073333336 0.042000003 0.70000005
-0.0060000005 0.042000003 0.70000005
-0.0046733338 0.042060003 0.70100003
-0.0033380955 0.042060003 0.70100003
-0.0020028572 0.042060003 0.70100003
-0.00066761911 0.042060003 0.70100003
0.00066952384 0.042180002 0.70300001
0.0020028572 0.042060003 0.70100003
0.0033380955 0.042060003 0.70100003
0.0046733338 0.042060003 0.70100003
0.0060085719 0.042060003 0.70100003
0.0073438101 0.042060003 0.70100003
0.0087038102 0.042180002 0.70300001
0.010042857 0.042180002 0.70300001
0.011381906 0.042180002 0.70300001
0.012720954 0.042180002 0.70300001
0.014080001 0.042240001 0.70400006
0.015442858 0.042300005 0.70500004
0.016857143 0.042480003 0.708
0.018205715 0.042480003 0.708
0.019554287 0.042480003 0.708
0.020902859 0.042480003 0.708
0.022251431 0.042480003 0.708
0.023600001 0.042480003 0.708
0.024948573 0.042480003 0.708
0.026297145 0.042480003 0.708
0.027645716 0.042480003 0.708
0.028953334 0.042420004 0.70700002
0.030300003 0.042420004 0.70700002
0.031691432 0.042480003 0.708
0.033040002 0.042480003 0.708
0.034485716 0.042600002 0.71000004
0.035838097 0.042600002 0.71000004
0.037347622 0.042780004 0.71300006
-0.071317151 0.042528573 0.68700004
-0.070008576 0.042528573 0.68700004
-0.068600006 0.04246667 0.68600005
-0.06709715 0.04234286 0.68400002
-0.065794289 0.04234286 0.68400002
-0.064680003 0.04246667 0.68600005
-0.063373335 0.04246667 0.68600005
-0.062157147 0.042528573 0.68700004
-0.060848575 0.042528573 0.68700004
-0.059713338 0.042652383 0.68900001
-0.058400955 0.042652383 0.68900001
-0.057088576 0.042652383 0.68900001
-0.055776194 0.042652383 0.68900001
-0.054463815 0.042652383 0.68900001
-0.053151432 0.042652383 0.68900001
-0.05183905 0.042652383 0.68900001
-0.050526671 0.042652383 0.68900001
-0.049214289 0.042652383 0.68900001
-0.047901906 0.042652383 0.68900001
-0.046589527 0.042652383 0.68900001
-0.045342859 0.04271429 0.69000006
-0.044028573 0.04271429 0.69000006
-0.04271429 0.04271429 0.69000006
-0.041400004 0.04271429 0.69000006
-0.040085718 0.04271429 0.69000006
-0.038771432 0.04271429 0.69000006
-0.037511431 0.042776193 0.69100004
-0.036195241 0.042776193 0.69100004
-0.034879051 0.042776193 0.69100004
-0.033562858 0.042776193 0.69100004
-0.032340001 0.042900003 0.69300002
-0.031020002 0.042900003 0.69300002
-0.029700002 0.042900003 0.69300002
-0.028380001 0.042900003 0.69300002
-0.027099049 0.042961907 0.69400001
-0.025777144 0.042961907 0.69400001
-0.02445524 0.042961907 0.69400001
-0.023133336 0.042961907 0.69400001
-0.021811429 0.042961907 0.69400001
-0.02051905 0.043023814 0.69500005
-0.01919524 0.043023814 0.69500005
-0.01787143 0.043023814 0.69500005
-0.01654762 0.043023814 0.69500005
-0.01526762 0.043147624 0.69700003
-0.013940001 0.043147624 0.69700003
-0.012612382 0.043147624 0.69700003
-0.011300953 0.043209527 0.69800001
-0.0099714296 0.043209527 0.69800001
-0.0086419052 0.043209527 0.69800001
-0.0073123816 0.043209527 0.69800001
-0.0060000005 0.043333337 0.70000005
-0.004666667 0.043333337 0.70000005
-0.0033333336 0.043333337 0.70000005
-0.0020000001 0.043333337 0.70000005
-0.00066666672 0.043333337 0.70000005
0.00066761911 0.04339524 0.70100003
0.0020028572 0.04339524 0.70100003
0.0033380955 0.04339524 0.70100003
0.0046733338 0.04339524 0.70100003
0.0060085719 0.04339524 0.70100003
0.0073438101 0.04339524 0.70100003
0.0086790482 0.04339524 0.70100003
0.010014286 0.04339524 0.70100003
0.011381906 0.04351905 0.70300001
0.012720954 0.04351905 0.70300001
0.014060001 0.04351905 0.70300001
0.015442858 0.04364286 0.70500004
0.016833335 0.04376667 0.70700002
0.018180002 0.04376667 0.70700002
0.019554287 0.043828573 0.708
0.020902859 0.043828573 0.708
0.022251431 0.043828573 0.708
0.023566669 0.04376667 0.70700002
0.024913335 0.04376667 0.70700002
0.026260002 0.04376667 0.70700002
0.027606668 0.04376667 0.70700002
0.028953334 0.04376667 0.70700002
0.030300003 0.04376667 0.70700002
0.031691432 0.043828573 0.708
0.033040002 0.043828573 0.708
0.034388572 0.043828573 0.708
0.035838097 0.043952383 0.71000004
0.037190478 0.043952383 0.71000004
0.038597144 0.04401429 0.71100003
0.039951432 0.04401429 0.71100003
0.041305717 0.04401429 0.71100003
0.042660002 0.04401429 0.71100003
0.0441381 0.0441381 0.71300006
0.045496192 0.0441381 0.71300006
-0.072625719 0.043837145 0.68700004
-0.071213335 0.043773334 0.68600005
-0.069906674 0.043773334 0.68600005
-0.068600006 0.043773334 0.68600005
-0.06709715 0.043645717 0.68400002
-0.065794289 0.043645717 0.68400002
-0.064491436 0.043645717 0.68400002
-0.063373335 0.043773334 0.68600005
-0.062066671 0.043773334 0.68600005
-0.060848575 0.043837145 0.68700004
-0.059540004 0.043837145 0.68700004
-0.058400955 0.043964766 0.68900001
-0.057088576 0.043964766 0.68900001
-0.055776194 0.043964766 0.68900001
-0.054463815 0.043964766 0.68900001
-0.053151432 0.043964766 0.68900001
-0.051688574 0.043837145 0.68700004
-0.050380003 0.043837145 0.68700004
-0.049214289 0.043964766 0.68900001
-0.047901906 0.043964766 0.68900001
-0.046589527 0.043964766 0.68900001
-0.045277145 0.043964766 0.68900001
-0.044028573 0.044028573 0.69000006
-0.04271429 0.044028573 0.69000006
-0.041400004 0.044028573 0.69000006
-0.040085718 0.044028573 0.69000006
-0.038771432 0.044028573 0.69000006
-0.037511431 0.044092383 0.69100004
-0.036195241 0.044092383 0.69100004
-0.034879051 0.044092383 0.69100004
-0.033562858 0.044092383 0.69100004
-0.032340001 0.044220004 0.69300002
-0.031020002 0.044220004 0.69300002
-0.029700002 0.044220004 0.69300002
-0.028380001 0.044220004 0.69300002
-0.027060002 0.044220004 0.69300002
-0.025740001 0.044220004 0.69300002
-0.02445524 0.044283811 0.69400001
-0.023133336 0.044283811 0.69400001
-0.021811429 0.044283811 0.69400001
-0.020489525 0.044283811 0.69400001
-0.019167621 0.044283811 0.69400001
-0.017845716 0.044283811 0.69400001
-0.01652381 0.044283811 0.69400001
-0.01526762 0.044475242 0.69700003
-0.013940001 0.044475242 0.69700003
-0.012612382 0.044475242 0.69700003
-0.011284763 0.044475242 0.69700003
-0.0099571431 0.044475242 0.69700003
-0.0086295241 0.044475242 0.69700003
-0.0073019052 0.044475242 0.69700003
-0.0059828577 0.044539049 0.69800001
-0.0046533337 0.044539049 0.69800001
-0.0033238097 0.044539049 0.69800001
-0.0019942857 0.044539049 0.69800001
-0.00066666672 0.04466667 0.70000005
0.00066666672 0.04466667 0.70000005
0.0020000001 0.04466667 0.70000005
0.0033333336 0.04466667 0.70000005
0.004666667 0.04466667 0.70000005
0.0060000005 0.04466667 0.70000005
0.0073333336 0.04466667 0.70000005
0.0086790482 0.044730481 0.70100003
0.010014286 0.044730481 0.70100003
0.011349524 0.044730481 0.70100003
0.012720954 0.044858098 0.70300001
0.014060001 0.044858098 0.70300001
0.015420954 0.044921909 0.70400006
0.016761906 0.044921909 0.70400006
0.018102858 0.044921909 0.70400006
0.019526668 0.045113336 0.70700002
0.020873334 0.045113336 0.70700002
0.022220001 0.045113336 0.70700002
0.023566669 0.045113336 0.70700002
0.024913335 0.045113336 0.70700002
0.026260002 0.045113336 0.70700002
0.027606668 0.045113336 0.70700002
0.028953334 0.045113336 0.70700002
0.030300003 0.045113336 0.70700002
0.031691432 0.045177147 0.708
0.033040002 0.045177147 0.708
0.034388572 0.045177147 0.708
0.035737146 0.045177147 0.708
0.037085716 0.045177147 0.708
0.038434289 0.045177147 0.708
0.039782859 0.045177147 0.708
0.041247621 0.045304764 0.71000004
0.042600002 0.045304764 0.71000004
0.04401429 0.045368575 0.71100003
0.045368575 0.045368575 0.71100003
-0.072520003 0.045080002 0.68600005
-0.071005717 0.044948574 0.68400002
-0.069702864 0.044948574 0.68400002
-0.068400003 0.044948574 0.68400002
-0.06709715 0.044948574 0.68400002
-0.065794289 0.044948574 0.68400002
-0.064491436 0.044948574 0.68400002
-0.063188575 0.044948574 0.68400002
-0.061885718 0.044948574 0.68400002
-0.060848575 0.045145717 0.68700004
-0.059540004 0.045145717 0.68700004
-0.058231432 0.045145717 0.68700004
-0.05692286 0.045145717 0.68700004
-0.055776194 0.045277145 0.68900001
-0.054305717 0.045145717 0.68700004
-0.052997146 0.045145717 0.68700004
-0.051688574 0.045145717 0.68700004
-0.050380003 0.045145717 0.68700004
-0.049071431 0.045145717 0.68700004
-0.04776286 0.045145717 0.68700004
-0.046589527 0.045277145 0.68900001
-0.045277145 0.045277145 0.68900001
-0.043964766 0.045277145 0.68900001
-0.042652383 0.045277145 0.68900001
-0.041340001 0.045277145 0.68900001
-0.040027622 0.045277145 0.68900001
-0.038771432 0.045342859 0.69000006
-0.037457146 0.045342859 0.69000006
-0.03614286 0.045342859 0.69000006
-0.034828573 0.045342859 0.69000006
-0.033562858 0.045408573 0.69100004
-0.032246668 0.045408573 0.69100004
-0.031020002 0.045540001 0.69300002
-0.029614288 0.045408573 0.69100004
-0.028298097 0.045408573 0.69100004
-0.027060002 0.045540001 0.69300002
-0.025665715 0.045408573 0.69100004
-0.024420002 0.045540001 0.69300002
-0.023100002 0.045540001 0.69300002
-0.021780001 0.045540001 0.69300002
-0.020489525 0.045605719 0.69400001
-0.019167621 0.045605719 0.69400001
-0.017845716 0.045605719 0.69400001
-0.01652381 0.045605719 0.69400001
-0.01522381 0.045671433 0.69500005
-0.013900001 0.045671433 0.69500005
-0.012576192 0.045671433 0.69500005
-0.011284763 0.045802861 0.69700003
-0.0099571431 0.045802861 0.69700003
-0.0086295241 0.045802861 0.69700003
-0.0073019052 0.045802861 0.69700003
-0.0059742862 0.045802861 0.69700003
-0.0046466668 0.045802861 0.69700003
-0.0033190479 0.045802861 0.69700003
-0.0019914287 0.045802861 0.69700003
-0.00066476193 0.045868576 0.69800001
0.00066476193 0.045868576 0.69800001
0.0019942857 0.045868576 0.69800001
0.0033238097 0.045868576 0.69800001
0.0046533337 0.045868576 0.69800001
0.0060000005 0.046000004 0.70000005
0.0073333336 0.046000004 0.70000005
0.0086666672 0.046000004 0.70000005
0.010000001 0.046000004 0.70000005
0.011349524 0.046065718 0.70100003
0.012684762 0.046065718 0.70100003
0.014060001 0.046197146 0.70300001
0.015399049 0.046197146 0.70300001
0.016738096 0.046197146 0.70300001
0.018077144 0.046197146 0.70300001
0.01944381 0.04626286 0.70400006
0.020814287 0.046328574 0.70500004
0.022157144 0.046328574 0.70500004
0.023500001 0.046328574 0.70500004
0.024913335 0.046460003 0.70700002
0.026260002 0.046460003 0.70700002
0.027606668 0.046460003 0.70700002
0.028953334 0.046460003 0.70700002
0.030300003 0.046460003 0.70700002
0.031646669 0.046460003 0.70700002
0.032993335 0.046460003 0.70700002
0.034340002 0.046460003 0.70700002
0.035686668 0.046460003 0.70700002
0.037033334 0.046460003 0.70700002
0.038380001 0.046460003 0.70700002
0.039782859 0.046525717 0.708
0.041131433 0.046525717 0.708
0.042600002 0.046657145 0.71000004
0.043952383 0.046657145 0.71000004
0.045304764 0.046657145 0.71000004
0.046657145 0.046657145 0.71000004
-0.072308578 0.046251431 0.68400002
-0.071005717 0.046251431 0.68400002
-0.069600955 0.046183813 0.68300003
-0.068300001 0.046183813 0.68300003
-0.066999055 0.046183813 0.68300003
-0.065698102 0.046183813 0.68300003
-0.064491436 0.046251431 0.68400002
-0.063188575 0.046251431 0.68400002
-0.061885718 0.046251431 0.68400002
-0.060760003 0.04638667 0.68600005
-0.059540004 0.046454288 0.68700004
-0.058231432 0.046454288 0.68700004
-0.05692286 0.046454288 0.68700004
-0.055614289 0.046454288 0.68700004
-0.054305717 0.046454288 0.68700004
-0.052997146 0.046454288 0.68700004
-0.051688574 0.046454288 0.68700004
-0.050380003 0.046454288 0.68700004
-0.049071431 0.046454288 0.68700004
-0.04776286 0.046454288 0.68700004
-0.046454288 0.046454288 0.68700004
-0.045277145 0.046589527 0.68900001
-0.043964766 0.046589527 0.68900001
-0.042652383 0.046589527 0.68900001
-0.041340001 0.046589527 0.68900001
-0.040027622 0.046589527 0.68900001
-0.03871524 0.046589527 0.68900001
-0.037457146 0.046657145 0.69000006
-0.03614286 0.046657145 0.69000006
-0.034828573 0.046657145 0.69000006
-0.033514287 0.046657145 0.69000006
-0.032246668 0.046724766 0.69100004
-0.030930478 0.046724766 0.69100004
-0.029614288 0.046724766 0.69100004
-0.028298097 0.046724766 0.69100004
-0.026981907 0.046724766 0.69100004
-0.025665715 0.046724766 0.69100004
-0.024349526 0.046724766 0.69100004
-0.023100002 0.046860002 0.69300002
-0.021780001 0.046860002 0.69300002
-0.020460002 0.046860002 0.69300002
-0.019140001 0.046860002 0.69300002
-0.017820001 0.046860002 0.69300002
-0.01654762 0.046995241 0.69500005
-0.01522381 0.046995241 0.69500005
-0.013900001 0.046995241 0.69500005
-0.012576192 0.046995241 0.69500005
-0.011252382 0.046995241 0.69500005
-0.009928572 0.046995241 0.69500005
-0.0086047621 0.046995241 0.69500005
-0.0073019052 0.04713048 0.69700003
-0.0059742862 0.04713048 0.69700003
-0.0046466668 0.04713048 0.69700003
-0.0033190479 0.04713048 0.69700003
-0.0019914287 0.04713048 0.69700003
-0.00066380959 0.04713048 0.69700003
0.00066476193 0.047198098 0.69800001
0.0019942857 0.047198098 0.69800001
0.0033238097 0.047198098 0.69800001
0.0046533337 0.047198098 0.69800001
0.0059828577 0.047198098 0.69800001
0.0073123816 0.047198098 0.69800001
0.0086419052 0.047198098 0.69800001
0.010000001 0.047333337 0.70000005
0.011333334 0.047333337 0.70000005
0.012666668 0.047333337 0.70000005
0.014020001 0.047400955 0.70100003
0.015355239 0.047400955 0.70100003
0.016738096 0.047536194 0.70300001
0.018077144 0.047536194 0.70300001
0.019416193 0.047536194 0.70300001
0.020784764 0.047603812 0.70400006
0.022094287 0.047536194 0.70300001
0.023466669 0.047603812 0.70400006
0.024842858 0.047671434 0.70500004
0.026185716 0.047671434 0.70500004
0.027528573 0.047671434 0.70500004
0.02887143 0.047671434 0.70500004
0.030300003 0.047806669 0.70700002
0.031646669 0.047806669 0.70700002
0.032993335 0.047806669 0.70700002
0.034242861 0.047671434 0.70500004
0.035686668 0.047806669 0.70700002
0.037033334 0.047806669 0.70700002
0.038380001 0.047806669 0.70700002
0.039726671 0.047806669 0.70700002
0.041073337 0.047806669 0.70700002
0.042480003 0.04787429 0.708
0.043828573 0.04787429 0.708
0.045177147 0.04787429 0.708
0.046525717 0.04787429 0.708
0.16667621 0.055041909 0.81400001
0.16822667 0.055041909 0.81400001
-0.089142866 0.05561905 0.80000001
-0.087400004 0.055480003 0.79800004
-0.085880004 0.055480003 0.79800004
-0.072520003 0.047693338 0.68600005
-0.071005717 0.047554288 0.68400002
-0.069702864 0.047554288 0.68400002
-0.068400003 0.047554288 0.68400002
-0.06709715 0.047554288 0.68400002
-0.065794289 0.047554288 0.68400002
-0.064491436 0.047554288 0.68400002
-0.063188575 0.047554288 0.68400002
-0.061885718 0.047554288 0.68400002
-0.060582861 0.047554288 0.68400002
-0.059280004 0.047554288 0.68400002
-0.057977147 0.047554288 0.68400002
-0.056840003 0.047693338 0.68600005
-0.055533338 0.047693338 0.68600005
-0.05422667 0.047693338 0.68600005
-0.052920002 0.047693338 0.68600005
-0.051613338 0.047693338 0.68600005
-0.05030667 0.047693338 0.68600005
-0.049000002 0.047693338 0.68600005
-0.047693338 0.047693338 0.68600005
-0.046454288 0.04776286 0.68700004
-0.045145717 0.04776286 0.68700004
-0.043837145 0.04776286 0.68700004
-0.042652383 0.047901906 0.68900001
-0.041340001 0.047901906 0.68900001
-0.040027622 0.047901906 0.68900001
-0.03871524 0.047901906 0.68900001
-0.037457146 0.047971431 0.69000006
-0.03614286 0.047971431 0.69000006
-0.034828573 0.047971431 0.69000006
-0.033514287 0.047971431 0.69000006
-0.032200001 0.047971431 0.69000006
-0.030885717 0.047971431 0.69000006
-0.029571431 0.047971431 0.69000006
-0.028257145 0.047971431 0.69000006
-0.026942858 0.047971431 0.69000006
-0.025628572 0.047971431 0.69000006
-0.024314288 0.047971431 0.69000006
-0.023000002 0.047971431 0.69000006
-0.021685716 0.047971431 0.69000006
-0.02037143 0.047971431 0.69000006
-0.019057143 0.047971431 0.69000006
-0.017768573 0.048040956 0.69100004
-0.016500002 0.048180003 0.69300002
-0.015201906 0.048249528 0.69400001
-0.01388 0.048249528 0.69400001
-0.012558096 0.048249528 0.69400001
-0.011236191 0.048249528 0.69400001
-0.009928572 0.048319049 0.69500005
-0.0086047621 0.048319049 0.69500005
-0.0072809528 0.048319049 0.69500005
-0.0059571434 0.048319049 0.69500005
-0.0046333335 0.048319049 0.69500005
-0.0033095239 0.048319049 0.69500005
-0.0019857143 0.048319049 0.69500005
-0.00066380959 0.048458099 0.69700003
0.00066380959 0.048458099 0.69700003
0.0019914287 0.048458099 0.69700003
0.0033190479 0.048458099 0.69700003
0.0046466668 0.048458099 0.69700003
0.0059742862 0.048458099 0.69700003
0.0073019052 0.048458099 0.69700003
0.0086419052 0.048527621 0.69800001
0.0099714296 0.048527621 0.69800001
0.011300953 0.048527621 0.69800001
0.012666668 0.048666671 0.70000005
0.014000001 0.048666671 0.70000005
0.015355239 0.048736192 0.70100003
0.016666668 0.048666671 0.70000005
0.018025715 0.048736192 0.70100003
0.019360954 0.048736192 0.70100003
0.020696191 0.048736192 0.70100003
0.02203143 0.048736192 0.70100003
0.023333335 0.048666671 0.70000005
0.024701906 0.048736192 0.70100003
0.026037145 0.048736192 0.70100003
0.027450478 0.048875242 0.70300001
0.028830478 0.048944764 0.70400006
0.03017143 0.048944764 0.70400006
0.031512383 0.048944764 0.70400006
0.032853335 0.048944764 0.70400006
0.034194287 0.048944764 0.70400006
0.035535239 0.048944764 0.70400006
0.036876194 0.048944764 0.70400006
0.038217146 0.048944764 0.70400006
0.03961429 0.049014289 0.70500004
0.040957145 0.049014289 0.70500004
0.042300005 0.049014289 0.70500004
0.04376667 0.049153335 0.70700002
0.045113336 0.049153335 0.70700002
0.046460003 0.049153335 0.70700002
0.047806669 0.049153335 0.70700002
0.04922286 0.04922286 0.708
-0.087290481 0.056928575 0.79700005
-0.073934294 0.049071431 0.68700004
-0.072520003 0.049000002 0.68600005
-0.071005717 0.048857145 0.68400002
-0.069702864 0.048857145 0.68400002
-0.068400003 0.048857145 0.68400002
-0.066999055 0.048785716 0.68300003
-0.065794289 0.048857145 0.68400002
-0.064491436 0.048857145 0.68400002
-0.063188575 0.048857145 0.68400002
-0.061885718 0.048857145 0.68400002
-0.060582861 0.048857145 0.68400002
-0.059280004 0.048857145 0.68400002
-0.057977147 0.048857145 0.68400002
-0.05667429 0.048857145 0.68400002
-0.055371433 0.048857145 0.68400002
-0.054068577 0.048857145 0.68400002
-0.052920002 0.049000002 0.68600005
-0.051613338 0.049000002 0.68600005
-0.05030667 0.049000002 0.68600005
-0.049000002 0.049000002 0.68600005
-0.047693338 0.049000002 0.68600005
-0.046454288 0.049071431 0.68700004
-0.045145717 0.049071431 0.68700004
-0.043837145 0.049071431 0.68700004
-0.042528573 0.049071431 0.68700004
-0.041340001 0.049214289 0.68900001
-0.040027622 0.049214289 0.68900001
-0.03871524 0.049214289 0.68900001
-0.037402861 0.049214289 0.68900001
-0.036090478 0.049214289 0.68900001
-0.034828573 0.049285717 0.69000006
-0.033514287 0.049285717 0.69000006
-0.032200001 0.049285717 0.69000006
-0.030885717 0.049285717 0.69000006
-0.029571431 0.049285717 0.69000006
-0.028257145 0.049285717 0.69000006
-0.026942858 0.049285717 0.69000006
-0.025628572 0.049285717 0.69000006
-0.024314288 0.049285717 0.69000006
-0.023000002 0.049285717 0.69000006
-0.021685716 0.049285717 0.69000006
-0.02037143 0.049285717 0.69000006
-0.019057143 0.049285717 0.69000006
-0.017768573 0.049357146 0.69100004
-0.016500002 0.049500003 0.69300002
-0.015180001 0.049500003 0.69300002
-0.013860001 0.049500003 0.69300002
-0.012558096 0.049571432 0.69400001
-0.011236191 0.049571432 0.69400001
-0.0099142864 0.049571432 0.69400001
-0.0086047621 0.049642861 0.69500005
-0.0072809528 0.049642861 0.69500005
-0.0059571434 0.049642861 0.69500005
-0.0046333335 0.049642861 0.69500005
-0.0033095239 0.049642861 0.69500005
-0.0019857143 0.049642861 0.69500005
-0.00066190481 0.049642861 0.69500005
0.00066190481 0.049642861 0.69500005
0.0019914287 0.049785718 0.69700003
0.0033095239 0.049642861 0.69500005
0.0046466668 0.049785718 0.69700003
0.0059742862 0.049785718 0.69700003
0.0073019052 0.049785718 0.69700003
0.0086295241 0.049785718 0.69700003
0.0099571431 0.049785718 0.69700003
0.011300953 0.049857147 0.69800001
0.012630477 0.049857147 0.69800001
0.014000001 0.050000004 0.70000005
0.015333334 0.050000004 0.70000005
0.016666668 0.050000004 0.70000005
0.018000001 0.050000004 0.70000005
0.019333335 0.050000004 0.70000005
0.020666668 0.050000004 0.70000005
0.022000002 0.050000004 0.70000005
0.023333335 0.050000004 0.70000005
0.024666669 0.050000004 0.70000005
0.026000002 0.050000004 0.70000005
0.027372383 0.050071433 0.70100003
0.028789526 0.050214291 0.70300001
0.030128574 0.050214291 0.70300001
0.03146762 0.050214291 0.70300001
0.032853335 0.050285719 0.70400006
0.034194287 0.050285719 0.70400006
0.035535239 0.050285719 0.70400006
0.036876194 0.050285719 0.70400006
0.038217146 0.050285719 0.70400006
0.039558098 0.050285719 0.70400006
0.040899049 0.050285719 0.70400006
0.042300005 0.050357144 0.70500004
0.04376667 0.050500002 0.70700002
0.045113336 0.050500002 0.70700002
0.046460003 0.050500002 0.70700002
0.047806669 0.050500002 0.70700002
0.049153335 0.050500002 0.70700002
-0.085557148 0.058300003 0.79500002
-0.072520003 0.05030667 0.68600005
-0.071213335 0.05030667 0.68600005
-0.069702864 0.050160002 0.68400002
-0.068400003 0.050160002 0.68400002
-0.066999055 0.05008667 0.68300003
-0.065698102 0.05008667 0.68300003
-0.064397149 0.05008667 0.68300003
-0.063096195 0.05008667 0.68300003
-0.061885718 0.050160002 0.68400002
-0.060582861 0.050160002 0.68400002
-0.059280004 0.050160002 0.68400002
-0.057977147 0.050160002 0.68400002
-0.05667429 0.050160002 0.68400002
-0.055371433 0.050160002 0.68400002
-0.054068577 0.050160002 0.68400002
-0.05276572 0.050160002 0.68400002
-0.051462859 0.050160002 0.68400002
-0.050160002 0.050160002 0.68400002
-0.048857145 0.050160002 0.68400002
-0.047693338 0.05030667 0.68600005
-0.04638667 0.05030667 0.68600005
-0.045145717 0.050380003 0.68700004
-0.043773334 0.05030667 0.68600005
-0.042528573 0.050380003 0.68700004
-0.041220002 0.050380003 0.68700004
-0.040027622 0.050526671 0.68900001
-0.03871524 0.050526671 0.68900001
-0.037402861 0.050526671 0.68900001
-0.036090478 0.050526671 0.68900001
-0.034778096 0.050526671 0.68900001
-0.033465717 0.050526671 0.68900001
-0.032153334 0.050526671 0.68900001
-0.030885717 0.050600003 0.69000006
-0.029571431 0.050600003 0.69000006
-0.028257145 0.050600003 0.69000006
-0.026942858 0.050600003 0.69000006
-0.025628572 0.050600003 0.69000006
-0.024314288 0.050600003 0.69000006
-0.023000002 0.050600003 0.69000006
-0.021685716 0.050600003 0.69000006
-0.02037143 0.050600003 0.69000006
-0.019057143 0.050600003 0.69000006
-0.017742859 0.050600003 0.69000006
-0.016452381 0.050673336 0.69100004
-0.015136192 0.050673336 0.69100004
-0.013820001 0.050673336 0.69100004
-0.01254 0.050820004 0.69300002
-0.011220001 0.050820004 0.69300002
-0.0099000009 0.050820004 0.69300002
-0.0085923811 0.050893337 0.69400001
-0.0072704768 0.050893337 0.69400001
-0.005948572 0.050893337 0.69400001
-0.0046266671 0.050893337 0.69400001
-0.0033095239 0.050966669 0.69500005
-0.0019857143 0.050966669 0.69500005
-0.00066190481 0.050966669 0.69500005
0.00066190481 0.050966669 0.69500005
0.0019914287 0.051113337 0.69700003
0.0033190479 0.051113337 0.69700003
0.0046466668 0.051113337 0.69700003
0.0059742862 0.051113337 0.69700003
0.0073019052 0.051113337 0.69700003
0.0086295241 0.051113337 0.69700003
0.0099571431 0.051113337 0.69700003
0.011284763 0.051113337 0.69700003
0.012630477 0.05118667 0.69800001
0.013960001 0.05118667 0.69800001
0.015289525 0.05118667 0.69800001
0.016619049 0.05118667 0.69800001
0.017948573 0.05118667 0.69800001
0.019278096 0.05118667 0.69800001
0.02060762 0.05118667 0.69800001
0.021937145 0.05118667 0.69800001
0.023266668 0.05118667 0.69800001
0.024596192 0.05118667 0.69800001
0.025925716 0.05118667 0.69800001
0.027333336 0.051333338 0.70000005
0.028707622 0.05140667 0.70100003
0.030042859 0.05140667 0.70100003
0.03146762 0.051553335 0.70300001
0.032806668 0.051553335 0.70300001
0.034145717 0.051553335 0.70300001
0.035484765 0.051553335 0.70300001
0.036823813 0.051553335 0.70300001
0.038217146 0.051626671 0.70400006
0.039558098 0.051626671 0.70400006
0.040899049 0.051626671 0.70400006
0.042240001 0.051626671 0.70400006
0.04364286 0.051700003 0.70500004
0.044985719 0.051700003 0.70500004
0.046328574 0.051700003 0.70500004
0.047671434 0.051700003 0.70500004
0.049153335 0.051846672 0.70700002
0.050500002 0.051846672 0.70700002
-0.072837144 0.05183905 0.68900001
-0.071005717 0.051462859 0.68400002
-0.069702864 0.051462859 0.68400002
-0.068400003 0.051462859 0.68400002
-0.06709715 0.051462859 0.68400002
-0.065794289 0.051462859 0.68400002
-0.064397149 0.051387623 0.68300003
-0.063096195 0.051387623 0.68300003
-0.061795242 0.051387623 0.68300003
-0.060582861 0.051462859 0.68400002
-0.059280004 0.051462859 0.68400002
-0.057977147 0.051462859 0.68400002
-0.05667429 0.051462859 0.68400002
-0.055371433 0.051462859 0.68400002
-0.054068577 0.051462859 0.68400002
-0.05276572 0.051462859 0.68400002
-0.051462859 0.051462859 0.68400002
-0.050160002 0.051462859 0.68400002
-0.048857145 0.051462859 0.68400002
-0.047554288 0.051462859 0.68400002
-0.04638667 0.051613338 0.68600005
-0.045080002 0.051613338 0.68600005
-0.043773334 0.051613338 0.68600005
-0.04246667 0.051613338 0.68600005
-0.041220002 0.051688574 0.68700004
-0.03991143 0.051688574 0.68700004
-0.03871524 0.05183905 0.68900001
-0.037402861 0.05183905 0.68900001
-0.036090478 0.05183905 0.68900001
-0.034778096 0.05183905 0.68900001
-0.033465717 0.05183905 0.68900001
-0.032153334 0.05183905 0.68900001
-0.030885717 0.05191429 0.69000006
-0.029571431 0.05191429 0.69000006
-0.028216192 0.05183905 0.68900001
-0.026903812 0.05183905 0.68900001
-0.025591429 0.05183905 0.68900001
-0.024279049 0.05183905 0.68900001
-0.023000002 0.05191429 0.69000006
-0.021654287 0.05183905 0.68900001
-0.020341907 0.05183905 0.68900001
-0.019029524 0.05183905 0.68900001
-0.017742859 0.05191429 0.69000006
-0.016452381 0.051989526 0.69100004
-0.015136192 0.051989526 0.69100004
-0.013820001 0.051989526 0.69100004
-0.01250381 0.051989526 0.69100004
-0.01118762 0.051989526 0.69100004
-0.0098714288 0.051989526 0.69100004
-0.0085800001 0.052140005 0.69300002
-0.0072704768 0.052215241 0.69400001
-0.005948572 0.052215241 0.69400001
-0.0046266671 0.052215241 0.69400001
-0.0033047621 0.052215241 0.69400001
-0.0019857143 0.052290481 0.69500005
-0.00066190481 0.052290481 0.69500005
0.00066190481 0.052290481 0.69500005
0.0019857143 0.052290481 0.69500005
0.0033095239 0.052290481 0.69500005
0.0046333335 0.052290481 0.69500005
0.0059571434 0.052290481 0.69500005
0.0073019052 0.052440956 0.69700003
0.0086295241 0.052440956 0.69700003
0.0099571431 0.052440956 0.69700003
0.011284763 0.052440956 0.69700003
0.012612382 0.052440956 0.69700003
0.013940001 0.052440956 0.69700003
0.015289525 0.052516192 0.69800001
0.016619049 0.052516192 0.69800001
0.017948573 0.052516192 0.69800001
0.019278096 0.052516192 0.69800001
0.02060762 0.052516192 0.69800001
0.021937145 0.052516192 0.69800001
0.023266668 0.052516192 0.69800001
0.024596192 0.052516192 0.69800001
0.025925716 0.052516192 0.69800001
0.027333336 0.052666672 0.70000005
0.028666668 0.052666672 0.70000005
0.030042859 0.052741908 0.70100003
0.031378098 0.052741908 0.70100003
0.032713335 0.052741908 0.70100003
0.034048572 0.052741908 0.70100003
0.035484765 0.052892383 0.70300001
0.036823813 0.052892383 0.70300001
0.038162861 0.052892383 0.70300001
0.039501909 0.052892383 0.70300001
0.040840954 0.052892383 0.70300001
0.042240001 0.052967623 0.70400006
0.04364286 0.053042859 0.70500004
0.044985719 0.053042859 0.70500004
0.046328574 0.053042859 0.70500004
0.047671434 0.053042859 0.70500004
0.049153335 0.053193338 0.70700002
0.050500002 0.053193338 0.70700002
-0.071005717 0.05276572 0.68400002
-0.069702864 0.05276572 0.68400002
-0.068400003 0.05276572 0.68400002
-0.066999055 0.052688576 0.68300003
-0.065794289 0.05276572 0.68400002
-0.064491436 0.05276572 0.68400002
-0.063096195 0.052688576 0.68300003
-0.061795242 0.052688576 0.68300003
-0.060494289 0.052688576 0.68300003
-0.059193335 0.052688576 0.68300003
-0.057977147 0.05276572 0.68400002
-0.05667429 0.05276572 0.68400002
-0.055371433 0.05276572 0.68400002
-0.054068577 0.05276572 0.68400002
-0.05276572 0.05276572 0.68400002
-0.051462859 0.05276572 0.68400002
-0.050160002 0.05276572 0.68400002
-0.048857145 0.05276572 0.68400002
-0.047554288 0.05276572 0.68400002
-0.04638667 0.052920002 0.68600005
-0.045080002 0.052920002 0.68600005
-0.043645717 0.05276572 0.68400002
-0.04246667 0.052920002 0.68600005
-0.041160002 0.052920002 0.68600005
-0.03991143 0.052997146 0.68700004
-0.038602859 0.052997146 0.68700004
-0.037294287 0.052997146 0.68700004
-0.036090478 0.053151432 0.68900001
-0.034778096 0.053151432 0.68900001
-0.033465717 0.053151432 0.68900001
-0.032153334 0.053151432 0.68900001
-0.030840954 0.053151432 0.68900001
-0.029528573 0.053151432 0.68900001
-0.028216192 0.053151432 0.68900001
-0.026903812 0.053151432 0.68900001
-0.025591429 0.053151432 0.68900001
-0.024279049 0.053151432 0.68900001
-0.022966668 0.053151432 0.68900001
-0.021654287 0.053151432 0.68900001
-0.020341907 0.053151432 0.68900001
-0.019029524 0.053151432 0.68900001
-0.017742859 0.053228576 0.69000006
-0.016452381 0.053305719 0.69100004
-0.015136192 0.053305719 0.69100004
-0.013820001 0.053305719 0.69100004
-0.01250381 0.053305719 0.69100004
-0.01118762 0.053305719 0.69100004
-0.0098714288 0.053305719 0.69100004
-0.0085552391 0.053305719 0.69100004
-0.0072600003 0.053460002 0.69300002
-0.0059400005 0.053460002 0.69300002
-0.0046200003 0.053460002 0.69300002
-0.0033000002 0.053460002 0.69300002
-0.0019828572 0.053537145 0.69400001
-0.00066190481 0.053614289 0.69500005
0.00066190481 0.053614289 0.69500005
0.0019857143 0.053614289 0.69500005
0.0033095239 0.053614289 0.69500005
0.0046333335 0.053614289 0.69500005
0.0059571434 0.053614289 0.69500005
0.0072809528 0.053614289 0.69500005
0.0086047621 0.053614289 0.69500005
0.009928572 0.053614289 0.69500005
0.011252382 0.053614289 0.69500005
0.012612382 0.053768575 0.69700003
0.013940001 0.053768575 0.69700003
0.01526762 0.053768575 0.69700003
0.016595239 0.053768575 0.69700003
0.017922858 0.053768575 0.69700003
0.019250477 0.053768575 0.69700003
0.020578096 0.053768575 0.69700003
0.021905717 0.053768575 0.69700003
0.023233335 0.053768575 0.69700003
0.024560954 0.053768575 0.69700003
0.025888573 0.053768575 0.69700003
0.027255239 0.053845719 0.69800001
0.028666668 0.054000005 0.70000005
0.030000001 0.054000005 0.70000005
0.031378098 0.054077145 0.70100003
0.032713335 0.054077145 0.70100003
0.034048572 0.054077145 0.70100003
0.035383813 0.054077145 0.70100003
0.03671905 0.054077145 0.70100003
0.038162861 0.054231431 0.70300001
0.039501909 0.054231431 0.70300001
0.040840954 0.054231431 0.70300001
0.042180002 0.054231431 0.70300001
0.043580957 0.054308575 0.70400006
0.044985719 0.054385718 0.70500004
0.046328574 0.054385718 0.70500004
0.047671434 0.054385718 0.70500004
0.049014289 0.054385718 0.70500004
0.050500002 0.054540005 0.70700002
-0.071005717 0.054068577 0.68400002
-0.069702864 0.054068577 0.68400002
-0.068400003 0.054068577 0.68400002
-0.066999055 0.053989526 0.68300003
-0.065794289 0.054068577 0.68400002
-0.064397149 0.053989526 0.68300003
-0.063096195 0.053989526 0.68300003
-0.061795242 0.053989526 0.68300003
-0.060494289 0.053989526 0.68300003
-0.059193335 0.053989526 0.68300003
-0.057892386 0.053989526 0.68300003
-0.05667429 0.054068577 0.68400002
-0.055371433 0.054068577 0.68400002
-0.054068577 0.054068577 0.68400002
-0.05276572 0.054068577 0.68400002
-0.051462859 0.054068577 0.68400002
-0.050160002 0.054068577 0.68400002
-0.048857145 0.054068577 0.68400002
-0.047554288 0.054068577 0.68400002
-0.04638667 0.05422667 0.68600005
-0.045080002 0.05422667 0.68600005
-0.043773334 0.05422667 0.68600005
-0.04246667 0.05422667 0.68600005
-0.041220002 0.054305717 0.68700004
-0.03991143 0.054305717 0.68700004
-0.038602859 0.054305717 0.68700004
-0.037294287 0.054305717 0.68700004
-0.036090478 0.054463815 0.68900001
-0.034778096 0.054463815 0.68900001
-0.033465717 0.054463815 0.68900001
-0.032153334 0.054463815 0.68900001
-0.030840954 0.054463815 0.68900001
-0.029528573 0.054463815 0.68900001
-0.028216192 0.054463815 0.68900001
-0.026903812 0.054463815 0.68900001
-0.025591429 0.054463815 0.68900001
-0.024279049 0.054463815 0.68900001
-0.022966668 0.054463815 0.68900001
-0.021654287 0.054463815 0.68900001
-0.020341907 0.054463815 0.68900001
-0.019029524 0.054463815 0.68900001
-0.017717144 0.054463815 0.68900001
-0.016428573 0.054542862 0.69000006
-0.015136192 0.054621909 0.69100004
-0.013820001 0.054621909 0.69100004
-0.01250381 0.054621909 0.69100004
-0.01118762 0.054621909 0.69100004
-0.0098714288 0.054621909 0.69100004
-0.0085552391 0.054621909 0.69100004
-0.0072390479 0.054621909 0.69100004
-0.0059400005 0.054780003 0.69300002
-0.0046200003 0.054780003 0.69300002
-0.0033000002 0.054780003 0.69300002
-0.0019828572 0.05485905 0.69400001
-0.00066095241 0.05485905 0.69400001
0.00066190481 0.0549381 0.69500005
0.0019857143 0.0549381 0.69500005
0.0033095239 0.0549381 0.69500005
0.0046333335 0.0549381 0.69500005
0.0059571434 0.0549381 0.69500005
0.0072809528 0.0549381 0.69500005
0.0086047621 0.0549381 0.69500005
0.009928572 0.0549381 0.69500005
0.011252382 0.0549381 0.69500005
0.012612382 0.055096194 0.69700003
0.013940001 0.055096194 0.69700003
0.01526762 0.055096194 0.69700003
0.016595239 0.055096194 0.69700003
0.017922858 0.055096194 0.69700003
0.019250477 0.055096194 0.69700003
0.020578096 0.055096194 0.69700003
0.021905717 0.055096194 0.69700003
0.023233335 0.055096194 0.69700003
0.024560954 0.055096194 0.69700003
0.025888573 0.055096194 0.69700003
0.027255239 0.055175241 0.69800001
0.028584763 0.055175241 0.69800001
0.030000001 0.055333339 0.70000005
0.031333335 0.055333339 0.70000005
0.032666668 0.055333339 0.70000005
0.034048572 0.055412386 0.70100003
0.035383813 0.055412386 0.70100003
0.03671905 0.055412386 0.70100003
0.038054287 0.055412386 0.70100003
0.039389525 0.055412386 0.70100003
0.040724766 0.055412386 0.70100003
0.042180002 0.055570479 0.70300001
0.04351905 0.055570479 0.70300001
0.044921909 0.055649526 0.70400006
0.04626286 0.055649526 0.70400006
0.047603812 0.055649526 0.70400006
0.049014289 0.055728573 0.70500004
0.050357144 0.055728573 0.70500004
-0.071005717 0.055371433 0.68400002
-0.069702864 0.055371433 0.68400002
-0.068400003 0.055371433 0.68400002
-0.066999055 0.055290479 0.68300003
-0.065698102 0.055290479 0.68300003
-0.064397149 0.055290479 0.68300003
-0.063096195 0.055290479 0.68300003
-0.061795242 0.055290479 0.68300003
-0.060494289 0.055290479 0.68300003
-0.059193335 0.055290479 0.68300003
-0.057892386 0.055290479 0.68300003
-0.05667429 0.055371433 0.68400002
-0.055371433 0.055371433 0.68400002
-0.054068577 0.055371433 0.68400002
-0.05276572 0.055371433 0.68400002
-0.051462859 0.055371433 0.68400002
-0.050160002 0.055371433 0.68400002
-0.048857145 0.055371433 0.68400002
-0.047554288 0.055371433 0.68400002
-0.046251431 0.055371433 0.68400002
-0.045080002 0.055533338 0.68600005
-0.043645717 0.055371433 0.68400002
-0.04246667 0.055533338 0.68600005
-0.041220002 0.055614289 0.68700004
-0.03991143 0.055614289 0.68700004
-0.038602859 0.055614289 0.68700004
-0.037294287 0.055614289 0.68700004
-0.036090478 0.055776194 0.68900001
-0.034778096 0.055776194 0.68900001
-0.033465717 0.055776194 0.68900001
-0.032153334 0.055776194 0.68900001
-0.030840954 0.055776194 0.68900001
-0.029528573 0.055776194 0.68900001
-0.028216192 0.055776194 0.68900001
-0.026903812 0.055776194 0.68900001
-0.025591429 0.055776194 0.68900001
-0.024279049 0.055776194 0.68900001
-0.022966668 0.055776194 0.68900001
-0.021654287 0.055776194 0.68900001
-0.020282859 0.055614289 0.68700004
-0.019029524 0.055776194 0.68900001
-0.017717144 0.055776194 0.68900001
-0.016428573 0.055857148 0.69000006
-0.015114287 0.055857148 0.69000006
-0.013800001 0.055857148 0.69000006
-0.01250381 0.055938099 0.69100004
-0.01118762 0.055938099 0.69100004
-0.0098571433 0.055857148 0.69000006
-0.0085428581 0.055857148 0.69000006
-0.0072285719 0.055857148 0.69000006
-0.0059228577 0.055938099 0.69100004
-0.004606667 0.055938099 0.69100004
-0.0032904765 0.055938099 0.69100004
-0.0019800002 0.056100003 0.69300002
-0.00066095241 0.056180958 0.69400001
0.00066095241 0.056180958 0.69400001
0.0019828572 0.056180958 0.69400001
0.0033095239 0.056261908 0.69500005
0.0046333335 0.056261908 0.69500005
0.0059571434 0.056261908 0.69500005
0.0072809528 0.056261908 0.69500005
0.0086047621 0.056261908 0.69500005
0.009928572 0.056261908 0.69500005
0.011252382 0.056261908 0.69500005
0.012576192 0.056261908 0.69500005
0.013940001 0.056423813 0.69700003
0.01526762 0.056423813 0.69700003
0.016595239 0.056423813 0.69700003
0.017922858 0.056423813 0.69700003
0.019250477 0.056423813 0.69700003
0.020578096 0.056423813 0.69700003
0.021905717 0.056423813 0.69700003
0.023233335 0.056423813 0.69700003
0.024560954 0.056423813 0.69700003
0.025888573 0.056423813 0.69700003
0.027216192 0.056423813 0.69700003
0.028584763 0.056504767 0.69800001
0.029914288 0.056504767 0.69800001
0.031333335 0.056666672 0.70000005
0.032666668 0.056666672 0.70000005
0.034000002 0.056666672 0.70000005
0.035383813 0.056747623 0.70100003
0.03671905 0.056747623 0.70100003
0.038054287 0.056747623 0.70100003
0.039389525 0.056747623 0.70100003
0.040724766 0.056747623 0.70100003
0.042180002 0.056909528 0.70300001
0.04351905 0.056909528 0.70300001
0.044921909 0.056990478 0.70400006
0.04626286 0.056990478 0.70400006
0.047603812 0.056990478 0.70400006
0.048944764 0.056990478 0.70400006
0.050357144 0.057071432 0.70500004
0.051626671 0.056990478 0.70400006
-0.070901908 0.056591433 0.68300003
-0.069600955 0.056591433 0.68300003
-0.068300001 0.056591433 0.68300003
-0.066999055 0.056591433 0.68300003
-0.065698102 0.056591433 0.68300003
-0.064397149 0.056591433 0.68300003
-0.063096195 0.056591433 0.68300003
-0.061795242 0.056591433 0.68300003
