# .PCD v0.7 - Point Cloud Data file format
VERSION 0.7
FIELDS x y z
SIZE 4 4 4
TYPE F F F
COUNT 1 1 1
WIDTH 1353
HEIGHT 1
VIEWPOINT 0 0 0 1 0 0 0
POINTS 1353
DATA ascii
0.01631905 0.063147627 0.74500006
0.017785715 0.06331715 0.74700004
0.019285716 0.063571431 0.75000006
0.020769525 0.063740954 0.75200003
0.02223143 0.063825719 0.75300002
0.023665715 0.063825719 0.75300002
0.025166668 0.063995242 0.75500005
0.026604764 0.063995242 0.75500005
0.028080001 0.064080007 0.75600004
0.029520001 0.064080007 0.75600004
0.031123811 0.064419053 0.76000005
0.032571431 0.064419053 0.76000005
0.032910477 0.055264767 0.65200001
0.034152385 0.055264767 0.65200001
0.035340004 0.055180002 0.65100002
0.036580004 0.055180002 0.65100002
0.037878096 0.055264767 0.65200001
0.039060004 0.055180002 0.65100002
0.040361907 0.055264767 0.65200001
0.041540004 0.055180002 0.65100002
0.042780004 0.055180002 0.65100002
0.00067904766 0.061793339 0.71300006
0.0020400002 0.061880004 0.71400005
0.003409524 0.062053338 0.71600002
0.0047600004 0.061880004 0.71400005
0.0061971433 0.062660001 0.72300005
0.0075952387 0.062833339 0.72500002
0.0089885723 0.062920004 0.72600001
0.010414287 0.063180007 0.72900003
0.011980954 0.064133339 0.74000001
0.013426668 0.064306669 0.74200004
0.014860001 0.064393334 0.74300003
0.01631905 0.064566672 0.74500006
0.017785715 0.064740002 0.74700004
0.019285716 0.065000005 0.75000006
0.020769525 0.065173335 0.75200003
0.02223143 0.065260008 0.75300002
0.023728574 0.065433338 0.75500005
0.025200002 0.065520003 0.75600004
0.026640002 0.065520003 0.75600004
0.028154287 0.065693341 0.75800002
0.02971524 0.065953337 0.76100004
0.031123811 0.065866672 0.76000005
0.032571431 0.065866672 0.76000005
0.035340004 0.056420002 0.65100002
0.036580004 0.056420002 0.65100002
0.037820004 0.056420002 0.65100002
0.039120004 0.056506671 0.65200001
0.040361907 0.056506671 0.65200001
0.041540004 0.056420002 0.65100002
0.042780004 0.056420002 0.65100002
0.13484667 0.068553336 0.79100001
0.13786002 0.068553336 0.79100001
0.13936667 0.068553336 0.79100001
0.14087334 0.068553336 0.79100001
-0.0060085719 0.062088575 0.70100003
-0.0046733338 0.062088575 0.70100003
-0.0033380955 0.062088575 0.70100003
-0.00067904766 0.063151434 0.71300006
0.00067904766 0.063151434 0.71300006
0.0020400002 0.063240007 0.71400005
0.0034142858 0.063505717 0.71700001
0.0048200004 0.064037144 0.72300005
0.0062142862 0.064214289 0.72500002
0.0075952387 0.064214289 0.72500002
0.0090133343 0.064480007 0.72800004
0.010442858 0.064745717 0.73100001
0.011964763 0.065454289 0.73900002
0.013426668 0.065720007 0.74200004
0.014860001 0.065808579 0.74300003
0.016275238 0.065808579 0.74300003
0.017738096 0.065985717 0.74500006
0.019234287 0.066251434 0.74800003
0.020769525 0.066605717 0.75200003
0.02223143 0.066694289 0.75300002
0.023728574 0.066871434 0.75500005
0.025200002 0.066960007 0.75600004
0.026640002 0.066960007 0.75600004
0.028154287 0.067137145 0.75800002
0.029676192 0.06731429 0.76000005
0.031164763 0.067402862 0.76100004
0.032700002 0.067580007 0.76300001
0.034153335 0.067580007 0.76300001
0.035700001 0.067757145 0.76500005
0.036580004 0.057660002 0.65100002
0.037878096 0.057748575 0.65200001
0.039120004 0.057748575 0.65200001
0.040361907 0.057748575 0.65200001
0.041603811 0.057748575 0.65200001
0.042845719 0.057748575 0.65200001
0.044087622 0.057748575 0.65200001
-0.0073438101 0.063423812 0.70100003
-0.0060085719 0.063423812 0.70100003
-0.0046866671 0.063604765 0.70300001
-0.0033476192 0.063604765 0.70300001
-0.0020142859 0.063785717 0.70500004
-0.00067904766 0.064509526 0.71300006
0.00068190478 0.064780958 0.71600002
0.002057143 0.065142862 0.72000003
0.0034380956 0.065323815 0.72200006
0.0048200004 0.065414287 0.72300005
0.0062142862 0.065595239 0.72500002
0.0075952387 0.065595239 0.72500002
0.0090133343 0.065866672 0.72800004
0.010457143 0.066228576 0.73200005
0.011964763 0.066861913 0.73900002
0.013390477 0.066952385 0.74000001
0.014860001 0.067223817 0.74300003
0.016275238 0.067223817 0.74300003
0.017738096 0.067404769 0.74500006
0.019234287 0.067676194 0.74800003
0.020714287 0.067857146 0.75000006
0.022201907 0.068038099 0.75200003
0.023728574 0.068309531 0.75500005
0.025166668 0.068309531 0.75500005
0.026640002 0.068400003 0.75600004
0.028154287 0.068580955 0.75800002
0.029676192 0.068761908 0.76000005
0.031164763 0.068852387 0.76100004
0.032700002 0.06903334 0.76300001
0.034153335 0.06903334 0.76300001
0.035606667 0.06903334 0.76300001
0.037060004 0.06903334 0.76300001
0.039300002 0.059261907 0.65500003
0.040547621 0.059261907 0.65500003
0.041667622 0.059080955 0.65300006
0.042911433 0.059080955 0.65300006
0.04415524 0.059080955 0.65300006
0.045538098 0.059261907 0.65500003
-0.0086790482 0.064759053 0.70100003
-0.0073647625 0.064943813 0.70300001
-0.0060085719 0.064759053 0.70100003
-0.0046866671 0.064943813 0.70300001
-0.0033476192 0.064943813 0.70300001
-0.0020142859 0.065128572 0.70500004
-0.00067904766 0.065867625 0.71300006
0.00068190478 0.066144764 0.71600002
0.002057143 0.066514291 0.72000003
0.0034380956 0.06669905 0.72200006
0.0048200004 0.06679143 0.72300005
0.0062142862 0.066976197 0.72500002
0.0076057147 0.067068577 0.72600001
0.0090133343 0.067253336 0.72800004
0.010442858 0.067530483 0.73100001
0.011932381 0.068084769 0.73700005
0.013372382 0.068269528 0.73900002
0.014840001 0.068546668 0.74200004
0.016275238 0.068639055 0.74300003
0.017738096 0.068823814 0.74500006
0.019234287 0.069100954 0.74800003
0.020714287 0.069285721 0.75000006
0.022201907 0.06947048 0.75200003
0.023665715 0.06956286 0.75300002
0.025166668 0.069747627 0.75500005
0.026640002 0.069840007 0.75600004
0.028154287 0.070024766 0.75800002
0.029676192 0.070209526 0.76000005
0.031123811 0.070209526 0.76000005
0.032700002 0.070486672 0.76300001
0.034153335 0.070486672 0.76300001
0.035606667 0.070486672 0.76300001
0.037060004 0.070486672 0.76300001
0.038513336 0.070486672 0.76300001
0.039966669 0.070486672 0.76300001
0.041795243 0.060509529 0.65500003
0.043042861 0.060509529 0.65500003
0.044290479 0.060509529 0.65500003
0.045538098 0.060509529 0.65500003
0.17799811 0.07224191 0.78200006
-0.0086790482 0.066094287 0.70100003
-0.0073647625 0.066282861 0.70300001
-0.0060257148 0.066282861 0.70300001
-0.0046866671 0.066282861 0.70300001
-0.0033523813 0.066377148 0.70400006
-0.0020200002 0.066660002 0.70700002
-0.00067619054 0.066942863 0.71000004
0.00068190478 0.067508578 0.71600002
0.002057143 0.067885719 0.72000003
0.0034380956 0.068074293 0.72200006
0.0048200004 0.068168573 0.72300005
0.0061971433 0.068168573 0.72300005
0.0075952387 0.068357147 0.72500002
0.0090133343 0.068640001 0.72800004
0.010442858 0.068922862 0.73100001
0.011916191 0.06939429 0.73600006
0.013336191 0.069488578 0.73700005
0.014800001 0.069771431 0.74000001
0.016253334 0.069960006 0.74200004
0.017738096 0.070242859 0.74500006
0.019208573 0.070431434 0.74700004
0.020714287 0.070714287 0.75000006
0.022201907 0.070902862 0.75200003
0.023634287 0.070902862 0.75200003
0.025100002 0.070997149 0.75300002
0.026604764 0.071185715 0.75500005
0.028080001 0.071280003 0.75600004
0.029598096 0.071468577 0.75800002
0.031123811 0.071657151 0.76000005
0.032614287 0.071751431 0.76100004
0.034063812 0.071751431 0.76100004
0.035606667 0.071940005 0.76300001
0.037060004 0.071940005 0.76300001
0.038412385 0.071751431 0.76100004
0.039861906 0.071751431 0.76100004
0.045607623 0.061851434 0.65600002
-0.0086790482 0.067429528 0.70100003
-0.0073438101 0.067429528 0.70100003
-0.0060257148 0.067621909 0.70300001
-0.0046933335 0.067718096 0.70400006
-0.0033571431 0.067814291 0.70500004
-0.0020228573 0.068102859 0.708
-0.00067714287 0.068391435 0.71100003
0.00068190478 0.068872385 0.71600002
0.002057143 0.069257148 0.72000003
0.0034380956 0.069449529 0.72200006
0.0048133335 0.069449529 0.72200006
0.0061971433 0.069545716 0.72300005
0.0075952387 0.069738097 0.72500002
0.0090133343 0.070026673 0.72800004
0.010442858 0.070315242 0.73100001
0.01188381 0.070603818 0.73400003
0.013336191 0.070892386 0.73700005
0.014800001 0.071180955 0.74000001
0.016253334 0.071373336 0.74200004
0.017738096 0.071661912 0.74500006
0.019208573 0.071854293 0.74700004
0.020659048 0.07195048 0.74800003
0.022142859 0.072142862 0.75000006
0.023634287 0.072335243 0.75200003
0.025066668 0.072335243 0.75200003
0.026604764 0.072623812 0.75500005
0.028042858 0.072623812 0.75500005
0.029520001 0.072720006 0.75600004
0.031041907 0.072912388 0.75800002
0.032571431 0.073104769 0.76000005
0.034019049 0.073104769 0.76000005
0.035466667 0.073104769 0.76000005
0.036962859 0.073200956 0.76100004
0.038412385 0.073200956 0.76100004
0.039809525 0.073104769 0.76000005
0.044210479 0.073200956 0.76100004
-0.013480001 0.066116191 0.67400002
-0.0087038102 0.068960957 0.70300001
-0.0073647625 0.068960957 0.70300001
-0.0060257148 0.068960957 0.70300001
-0.0047000004 0.069157146 0.70500004
-0.0033666668 0.069353335 0.70700002
-0.0020228573 0.069451436 0.708
-0.00067904766 0.069941908 0.71300006
0.00068285718 0.070334293 0.71700001
0.002057143 0.070628576 0.72000003
0.0034380956 0.070824765 0.72200006
0.0048200004 0.070922859 0.72300005
0.0062142862 0.071119055 0.72500002
0.0075952387 0.071119055 0.72500002
0.0090133343 0.071413338 0.72800004
0.010414287 0.071511433 0.72900003
0.01188381 0.072001912 0.73400003
0.013318096 0.0721981 0.73600006
0.014780001 0.072492383 0.73900002
0.016253334 0.072786674 0.74200004
0.017738096 0.073080957 0.74500006
0.019208573 0.073277146 0.74700004
0.020659048 0.07337524 0.74800003
0.022142859 0.073571436 0.75000006
0.02357143 0.073571436 0.75000006
0.025066668 0.073767625 0.75200003
0.026534287 0.073865719 0.75300002
0.028042858 0.074061908 0.75500005
0.029520001 0.074160002 0.75600004
0.030960003 0.074160002 0.75600004
0.032485716 0.074356198 0.75800002
0.033929527 0.074356198 0.75800002
0.035466667 0.074552387 0.76000005
0.036914289 0.074552387 0.76000005
0.038412385 0.074650481 0.76100004
0.039809525 0.074552387 0.76000005
0.041257147 0.074552387 0.76000005
0.042704765 0.074552387 0.76000005
0.044152383 0.074552387 0.76000005
0.045480002 0.074356198 0.75800002
0.046923812 0.074356198 0.75800002
-0.01480762 0.067600004 0.67600006
-0.013500001 0.067500003 0.67500001
-0.012576192 0.069500007 0.69500005
-0.011252382 0.069500007 0.69500005
-0.0099142864 0.069400005 0.69400001
-0.0085923811 0.069400005 0.69400001
-0.0073647625 0.070300005 0.70300001
-0.0060342862 0.070400007 0.70400006
-0.0047133337 0.070700005 0.70700002
-0.0033714287 0.070800006 0.708
-0.0020285717 0.071000002 0.71000004
-0.00067904766 0.071300007 0.71300006
0.00068285718 0.071700007 0.71700001
0.002054286 0.071900003 0.71900004
0.0034380956 0.072200008 0.72200006
0.0048200004 0.072300002 0.72300005
0.0062142862 0.072500005 0.72500002
0.0076057147 0.072600007 0.72600001
0.0090133343 0.072800003 0.72800004
0.010442858 0.073100008 0.73100001
0.01188381 0.073400006 0.73400003
0.013318096 0.073600002 0.73600006
0.014780001 0.073900007 0.73900002
0.016209524 0.074000008 0.74000001
0.017690478 0.074300006 0.74300003
0.019157143 0.074500002 0.74500006
0.020631431 0.074700005 0.74700004
0.022083811 0.074800007 0.74800003
0.023508573 0.074800007 0.74800003
0.025000002 0.075000003 0.75000006
0.02649905 0.075200006 0.75200003
0.027968572 0.075300008 0.75300002
0.029480955 0.075500004 0.75500005
0.030960003 0.075600006 0.75600004
0.032400001 0.075600006 0.75600004
0.033929527 0.075800002 0.75800002
0.035373334 0.075800002 0.75800002
0.036817145 0.075800002 0.75800002
0.041148573 0.075800002 0.75800002
0.045480002 0.075800002 0.75800002
0.046923812 0.075800002 0.75800002
0.048367623 0.075800002 0.75800002
-0.018642858 0.06878572 0.67500001
-0.017382858 0.068887621 0.67600006
-0.016142858 0.069091432 0.67800003
-0.014851429 0.069091432 0.67800003
-0.013560001 0.069091432 0.67800003
-0.012304762 0.069295242 0.68000001
-0.011041906 0.069499053 0.68200004
-0.0098714288 0.070416197 0.69100004
-0.0085304771 0.070212387 0.68900001
-0.0073438101 0.071435243 0.70100003
-0.0060428577 0.071842864 0.70500004
-0.0047133337 0.072046675 0.70700002
-0.0033809526 0.072352387 0.71000004
-0.0020314287 0.072454289 0.71100003
-0.00068000006 0.072760008 0.71400005
0.00068190478 0.072963811 0.71600002
0.002054286 0.073269531 0.71900004
0.0034285716 0.073371433 0.72000003
0.0048133335 0.073575243 0.72200006
0.0061971433 0.073677145 0.72300005
0.0075952387 0.073880956 0.72500002
0.0090133343 0.074186675 0.72800004
0.010442858 0.074492387 0.73100001
0.011851429 0.074594289 0.73200005
0.013318096 0.07500191 0.73600006
0.014780001 0.075307623 0.73900002
0.016209524 0.075409532 0.74000001
0.017666668 0.075613335 0.74200004
0.019105716 0.075715244 0.74300003
0.020576192 0.075919054 0.74500006
0.022054287 0.076122865 0.74700004
0.023508573 0.076224767 0.74800003
0.024933334 0.076224767 0.74800003
0.026428573 0.076428577 0.75000006
0.027931431 0.076632388 0.75200003
0.02940286 0.07673429 0.75300002
0.030919049 0.0769381 0.75500005
0.032400001 0.077040002 0.75600004
0.033840001 0.077040002 0.75600004
0.035280004 0.077040002 0.75600004
-0.018670477 0.070175245 0.67600006
-0.017382858 0.070175245 0.67600006
-0.016166668 0.070486672 0.67900002
-0.014873334 0.070486672 0.67900002
-0.013600001 0.070590481 0.68000001
-0.012340954 0.070798099 0.68200004
-0.011106667 0.071213335 0.68600005
-0.0098428577 0.071524769 0.68900001
-0.0085304771 0.071524769 0.68900001
-0.0072390479 0.071732387 0.69100004
-0.0060428577 0.07318572 0.70500004
-0.0047133337 0.073393337 0.70700002
-0.0033714287 0.073497146 0.708
-0.0020285717 0.073704764 0.71000004
-0.00067904766 0.074016199 0.71300006
0.00068000006 0.074120007 0.71400005
0.002054286 0.074639052 0.71900004
0.0034285716 0.074742861 0.72000003
0.0048133335 0.074950479 0.72200006
0.0061971433 0.075054288 0.72300005
0.0075952387 0.075261913 0.72500002
0.0089885723 0.075365722 0.72600001
0.010414287 0.075677149 0.72900003
0.011851429 0.075988576 0.73200005
0.013281906 0.076196194 0.73400003
0.014740001 0.076507621 0.73700005
0.016187619 0.076715246 0.73900002
0.017619049 0.076819055 0.74000001
0.019080002 0.077026673 0.74200004
0.020576192 0.077338099 0.74500006
0.022054287 0.077545717 0.74700004
0.023477145 0.077545717 0.74700004
0.024933334 0.077649526 0.74800003
0.026428573 0.077857152 0.75000006
0.027857145 0.077857152 0.75000006
0.029363811 0.07806477 0.75200003
0.030837145 0.078168578 0.75300002
0.032357145 0.078376196 0.75500005
-0.019958096 0.071462862 0.67600006
-0.018670477 0.071462862 0.67600006
-0.017434286 0.071674287 0.67800003
-0.016166668 0.071780004 0.67900002
-0.014895239 0.07188572 0.68000001
-0.01364 0.072097145 0.68200004
-0.012377144 0.072308578 0.68400002
-0.011122858 0.072625719 0.68700004
-0.0098428577 0.072837144 0.68900001
-0.0085304771 0.072837144 0.68900001
-0.0072390479 0.073048577 0.69100004
-0.0060428577 0.074528575 0.70500004
-0.0047200001 0.074845716 0.708
-0.0033809526 0.075057149 0.71000004
-0.0020314287 0.075162865 0.71100003
-0.00067904766 0.07537429 0.71300006
0.00068000006 0.075480007 0.71400005
0.0020485716 0.075797148 0.71700001
0.0034238098 0.076008573 0.71900004
0.0048000002 0.076114289 0.72000003
0.0061971433 0.076431431 0.72300005
0.0075952387 0.076642863 0.72500002
0.0090133343 0.076960005 0.72800004
0.010414287 0.077065721 0.72900003
0.011851429 0.077382863 0.73200005
0.013281906 0.077594288 0.73400003
0.014720001 0.07780572 0.73600006
0.01614381 0.077911437 0.73700005
0.017595239 0.078122862 0.73900002
0.019028572 0.078228578 0.74000001
0.020520953 0.078545719 0.74300003
0.021995239 0.078757145 0.74500006
0.023414288 0.078757145 0.74500006
0.024900002 0.078968577 0.74700004
0.026358098 0.079074293 0.74800003
0.027857145 0.079285719 0.75000006
0.029285716 0.079285719 0.75000006
0.030796193 0.079497151 0.75200003
-0.021308573 0.072965719 0.67800003
-0.019958096 0.072750479 0.67600006
-0.018670477 0.072750479 0.67600006
-0.017434286 0.072965719 0.67800003
-0.016190477 0.073180959 0.68000001
-0.014895239 0.073180959 0.68000001
-0.01364 0.073396198 0.68200004
-0.012359048 0.073503815 0.68300003
-0.011122858 0.073934294 0.68700004
-0.0098571433 0.07425715 0.69000006
-0.0085304771 0.074149527 0.68900001
-0.0072390479 0.074364766 0.69100004
-0.0059742862 0.075010478 0.69700003
-0.0047000004 0.07587143 0.70500004
-0.0033714287 0.076194294 0.708
-0.0020314287 0.07651715 0.71100003
-0.00067904766 0.07673239 0.71300006
0.00068000006 0.076840006 0.71400005
0.0020485716 0.077162862 0.71700001
0.0034238098 0.077378102 0.71900004
0.0048000002 0.077485718 0.72000003
0.0061885719 0.077700958 0.72200006
0.0075952387 0.078023814 0.72500002
0.0090133343 0.07834667 0.72800004
0.010414287 0.078454293 0.72900003
0.011835239 0.078669526 0.73100001
0.013245715 0.078777149 0.73200005
0.014680001 0.078992389 0.73400003
0.016121905 0.079207622 0.73600006
0.01754762 0.079315245 0.73700005
0.019002859 0.079530485 0.73900002
0.020438097 0.079638101 0.74000001
0.021906668 0.079853341 0.74200004
0.023351431 0.079960957 0.74300003
0.024766669 0.079960957 0.74300003
0.026252383 0.080176197 0.74500006
0.027745716 0.080391437 0.74700004
0.029168574 0.080391437 0.74700004
0.030632382 0.080499053 0.74800003
0.032142859 0.080714293 0.75000006
0.049285717 0.080714293 0.75000006
-0.021308573 0.07425715 0.67800003
-0.020017143 0.07425715 0.67800003
-0.018725716 0.07425715 0.67800003
-0.017460002 0.074366674 0.67900002
-0.016190477 0.074476197 0.68000001
-0.014895239 0.074476197 0.68000001
-0.01364 0.074695244 0.68200004
-0.012377144 0.074914292 0.68400002
-0.01118762 0.075680956 0.69100004
-0.0098714288 0.075680956 0.69100004
-0.0085923811 0.076009527 0.69400001
-0.0073123816 0.076447621 0.69800001
-0.0060000005 0.076666668 0.70000005
-0.0046933335 0.07710477 0.70400006
-0.0033714287 0.077542864 0.708
-0.0020285717 0.077761911 0.71000004
-0.00067904766 0.078090481 0.71300006
0.00068000006 0.078200005 0.71400005
0.0020485716 0.078528576 0.71700001
0.0034238098 0.078747623 0.71900004
0.0048000002 0.078857146 0.72000003
0.0061885719 0.079076193 0.72200006
0.0075742863 0.079185717 0.72300005
0.0090133343 0.079733342 0.72800004
0.010414287 0.079842865 0.72900003
0.011835239 0.080061913 0.73100001
0.013245715 0.080171436 0.73200005
0.014680001 0.080390483 0.73400003
0.016121905 0.08060953 0.73600006
0.01754762 0.080719054 0.73700005
0.019002859 0.080938101 0.73900002
0.020410478 0.080938101 0.73900002
0.021847621 0.081047624 0.74000001
0.023320001 0.081266671 0.74200004
0.024766669 0.081376195 0.74300003
0.026181906 0.081376195 0.74300003
0.02767143 0.081595242 0.74500006
0.029090479 0.081595242 0.74500006
0.03059143 0.081814289 0.74700004
0.032014288 0.081814289 0.74700004
0.047729526 0.081923813 0.74800003
-0.021308573 0.075548574 0.67800003
-0.020046668 0.075660005 0.67900002
-0.018753335 0.075660005 0.67900002
-0.017460002 0.075660005 0.67900002
-0.016238097 0.07599429 0.68200004
-0.014939048 0.07599429 0.68200004
-0.013660001 0.076105721 0.68300003
-0.012413334 0.076440006 0.68600005
-0.011236191 0.077331431 0.69400001
-0.0099000009 0.077220008 0.69300002
-0.0085923811 0.077331431 0.69400001
-0.0073123816 0.077777147 0.69800001
-0.0060000005 0.078000002 0.70000005
-0.0046733338 0.078111432 0.70100003
-0.0033666668 0.078780003 0.70700002
-0.0020285717 0.079114288 0.71000004
-0.00067904766 0.079448573 0.71300006
0.00068000006 0.079560004 0.71400005
0.0020485716 0.079894289 0.71700001
0.0034238098 0.080117151 0.71900004
0.0048000002 0.080228575 0.72000003
0.0061885719 0.080451436 0.72200006
0.0075638099 0.080451436 0.72200006
0.0089885723 0.080897145 0.72600001
0.010414287 0.081231438 0.72900003
0.011835239 0.081454292 0.73100001
0.013245715 0.081565723 0.73200005
0.014640001 0.081565723 0.73200005
0.016121905 0.082011431 0.73600006
0.01754762 0.082122862 0.73700005
0.018951429 0.082122862 0.73700005
0.020410478 0.082345717 0.73900002
0.021818096 0.082345717 0.73900002
0.023257144 0.082457148 0.74000001
0.024733335 0.082680002 0.74200004
0.026146669 0.082680002 0.74200004
0.027597144 0.082791433 0.74300003
0.029012382 0.082791433 0.74300003
0.030509526 0.083014295 0.74500006
0.031928573 0.083014295 0.74500006
-0.021308573 0.076840006 0.67800003
-0.020046668 0.076953337 0.67900002
-0.018753335 0.076953337 0.67900002
-0.017485715 0.077066675 0.68000001
-0.016238097 0.077293336 0.68200004
-0.014960953 0.077406675 0.68300003
-0.013660001 0.077406675 0.68300003
-0.012413334 0.077746674 0.68600005
-0.01118762 0.078313336 0.69100004
-0.0098714288 0.078313336 0.69100004
-0.0085923811 0.078653336 0.69400001
-0.0073333336 0.079333335 0.70000005
-0.0060000005 0.079333335 0.70000005
-0.0046733338 0.079446673 0.70100003
-0.0033571431 0.079900004 0.70500004
-0.0020228573 0.080240004 0.708
-0.00067904766 0.080806673 0.71300006
0.00068000006 0.080920003 0.71400005
0.0020485716 0.081260003 0.71700001
0.0034238098 0.081486672 0.71900004
0.0047933338 0.081486672 0.71900004
0.0061714291 0.081600003 0.72000003
0.0075638099 0.081826672 0.72200006
0.0089761913 0.082166672 0.72500002
0.010400001 0.082506672 0.72800004
0.011802858 0.082620002 0.72900003
0.01322762 0.082846671 0.73100001
0.01462 0.082846671 0.73100001
0.016078096 0.083186671 0.73400003
0.01752381 0.08341334 0.73600006
0.018951429 0.083526671 0.73700005
0.02035524 0.083526671 0.73700005
0.021818096 0.08375334 0.73900002
0.023257144 0.083866671 0.74000001
0.024666669 0.083866671 0.74000001
0.026146669 0.08409334 0.74200004
0.027560001 0.08409334 0.74200004
0.029012382 0.084206671 0.74300003
0.030427622 0.084206671 0.74300003
0.050240956 0.084206671 0.74300003
-0.022633335 0.078246675 0.67900002
-0.021340001 0.078246675 0.67900002
-0.020046668 0.078246675 0.67900002
-0.018780954 0.078361914 0.68000001
-0.017485715 0.078361914 0.68000001
-0.016261905 0.078707621 0.68300003
-0.014960953 0.078707621 0.68300003
-0.013660001 0.078707621 0.68300003
-0.01243143 0.079168573 0.68700004
-0.01118762 0.079629526 0.69100004
-0.0099000009 0.079860002 0.69300002
-0.0086047621 0.080090478 0.69500005
-0.0073123816 0.080436192 0.69800001
-0.0060000005 0.080666669 0.70000005
-0.004666667 0.080666669 0.70000005
-0.0033523813 0.081127621 0.70400006
-0.0020228573 0.081588574 0.708
-0.00067904766 0.082164764 0.71300006
0.00068000006 0.082280003 0.71400005
0.0020485716 0.082625717 0.71700001
0.0034238098 0.082856193 0.71900004
0.0048000002 0.082971431 0.72000003
0.0061885719 0.083201908 0.72200006
0.0075638099 0.083201908 0.72200006
0.0089761913 0.083547622 0.72500002
0.010400001 0.083893336 0.72800004
0.011786668 0.083893336 0.72800004
0.01319143 0.084008574 0.72900003
0.01462 0.084239051 0.73100001
0.016034286 0.084354289 0.73200005
0.017476192 0.084584765 0.73400003
0.018925715 0.084815241 0.73600006
0.02035524 0.08493048 0.73700005
0.02175905 0.08493048 0.73700005
0.023225715 0.085160956 0.73900002
0.024633335 0.085160956 0.73900002
0.026076192 0.085276194 0.74000001
0.027485715 0.085276194 0.74000001
0.028973335 0.08550667 0.74200004
0.03038667 0.08550667 0.74200004
0.031800002 0.08550667 0.74200004
-0.022633335 0.079540007 0.67900002
-0.021340001 0.079540007 0.67900002
-0.020046668 0.079540007 0.67900002
-0.018780954 0.079657145 0.68000001
-0.017485715 0.079657145 0.68000001
-0.016261905 0.080008574 0.68300003
-0.014960953 0.080008574 0.68300003
-0.013660001 0.080008574 0.68300003
-0.01243143 0.080477148 0.68700004
-0.011236191 0.081297152 0.69400001
-0.009928572 0.08141429 0.69500005
-0.0086295241 0.081648573 0.69700003
-0.0073123816 0.081765719 0.69800001
-0.0060000005 0.082000002 0.70000005
-0.004666667 0.082000002 0.70000005
-0.0033476192 0.082351431 0.70300001
-0.0020114286 0.082468577 0.70400006
-0.00067714287 0.08328858 0.71100003
0.00068000006 0.083640009 0.71400005
0.0020485716 0.083991431 0.71700001
0.0034238098 0.084225722 0.71900004
0.0047933338 0.084225722 0.71900004
0.0061714291 0.08434286 0.72000003
0.0075638099 0.084577151 0.72200006
0.0089514293 0.084694289 0.72300005
0.010371429 0.085045718 0.72600001
0.011786668 0.085280009 0.72800004
0.013173334 0.085280009 0.72800004
0.014580001 0.085397147 0.72900003
0.016012382 0.085631438 0.73100001
0.017428573 0.085748576 0.73200005
0.018874288 0.085982859 0.73400003
0.02032762 0.08621715 0.73600006
0.02175905 0.086334288 0.73700005
0.023162859 0.086334288 0.73700005
0.024633335 0.086568579 0.73900002
0.026040955 0.086568579 0.73900002
0.027485715 0.086685717 0.74000001
0.02889524 0.086685717 0.74000001
0.052785717 0.086568579 0.73900002
-0.021340001 0.080833338 0.67900002
-0.020046668 0.080833338 0.67900002
-0.018780954 0.080952384 0.68000001
-0.017485715 0.080952384 0.68000001
-0.016261905 0.081309527 0.68300003
-0.014960953 0.081309527 0.68300003
-0.013660001 0.081309527 0.68300003
-0.012612382 0.082976192 0.69700003
-0.011236191 0.082619056 0.69400001
-0.009928572 0.082738101 0.69500005
-0.0086047621 0.082738101 0.69500005
-0.0073123816 0.083095245 0.69800001
-0.0060000005 0.083333336 0.70000005
-0.004666667 0.083333336 0.70000005
-0.0033476192 0.083690479 0.70300001
-0.0020114286 0.083809532 0.70400006
-0.00067428575 0.084285721 0.708
0.00067904766 0.084880956 0.71300006
0.0020457145 0.085238099 0.71600002
0.0034142858 0.085357152 0.71700001
0.0047933338 0.085595243 0.71900004
0.0061714291 0.085714288 0.72000003
0.0075428574 0.085714288 0.72000003
0.0089514293 0.086071432 0.72300005
0.010357143 0.08630953 0.72500002
0.011754286 0.086428575 0.72600001
0.013137144 0.086428575 0.72600001
0.014560001 0.086666673 0.72800004
0.016012382 0.087023817 0.73100001
0.017404763 0.087023817 0.73100001
0.018822858 0.087142862 0.73200005
0.020272382 0.087380961 0.73400003
0.021729525 0.087619051 0.73600006
0.02313143 0.087619051 0.73600006
0.024566669 0.087738104 0.73700005
0.05264286 0.087738104 0.73700005
0.053973336 0.087619051 0.73600006
0.055224765 0.087380961 0.73400003
0.056622859 0.087380961 0.73400003
-0.021340001 0.08212667 0.67900002
-0.020076191 0.082247622 0.68000001
-0.018836191 0.082489528 0.68200004
-0.017537143 0.082489528 0.68200004
-0.016285716 0.082731433 0.68400002
-0.014982858 0.082731433 0.68400002
-0.013720001 0.082973339 0.68600005
-0.012558096 0.08394096 0.69400001
-0.011236191 0.08394096 0.69400001
-0.0099142864 0.08394096 0.69400001
-0.0086047621 0.084061913 0.69500005
-0.0073123816 0.084424764 0.69800001
-0.0059828577 0.084424764 0.69800001
-0.004666667 0.084666669 0.70000005
-0.0033476192 0.085029528 0.70300001
-0.0020114286 0.08515048 0.70400006
-0.00067428575 0.085634291 0.708
0.00067714287 0.085997149 0.71100003
0.0020457145 0.086601913 0.71600002
0.0034142858 0.086722866 0.71700001
0.0047933338 0.086964771 0.71900004
0.0061714291 0.087085716 0.72000003
0.0075428574 0.087085716 0.72000003
0.0089514293 0.087448575 0.72300005
0.010357143 0.08769048 0.72500002
0.011738096 0.08769048 0.72500002
0.013137144 0.087811433 0.72600001
0.014520001 0.087811433 0.72600001
0.015968572 0.088174291 0.72900003
0.017357145 0.088174291 0.72900003
0.018797144 0.088416196 0.73100001
0.020217145 0.088537149 0.73200005
0.02161143 0.088537149 0.73200005
0.023068573 0.088779055 0.73400003
0.052428573 0.088779055 0.73400003
0.053680003 0.088537149 0.73200005
-0.022666669 0.083542861 0.68000001
-0.02137143 0.083542861 0.68000001
-0.020076191 0.083542861 0.68000001
-0.018836191 0.083788574 0.68200004
-0.017562859 0.083911434 0.68300003
-0.016285716 0.084034294 0.68400002
-0.015026668 0.084280007 0.68600005
-0.013720001 0.084280007 0.68600005
-0.012558096 0.085262865 0.69400001
-0.011236191 0.085262865 0.69400001
-0.0099142864 0.085262865 0.69400001
-0.0086047621 0.085385717 0.69500005
-0.0073019052 0.085631438 0.69700003
-0.0059828577 0.08575429 0.69800001
-0.0046533337 0.08575429 0.69800001
-0.0033476192 0.086368576 0.70300001
-0.0020114286 0.086491436 0.70400006
-0.00067619054 0.087228574 0.71000004
0.00067714287 0.087351434 0.71100003
0.0020400002 0.087720007 0.71400005
0.003409524 0.087965719 0.71600002
0.0047933338 0.088334292 0.71900004
0.0061714291 0.088457152 0.72000003
0.0075428574 0.088457152 0.72000003
0.0089390483 0.088702865 0.72200006
0.010328572 0.088825718 0.72300005
0.011738096 0.089071438 0.72500002
0.013119048 0.089071438 0.72500002
0.014520001 0.08919429 0.72600001
0.015946668 0.089440003 0.72800004
0.017333334 0.089440003 0.72800004
0.018720001 0.089440003 0.72800004
0.020134287 0.089562863 0.72900003
0.021581907 0.089808576 0.73100001
0.023005717 0.089931436 0.73200005
0.052285716 0.089931436 0.73200005
0.05360667 0.089808576 0.73100001
-0.021465715 0.085212387 0.68300003
-0.01886381 0.085212387 0.68300003
-0.017562859 0.085212387 0.68300003
-0.016333334 0.085586675 0.68600005
-0.015026668 0.085586675 0.68600005
-0.013740001 0.085711434 0.68700004
-0.01254 0.086460009 0.69300002
-0.011220001 0.086460009 0.69300002
-0.0099142864 0.086584769 0.69400001
-0.0086047621 0.086709529 0.69500005
-0.0073019052 0.086959057 0.69700003
-0.0059828577 0.087083817 0.69800001
-0.0046533337 0.087083817 0.69800001
-0.0033380955 0.087458104 0.70100003
-0.0020114286 0.087832384 0.70400006
-0.00067428575 0.088331431 0.708
0.00067619054 0.088580959 0.71000004
0.0020371431 0.088955246 0.71300006
0.003409524 0.089329533 0.71600002
0.0047800005 0.089454293 0.71700001
0.0061628576 0.089703813 0.71900004
0.0075428574 0.089828581 0.72000003
0.0089390483 0.090078101 0.72200006
0.010328572 0.090202861 0.72300005
0.011705715 0.090202861 0.72300005
0.013119048 0.090452388 0.72500002
0.014500001 0.090452388 0.72500002
0.015902858 0.090577148 0.72600001
0.017285716 0.090577148 0.72600001
0.018668573 0.090577148 0.72600001
0.020106668 0.090826675 0.72800004
0.021493334 0.090826675 0.72800004
0.022911429 0.090951435 0.72900003
0.024366667 0.091200955 0.73100001
0.025759049 0.091200955 0.73100001
0.052214291 0.091200955 0.73100001
0.05338667 0.090826675 0.72800004
-0.01886381 0.08651334 0.68300003
-0.017588573 0.086640008 0.68400002
-0.016333334 0.086893342 0.68600005
-0.015048573 0.087020002 0.68700004
-0.013740001 0.087020002 0.68700004
-0.01250381 0.087526672 0.69100004
-0.01118762 0.087526672 0.69100004
-0.0099000009 0.087780006 0.69300002
-0.0086047621 0.088033341 0.69500005
-0.0073019052 0.088286676 0.69700003
-0.0059828577 0.088413343 0.69800001
-0.004666667 0.08866667 0.70000005
-0.0033476192 0.089046672 0.70300001
-0.0020114286 0.089173339 0.70400006
-0.00067428575 0.089680009 0.708
0.00067428575 0.089680009 0.708
0.0020314287 0.090060003 0.71100003
0.0033952384 0.090313338 0.71300006
0.0047600004 0.090440005 0.71400005
0.0061457148 0.090820007 0.71700001
0.0075323815 0.091073342 0.71900004
0.0089142863 0.091200009 0.72000003
0.010314287 0.091453336 0.72200006
0.011705715 0.091580003 0.72300005
0.013082858 0.091580003 0.72300005
0.014500001 0.091833338 0.72500002
0.015880954 0.091833338 0.72500002
0.017285716 0.091960005 0.72600001
0.018668573 0.091960005 0.72600001
0.020051429 0.091960005 0.72600001
0.021493334 0.09221334 0.72800004
0.022880001 0.09221334 0.72800004
0.024300002 0.092340007 0.72900003
0.025688574 0.092340007 0.72900003
0.052000005 0.09221334 0.72800004
-0.020194286 0.087942861 0.68400002
-0.01889143 0.087942861 0.68400002
-0.017588573 0.087942861 0.68400002
-0.016333334 0.088200003 0.68600005
-0.015048573 0.088328578 0.68700004
-0.013780001 0.088585719 0.68900001
-0.01250381 0.088842861 0.69100004
-0.01118762 0.088842861 0.69100004
-0.0099000009 0.089100003 0.69300002
-0.0085923811 0.089228578 0.69400001
-0.0072809528 0.089357145 0.69500005
-0.0059742862 0.089614294 0.69700003
-0.004666667 0.090000004 0.70000005
-0.0033476192 0.09038572 0.70300001
-0.0020114286 0.090514295 0.70400006
-0.00067333336 0.090900004 0.70700002
0.00067428575 0.091028579 0.708
0.0020285717 0.09128572 0.71000004
0.0033809526 0.09128572 0.71000004
0.0047533335 0.091671437 0.71300006
0.0061371434 0.092057146 0.71600002
0.007500953 0.092057146 0.71600002
0.0089019053 0.092442863 0.71900004
0.010271429 0.092442863 0.71900004
0.011689524 0.092828579 0.72200006
0.013064763 0.092828579 0.72200006
0.014460001 0.092957146 0.72300005
0.015837144 0.092957146 0.72300005
0.017261906 0.093214288 0.72500002
0.018642858 0.093214288 0.72500002
0.020023812 0.093214288 0.72500002
0.021434287 0.093342863 0.72600001
0.022817144 0.093342863 0.72600001
0.024200002 0.093342863 0.72600001
0.050404765 0.093214288 0.72500002
0.051642861 0.092957146 0.72300005
-0.01889143 0.089245722 0.68400002
-0.017588573 0.089245722 0.68400002
-0.016333334 0.089506671 0.68600005
-0.015048573 0.089637145 0.68700004
-0.013780001 0.089898102 0.68900001
-0.012485716 0.090028577 0.69000006
-0.01118762 0.090159051 0.69100004
-0.0099000009 0.090420008 0.69300002
-0.0085923811 0.090550482 0.69400001
-0.0072809528 0.090680957 0.69500005
-0.0059742862 0.090941913 0.69700003
-0.004666667 0.091333337 0.70000005
-0.0033380955 0.091463819 0.70100003
-0.0020085715 0.091724768 0.70300001
-0.00067142863 0.091985717 0.70500004
0.00067333336 0.092246674 0.70700002
0.0020228573 0.092377149 0.708
0.0033809526 0.092638098 0.71000004
0.0047533335 0.093029529 0.71300006
0.0061200005 0.093160003 0.71400005
0.0074800006 0.093160003 0.71400005
0.0088647623 0.09342096 0.71600002
0.010242858 0.093551435 0.71700001
0.011640953 0.093812384 0.71900004
0.013028572 0.093942866 0.72000003
0.014400001 0.093942866 0.72000003
0.015815239 0.094203815 0.72200006
0.017190477 0.094203815 0.72200006
0.01859143 0.094334289 0.72300005
0.020023812 0.094595246 0.72500002
0.021404764 0.094595246 0.72500002
0.022785716 0.094595246 0.72500002
0.050196193 0.094203815 0.72200006
0.051428575 0.093942866 0.72000003
-0.01889143 0.090548575 0.68400002
-0.017588573 0.090548575 0.68400002
-0.016333334 0.090813339 0.68600005
-0.015048573 0.090945721 0.68700004
-0.013780001 0.091210485 0.68900001
-0.012485716 0.091342866 0.69000006
-0.011171429 0.091342866 0.69000006
-0.0098714288 0.091475241 0.69100004
-0.0085923811 0.091872387 0.69400001
-0.0072809528 0.092004769 0.69500005
-0.0059742862 0.092269532 0.69700003
-0.0046533337 0.092401914 0.69800001
-0.0033380955 0.092799053 0.70100003
-0.0020085715 0.093063816 0.70300001
-0.00067047623 0.093196198 0.70400006
0.00067333336 0.093593337 0.70700002
0.0020200002 0.093593337 0.70700002
0.0033809526 0.093990482 0.71000004
0.0047400002 0.094122864 0.71100003
0.0061114291 0.094387628 0.71300006
0.0074695242 0.094387628 0.71300006
0.0088400003 0.094520003 0.71400005
0.010228572 0.094784766 0.71600002
0.011608572 0.094917148 0.71700001
0.013010477 0.095181912 0.71900004
0.014400001 0.095314294 0.72000003
0.01577143 0.095314294 0.72000003
0.017190477 0.09557905 0.72200006
0.018565716 0.09557905 0.72200006
0.019968573 0.095711432 0.72300005
0.048685718 0.095314294 0.72000003
0.050057147 0.095314294 0.72000003
0.051357146 0.095181912 0.71900004
-0.017588573 0.091851436 0.68400002
-0.016333334 0.092120007 0.68600005
-0.015048573 0.092254288 0.68700004
-0.013740001 0.092254288 0.68700004
-0.01246762 0.09252286 0.68900001
-0.011171429 0.092657149 0.69000006
-0.0098714288 0.092791438 0.69100004
-0.0085923811 0.093194291 0.69400001
-0.0072809528 0.09332858 0.69500005
-0.0059742862 0.093597151 0.69700003
-0.0046533337 0.093731433 0.69800001
-0.0033333336 0.094000004 0.70000005
-0.0020085715 0.094402865 0.70300001
-0.00067047623 0.094537146 0.70400006
0.00067142863 0.094671436 0.70500004
0.0020200002 0.094940007 0.70700002
0.0033714287 0.095074289 0.708
0.0047400002 0.095477149 0.71100003
0.0061114291 0.09574572 0.71300006
0.0074695242 0.09574572 0.71300006
0.0088276193 0.09574572 0.71300006
0.0102 0.095880009 0.71400005
0.011592382 0.09614858 0.71600002
0.012974286 0.096282862 0.71700001
0.014340001 0.096282862 0.71700001
0.015749525 0.096551433 0.71900004
0.017142858 0.096685722 0.72000003
0.018514287 0.096685722 0.72000003
0.048618097 0.096551433 0.71900004
0.049848575 0.096282862 0.71700001
0.050928574 0.09574572 0.71300006
0.055311434 0.096282862 0.71700001
-0.017562859 0.0930181 0.68300003
-0.016285716 0.093154289 0.68400002
-0.015026668 0.093426675 0.68600005
-0.013740001 0.093562864 0.68700004
-0.01246762 0.093835242 0.68900001
-0.011155238 0.093835242 0.68900001
-0.0098714288 0.094107628 0.69100004
-0.0085800001 0.094380006 0.69300002
-0.0072704768 0.094516195 0.69400001
-0.0059571434 0.094652385 0.69500005
-0.0046466668 0.09492477 0.69700003
-0.0033333336 0.095333338 0.70000005
-0.0020028572 0.095469527 0.70100003
-0.00066952384 0.095741913 0.70300001
0.00067142863 0.096014291 0.70500004
0.0020200002 0.096286669 0.70700002
0.0033714287 0.096422866 0.708
0.0047333338 0.096695244 0.71000004
0.0060942862 0.096831433 0.71100003
0.0074485717 0.096831433 0.71100003
0.0088276193 0.097103819 0.71300006
0.010185715 0.097103819 0.71300006
0.01156 0.097240008 0.71400005
0.012920001 0.097240008 0.71400005
0.014320001 0.097512387 0.71600002
0.015705716 0.097648576 0.71700001
0.017119048 0.097920962 0.71900004
0.018488573 0.097920962 0.71900004
0.019858096 0.097920962 0.71900004
0.048482861 0.097648576 0.71700001
0.049848575 0.097648576 0.71700001
0.050928574 0.097103819 0.71300006
-0.017588573 0.09445715 0.68400002
-0.016285716 0.09445715 0.68400002
-0.015026668 0.094733343 0.68600005
-0.013740001 0.094871432 0.68700004
-0.01246762 0.095147625 0.68900001
-0.011171429 0.095285721 0.69000006
-0.0098714288 0.095423818 0.69100004
-0.0085552391 0.095423818 0.69100004
-0.0072704768 0.0958381 0.69400001
-0.0059571434 0.095976196 0.69500005
-0.0046466668 0.096252389 0.69700003
-0.0033238097 0.096390486 0.69800001
-0.0020028572 0.096804768 0.70100003
-0.00066952384 0.097080961 0.70300001
0.00067047623 0.097219057 0.70400006
0.0020200002 0.097633339 0.70700002
0.0033666668 0.097633339 0.70700002
0.0047200001 0.097771436 0.708
0.0060857148 0.098047629 0.71000004
0.0074485717 0.098185718 0.71100003
0.0088028582 0.098185718 0.71100003
0.010185715 0.098461911 0.71300006
0.01154381 0.098461911 0.71300006
0.012920001 0.098600008 0.71400005
0.014320001 0.098876201 0.71600002
0.015683811 0.098876201 0.71600002
0.017047619 0.098876201 0.71600002
0.01841143 0.098876201 0.71600002
0.01977524 0.098876201 0.71600002
0.044323813 0.098876201 0.71600002
0.045687623 0.098876201 0.71600002
0.046920002 0.098600008 0.71400005
0.04841524 0.098876201 0.71600002
0.049640004 0.098600008 0.71400005
0.051000003 0.098600008 0.71400005
0.05228667 0.098461911 0.71300006
-0.017588573 0.095760003 0.68400002
-0.016285716 0.095760003 0.68400002
-0.015026668 0.096040003 0.68600005
-0.013740001 0.096180007 0.68700004
-0.01246762 0.096460007 0.68900001
-0.011171429 0.096600004 0.69000006
-0.0098571433 0.096600004 0.69000006
-0.0085552391 0.096740007 0.69100004
-0.0072600003 0.097020008 0.69300002
-0.005948572 0.097160004 0.69400001
-0.0046333335 0.097300008 0.69500005
-0.0033190479 0.097580008 0.69700003
-0.0020000001 0.098000005 0.70000005
-0.00066666672 0.098000005 0.70000005
0.00066952384 0.098420009 0.70300001
0.0020142859 0.098700009 0.70500004
0.0033571431 0.098700009 0.70500004
0.0047133337 0.09898001 0.70700002
0.0060685719 0.099120006 0.708
0.0074380958 0.099400006 0.71000004
0.0088028582 0.09954001 0.71100003
0.010157144 0.09954001 0.71100003
0.01154381 0.099820003 0.71300006
0.012901906 0.099820003 0.71300006
0.014280001 0.099960007 0.71400005
0.015640002 0.099960007 0.71400005
0.017000001 0.099960007 0.71400005
0.018360002 0.099960007 0.71400005
0.044200003 0.099960007 0.71400005
0.045560002 0.099960007 0.71400005
0.046854287 0.099820003 0.71300006
0.048212383 0.099820003 0.71300006
0.049570478 0.099820003 0.71300006
0.050928574 0.099820003 0.71300006
0.05228667 0.099820003 0.71300006
-0.016333334 0.097346671 0.68600005
-0.015026668 0.097346671 0.68600005
-0.013740001 0.097488575 0.68700004
-0.01243143 0.097488575 0.68700004
-0.011155238 0.09777239 0.68900001
-0.0098571433 0.097914293 0.69000006
-0.0085552391 0.098056197 0.69100004
-0.0072600003 0.098340005 0.69300002
-0.005948572 0.098481908 0.69400001
-0.0046333335 0.09862382 0.69500005
-0.0033190479 0.098907627 0.69700003
-0.0019942857 0.099049531 0.69800001
-0.00066666672 0.099333338 0.70000005
0.00066952384 0.099759057 0.70300001
0.0020114286 0.099900961 0.70400006
0.0033571431 0.10004286 0.70500004
0.0047000004 0.10004286 0.70500004
0.0060600005 0.10032667 0.70700002
0.0074171433 0.10046858 0.708
0.0087904772 0.10075239 0.71000004
0.010142858 0.10075239 0.71000004
0.011511429 0.10089429 0.71100003
0.012901906 0.1011781 0.71300006
0.014260001 0.1011781 0.71300006
0.015618096 0.1011781 0.71300006
0.016976191 0.1011781 0.71300006
0.018334286 0.1011781 0.71300006
0.0441381 0.1011781 0.71300006
0.045368575 0.10089429 0.71100003
0.046722859 0.10089429 0.71100003
0.048077147 0.10089429 0.71100003
0.049431432 0.10089429 0.71100003
0.050785717 0.10089429 0.71100003
0.052140005 0.10089429 0.71100003
0.05191429 0.097914293 0.69000006
0.053228576 0.097914293 0.69000006
-0.016285716 0.098365724 0.68400002
-0.014982858 0.098365724 0.68400002
-0.013720001 0.098653339 0.68600005
-0.01243143 0.09879715 0.68700004
-0.011155238 0.099084765 0.68900001
-0.0098571433 0.099228576 0.69000006
-0.0085428581 0.099228576 0.69000006
-0.0072600003 0.099660009 0.69300002
-0.005948572 0.099803813 0.69400001
-0.0046266671 0.099803813 0.69400001
-0.0033095239 0.099947624 0.69500005
-0.0019914287 0.10023525 0.69700003
-0.00066476193 0.10037906 0.69800001
0.00066761911 0.10081048 0.70100003
0.0020085715 0.10109811 0.70300001
0.0033476192 0.10109811 0.70300001
0.0046933335 0.10124191 0.70400006
0.0060428577 0.10138572 0.70500004
0.0074066673 0.10167334 0.70700002
0.0087657152 0.10181715 0.708
0.010142858 0.10210477 0.71000004
0.011495239 0.10210477 0.71000004
0.012865715 0.10224858 0.71100003
0.014220001 0.10224858 0.71100003
0.015574287 0.10224858 0.71100003
0.016928572 0.10224858 0.71100003
0.045368575 0.10224858 0.71100003
0.046657145 0.10210477 0.71000004
0.048009526 0.10210477 0.71000004
0.04922286 0.10181715 0.708
0.049000002 0.098653339 0.68600005
0.050820004 0.099660009 0.69300002
0.052140005 0.099660009 0.69300002
0.053228576 0.099228576 0.69000006
-0.014982858 0.099668577 0.68400002
-0.013720001 0.099960007 0.68600005
-0.012413334 0.099960007 0.68600005
-0.011122858 0.10010572 0.68700004
-0.0098428577 0.10039715 0.68900001
-0.0085428581 0.10054287 0.69000006
-0.0072390479 0.10068858 0.69100004
-0.0059400005 0.10098001 0.69300002
-0.0046266671 0.10112572 0.69400001
-0.0033095239 0.10127144 0.69500005
-0.0019914287 0.10156287 0.69700003
-0.00066476193 0.10170858 0.69800001
0.00066476193 0.10170858 0.69800001
0.0020028572 0.10214572 0.70100003
0.0033476192 0.10243715 0.70300001
0.0046866671 0.10243715 0.70300001
0.0060342862 0.10258286 0.70400006
0.0073857149 0.10272858 0.70500004
0.0087533342 0.10302 0.70700002
0.010114286 0.10316572 0.708
0.011462858 0.10316572 0.708
0.01284762 0.10345715 0.71000004
0.014200001 0.10345715 0.71000004
0.015552382 0.10345715 0.71000004
0.043828573 0.10316572 0.708
0.045113336 0.10302 0.70700002
0.046328574 0.10272858 0.70500004
0.047671434 0.10272858 0.70500004
0.048736192 0.10214572 0.70100003
0.049000002 0.099960007 0.68600005
0.052140005 0.10098001 0.69300002
0.053305719 0.10068858 0.69100004
-0.015026668 0.10126667 0.68600005
-0.013720001 0.10126667 0.68600005
-0.012413334 0.10126667 0.68600005
-0.011122858 0.10141429 0.68700004
-0.0098428577 0.10170953 0.68900001
-0.0085304771 0.10170953 0.68900001
-0.0072285719 0.10185715 0.69000006
-0.0059228577 0.10200477 0.69100004
-0.004606667 0.10200477 0.69100004
-0.0033000002 0.1023 0.69300002
-0.0019857143 0.10259525 0.69500005
-0.00066380959 0.10289048 0.69700003
0.00066380959 0.10289048 0.69700003
0.0019914287 0.10289048 0.69700003
0.0033238097 0.1030381 0.69800001
0.004666667 0.10333334 0.70000005
0.0060085719 0.10348096 0.70100003
0.0073647625 0.10377619 0.70300001
0.0087038102 0.10377619 0.70300001
0.010071429 0.10407144 0.70500004
0.011414287 0.10407144 0.70500004
0.012757144 0.10407144 0.70500004
0.014140001 0.10436668 0.70700002
0.015508573 0.10451429 0.708
0.016857143 0.10451429 0.708
0.018205715 0.10451429 0.708
0.038380001 0.10436668 0.70700002
0.039726671 0.10436668 0.70700002
0.040899049 0.10392382 0.70400006
0.042060003 0.10348096 0.70100003
0.04339524 0.10348096 0.70100003
0.04466667 0.10333334 0.70000005
0.045802861 0.10289048 0.69700003
0.04713048 0.10289048 0.69700003
0.048319049 0.10259525 0.69500005
0.049214289 0.10170953 0.68900001
0.052215241 0.10244763 0.69400001
-0.01243143 0.10272286 0.68700004
-0.011122858 0.10272286 0.68700004
-0.0098428577 0.10302191 0.68900001
-0.0085428581 0.10317144 0.69000006
-0.0072285719 0.10317144 0.69000006
-0.0059228577 0.10332096 0.69100004
-0.004606667 0.10332096 0.69100004
-0.0033000002 0.10362001 0.69300002
-0.0019828572 0.10376953 0.69400001
-0.00066190481 0.10391905 0.69500005
0.00066190481 0.10391905 0.69500005
0.0019857143 0.10391905 0.69500005
0.0033190479 0.1042181 0.69700003
0.0046533337 0.10436763 0.69800001
0.0060000005 0.10466667 0.70000005
0.0073333336 0.10466667 0.70000005
0.0086790482 0.1048162 0.70100003
0.010042857 0.10511524 0.70300001
0.011398096 0.10526477 0.70400006
0.012739048 0.10526477 0.70400006
0.014100001 0.10541429 0.70500004
0.038271431 0.10541429 0.70500004
0.03961429 0.10541429 0.70500004
0.040724766 0.1048162 0.70100003
0.042000003 0.10466667 0.70000005
0.043209527 0.10436763 0.69800001
0.044539049 0.10436763 0.69800001
0.045802861 0.1042181 0.69700003
0.046995241 0.10391905 0.69500005
0.048249528 0.10376953 0.69400001
0.049071431 0.10272286 0.68700004
0.052741908 0.1048162 0.70100003
-0.01243143 0.10403144 0.68700004
-0.011122858 0.10403144 0.68700004
-0.0098428577 0.10433429 0.68900001
-0.0085304771 0.10433429 0.68900001
-0.0072285719 0.10448572 0.69000006
-0.0059228577 0.10463715 0.69100004
-0.004606667 0.10463715 0.69100004
-0.0033000002 0.10494 0.69300002
-0.0019800002 0.10494 0.69300002
-0.00066095241 0.10509144 0.69400001
0.00066095241 0.10509144 0.69400001
0.0019857143 0.10524286 0.69500005
0.0033095239 0.10524286 0.69500005
0.0046466668 0.10554572 0.69700003
0.0059828577 0.10569715 0.69800001
0.0073123816 0.10569715 0.69800001
0.0086419052 0.10569715 0.69800001
0.010000001 0.10600001 0.70000005
0.011381906 0.10645429 0.70300001
0.012739048 0.10660572 0.70400006
0.039501909 0.10645429 0.70300001
0.04066667 0.10600001 0.70000005
0.041880004 0.10569715 0.69800001
0.043147624 0.10554572 0.69700003
0.044347622 0.10524286 0.69500005
0.045671433 0.10524286 0.69500005
0.046860002 0.10494 0.69300002
0.048180003 0.10494 0.69300002
0.049285717 0.10448572 0.69000006
-0.011122858 0.10534 0.68700004
-0.0098142866 0.10534 0.68700004
-0.0085304771 0.10564668 0.68900001
-0.0072285719 0.10580001 0.69000006
-0.0059142862 0.10580001 0.69000006
-0.004606667 0.10595334 0.69100004
-0.0032904765 0.10595334 0.69100004
-0.0019800002 0.10626001 0.69300002
-0.00066000002 0.10626001 0.69300002
0.00066095241 0.10641334 0.69400001
0.0019828572 0.10641334 0.69400001
0.0033095239 0.10656668 0.69500005
0.0046333335 0.10656668 0.69500005
0.0059742862 0.10687334 0.69700003
0.0073019052 0.10687334 0.69700003
0.0086295241 0.10687334 0.69700003
0.0099714296 0.10702667 0.69800001
0.011349524 0.10748667 0.70100003
0.039220955 0.10702667 0.69800001
0.040550478 0.10702667 0.69800001
0.041820005 0.10687334 0.69700003
0.043023814 0.10656668 0.69500005
0.044283811 0.10641334 0.69400001
0.045540001 0.10626001 0.69300002
0.046724766 0.10595334 0.69100004
0.047971431 0.10580001 0.69000006
0.04857143 0.10426667 0.68000001
-0.0098571433 0.10711429 0.69000006
-0.0085428581 0.10711429 0.69000006
-0.0072285719 0.10711429 0.69000006
-0.0059142862 0.10711429 0.69000006
-0.004606667 0.10726953 0.69100004
-0.0032904765 0.10726953 0.69100004
-0.0019742858 0.10726953 0.69100004
-0.00065809529 0.10726953 0.69100004
0.00066000002 0.10758001 0.69300002
0.0019828572 0.10773525 0.69400001
0.0033047621 0.10773525 0.69400001
0.0046333335 0.10789049 0.69500005
0.0059571434 0.10789049 0.69500005
0.0073019052 0.10820096 0.69700003
0.0086295241 0.10820096 0.69700003
0.0099714296 0.1083562 0.69800001
0.011333334 0.10866667 0.70000005
0.039164763 0.10820096 0.69700003
0.040376194 0.10789049 0.69500005
0.041640002 0.10773525 0.69400001
0.042900003 0.10758001 0.69300002
