# .PCD v0.7 - Point Cloud Data file format
VERSION 0.7
FIELDS x y z
SIZE 4 4 4
TYPE F F F
COUNT 1 1 1
WIDTH 1394
HEIGHT 1
VIEWPOINT 0 0 0 1 0 0 0
POINTS 1394
DATA ascii
0.09175048 0.02734286 0.63800001
0.093111433 0.027385715 0.63900006
0.094328575 0.027385715 0.63900006
0.095545724 0.027385715 0.63900006
0.097065717 0.027471431 0.64100003
0.098440006 0.027514288 0.64200002
0.099662863 0.027514288 0.64200002
0.10151429 0.027685717 0.64600003
0.10306286 0.02777143 0.648
0.10461906 0.027857145 0.65000004
0.037085716 0.02954286 0.66000003
0.041476194 0.02909524 0.65000004
0.042582858 0.029005716 0.648
0.043681908 0.028916193 0.64600003
0.044912383 0.028916193 0.64600003
0.046142861 0.028916193 0.64600003
0.047226671 0.028826669 0.64400005
0.048302859 0.028737145 0.64200002
0.049448576 0.028692383 0.64100003
0.050511431 0.028602859 0.63900006
0.051647622 0.028558098 0.63800001
0.052697148 0.028468573 0.63600004
0.053823814 0.028423812 0.63500005
0.055033337 0.028423812 0.63500005
0.056242861 0.028423812 0.63500005
0.057361908 0.028379049 0.634
0.058569528 0.028379049 0.634
0.059777148 0.028379049 0.634
0.060984764 0.028379049 0.634
0.062192384 0.028379049 0.634
0.063300006 0.028334288 0.63300002
0.064505719 0.028334288 0.63300002
0.065607622 0.028289525 0.63200003
0.066705719 0.028244764 0.63100004
0.067907624 0.028244764 0.63100004
0.068890482 0.028155239 0.62900001
0.070088573 0.028155239 0.62900001
0.071286671 0.028155239 0.62900001
0.072484769 0.028155239 0.62900001
0.07368286 0.028155239 0.62900001
0.075119056 0.028244764 0.63100004
0.076320961 0.028244764 0.63100004
0.077645719 0.028289525 0.63200003
0.079099052 0.028379049 0.634
0.080306672 0.028379049 0.634
0.081514291 0.028379049 0.634
0.082721911 0.028379049 0.634
0.083929531 0.028379049 0.634
0.085137151 0.028379049 0.634
0.086344771 0.028379049 0.634
0.08769048 0.028423812 0.63500005
0.088900007 0.028423812 0.63500005
0.090109527 0.028423812 0.63500005
0.09175048 0.028558098 0.63800001
0.093111433 0.028602859 0.63900006
0.094328575 0.028602859 0.63900006
0.095695242 0.02864762 0.64000005
0.09721715 0.028737145 0.64200002
0.098746672 0.028826669 0.64400005
0.099973343 0.028826669 0.64400005
0.10167143 0.028960954 0.64700001
0.10306286 0.029005716 0.648
0.10461906 0.02909524 0.65000004
0.037141908 0.030846668 0.66100001
0.040980954 0.030893335 0.66200006
0.041284766 0.030193334 0.64700001
0.042517144 0.030193334 0.64700001
0.043749526 0.030193334 0.64700001
0.044912383 0.030146668 0.64600003
0.046142861 0.030146668 0.64600003
0.047300003 0.030100003 0.64500004
0.048302859 0.029960003 0.64200002
0.049525719 0.029960003 0.64200002
0.050511431 0.029820003 0.63900006
0.051728576 0.029820003 0.63900006
0.05286286 0.029773336 0.63800001
0.053908575 0.029680002 0.63600004
0.055033337 0.029633336 0.63500005
0.056242861 0.029633336 0.63500005
0.057452384 0.029633336 0.63500005
0.058661908 0.029633336 0.63500005
0.059777148 0.029586669 0.634
0.060984764 0.029586669 0.634
0.062192384 0.029586669 0.634
0.063400008 0.029586669 0.634
0.06460762 0.029586669 0.634
0.065711431 0.029540002 0.63300002
0.066811435 0.029493336 0.63200003
0.06801524 0.029493336 0.63200003
0.069219053 0.029493336 0.63200003
0.070311435 0.029446669 0.63100004
0.07151334 0.029446669 0.63100004
0.072715245 0.029446669 0.63100004
0.07391715 0.029446669 0.63100004
0.075119056 0.029446669 0.63100004
0.076441906 0.029493336 0.63200003
0.077891432 0.029586669 0.634
0.079099052 0.029586669 0.634
0.080306672 0.029586669 0.634
0.081514291 0.029586669 0.634
0.082721911 0.029586669 0.634
0.083929531 0.029586669 0.634
0.085137151 0.029586669 0.634
0.08648096 0.029633336 0.63500005
0.08769048 0.029633336 0.63500005
0.088900007 0.029633336 0.63500005
0.090535246 0.029773336 0.63800001
0.091894291 0.029820003 0.63900006
0.093111433 0.029820003 0.63900006
0.094328575 0.029820003 0.63900006
0.095695242 0.029866669 0.64000005
0.097065717 0.029913336 0.64100003
0.098746672 0.030053336 0.64400005
0.10043906 0.030193334 0.64700001
0.10182858 0.030240001 0.648
0.10338096 0.030333335 0.65000004
0.10461906 0.030333335 0.65000004
0.15816286 0.039340004 0.84300005
0.03599143 0.032202858 0.66300005
0.037198097 0.032154288 0.66200006
0.038459051 0.032154288 0.66200006
0.039720003 0.032154288 0.66200006
0.040980954 0.032154288 0.66200006
0.042241909 0.032154288 0.66200006
0.042582858 0.031474289 0.648
0.043817144 0.031474289 0.648
0.044981908 0.031425714 0.64700001
0.046142861 0.031377144 0.64600003
0.047300003 0.031328574 0.64500004
0.048453335 0.031280003 0.64400005
0.049680002 0.031280003 0.64400005
0.050590478 0.031085717 0.64000005
0.051809527 0.031085717 0.64000005
0.052945718 0.031037144 0.63900006
0.054078098 0.030988574 0.63800001
0.055120002 0.030891431 0.63600004
0.056331433 0.030891431 0.63600004
0.057452384 0.030842859 0.63500005
0.058661908 0.030842859 0.63500005
0.059777148 0.030794287 0.634
0.060984764 0.030794287 0.634
0.062192384 0.030794287 0.634
0.063400008 0.030794287 0.634
0.06460762 0.030794287 0.634
0.06581524 0.030794287 0.634
0.066917144 0.030745717 0.63300002
0.068122864 0.030745717 0.63300002
0.069328576 0.030745717 0.63300002
0.070422865 0.030697145 0.63200003
0.07151334 0.030648574 0.63100004
0.072830483 0.030697145 0.63200003
0.07391715 0.030648574 0.63100004
0.075357147 0.030745717 0.63300002
0.076683812 0.030794287 0.634
0.077891432 0.030794287 0.634
0.079223812 0.030842859 0.63500005
0.080433339 0.030842859 0.63500005
0.081642866 0.030842859 0.63500005
0.082852386 0.030842859 0.63500005
0.084061913 0.030842859 0.63500005
0.085271433 0.030842859 0.63500005
0.08648096 0.030842859 0.63500005
0.087828577 0.030891431 0.63600004
0.089040004 0.030891431 0.63600004
0.09067715 0.031037144 0.63900006
0.091894291 0.031037144 0.63900006
0.093111433 0.031037144 0.63900006
0.094328575 0.031037144 0.63900006
0.095844768 0.031134287 0.64100003
0.097520009 0.031280003 0.64400005
0.099053338 0.031377144 0.64600003
0.10043906 0.031425714 0.64700001
0.10182858 0.031474289 0.648
0.10338096 0.031571429 0.65000004
0.10574572 0.031911429 0.65700001
0.10699715 0.031911429 0.65700001
0.037198097 0.033415239 0.66200006
0.038459051 0.033415239 0.66200006
0.039720003 0.033415239 0.66200006
0.040980954 0.033415239 0.66200006
0.042241909 0.033415239 0.66200006
0.042582858 0.032708574 0.648
0.043817144 0.032708574 0.648
0.045051433 0.032708574 0.648
0.04621429 0.032658096 0.64700001
0.047373336 0.032607622 0.64600003
0.048603814 0.032607622 0.64600003
0.049757145 0.032557145 0.64500004
0.050985716 0.032557145 0.64500004
0.051971432 0.032405715 0.64200002
0.053028576 0.032304764 0.64000005
0.05416286 0.032254286 0.63900006
0.055293337 0.032203812 0.63800001
0.056331433 0.032102861 0.63600004
0.057452384 0.032052383 0.63500005
0.058661908 0.032052383 0.63500005
0.059871431 0.032052383 0.63500005
0.061080955 0.032052383 0.63500005
0.062290478 0.032052383 0.63500005
0.063500002 0.032052383 0.63500005
0.06460762 0.032001905 0.634
0.06581524 0.032001905 0.634
0.06702286 0.032001905 0.634
0.06823048 0.032001905 0.634
0.0694381 0.032001905 0.634
0.070534289 0.031951431 0.63300002
0.07185334 0.032001905 0.634
0.07306096 0.032001905 0.634
0.074385718 0.032052383 0.63500005
0.075595245 0.032052383 0.63500005
0.076804765 0.032052383 0.63500005
0.078137144 0.032102861 0.63600004
0.079348579 0.032102861 0.63600004
0.080560006 0.032102861 0.63600004
0.081771433 0.032102861 0.63600004
0.082982861 0.032102861 0.63600004
0.084194288 0.032102861 0.63600004
0.085405722 0.032102861 0.63600004
0.086889528 0.032203812 0.63800001
0.08810477 0.032203812 0.63800001
0.089460008 0.032254286 0.63900006
0.090819053 0.032304764 0.64000005
0.092181914 0.032355241 0.64100003
0.093402863 0.032355241 0.64100003
0.094771437 0.032405715 0.64200002
0.096293338 0.032506667 0.64400005
0.097671434 0.032557145 0.64500004
0.099206671 0.032658096 0.64700001
0.10059429 0.032708574 0.648
0.10214286 0.032809526 0.65000004
0.10465334 0.033213336 0.65800005
0.10590667 0.033213336 0.65800005
0.038459051 0.034676194 0.66200006
0.039720003 0.034676194 0.66200006
0.040919051 0.034623813 0.66100001
0.042178098 0.034623813 0.66100001
0.04271429 0.034047622 0.65000004
0.043952383 0.034047622 0.65000004
0.045051433 0.03394286 0.648
0.046285719 0.03394286 0.648
0.047446668 0.033890478 0.64700001
0.048603814 0.033838097 0.64600003
0.049834289 0.033838097 0.64600003
0.050985716 0.033785716 0.64500004
0.052133337 0.033733334 0.64400005
0.053194288 0.033628572 0.64200002
0.054247621 0.033523813 0.64000005
0.055380005 0.033471432 0.63900006
0.056508575 0.03341905 0.63800001
0.057542861 0.033314288 0.63600004
0.058754291 0.033314288 0.63600004
0.059965719 0.033314288 0.63600004
0.061080955 0.033261906 0.63500005
0.062290478 0.033261906 0.63500005
0.063500002 0.033261906 0.63500005
0.064709529 0.033261906 0.63500005
0.065919049 0.033261906 0.63500005
0.067128576 0.033261906 0.63500005
0.068338096 0.033261906 0.63500005
0.0694381 0.033209525 0.634
0.07064572 0.033209525 0.634
0.07196667 0.033261906 0.63500005
0.073176198 0.033261906 0.63500005
0.074385718 0.033261906 0.63500005
0.07571429 0.033314288 0.63600004
0.076925717 0.033314288 0.63600004
0.078137144 0.033314288 0.63600004
0.079598099 0.03341905 0.63800001
0.080560006 0.033314288 0.63600004
0.082028575 0.03341905 0.63800001
0.083243817 0.03341905 0.63800001
0.084459051 0.03341905 0.63800001
0.085674293 0.03341905 0.63800001
0.087025717 0.033471432 0.63900006
0.088242866 0.033471432 0.63900006
0.089600004 0.033523813 0.64000005
0.090960957 0.033576194 0.64100003
0.092325717 0.033628572 0.64200002
0.093548581 0.033628572 0.64200002
0.095214292 0.033785716 0.64500004
0.096592389 0.033838097 0.64600003
0.097974293 0.033890478 0.64700001
0.099206671 0.033890478 0.64700001
0.10059429 0.03394286 0.648
0.10214286 0.034047622 0.65000004
0.10465334 0.034466669 0.65800005
0.10622858 0.034571432 0.66000003
0.039720003 0.035937145 0.66200006
0.040919051 0.03588286 0.66100001
0.042114288 0.035828575 0.66000003
0.043371432 0.035828575 0.66000003
0.043952383 0.035285715 0.65000004
0.04519048 0.035285715 0.65000004
0.046285719 0.035177145 0.648
0.047446668 0.03512286 0.64700001
0.04867905 0.03512286 0.64700001
0.049834289 0.035068575 0.64600003
0.050985716 0.035014287 0.64500004
0.052133337 0.034960002 0.64400005
0.053360004 0.034960002 0.64400005
0.054332383 0.034797147 0.64100003
0.055466671 0.034742858 0.64000005
0.056597147 0.034688573 0.63900006
0.057723813 0.034634288 0.63800001
0.058939051 0.034634288 0.63800001
0.060154289 0.034634288 0.63800001
0.061177146 0.034525715 0.63600004
0.062388577 0.034525715 0.63600004
0.063500002 0.03447143 0.63500005
0.064709529 0.03447143 0.63500005
0.065919049 0.03447143 0.63500005
0.067128576 0.03447143 0.63500005
0.068338096 0.03447143 0.63500005
0.069547623 0.03447143 0.63500005
0.070757151 0.03447143 0.63500005
0.07196667 0.03447143 0.63500005
0.073291436 0.034525715 0.63600004
0.074737146 0.034634288 0.63800001
0.075952388 0.034634288 0.63800001
0.076925717 0.034525715 0.63600004
0.078382865 0.034634288 0.63800001
0.079598099 0.034634288 0.63800001
0.080813341 0.034634288 0.63800001
0.082028575 0.034634288 0.63800001
0.083243817 0.034634288 0.63800001
0.084591433 0.034688573 0.63900006
0.085808575 0.034688573 0.63900006
0.087025717 0.034688573 0.63900006
0.088242866 0.034688573 0.63900006
0.089600004 0.034742858 0.64000005
0.091102861 0.034851432 0.64200002
0.092613339 0.034960002 0.64400005
0.093840003 0.034960002 0.64400005
0.095214292 0.035014287 0.64500004
0.096442863 0.035014287 0.64500004
0.097974293 0.03512286 0.64700001
0.099206671 0.03512286 0.64700001
0.10059429 0.035177145 0.648
0.10340001 0.035720002 0.65800005
0.10497144 0.035828575 0.66000003
0.10622858 0.035828575 0.66000003
0.040919051 0.037141908 0.66100001
0.042114288 0.037085716 0.66000003
0.043240003 0.036973335 0.65800005
0.044020005 0.036580004 0.65100002
0.045260005 0.036580004 0.65100002
0.046285719 0.036411431 0.648
0.047520004 0.036411431 0.648
0.04867905 0.036355242 0.64700001
0.049911432 0.036355242 0.64700001
0.051064767 0.03629905 0.64600003
0.052214291 0.036242861 0.64500004
0.053360004 0.036186669 0.64400005
0.054417148 0.036074288 0.64200002
0.055553336 0.036018096 0.64100003
0.056597147 0.035905715 0.63900006
0.057723813 0.035849527 0.63800001
0.058939051 0.035849527 0.63800001
0.060154289 0.035849527 0.63800001
0.061369527 0.035849527 0.63800001
0.062584765 0.035849527 0.63800001
0.063800007 0.035849527 0.63800001
0.064811431 0.035737146 0.63600004
0.066022858 0.035737146 0.63600004
0.067234293 0.035737146 0.63600004
0.06844572 0.035737146 0.63600004
0.069657147 0.035737146 0.63600004
0.070868574 0.035737146 0.63600004
0.07230667 0.035849527 0.63800001
0.073521912 0.035849527 0.63800001
0.074737146 0.035849527 0.63800001
0.075952388 0.035849527 0.63800001
0.077167623 0.035849527 0.63800001
0.078382865 0.035849527 0.63800001
0.079598099 0.035849527 0.63800001
0.080940008 0.035905715 0.63900006
0.08215715 0.035905715 0.63900006
0.083374292 0.035905715 0.63900006
0.084591433 0.035905715 0.63900006
0.085808575 0.035905715 0.63900006
0.087161914 0.035961907 0.64000005
0.088380955 0.035961907 0.64000005
0.089880005 0.036074288 0.64200002
0.09152858 0.036242861 0.64500004
0.092900962 0.03629905 0.64600003
0.094131432 0.03629905 0.64600003
0.095509529 0.036355242 0.64700001
0.096442863 0.036242861 0.64500004
0.098125719 0.036411431 0.648
0.099360004 0.036411431 0.648
0.10090477 0.036523812 0.65000004
0.10340001 0.036973335 0.65800005
0.10497144 0.037085716 0.66000003
0.10622858 0.037085716 0.66000003
0.038517144 0.038517144 0.66300005
0.039720003 0.038459051 0.66200006
0.040919051 0.038400955 0.66100001
0.042114288 0.03834286 0.66000003
0.043371432 0.03834286 0.66000003
0.04415524 0.037936192 0.65300006
0.045260005 0.037820004 0.65100002
0.046428576 0.037761908 0.65000004
0.047520004 0.037645716 0.648
0.04875429 0.037645716 0.648
0.049911432 0.03758762 0.64700001
0.051143814 0.03758762 0.64700001
0.052295242 0.037529524 0.64600003
0.053360004 0.037413336 0.64400005
0.054417148 0.037297145 0.64200002
0.055553336 0.037239049 0.64100003
0.05668572 0.037180956 0.64000005
0.057904765 0.037180956 0.64000005
0.059123814 0.037180956 0.64000005
0.060342859 0.037180956 0.64000005
0.061465718 0.037122861 0.63900006
0.062584765 0.037064765 0.63800001
0.063800007 0.037064765 0.63800001
0.065015242 0.037064765 0.63800001
0.066230483 0.037064765 0.63800001
0.067445718 0.037064765 0.63800001
0.06866096 0.037064765 0.63800001
0.069876194 0.037064765 0.63800001
0.071091436 0.037064765 0.63800001
0.07230667 0.037064765 0.63800001
0.073521912 0.037064765 0.63800001
0.074854292 0.037122861 0.63900006
0.076071434 0.037122861 0.63900006
0.077167623 0.037064765 0.63800001
0.078505717 0.037122861 0.63900006
0.079722859 0.037122861 0.63900006
0.080940008 0.037122861 0.63900006
0.08215715 0.037122861 0.63900006
0.083374292 0.037122861 0.63900006
0.084723815 0.037180956 0.64000005
0.085942864 0.037180956 0.64000005
0.087161914 0.037180956 0.64000005
0.088519052 0.037239049 0.64100003
0.089880005 0.037297145 0.64200002
0.09152858 0.037471432 0.64500004
0.092900962 0.037529524 0.64600003
0.094277151 0.03758762 0.64700001
0.095657147 0.037645716 0.648
0.096891433 0.037645716 0.648
0.098428577 0.037761908 0.65000004
0.09966667 0.037761908 0.65000004
0.10214667 0.038226668 0.65800005
0.10340001 0.038226668 0.65800005
0.10497144 0.03834286 0.66000003
0.10622858 0.03834286 0.66000003
0.038517144 0.039780002 0.66300005
0.039720003 0.039720003 0.66200006
0.040919051 0.039660003 0.66100001
0.042114288 0.039600004 0.66000003
0.043371432 0.039600004 0.66000003
0.044358097 0.039360002 0.65600002
0.045399051 0.039180003 0.65300006
0.046500005 0.039060004 0.65100002
0.047666669 0.039000001 0.65000004
0.04875429 0.038880002 0.648
0.049988575 0.038880002 0.648
0.051143814 0.038820002 0.64700001
0.052295242 0.038760003 0.64600003
0.053442862 0.038700003 0.64500004
0.054586671 0.038640004 0.64400005
0.055553336 0.038460001 0.64100003
0.056774288 0.038460001 0.64100003
0.057904765 0.038400002 0.64000005
0.059216194 0.038460001 0.64100003
0.060342859 0.038400002 0.64000005
0.061561909 0.038400002 0.64000005
0.06268286 0.038340002 0.63900006
0.063900001 0.038340002 0.63900006
0.065117151 0.038340002 0.63900006
0.066334292 0.038340002 0.63900006
0.067445718 0.038280003 0.63800001
0.06866096 0.038280003 0.63800001
0.069876194 0.038280003 0.63800001
0.071202859 0.038340002 0.63900006
0.072420008 0.038340002 0.63900006
0.07363715 0.038340002 0.63900006
0.074854292 0.038340002 0.63900006
0.076071434 0.038340002 0.63900006
0.077288575 0.038340002 0.63900006
0.078505717 0.038340002 0.63900006
0.079847626 0.038400002 0.64000005
0.081066675 0.038400002 0.64000005
0.082285717 0.038400002 0.64000005
0.083504766 0.038400002 0.64000005
0.084723815 0.038400002 0.64000005
0.086077146 0.038460001 0.64100003
0.087298103 0.038460001 0.64100003
0.088657148 0.038520001 0.64200002
0.090160005 0.038640004 0.64400005
0.091670483 0.038760003 0.64600003
0.093044765 0.038820002 0.64700001
0.094277151 0.038820002 0.64700001
0.095657147 0.038880002 0.648
0.096891433 0.038880002 0.648
0.098428577 0.039000001 0.65000004
0.09966667 0.039000001 0.65000004
0.10090477 0.039000001 0.65000004
0.10340001 0.039480001 0.65800005
0.10497144 0.039600004 0.66000003
0.038633335 0.041166671 0.66500002
0.039780002 0.041042861 0.66300005
0.040980954 0.040980954 0.66200006
0.042178098 0.040919051 0.66100001
0.043371432 0.040857144 0.66000003
0.044425718 0.040671431 0.65700001
0.045538098 0.040547621 0.65500003
0.04657143 0.040361907 0.65200001
0.047740005 0.040300004 0.65100002
0.048904765 0.040238097 0.65000004
0.049988575 0.040114287 0.648
0.051222861 0.040114287 0.648
0.052295242 0.039990477 0.64600003
0.053442862 0.039928574 0.64500004
0.054586671 0.039866671 0.64400005
0.055813339 0.039866671 0.64400005
0.057040002 0.039866671 0.64400005
0.058085717 0.039742861 0.64200002
0.059308574 0.039742861 0.64200002
0.060437147 0.039680954 0.64100003
0.061658099 0.039680954 0.64100003
0.062780954 0.039619051 0.64000005
0.064000003 0.039619051 0.64000005
0.065219052 0.039619051 0.64000005
0.066438101 0.039619051 0.64000005
0.06765715 0.039619051 0.64000005
0.068768576 0.039557144 0.63900006
0.070095241 0.039619051 0.64000005
0.071202859 0.039557144 0.63900006
0.072420008 0.039557144 0.63900006
0.07363715 0.039557144 0.63900006
0.074854292 0.039557144 0.63900006
0.076190479 0.039619051 0.64000005
0.077409528 0.039619051 0.64000005
0.078628577 0.039619051 0.64000005
0.079847626 0.039619051 0.64000005
0.081066675 0.039619051 0.64000005
0.082414292 0.039680954 0.64100003
0.083635241 0.039680954 0.64100003
0.084856197 0.039680954 0.64100003
0.086077146 0.039680954 0.64100003
0.087434292 0.039742861 0.64200002
0.088933341 0.039866671 0.64400005
0.090300009 0.039928574 0.64500004
0.091812387 0.040052384 0.64700001
0.093044765 0.040052384 0.64700001
0.094422862 0.040114287 0.648
0.095657147 0.040114287 0.648
0.097190484 0.040238097 0.65000004
0.098428577 0.040238097 0.65000004
0.09966667 0.040238097 0.65000004
0.10371429 0.040857144 0.66000003
0.039780002 0.042305715 0.66300005
0.040980954 0.042241909 0.66200006
0.042178098 0.042178098 0.66100001
0.043371432 0.042114288 0.66000003
0.044493336 0.04198667 0.65800005
0.045607623 0.041859049 0.65600002
0.046785716 0.041795243 0.65500003
0.047813337 0.041603811 0.65200001
0.048980001 0.041540004 0.65100002
0.050142862 0.041476194 0.65000004
0.051222861 0.041348573 0.648
0.052376192 0.041284766 0.64700001
0.053442862 0.041157145 0.64500004
0.054671433 0.041157145 0.64500004
0.055900004 0.041157145 0.64500004
0.057040002 0.041093335 0.64400005
0.05826667 0.041093335 0.64400005
0.059308574 0.040965717 0.64200002
0.060531434 0.040965717 0.64200002
0.061658099 0.040901907 0.64100003
0.062879048 0.040901907 0.64100003
0.064100005 0.040901907 0.64100003
0.065320954 0.040901907 0.64100003
0.06654191 0.040901907 0.64100003
0.06765715 0.040838096 0.64000005
0.068876192 0.040838096 0.64000005
0.070095241 0.040838096 0.64000005
0.07131429 0.040838096 0.64000005
0.072533339 0.040838096 0.64000005
0.073752388 0.040838096 0.64000005
0.07497143 0.040838096 0.64000005
0.076190479 0.040838096 0.64000005
0.077409528 0.040838096 0.64000005
0.078628577 0.040838096 0.64000005
0.079972386 0.040901907 0.64100003
0.081320003 0.040965717 0.64200002
0.082542859 0.040965717 0.64200002
0.084026672 0.041093335 0.64400005
0.085253336 0.041093335 0.64400005
0.086480007 0.041093335 0.64400005
0.08770667 0.041093335 0.64400005
0.089071438 0.041157145 0.64500004
0.090440005 0.041220956 0.64600003
0.091812387 0.041284766 0.64700001
0.093188576 0.041348573 0.648
0.094422862 0.041348573 0.648
0.095952384 0.041476194 0.65000004
0.039900001 0.043700002 0.66500002
0.041042861 0.043568574 0.66300005
0.042241909 0.04350286 0.66200006
0.04350286 0.04350286 0.66200006
0.044628575 0.043371432 0.66000003
0.045746669 0.043240003 0.65800005
0.046785716 0.043042861 0.65500003
0.04788667 0.042911433 0.65300006
0.049055241 0.042845719 0.65200001
0.050220001 0.042780004 0.65100002
0.051380955 0.04271429 0.65000004
0.052457146 0.042582858 0.648
0.053525716 0.04245143 0.64600003
0.054671433 0.042385716 0.64500004
0.055900004 0.042385716 0.64500004
0.057128575 0.042385716 0.64500004
0.05826667 0.042320002 0.64400005
0.059493337 0.042320002 0.64400005
0.060531434 0.042188574 0.64200002
0.06175429 0.042188574 0.64200002
0.06297715 0.042188574 0.64200002
0.064200006 0.042188574 0.64200002
0.065422863 0.042188574 0.64200002
0.06654191 0.04212286 0.64100003
0.067762859 0.04212286 0.64100003
0.068876192 0.042057145 0.64000005
0.070204765 0.04212286 0.64100003
0.07131429 0.042057145 0.64000005
0.072533339 0.042057145 0.64000005
0.073867626 0.04212286 0.64100003
0.075088575 0.04212286 0.64100003
0.076309532 0.04212286 0.64100003
0.077530481 0.04212286 0.64100003
0.078751437 0.04212286 0.64100003
0.080097146 0.042188574 0.64200002
0.081320003 0.042188574 0.64200002
0.082800008 0.042320002 0.64400005
0.084026672 0.042320002 0.64400005
0.085253336 0.042320002 0.64400005
0.086614288 0.042385716 0.64500004
0.087842859 0.042385716 0.64500004
0.089209527 0.04245143 0.64600003
0.090580009 0.042517144 0.64700001
0.091954291 0.042582858 0.648
0.093188576 0.042582858 0.648
0.094714291 0.04271429 0.65000004
0.09610001 0.042780004 0.65100002
0.097938098 0.043042861 0.65500003
0.038865715 0.045237146 0.66900003
0.039960004 0.045034289 0.66600001
0.041166671 0.044966668 0.66500002
0.042305715 0.044831432 0.66300005
0.04350286 0.044763811 0.66200006
0.044696193 0.044696193 0.66100001
0.045885716 0.044628575 0.66000003
0.046857145 0.044358097 0.65600002
0.048033338 0.044290479 0.65500003
0.049055241 0.044087622 0.65200001
0.050220001 0.044020005 0.65100002
0.051380955 0.043952383 0.65000004
0.052457146 0.043817144 0.648
0.053608574 0.043749526 0.64700001
0.054756194 0.043681908 0.64600003
0.055900004 0.043614287 0.64500004
0.057128575 0.043614287 0.64500004
0.058357146 0.043614287 0.64500004
0.059493337 0.043546669 0.64400005
0.060720004 0.043546669 0.64400005
0.06175429 0.04341143 0.64200002
0.06297715 0.04341143 0.64200002
0.064200006 0.04341143 0.64200002
0.065422863 0.04341143 0.64200002
0.06654191 0.043343812 0.64100003
0.067762859 0.043343812 0.64100003
0.068876192 0.043276194 0.64000005
0.070204765 0.043343812 0.64100003
0.07131429 0.043276194 0.64000005
0.072533339 0.043276194 0.64000005
0.073867626 0.043343812 0.64100003
0.075088575 0.043343812 0.64100003
0.076309532 0.043343812 0.64100003
0.077530481 0.043343812 0.64100003
0.078751437 0.043343812 0.64100003
0.080097146 0.04341143 0.64200002
0.081573337 0.043546669 0.64400005
0.082800008 0.043546669 0.64400005
0.084026672 0.043546669 0.64400005
0.085385717 0.043614287 0.64500004
0.086614288 0.043614287 0.64500004
0.087979056 0.043681908 0.64600003
0.089347623 0.043749526 0.64700001
0.090720005 0.043817144 0.648
0.091954291 0.043817144 0.648
0.093476199 0.043952383 0.65000004
0.095005721 0.044087622 0.65200001
0.096395247 0.04415524 0.65300006
0.098087624 0.044358097 0.65600002
0.099640004 0.044493336 0.65800005
0.10120001 0.044628575 0.66000003
0.038749527 0.046372384 0.66700006
0.039960004 0.046302859 0.66600001
0.041166671 0.046233337 0.66500002
0.042433336 0.046233337 0.66500002
0.043568574 0.046094287 0.66300005
0.044763811 0.046024766 0.66200006
0.045955241 0.045955241 0.66100001
0.046928573 0.045677144 0.65700001
0.04810667 0.045607623 0.65600002
0.049130481 0.045399051 0.65300006
0.050297145 0.045329526 0.65200001
0.051460002 0.045260005 0.65100002
0.052457146 0.045051433 0.648
0.053608574 0.044981908 0.64700001
0.054756194 0.044912383 0.64600003
0.055986669 0.044912383 0.64600003
0.057128575 0.044842862 0.64500004
0.058357146 0.044842862 0.64500004
0.059585717 0.044842862 0.64500004
0.060720004 0.044773336 0.64400005
0.061946671 0.044773336 0.64400005
0.063173339 0.044773336 0.64400005
0.064400002 0.044773336 0.64400005
0.065422863 0.04463429 0.64200002
0.066645719 0.04463429 0.64200002
0.067762859 0.044564765 0.64100003
0.068983816 0.044564765 0.64100003
0.070204765 0.044564765 0.64100003
0.071425721 0.044564765 0.64100003
0.07264667 0.044564765 0.64100003
0.073982865 0.04463429 0.64200002
0.075205721 0.04463429 0.64200002
0.076428577 0.04463429 0.64200002
0.077651434 0.04463429 0.64200002
0.07887429 0.04463429 0.64200002
0.080346674 0.044773336 0.64400005
0.081573337 0.044773336 0.64400005
0.082800008 0.044773336 0.64400005
0.084157147 0.044842862 0.64500004
0.085385717 0.044842862 0.64500004
0.086748578 0.044912383 0.64600003
0.088115245 0.044981908 0.64700001
0.08948572 0.045051433 0.648
0.090720005 0.045051433 0.648
0.092238098 0.04519048 0.65000004
0.093476199 0.04519048 0.65000004
0.09486001 0.045260005 0.65100002
0.096395247 0.045399051 0.65300006
0.098087624 0.045607623 0.65600002
0.099640004 0.045746669 0.65800005
0.10120001 0.045885716 0.66000003
0.038865715 0.047785718 0.66900003
0.040140003 0.047785718 0.66900003
0.041290481 0.047642861 0.66700006
0.042497147 0.047571432 0.66600001
0.043700002 0.047500003 0.66500002
0.044831432 0.047357146 0.66300005
0.046024766 0.047285717 0.66200006
0.047000002 0.047000002 0.65800005
0.048180003 0.046928573 0.65700001
0.049356192 0.046857145 0.65600002
0.050528575 0.046785716 0.65500003
0.051618099 0.046642859 0.65300006
0.052700002 0.046500005 0.65100002
0.053691432 0.046285719 0.648
0.054840956 0.04621429 0.64700001
0.056073338 0.04621429 0.64700001
0.05730572 0.04621429 0.64700001
0.058447622 0.046142861 0.64600003
0.0596781 0.046142861 0.64600003
0.060814291 0.046071433 0.64500004
0.062042862 0.046071433 0.64500004
0.063271433 0.046071433 0.64500004
0.064400002 0.046000004 0.64400005
0.065626673 0.046000004 0.64400005
0.066645719 0.045857146 0.64200002
0.067868575 0.045857146 0.64200002
0.069091432 0.045857146 0.64200002
0.070533335 0.046000004 0.64400005
0.071760006 0.046000004 0.64400005
0.07298667 0.046000004 0.64400005
0.074213341 0.046000004 0.64400005
0.07555715 0.046071433 0.64500004
0.076785721 0.046071433 0.64500004
0.078014292 0.046071433 0.64500004
0.079242863 0.046071433 0.64500004
0.080471434 0.046071433 0.64500004
0.081700005 0.046071433 0.64500004
0.08305715 0.046142861 0.64600003
0.084287621 0.046142861 0.64600003
0.085518099 0.046142861 0.64600003
0.087017149 0.046285719 0.648
0.088251434 0.046285719 0.648
0.089761913 0.046428576 0.65000004
0.091140009 0.046500005 0.65100002
0.09238001 0.046500005 0.65100002
0.093763813 0.04657143 0.65200001
0.09558858 0.046857145 0.65600002
0.09698572 0.046928573 0.65700001
0.098237149 0.046928573 0.65700001
0.099640004 0.047000002 0.65800005
0.038865715 0.049060002 0.66900003
0.040140003 0.049060002 0.66900003
0.041290481 0.048913337 0.66700006
0.042560954 0.048913337 0.66700006
0.043700002 0.048766669 0.66500002
0.044831432 0.048620004 0.66300005
0.045955241 0.048473336 0.66100001
0.047000002 0.048253335 0.65800005
0.048253335 0.048253335 0.65800005
0.049431432 0.048180003 0.65700001
0.050605718 0.04810667 0.65600002
0.051618099 0.04788667 0.65300006
0.052780956 0.047813337 0.65200001
0.053857148 0.047666669 0.65000004
0.054925717 0.047520004 0.648
0.056160003 0.047520004 0.648
0.057394288 0.047520004 0.648
0.058628574 0.047520004 0.648
0.05977048 0.047446668 0.64700001
0.061002862 0.047446668 0.64700001
0.062139053 0.047373336 0.64600003
0.063271433 0.047300003 0.64500004
0.064500004 0.047300003 0.64500004
0.065626673 0.047226671 0.64400005
0.066853337 0.047226671 0.64400005
0.068080008 0.047226671 0.64400005
0.069306672 0.047226671 0.64400005
0.070533335 0.047226671 0.64400005
0.071760006 0.047226671 0.64400005
0.07298667 0.047226671 0.64400005
0.074328579 0.047300003 0.64500004
0.07555715 0.047300003 0.64500004
0.076785721 0.047300003 0.64500004
0.078014292 0.047300003 0.64500004
0.079365723 0.047373336 0.64600003
0.080596194 0.047373336 0.64600003
0.081953339 0.047446668 0.64700001
0.083185717 0.047446668 0.64700001
0.084548578 0.047520004 0.648
0.085782863 0.047520004 0.648
0.08728572 0.047666669 0.65000004
0.088523813 0.047666669 0.65000004
0.089900009 0.047740005 0.65100002
0.091280006 0.047813337 0.65200001
0.092521913 0.047813337 0.65200001
0.094195247 0.048033338 0.65500003
0.095734291 0.048180003 0.65700001
0.09698572 0.048180003 0.65700001
0.098386675 0.048253335 0.65800005
0.099942863 0.048400003 0.66000003
0.040140003 0.05033429 0.66900003
0.041290481 0.050183814 0.66700006
0.042497147 0.050108574 0.66600001
0.043700002 0.050033338 0.66500002
0.044831432 0.049882859 0.66300005
0.046024766 0.049807623 0.66200006
0.04714286 0.049657147 0.66000003
0.048253335 0.049506672 0.65800005
0.049431432 0.049431432 0.65700001
0.050605718 0.049356192 0.65600002
0.051776193 0.049280956 0.65500003
0.052861907 0.049130481 0.65300006
0.053940002 0.048980001 0.65100002
0.05509524 0.048904765 0.65000004
0.056333337 0.048904765 0.65000004
0.057394288 0.04875429 0.648
0.058628574 0.04875429 0.648
0.05986286 0.04875429 0.648
0.061002862 0.04867905 0.64700001
0.062235244 0.04867905 0.64700001
0.063369527 0.048603814 0.64600003
0.064500004 0.048528574 0.64500004
0.065626673 0.048453335 0.64400005
0.066853337 0.048453335 0.64400005
0.068080008 0.048453335 0.64400005
0.069306672 0.048453335 0.64400005
0.070533335 0.048453335 0.64400005
0.071760006 0.048453335 0.64400005
0.073100008 0.048528574 0.64500004
0.074328579 0.048528574 0.64500004
0.07555715 0.048528574 0.64500004
0.076785721 0.048528574 0.64500004
0.078014292 0.048528574 0.64500004
0.079365723 0.048603814 0.64600003
0.080720961 0.04867905 0.64700001
0.082080007 0.04875429 0.648
0.083314292 0.04875429 0.648
0.084548578 0.04875429 0.648
0.086047627 0.048904765 0.65000004
0.087420009 0.048980001 0.65100002
0.088660009 0.048980001 0.65100002
0.090038098 0.049055241 0.65200001
0.091420002 0.049130481 0.65300006
0.092947625 0.049280956 0.65500003
0.094195247 0.049280956 0.65500003
0.095880009 0.049506672 0.65800005
0.097133338 0.049506672 0.65800005
0.098685719 0.049657147 0.66000003
0.10024572 0.049807623 0.66200006
0.10166001 0.049882859 0.66300005
0.040140003 0.051608574 0.66900003
0.041414287 0.051608574 0.66900003
0.042560954 0.051454291 0.66700006
0.043765716 0.051377147 0.66600001
0.044966668 0.051300004 0.66500002
0.046024766 0.051068574 0.66200006
0.047214288 0.050991431 0.66100001
0.048253335 0.050760005 0.65800005
0.049431432 0.050682861 0.65700001
0.050605718 0.050605718 0.65600002
0.051776193 0.050528575 0.65500003
0.053023811 0.050528575 0.65500003
0.05402286 0.050297145 0.65200001
0.055180002 0.050220001 0.65100002
0.056333337 0.050142862 0.65000004
0.057571433 0.050142862 0.65000004
0.058809526 0.050142862 0.65000004
0.05986286 0.049988575 0.648
0.061097145 0.049988575 0.648
0.062331434 0.049988575 0.648
0.063565716 0.049988575 0.648
0.064700007 0.049911432 0.64700001
0.065728575 0.049757145 0.64500004
0.066957146 0.049757145 0.64500004
0.068185717 0.049757145 0.64500004
0.069414288 0.049757145 0.64500004
0.070642859 0.049757145 0.64500004
0.07187143 0.049757145 0.64500004
0.073100008 0.049757145 0.64500004
0.074328579 0.049757145 0.64500004
0.075674288 0.049834289 0.64600003
0.076904766 0.049834289 0.64600003
0.078135245 0.049834289 0.64600003
0.079488575 0.049911432 0.64700001
0.080845721 0.049988575 0.648
0.082080007 0.049988575 0.648
0.083571434 0.050142862 0.65000004
0.084809527 0.050142862 0.65000004
0.086180009 0.050220001 0.65100002
0.08768858 0.050374288 0.65300006
0.088796198 0.050297145 0.65200001
0.090176195 0.050374288 0.65300006
0.091700003 0.050528575 0.65500003
0.093089528 0.050605718 0.65600002
0.094482861 0.050682861 0.65700001
0.095880009 0.050760005 0.65800005
0.097428575 0.050914288 0.66000003
0.098835245 0.050991431 0.66100001
0.10039715 0.051145718 0.66300005
0.10166001 0.051145718 0.66300005
0.040200002 0.052961908 0.67000002
0.041414287 0.052882861 0.66900003
0.042688575 0.052882861 0.66900003
0.04383143 0.052724764 0.66700006
0.045034289 0.052645717 0.66600001
0.046233337 0.05256667 0.66500002
0.047285717 0.052329529 0.66200006
0.048400003 0.052171431 0.66000003
0.049506672 0.052013338 0.65800005
0.050682861 0.051934291 0.65700001
0.05185524 0.05185524 0.65600002
0.053023811 0.051776193 0.65500003
0.054105718 0.051618099 0.65300006
0.055264767 0.051539052 0.65200001
0.056420002 0.051460002 0.65100002
0.057660002 0.051460002 0.65100002
0.058809526 0.051380955 0.65000004
0.060047623 0.051380955 0.65000004
0.061285719 0.051380955 0.65000004
0.062523812 0.051380955 0.65000004
0.063761912 0.051380955 0.65000004
0.064700007 0.051143814 0.64700001
0.065932386 0.051143814 0.64700001
0.067164764 0.051143814 0.64700001
0.068397149 0.051143814 0.64700001
0.069521911 0.051064767 0.64600003
0.070752382 0.051064767 0.64600003
0.071982861 0.051064767 0.64600003
0.073213339 0.051064767 0.64600003
0.074443817 0.051064767 0.64600003
0.075674288 0.051064767 0.64600003
0.076904766 0.051064767 0.64600003
0.078256197 0.051143814 0.64700001
0.079488575 0.051143814 0.64700001
0.080845721 0.051222861 0.648
0.082333341 0.051380955 0.65000004
0.083571434 0.051380955 0.65000004
0.084940009 0.051460002 0.65100002
0.086312383 0.051539052 0.65200001
0.08768858 0.051618099 0.65300006
0.088932388 0.051618099 0.65300006
0.090452388 0.051776193 0.65500003
0.091840006 0.05185524 0.65600002
0.093231432 0.051934291 0.65700001
0.094626673 0.052013338 0.65800005
0.096171431 0.052171431 0.66000003
0.097576194 0.052250478 0.66100001
0.098835245 0.052250478 0.66100001
0.10009429 0.052250478 0.66100001
0.040200002 0.0542381 0.67000002
0.041476194 0.0542381 0.67000002
0.042688575 0.054157145 0.66900003
0.04383143 0.05399524 0.66700006
0.045034289 0.05391429 0.66600001
0.046233337 0.053833336 0.66500002
0.047285717 0.05359048 0.66200006
0.048473336 0.053509526 0.66100001
0.049657147 0.053428575 0.66000003
0.050760005 0.053266671 0.65800005
0.051934291 0.053185716 0.65700001
0.053104766 0.053104766 0.65600002
0.054271434 0.053023811 0.65500003
0.055349529 0.052861907 0.65300006
0.056506671 0.052780956 0.65200001
0.057660002 0.052700002 0.65100002
0.058900002 0.052700002 0.65100002
0.060047623 0.052619051 0.65000004
0.061285719 0.052619051 0.65000004
0.062523812 0.052619051 0.65000004
0.063565716 0.052457146 0.648
0.064800002 0.052457146 0.648
0.066034287 0.052457146 0.648
0.067268573 0.052457146 0.648
0.068502858 0.052457146 0.648
0.069629528 0.052376192 0.64700001
0.070861906 0.052376192 0.64700001
0.071982861 0.052295242 0.64600003
0.07332667 0.052376192 0.64700001
0.074559055 0.052376192 0.64700001
0.075908579 0.052457146 0.648
0.077023812 0.052376192 0.64700001
0.07837715 0.052457146 0.648
0.079611436 0.052457146 0.648
0.081095241 0.052619051 0.65000004
0.082333341 0.052619051 0.65000004
0.083700009 0.052700002 0.65100002
0.084940009 0.052700002 0.65100002
0.086444765 0.052861907 0.65300006
0.087957151 0.053023811 0.65500003
0.089204766 0.053023811 0.65500003
0.090590484 0.053104766 0.65600002
0.091980003 0.053185716 0.65700001
0.093373336 0.053266671 0.65800005
0.094626673 0.053266671 0.65800005
0.096171431 0.053428575 0.66000003
0.097576194 0.053509526 0.66100001
0.098835245 0.053509526 0.66100001
0.041538097 0.055597145 0.671
0.042752385 0.055514291 0.67000002
0.043962859 0.055431433 0.66900003
0.045034289 0.055182859 0.66600001
0.046233337 0.055100005 0.66500002
0.047357146 0.054934289 0.66300005
0.048473336 0.054768573 0.66100001
0.049732383 0.054768573 0.66100001
0.050914288 0.054685719 0.66000003
0.052013338 0.054520003 0.65800005
0.053104766 0.054354288 0.65600002
0.054271434 0.054271434 0.65500003
0.055349529 0.054105718 0.65300006
0.056593336 0.054105718 0.65300006
0.057748575 0.05402286 0.65200001
0.058990479 0.05402286 0.65200001
0.060232386 0.05402286 0.65200001
0.061380003 0.053940002 0.65100002
0.062620007 0.053940002 0.65100002
0.063860007 0.053940002 0.65100002
0.065000005 0.053857148 0.65000004
0.066238098 0.053857148 0.65000004
0.067268573 0.053691432 0.648
0.068502858 0.053691432 0.648
0.069737144 0.053691432 0.648
0.070971437 0.053691432 0.648
0.072205722 0.053691432 0.648
0.073440008 0.053691432 0.648
0.074674293 0.053691432 0.648
0.075908579 0.053691432 0.648
0.077380955 0.053857148 0.65000004
0.078619055 0.053857148 0.65000004
0.079857148 0.053857148 0.65000004
0.081095241 0.053857148 0.65000004
0.082460009 0.053940002 0.65100002
0.083828576 0.05402286 0.65200001
0.085070483 0.05402286 0.65200001
0.086444765 0.054105718 0.65300006
0.087957151 0.054271434 0.65500003
0.089340955 0.054354288 0.65600002
0.090590484 0.054354288 0.65600002
0.092120007 0.054520003 0.65800005
0.093373336 0.054520003 0.65800005
0.094914295 0.054685719 0.66000003
0.09631715 0.054768573 0.66100001
0.097723819 0.054851431 0.66200006
0.09898477 0.054851431 0.66200006
0.10070001 0.055100005 0.66500002
0.041538097 0.05687524 0.671
0.042752385 0.056790479 0.67000002
0.043962859 0.056705717 0.66900003
0.045101907 0.056536194 0.66700006
0.046233337 0.056366671 0.66500002
0.047357146 0.056197148 0.66300005
0.048473336 0.056027621 0.66100001
0.049732383 0.056027621 0.66100001
0.050914288 0.05594286 0.66000003
0.052013338 0.055773336 0.65800005
0.053185716 0.055688575 0.65700001
0.054271434 0.055519052 0.65500003
0.055519052 0.055519052 0.65500003
0.05676667 0.055519052 0.65500003
0.057837147 0.055349529 0.65300006
0.059080955 0.055349529 0.65300006
0.060232386 0.055264767 0.65200001
0.06147429 0.055264767 0.65200001
0.062716193 0.055264767 0.65200001
0.063860007 0.055180002 0.65100002
0.065100007 0.055180002 0.65100002
0.066238098 0.05509524 0.65000004
0.067476198 0.05509524 0.65000004
0.068714291 0.05509524 0.65000004
0.069952384 0.05509524 0.65000004
0.071190484 0.05509524 0.65000004
0.072428577 0.05509524 0.65000004
0.073666669 0.05509524 0.65000004
0.07490477 0.05509524 0.65000004
0.076142862 0.05509524 0.65000004
0.077380955 0.05509524 0.65000004
0.078619055 0.05509524 0.65000004
0.079857148 0.05509524 0.65000004
0.081220008 0.055180002 0.65100002
0.082586668 0.055264767 0.65200001
0.083828576 0.055264767 0.65200001
0.085200958 0.055349529 0.65300006
0.086444765 0.055349529 0.65300006
0.087957151 0.055519052 0.65500003
0.089340955 0.055603813 0.65600002
0.090590484 0.055603813 0.65600002
0.092120007 0.055773336 0.65800005
0.093657151 0.05594286 0.66000003
0.095058098 0.056027621 0.66100001
0.096462861 0.056112386 0.66200006
0.097871438 0.056197148 0.66300005
0.09943334 0.056366671 0.66500002
0.10070001 0.056366671 0.66500002
0.041723814 0.058413338 0.67400002
0.043007623 0.058413338 0.67400002
0.044028573 0.05806667 0.67000002
0.045034289 0.057720006 0.66600001
0.046302859 0.057720006 0.66600001
0.047500003 0.057633337 0.66500002
0.048546668 0.057373337 0.66200006
0.049807623 0.057373337 0.66200006
0.050991431 0.057286669 0.66100001
0.052171431 0.057200003 0.66000003
0.053185716 0.056940004 0.65700001
0.054354288 0.056853335 0.65600002
0.055519052 0.05676667 0.65500003
0.05676667 0.05676667 0.65500003
0.057837147 0.056593336 0.65300006
0.059080955 0.056593336 0.65300006
0.060324766 0.056593336 0.65300006
0.061568577 0.056593336 0.65300006
0.062716193 0.056506671 0.65200001
0.063958101 0.056506671 0.65200001
0.065100007 0.056420002 0.65100002
0.066340007 0.056420002 0.65100002
0.067580007 0.056420002 0.65100002
0.068714291 0.056333337 0.65000004
0.070060007 0.056420002 0.65100002
0.071300007 0.056420002 0.65100002
0.072540008 0.056420002 0.65100002
0.073780008 0.056420002 0.65100002
0.07490477 0.056333337 0.65000004
0.076142862 0.056333337 0.65000004
0.077500008 0.056420002 0.65100002
0.078740008 0.056420002 0.65100002
0.080102861 0.056506671 0.65200001
0.081344768 0.056506671 0.65200001
0.082586668 0.056506671 0.65200001
0.083957151 0.056593336 0.65300006
0.085200958 0.056593336 0.65300006
0.086709529 0.05676667 0.65500003
0.087957151 0.05676667 0.65500003
0.089340955 0.056853335 0.65600002
0.090728581 0.056940004 0.65700001
0.092400007 0.057200003 0.66000003
0.093657151 0.057200003 0.66000003
0.095058098 0.057286669 0.66100001
0.096462861 0.057373337 0.66200006
0.098166674 0.057633337 0.66500002
0.099582866 0.057720006 0.66600001
0.13786002 0.068553336 0.79100001
0.13936667 0.068553336 0.79100001
0.14087334 0.068553336 0.79100001
0.14238001 0.068553336 0.79100001
0.041723814 0.059697147 0.67400002
0.043007623 0.059697147 0.67400002
0.044094287 0.059431434 0.671
0.045237146 0.059254289 0.66900003
0.046302859 0.058988575 0.66600001
0.047571432 0.058988575 0.66600001
0.048766669 0.058900002 0.66500002
0.049882859 0.058722861 0.66300005
0.051068574 0.058634289 0.66200006
0.052250478 0.05854572 0.66100001
0.053266671 0.058280002 0.65800005
0.054354288 0.058102861 0.65600002
0.055603813 0.058102861 0.65600002
0.056853335 0.058102861 0.65600002
0.058014289 0.058014289 0.65500003
0.059261907 0.058014289 0.65500003
0.060324766 0.057837147 0.65300006
0.061568577 0.057837147 0.65300006
0.062812388 0.057837147 0.65300006
0.064056195 0.057837147 0.65300006
0.065200001 0.057748575 0.65200001
0.066441908 0.057748575 0.65200001
0.067683816 0.057748575 0.65200001
0.068820007 0.057660002 0.65100002
0.070167623 0.057748575 0.65200001
0.071409531 0.057748575 0.65200001
0.072540008 0.057660002 0.65100002
0.073780008 0.057660002 0.65100002
0.075020008 0.057660002 0.65100002
0.076260008 0.057660002 0.65100002
0.077738099 0.057837147 0.65300006
0.078860961 0.057748575 0.65200001
0.080225721 0.057837147 0.65300006
0.081469528 0.057837147 0.65300006
0.082713336 0.057837147 0.65300006
0.084214292 0.058014289 0.65500003
0.085461907 0.058014289 0.65500003
0.086841911 0.058102861 0.65600002
0.088091433 0.058102861 0.65600002
0.089477152 0.058191434 0.65700001
0.09086667 0.058280002 0.65800005
0.092400007 0.058457147 0.66000003
0.093799055 0.05854572 0.66100001
0.095058098 0.05854572 0.66100001
0.096608579 0.058722861 0.66300005
0.098314293 0.058988575 0.66600001
0.099732384 0.059077147 0.66700006
0.10100286 0.059077147 0.66700006
0.04197143 0.061342862 0.67800003
0.043262862 0.061342862 0.67800003
0.044357147 0.061071433 0.67500001
0.045440003 0.060800005 0.67200005
0.046580955 0.060619052 0.67000002
0.047785718 0.060528576 0.66900003
0.048840005 0.060257148 0.66600001
0.050033338 0.060166672 0.66500002
0.051145718 0.05998572 0.66300005
0.052329529 0.059895243 0.66200006
0.053428575 0.059714291 0.66000003
0.054520003 0.059533339 0.65800005
0.055773336 0.059533339 0.65800005
0.056940004 0.059442863 0.65700001
0.058191434 0.059442863 0.65700001
0.059261907 0.059261907 0.65500003
0.060509529 0.059261907 0.65500003
0.061757147 0.059261907 0.65500003
0.063004769 0.059261907 0.65500003
0.064056195 0.059080955 0.65300006
0.065300003 0.059080955 0.65300006
0.066441908 0.058990479 0.65200001
0.067683816 0.058990479 0.65200001
0.068925716 0.058990479 0.65200001
0.070167623 0.058990479 0.65200001
0.071409531 0.058990479 0.65200001
0.072651431 0.058990479 0.65200001
0.074006669 0.059080955 0.65300006
0.075250484 0.059080955 0.65300006
0.076494291 0.059080955 0.65300006
0.077976197 0.059261907 0.65500003
0.079223812 0.059261907 0.65500003
0.080471434 0.059261907 0.65500003
0.081843816 0.059352383 0.65600002
0.08296667 0.059261907 0.65500003
0.08434286 0.059352383 0.65600002
0.085722864 0.059442863 0.65700001
0.086974293 0.059442863 0.65700001
0.088360004 0.059533339 0.65800005
0.089613341 0.059533339 0.65800005
0.091142863 0.059714291 0.66000003
0.092400007 0.059714291 0.66000003
0.093799055 0.059804767 0.66100001
0.095633343 0.060166672 0.66500002
0.097191438 0.060347624 0.66700006
0.098757148 0.060528576 0.66900003
0.10003144 0.060528576 0.66900003
0.10130572 0.060528576 0.66900003
0.10227334 0.060347624 0.66700006
0.042033337 0.062726669 0.67900002
0.043262862 0.062634289 0.67800003
0.044357147 0.062357146 0.67500001
0.045575242 0.062264767 0.67400002
0.04665048 0.061987624 0.671
0.047785718 0.06180286 0.66900003
0.048840005 0.061525717 0.66600001
0.050033338 0.061433338 0.66500002
0.051145718 0.061248574 0.66300005
0.052408576 0.061248574 0.66300005
0.053509526 0.061063815 0.66100001
0.054685719 0.060971431 0.66000003
0.055773336 0.060786672 0.65800005
0.057026669 0.060786672 0.65800005
0.058191434 0.060694288 0.65700001
0.059352383 0.060601909 0.65600002
0.060509529 0.060509529 0.65500003
0.061757147 0.060509529 0.65500003
0.062812388 0.060324766 0.65300006
0.064056195 0.060324766 0.65300006
0.065300003 0.060324766 0.65300006
0.066543818 0.060324766 0.65300006
0.067787625 0.060324766 0.65300006
0.068925716 0.060232386 0.65200001
0.070167623 0.060232386 0.65200001
0.071519054 0.060324766 0.65300006
0.072762862 0.060324766 0.65300006
0.074006669 0.060324766 0.65300006
0.07548096 0.060509529 0.65500003
0.076728575 0.060509529 0.65500003
0.077976197 0.060509529 0.65500003
0.079223812 0.060509529 0.65500003
0.080594294 0.060601909 0.65600002
0.081968576 0.060694288 0.65700001
0.083093338 0.060601909 0.65600002
0.084471434 0.060694288 0.65700001
0.085853338 0.060786672 0.65800005
0.087106675 0.060786672 0.65800005
0.088360004 0.060786672 0.65800005
0.089885719 0.060971431 0.66000003
0.091142863 0.060971431 0.66000003
0.092540003 0.061063815 0.66100001
0.094082862 0.061248574 0.66300005
0.095345721 0.061248574 0.66300005
0.097628579 0.061895244 0.67000002
0.098757148 0.06180286 0.66900003
0.10003144 0.06180286 0.66900003
0.10130572 0.06180286 0.66900003
0.10227334 0.061618101 0.66700006
0.04209524 0.064114287 0.68000001
0.043262862 0.063925721 0.67800003
0.044422861 0.063737147 0.67600006
0.04564286 0.063642859 0.67500001
0.046720002 0.063360006 0.67200005
0.047857147 0.063171431 0.67000002
0.049060002 0.063077144 0.66900003
0.050108574 0.06279429 0.66600001
0.051300004 0.062700003 0.66500002
0.052408576 0.062511429 0.66300005
0.05359048 0.062417146 0.66200006
0.054768573 0.062322862 0.66100001
0.05594286 0.062228575 0.66000003
0.057200003 0.062228575 0.66000003
0.058280002 0.062040005 0.65800005
0.059442863 0.061945718 0.65700001
0.060601909 0.061851434 0.65600002
0.061757147 0.061757147 0.65500003
0.063004769 0.061757147 0.65500003
0.064252384 0.061757147 0.65500003
0.065300003 0.061568577 0.65300006
0.066543818 0.061568577 0.65300006
0.067787625 0.061568577 0.65300006
0.069031432 0.061568577 0.65300006
0.07027524 0.061568577 0.65300006
0.071519054 0.061568577 0.65300006
0.072985716 0.061757147 0.65500003
0.074233338 0.061757147 0.65500003
0.075596198 0.061851434 0.65600002
0.076728575 0.061757147 0.65500003
0.078095242 0.061851434 0.65600002
0.079344764 0.061851434 0.65600002
0.080717146 0.061945718 0.65700001
0.082093336 0.062040005 0.65800005
0.083346672 0.062040005 0.65800005
0.084600009 0.062040005 0.65800005
0.085853338 0.062040005 0.65800005
0.087106675 0.062040005 0.65800005
0.088628575 0.062228575 0.66000003
0.089885719 0.062228575 0.66000003
0.09128096 0.062322862 0.66100001
0.092820004 0.062511429 0.66300005
0.09436667 0.062700003 0.66500002
0.096496195 0.063265719 0.671
0.097628579 0.063171431 0.67000002
0.098757148 0.063077144 0.66900003
0.10003144 0.063077144 0.66900003
0.10100286 0.062888578 0.66700006
0.10212 0.06279429 0.66600001
0.04209524 0.065409526 0.68000001
0.043326668 0.065313339 0.67900002
0.044554289 0.065217145 0.67800003
