# .PCD v0.7 - Point Cloud Data file format
VERSION 0.7
FIELDS x y z
SIZE 4 4 4
TYPE F F F
COUNT 1 1 1
WIDTH 1372
HEIGHT 1
VIEWPOINT 0 0 0 1 0 0 0
POINTS 1372
DATA ascii
-0.057091434 0.021777144 0.61800003
-0.056004766 0.021812383 0.61900002
-0.054825719 0.021812383 0.61900002
-0.053733338 0.021847621 0.62
-0.052552383 0.021847621 0.62
-0.051537145 0.021918098 0.62200004
-0.050352383 0.021918098 0.62200004
-0.049167622 0.021918098 0.62200004
-0.048137147 0.021988573 0.62400001
-0.046948574 0.021988573 0.62400001
-0.045760002 0.021988573 0.62400001
-0.10910287 0.023251429 0.62600005
-0.1077381 0.023214288 0.625
-0.10637715 0.023177145 0.62400001
-0.10502001 0.023140002 0.62300003
-0.10383334 0.023140002 0.62300003
-0.10215238 0.023028573 0.62
-0.10080858 0.02299143 0.61900002
-0.099629529 0.02299143 0.61900002
-0.098450482 0.02299143 0.61900002
-0.097271435 0.02299143 0.61900002
-0.095937148 0.022954287 0.61800003
-0.094760008 0.022954287 0.61800003
-0.090933338 0.022880001 0.61600006
-0.089614294 0.022842858 0.61500001
-0.088442862 0.022842858 0.61500001
-0.087271437 0.022842858 0.61500001
-0.086100005 0.022842858 0.61500001
-0.08492858 0.022842858 0.61500001
-0.083757147 0.022842858 0.61500001
-0.090028577 0.025628572 0.69000006
-0.088714294 0.025628572 0.69000006
-0.087526672 0.025665715 0.69100004
-0.086210482 0.025665715 0.69100004
-0.085140005 0.025740001 0.69300002
-0.08394096 0.025777144 0.69400001
-0.082619056 0.025777144 0.69400001
-0.081297152 0.025777144 0.69400001
-0.07997524 0.025777144 0.69400001
-0.078653336 0.025777144 0.69400001
-0.077331431 0.025777144 0.69400001
-0.076009527 0.025777144 0.69400001
-0.06597048 0.022768574 0.61300004
-0.073365718 0.025777144 0.69400001
-0.063842863 0.022842858 0.61500001
-0.06267143 0.022842858 0.61500001
-0.061500005 0.022842858 0.61500001
-0.060426671 0.022880001 0.61600006
-0.059253339 0.022880001 0.61600006
-0.05817429 0.022917144 0.61700004
-0.057091434 0.022954287 0.61800003
-0.056004766 0.02299143 0.61900002
-0.054825719 0.02299143 0.61900002
-0.053733338 0.023028573 0.62
-0.052552383 0.023028573 0.62
-0.051537145 0.023102859 0.62200004
-0.050352383 0.023102859 0.62200004
-0.049167622 0.023102859 0.62200004
-0.048137147 0.023177145 0.62400001
-0.046948574 0.023177145 0.62400001
-0.10892858 0.024404764 0.625
-0.10756572 0.024365716 0.62400001
-0.10637715 0.024365716 0.62400001
-0.10502001 0.024326669 0.62300003
-0.10383334 0.024326669 0.62300003
-0.10215238 0.024209525 0.62
-0.10097144 0.024209525 0.62
-0.099790484 0.024209525 0.62
-0.098450482 0.024170477 0.61900002
-0.097271435 0.024170477 0.61900002
-0.096092388 0.024170477 0.61900002
-0.094760008 0.02413143 0.61800003
-0.093431436 0.024092382 0.61700004
-0.092256196 0.024092382 0.61700004
-0.090933338 0.024053335 0.61600006
-0.089760005 0.024053335 0.61600006
-0.088442862 0.024014287 0.61500001
-0.087271437 0.024014287 0.61500001
-0.086100005 0.024014287 0.61500001
-0.08492858 0.024014287 0.61500001
-0.083757147 0.024014287 0.61500001
-0.082585722 0.024014287 0.61500001
-0.08141429 0.024014287 0.61500001
-0.086460009 0.027060002 0.69300002
-0.085262865 0.027099049 0.69400001
-0.08394096 0.027099049 0.69400001
-0.072857149 0.023897145 0.61200005
-0.071691431 0.023897145 0.61200005
-0.070525721 0.023897145 0.61200005
-0.069473341 0.023936192 0.61300004
-0.068305716 0.023936192 0.61300004
-0.067138098 0.023936192 0.61300004
-0.06597048 0.023936192 0.61300004
-0.064908579 0.02397524 0.61400002
-0.063842863 0.024014287 0.61500001
-0.06267143 0.024014287 0.61500001
-0.061500005 0.024014287 0.61500001
-0.060426671 0.024053335 0.61600006
-0.059253339 0.024053335 0.61600006
-0.05817429 0.024092382 0.61700004
-0.057183813 0.024170477 0.61900002
-0.056004766 0.024170477 0.61900002
-0.054825719 0.024170477 0.61900002
-0.053733338 0.024209525 0.62
-0.052552383 0.024209525 0.62
-0.051537145 0.024287621 0.62200004
-0.050352383 0.024287621 0.62200004
-0.049167622 0.024287621 0.62200004
-0.048137147 0.024365716 0.62400001
-0.047023814 0.024404764 0.625
-0.045833338 0.024404764 0.625
-0.10756572 0.025554288 0.62400001
-0.10620667 0.025513334 0.62300003
-0.10502001 0.025513334 0.62300003
-0.10366667 0.025472382 0.62200004
-0.10215238 0.025390478 0.62
-0.10097144 0.025390478 0.62
-0.099790484 0.025390478 0.62
-0.098450482 0.025349526 0.61900002
-0.097271435 0.025349526 0.61900002
-0.096092388 0.025349526 0.61900002
-0.094913341 0.025349526 0.61900002
-0.093582861 0.025308574 0.61800003
-0.092256196 0.025267622 0.61700004
-0.090933338 0.025226668 0.61600006
-0.089760005 0.025226668 0.61600006
-0.088586673 0.025226668 0.61600006
-0.087413341 0.025226668 0.61600006
-0.086240008 0.025226668 0.61600006
-0.08492858 0.025185715 0.61500001
-0.083757147 0.025185715 0.61500001
-0.082585722 0.025185715 0.61500001
-0.08141429 0.025185715 0.61500001
-0.080242865 0.025185715 0.61500001
-0.078685716 0.025062859 0.61200005
-0.077520005 0.025062859 0.61200005
-0.076354288 0.025062859 0.61200005
-0.075188577 0.025062859 0.61200005
-0.074022859 0.025062859 0.61200005
-0.072857149 0.025062859 0.61200005
-0.071808577 0.025103811 0.61300004
-0.070640959 0.025103811 0.61300004
-0.069473341 0.025103811 0.61300004
-0.068417147 0.025144763 0.61400002
-0.067247622 0.025144763 0.61400002
-0.066078097 0.025144763 0.61400002
-0.064908579 0.025144763 0.61400002
-0.063842863 0.025185715 0.61500001
-0.06267143 0.025185715 0.61500001
-0.061600003 0.025226668 0.61600006
-0.060426671 0.025226668 0.61600006
-0.059349529 0.025267622 0.61700004
-0.05817429 0.025267622 0.61700004
-0.057183813 0.025349526 0.61900002
-0.056004766 0.025349526 0.61900002
-0.054825719 0.025349526 0.61900002
-0.053733338 0.025390478 0.62
-0.052552383 0.025390478 0.62
-0.051537145 0.025472382 0.62200004
-0.050352383 0.025472382 0.62200004
-0.049246669 0.025513334 0.62300003
-0.04821429 0.02559524 0.625
-0.047023814 0.02559524 0.625
-0.045833338 0.02559524 0.625
-0.10687619 0.02657143 0.62
-0.1060362 0.026657145 0.62200004
-0.10502001 0.026700001 0.62300003
-0.10366667 0.026657145 0.62200004
-0.10215238 0.02657143 0.62
-0.10097144 0.02657143 0.62
-0.099790484 0.02657143 0.62
-0.098450482 0.026528573 0.61900002
-0.097271435 0.026528573 0.61900002
-0.096092388 0.026528573 0.61900002
-0.094760008 0.026485717 0.61800003
-0.093431436 0.026442859 0.61700004
-0.092256196 0.026442859 0.61700004
-0.090933338 0.026400002 0.61600006
-0.089760005 0.026400002 0.61600006
-0.088586673 0.026400002 0.61600006
-0.087413341 0.026400002 0.61600006
-0.086240008 0.026400002 0.61600006
-0.08492858 0.026357144 0.61500001
-0.083757147 0.026357144 0.61500001
-0.082585722 0.026357144 0.61500001
-0.081281908 0.026314287 0.61400002
-0.079981908 0.026271431 0.61300004
-0.078685716 0.026228573 0.61200005
-0.077520005 0.026228573 0.61200005
-0.076354288 0.026228573 0.61200005
-0.075188577 0.026228573 0.61200005
-0.074022859 0.026228573 0.61200005
-0.072976194 0.026271431 0.61300004
-0.071808577 0.026271431 0.61300004
-0.070640959 0.026271431 0.61300004
-0.069586672 0.026314287 0.61400002
-0.068417147 0.026314287 0.61400002
-0.067247622 0.026314287 0.61400002
-0.066078097 0.026314287 0.61400002
-0.064908579 0.026314287 0.61400002
-0.063842863 0.026357144 0.61500001
-0.06267143 0.026357144 0.61500001
-0.061600003 0.026400002 0.61600006
-0.060426671 0.026400002 0.61600006
-0.059349529 0.026442859 0.61700004
-0.05817429 0.026442859 0.61700004
-0.057183813 0.026528573 0.61900002
-0.056004766 0.026528573 0.61900002
-0.054914288 0.02657143 0.62
-0.053733338 0.02657143 0.62
-0.052721906 0.026657145 0.62200004
-0.051702861 0.026742859 0.62400001
-0.050433338 0.026700001 0.62300003
-0.049404766 0.026785716 0.625
-0.04821429 0.026785716 0.625
-0.048077147 0.027385715 0.63900006
-0.046860002 0.027385715 0.63900006
-0.045571432 0.02734286 0.63800001
-0.10518858 0.027931431 0.62400001
-0.10383334 0.027886668 0.62300003
-0.10215238 0.027752383 0.62
-0.10129715 0.027841907 0.62200004
-0.10011239 0.027841907 0.62200004
-0.098609529 0.027752383 0.62
-0.097428575 0.027752383 0.62
-0.096092388 0.027707621 0.61900002
-0.094760008 0.027662858 0.61800003
-0.093582861 0.027662858 0.61800003
-0.092256196 0.027618097 0.61700004
-0.090933338 0.027573336 0.61600006
-0.089760005 0.027573336 0.61600006
-0.088586673 0.027573336 0.61600006
-0.087413341 0.027573336 0.61600006
-0.086240008 0.027573336 0.61600006
-0.08492858 0.027528573 0.61500001
-0.083757147 0.027528573 0.61500001
-0.082585722 0.027528573 0.61500001
-0.081281908 0.027483812 0.61400002
-0.080112383 0.027483812 0.61400002
-0.07881429 0.027439049 0.61300004
-0.077520005 0.027394287 0.61200005
-0.076354288 0.027394287 0.61200005
-0.075188577 0.027394287 0.61200005
-0.074022859 0.027394287 0.61200005
-0.072976194 0.027439049 0.61300004
-0.071808577 0.027439049 0.61300004
-0.070640959 0.027439049 0.61300004
-0.069473341 0.027439049 0.61300004
-0.068417147 0.027483812 0.61400002
-0.067247622 0.027483812 0.61400002
-0.066078097 0.027483812 0.61400002
-0.064908579 0.027483812 0.61400002
-0.063842863 0.027528573 0.61500001
-0.06267143 0.027528573 0.61500001
-0.061600003 0.027573336 0.61600006
-0.060524765 0.027618097 0.61700004
-0.059349529 0.027618097 0.61700004
-0.058268577 0.027662858 0.61800003
-0.057276193 0.027752383 0.62
-0.056095243 0.027752383 0.62
-0.055091433 0.027841907 0.62200004
-0.053906672 0.027841907 0.62200004
-0.052806672 0.027886668 0.62300003
-0.051785719 0.027976193 0.625
-0.050595243 0.027976193 0.625
-0.049404766 0.027976193 0.625
-0.049217146 0.028558098 0.63800001
-0.048077147 0.028602859 0.63900006
-0.046860002 0.028602859 0.63900006
-0.045571432 0.028558098 0.63800001
-0.044356193 0.028558098 0.63800001
0.14566192 0.037823811 0.84500003
0.15210001 0.037823811 0.84500003
0.15370953 0.037823811 0.84500003
-0.10416667 0.029166669 0.625
-0.1029762 0.029166669 0.625
-0.10178572 0.029166669 0.625
-0.10059524 0.029166669 0.625
-0.099086672 0.029073335 0.62300003
-0.097742863 0.029026669 0.62200004
-0.096247628 0.028933335 0.62
-0.094913341 0.028886668 0.61900002
-0.093582861 0.028840002 0.61800003
-0.092256196 0.028793335 0.61700004
-0.090933338 0.028746668 0.61600006
-0.089905716 0.028793335 0.61700004
-0.088586673 0.028746668 0.61600006
-0.087413341 0.028746668 0.61600006
-0.086240008 0.028746668 0.61600006
-0.085066669 0.028746668 0.61600006
-0.083893336 0.028746668 0.61600006
-0.082720004 0.028746668 0.61600006
-0.081281908 0.028653335 0.61400002
-0.080112383 0.028653335 0.61400002
-0.07881429 0.028606668 0.61300004
-0.077646673 0.028606668 0.61300004
-0.076479055 0.028606668 0.61300004
-0.07531143 0.028606668 0.61300004
-0.074143812 0.028606668 0.61300004
-0.072976194 0.028606668 0.61300004
-0.071808577 0.028606668 0.61300004
-0.070640959 0.028606668 0.61300004
-0.069473341 0.028606668 0.61300004
-0.068417147 0.028653335 0.61400002
-0.067247622 0.028653335 0.61400002
-0.066078097 0.028653335 0.61400002
-0.065014288 0.028700002 0.61500001
-0.063946672 0.028746668 0.61600006
-0.062773339 0.028746668 0.61600006
-0.061600003 0.028746668 0.61600006
-0.06062286 0.028840002 0.61800003
-0.059541907 0.028886668 0.61900002
-0.05836286 0.028886668 0.61900002
-0.057276193 0.028933335 0.62
-0.056276195 0.029026669 0.62200004
-0.055091433 0.029026669 0.62200004
-0.054166671 0.029166669 0.625
-0.052976195 0.029166669 0.625
-0.051868577 0.029213335 0.62600005
-0.050676193 0.029213335 0.62600005
-0.049879052 0.029446669 0.63100004
-0.049217146 0.029773336 0.63800001
-0.048001908 0.029773336 0.63800001
-0.046860002 0.029820003 0.63900006
-0.045571432 0.029773336 0.63800001
-0.044217147 0.029680002 0.63600004
-0.043005716 0.029680002 0.63600004
0.14210573 0.039340004 0.84300005
0.14371143 0.039340004 0.84300005
-0.10466667 0.03050286 0.62800002
-0.10347048 0.03050286 0.62800002
-0.10211144 0.030454287 0.62700003
-0.10059524 0.030357145 0.625
-0.09924572 0.030308573 0.62400001
-0.098057151 0.030308573 0.62400001
-0.096713342 0.030260002 0.62300003
-0.09537334 0.03021143 0.62200004
-0.09388572 0.030114288 0.62
-0.092405722 0.030017145 0.61800003
-0.091080956 0.029968573 0.61700004
-0.089905716 0.029968573 0.61700004
-0.088730484 0.029968573 0.61700004
-0.087555245 0.029968573 0.61700004
-0.086380005 0.029968573 0.61700004
-0.085204765 0.029968573 0.61700004
-0.083893336 0.029920002 0.61600006
-0.082720004 0.029920002 0.61600006
-0.081546672 0.029920002 0.61600006
-0.080242865 0.02987143 0.61500001
-0.078942865 0.02982286 0.61400002
-0.07777334 0.02982286 0.61400002
-0.076479055 0.029774288 0.61300004
-0.07531143 0.029774288 0.61300004
-0.074143812 0.029774288 0.61300004
-0.07309524 0.02982286 0.61400002
-0.071925722 0.02982286 0.61400002
-0.070756197 0.02982286 0.61400002
-0.069586672 0.02982286 0.61400002
-0.068417147 0.02982286 0.61400002
-0.067357145 0.02987143 0.61500001
-0.06618572 0.02987143 0.61500001
-0.065120004 0.029920002 0.61600006
-0.064050481 0.029968573 0.61700004
-0.062875241 0.029968573 0.61700004
-0.061800003 0.030017145 0.61800003
-0.060720958 0.030065717 0.61900002
-0.059638098 0.030114288 0.62
-0.058457147 0.030114288 0.62
-0.057276193 0.030114288 0.62
-0.056276195 0.03021143 0.62200004
-0.055357147 0.030357145 0.625
-0.054340005 0.030454287 0.62700003
-0.053145718 0.030454287 0.62700003
-0.052034289 0.03050286 0.62800002
-0.050919052 0.03055143 0.62900001
-0.049879052 0.030648574 0.63100004
-0.048908576 0.030794287 0.634
-0.048001908 0.030988574 0.63800001
-0.04678667 0.030988574 0.63800001
-0.045571432 0.030988574 0.63800001
-0.044147622 0.030842859 0.63500005
-0.042938098 0.030842859 0.63500005
-0.10704286 0.032052383 0.63500005
-0.10566667 0.032001905 0.634
-0.10429429 0.031951431 0.63300002
-0.10243715 0.031749524 0.62900001
-0.1010781 0.03169905 0.62800002
-0.099722862 0.031648573 0.62700003
-0.098528579 0.031648573 0.62700003
-0.097334296 0.031648573 0.62700003
-0.095833339 0.031547621 0.625
-0.094642863 0.031547621 0.625
-0.093153343 0.031446669 0.62300003
-0.091819055 0.031396192 0.62200004
-0.090634294 0.031396192 0.62200004
-0.08916191 0.03129524 0.62
-0.087980956 0.03129524 0.62
-0.086800009 0.03129524 0.62
-0.085480958 0.031244764 0.61900002
-0.084301911 0.031244764 0.61900002
-0.083122864 0.031244764 0.61900002
-0.082076199 0.03129524 0.62
-0.080895245 0.03129524 0.62
-0.079585716 0.031244764 0.61900002
-0.078280002 0.031194288 0.61800003
-0.076978102 0.031143812 0.61700004
-0.075802863 0.031143812 0.61700004
-0.07450667 0.031093335 0.61600006
-0.073333338 0.031093335 0.61600006
-0.072160006 0.031093335 0.61600006
-0.070986673 0.031093335 0.61600006
-0.069926672 0.031143812 0.61700004
-0.068751432 0.031143812 0.61700004
-0.067576192 0.031143812 0.61700004
-0.066508576 0.031194288 0.61800003
-0.065437146 0.031244764 0.61900002
-0.064361908 0.03129524 0.62
-0.063180953 0.03129524 0.62
-0.062200002 0.031396192 0.62200004
-0.061113339 0.031446669 0.62300003
-0.05992667 0.031446669 0.62300003
-0.058834288 0.031497143 0.62400001
-0.057645719 0.031497143 0.62400001
-0.056547623 0.031547621 0.625
-0.05544572 0.031598099 0.62600005
-0.05442667 0.03169905 0.62800002
-0.053315241 0.031749524 0.62900001
-0.052282862 0.03185048 0.63100004
-0.051161908 0.031900954 0.63200003
-0.050037146 0.031951431 0.63300002
-0.048908576 0.032001905 0.634
-0.048001908 0.032203812 0.63800001
-0.04678667 0.032203812 0.63800001
-0.04564286 0.032254286 0.63900006
-0.044425718 0.032254286 0.63900006
-0.10911715 0.033157144 0.63300002
-0.10825239 0.033261906 0.63500005
-0.10704286 0.033261906 0.63500005
-0.10566667 0.033209525 0.634
-0.10429429 0.033157144 0.63300002
-0.10276286 0.033052385 0.63100004
-0.10123906 0.032947622 0.62900001
-0.09988191 0.032895241 0.62800002
-0.098685719 0.032895241 0.62800002
-0.097334296 0.03284286 0.62700003
-0.096140005 0.03284286 0.62700003
-0.094794288 0.032790478 0.62600005
-0.093153343 0.032633334 0.62300003
-0.091966674 0.032633334 0.62300003
-0.090634294 0.032580953 0.62200004
-0.089593336 0.032633334 0.62300003
-0.088264771 0.032580953 0.62200004
-0.087080009 0.032580953 0.62200004
-0.085619055 0.032476194 0.62
-0.0844381 0.032476194 0.62
-0.083257146 0.032476194 0.62
-0.082340956 0.032580953 0.62200004
-0.081156194 0.032580953 0.62200004
-0.079714291 0.032476194 0.62
-0.078533337 0.032476194 0.62
-0.077227622 0.032423813 0.61900002
-0.075925723 0.032371432 0.61800003
-0.074627623 0.03231905 0.61700004
-0.073333338 0.032266669 0.61600006
-0.072160006 0.032266669 0.61600006
-0.071101911 0.03231905 0.61700004
-0.069926672 0.03231905 0.61700004
-0.068862863 0.032371432 0.61800003
-0.067685716 0.032371432 0.61800003
-0.066616192 0.032423813 0.61900002
-0.065542862 0.032476194 0.62
-0.064361908 0.032476194 0.62
-0.063384764 0.032580953 0.62200004
-0.062300004 0.032633334 0.62300003
-0.061113339 0.032633334 0.62300003
-0.060022861 0.032685716 0.62400001
-0.058928575 0.032738097 0.625
-0.057738099 0.032738097 0.625
-0.056547623 0.032738097 0.625
-0.05544572 0.032790478 0.62600005
-0.05442667 0.032895241 0.62800002
-0.053315241 0.032947622 0.62900001
-0.052282862 0.033052385 0.63100004
-0.051242862 0.033157144 0.63300002
-0.050037146 0.033157144 0.63300002
-0.048985716 0.033261906 0.63500005
-0.048077147 0.033471432 0.63900006
-0.046860002 0.033471432 0.63900006
-0.04564286 0.033471432 0.63900006
-0.044425718 0.033471432 0.63900006
-0.10721143 0.034525715 0.63600004
-0.10583334 0.03447143 0.63500005
-0.10445905 0.034417145 0.634
-0.10292572 0.034308575 0.63200003
-0.10156096 0.034254286 0.63100004
-0.10004096 0.034145717 0.62900001
-0.098842867 0.034145717 0.62900001
-0.097489528 0.034091432 0.62800002
-0.096293338 0.034091432 0.62800002
-0.094945721 0.034037147 0.62700003
-0.093302861 0.033874288 0.62400001
-0.092114292 0.033874288 0.62400001
-0.090925723 0.033874288 0.62400001
-0.089737147 0.033874288 0.62400001
-0.088548578 0.033874288 0.62400001
-0.087220006 0.033820003 0.62300003
-0.086033337 0.033820003 0.62300003
-0.084846675 0.033820003 0.62300003
-0.083660007 0.033820003 0.62300003
-0.082473338 0.033820003 0.62300003
-0.081286669 0.033820003 0.62300003
-0.080100007 0.033820003 0.62300003
-0.078913338 0.033820003 0.62300003
-0.07760191 0.033765718 0.62200004
-0.076171435 0.033657145 0.62
-0.074869528 0.03360286 0.61900002
-0.073452383 0.033494286 0.61700004
-0.072277151 0.033494286 0.61700004
-0.071217149 0.033548575 0.61800003
-0.070040002 0.033548575 0.61800003
-0.068974294 0.03360286 0.61900002
-0.067795239 0.03360286 0.61900002
-0.066723816 0.033657145 0.62
-0.065754287 0.033765718 0.62200004
-0.064569525 0.033765718 0.62200004
-0.063486673 0.033820003 0.62300003
-0.062400006 0.033874288 0.62400001
-0.061211433 0.033874288 0.62400001
-0.060119051 0.033928573 0.625
-0.058928575 0.033928573 0.625
-0.057830479 0.033982858 0.62600005
-0.056728575 0.034037147 0.62700003
-0.055534288 0.034037147 0.62700003
-0.05442667 0.034091432 0.62800002
-0.053484764 0.034254286 0.63100004
-0.052365717 0.034308575 0.63200003
-0.051323812 0.034417145 0.634
-0.050116193 0.034417145 0.634
-0.049062859 0.034525715 0.63600004
-0.048077147 0.034688573 0.63900006
-0.046933338 0.034742858 0.64000005
-0.045714289 0.034742858 0.64000005
-0.04449524 0.034742858 0.64000005
-0.10754858 0.035849527 0.63800001
-0.10583334 0.035680953 0.63500005
-0.10445905 0.035624765 0.634
-0.10292572 0.035512384 0.63200003
-0.10156096 0.035456192 0.63100004
-0.10004096 0.035343811 0.62900001
-0.098842867 0.035343811 0.62900001
-0.097644769 0.035343811 0.62900001
-0.096446671 0.035343811 0.62900001
-0.095097147 0.035287622 0.62800002
-0.093751438 0.03523143 0.62700003
-0.09226191 0.035119049 0.625
-0.090925723 0.035062861 0.62400001
-0.089737147 0.035062861 0.62400001
-0.088548578 0.035062861 0.62400001
-0.087360002 0.035062861 0.62400001
-0.086033337 0.035006668 0.62300003
-0.084846675 0.035006668 0.62300003
-0.083660007 0.035006668 0.62300003
-0.08260572 0.035062861 0.62400001
-0.081286669 0.035006668 0.62300003
-0.080100007 0.035006668 0.62300003
-0.078913338 0.035006668 0.62300003
-0.07772667 0.035006668 0.62300003
-0.076540008 0.035006668 0.62300003
-0.075232387 0.03495048 0.62200004
-0.073690481 0.034781907 0.61900002
-0.072511435 0.034781907 0.61900002
-0.071332388 0.034781907 0.61900002
-0.070153341 0.034781907 0.61900002
-0.069085717 0.034838099 0.62
-0.067904763 0.034838099 0.62
-0.066939048 0.03495048 0.62200004
-0.065754287 0.03495048 0.62200004
-0.064673334 0.035006668 0.62300003
-0.063486673 0.035006668 0.62300003
-0.062400006 0.035062861 0.62400001
-0.061309528 0.035119049 0.625
-0.060119051 0.035119049 0.625
-0.059022862 0.035175242 0.62600005
-0.057922862 0.03523143 0.62700003
-0.056728575 0.03523143 0.62700003
-0.055622861 0.035287622 0.62800002
-0.054513335 0.035343811 0.62900001
-0.053484764 0.035456192 0.63100004
-0.052448574 0.035568573 0.63300002
-0.051404767 0.035680953 0.63500005
-0.05027429 0.035737146 0.63600004
-0.049217146 0.035849527 0.63800001
-0.048077147 0.035905715 0.63900006
-0.046860002 0.035905715 0.63900006
-0.045714289 0.035961907 0.64000005
-0.04449524 0.035961907 0.64000005
0.15395716 0.046581909 0.82900006
0.1555362 0.046581909 0.82900006
-0.10944572 0.037297145 0.64200002
-0.10771715 0.037122861 0.63900006
-0.10633334 0.037064765 0.63800001
-0.10462382 0.036890477 0.63500005
-0.10308858 0.036774289 0.63300002
-0.10188287 0.036774289 0.63300002
-0.10035905 0.036658097 0.63100004
-0.099157147 0.036658097 0.63100004
-0.097644769 0.036541909 0.62900001
-0.096446671 0.036541909 0.62900001
-0.09524858 0.036541909 0.62900001
-0.093900956 0.036483813 0.62800002
-0.09226191 0.036309525 0.625
-0.091071434 0.036309525 0.625
-0.089737147 0.036251429 0.62400001
-0.088548578 0.036251429 0.62400001
-0.087360002 0.036251429 0.62400001
-0.086171433 0.036251429 0.62400001
-0.084982865 0.036251429 0.62400001
-0.083794288 0.036251429 0.62400001
-0.08260572 0.036251429 0.62400001
-0.081417151 0.036251429 0.62400001
-0.080228575 0.036251429 0.62400001
-0.079040006 0.036251429 0.62400001
-0.077851437 0.036251429 0.62400001
-0.076540008 0.036193337 0.62300003
-0.075232387 0.036135241 0.62200004
-0.073809527 0.03601905 0.62
-0.072628573 0.03601905 0.62
-0.071447626 0.03601905 0.62
-0.070266671 0.03601905 0.62
-0.069085717 0.03601905 0.62
-0.068123817 0.036135241 0.62200004
-0.066939048 0.036135241 0.62200004
-0.065860003 0.036193337 0.62300003
-0.064777151 0.036251429 0.62400001
-0.063588575 0.036251429 0.62400001
-0.062500007 0.036309525 0.625
-0.061309528 0.036309525 0.625
-0.060215242 0.036367621 0.62600005
-0.059117146 0.036425717 0.62700003
-0.057922862 0.036425717 0.62700003
-0.056728575 0.036425717 0.62700003
-0.055622861 0.036483813 0.62800002
-0.054513335 0.036541909 0.62900001
-0.053484764 0.036658097 0.63100004
-0.052448574 0.036774289 0.63300002
-0.051404767 0.036890477 0.63500005
-0.05027429 0.036948573 0.63600004
-0.049217146 0.037064765 0.63800001
-0.048077147 0.037122861 0.63900006
-0.046933338 0.037180956 0.64000005
-0.045714289 0.037180956 0.64000005
-0.04449524 0.037180956 0.64000005
-0.10788572 0.038400002 0.64000005
-0.10633334 0.038280003 0.63800001
-0.10478858 0.038160004 0.63600004
-0.10341429 0.038100004 0.63500005
-0.10188287 0.037980001 0.63300002
-0.1005181 0.037920002 0.63200003
-0.099314295 0.037920002 0.63200003
-0.097955242 0.037860002 0.63100004
-0.096753336 0.037860002 0.63100004
-0.09524858 0.037740003 0.62900001
-0.093900956 0.037680004 0.62800002
-0.092409529 0.037560001 0.62600005
-0.091071434 0.037500001 0.625
-0.089880958 0.037500001 0.625
-0.088690482 0.037500001 0.625
-0.087500006 0.037500001 0.625
-0.08630953 0.037500001 0.625
-0.085119054 0.037500001 0.625
-0.083794288 0.037440002 0.62400001
-0.08260572 0.037440002 0.62400001
-0.081417151 0.037440002 0.62400001
-0.080228575 0.037440002 0.62400001
-0.079040006 0.037440002 0.62400001
-0.07772667 0.037380002 0.62300003
-0.076540008 0.037380002 0.62300003
-0.075353339 0.037380002 0.62300003
-0.074047625 0.037320003 0.62200004
-0.072862864 0.037320003 0.62200004
-0.071447626 0.037200004 0.62
-0.070266671 0.037200004 0.62
-0.069085717 0.037200004 0.62
-0.068123817 0.037320003 0.62200004
-0.067046672 0.037380002 0.62300003
-0.065860003 0.037380002 0.62300003
-0.064777151 0.037440002 0.62400001
-0.063588575 0.037440002 0.62400001
-0.062500007 0.037500001 0.625
-0.061407622 0.037560001 0.62600005
-0.060311433 0.037620004 0.62700003
-0.059117146 0.037620004 0.62700003
-0.058015242 0.037680004 0.62800002
-0.056819052 0.037680004 0.62800002
-0.055711433 0.037740003 0.62900001
-0.054686669 0.037860002 0.63100004
-0.053569525 0.037920002 0.63200003
-0.052448574 0.037980001 0.63300002
-0.051485717 0.038160004 0.63600004
-0.050432384 0.038280003 0.63800001
-0.049294289 0.038340002 0.63900006
-0.048152383 0.038400002 0.64000005
-0.04700667 0.038460001 0.64100003
-0.045785718 0.038460001 0.64100003
-0.044564765 0.038460001 0.64100003
-0.048720002 0.048720002 0.81200004
-0.10771715 0.039557144 0.63900006
-0.10633334 0.039495241 0.63800001
-0.1051181 0.039495241 0.63800001
-0.10341429 0.039309528 0.63500005
-0.10204381 0.039247621 0.634
-0.10067715 0.039185718 0.63300002
-0.099314295 0.039123811 0.63200003
-0.098110482 0.039123811 0.63200003
-0.096753336 0.039061908 0.63100004
-0.09524858 0.038938098 0.62900001
-0.094050482 0.038938098 0.62900001
-0.092409529 0.038752384 0.62600005
-0.091071434 0.038690478 0.625
-0.089880958 0.038690478 0.625
-0.088690482 0.038690478 0.625
-0.087500006 0.038690478 0.625
-0.08630953 0.038690478 0.625
-0.085119054 0.038690478 0.625
-0.083928578 0.038690478 0.625
-0.082738101 0.038690478 0.625
-0.081417151 0.038628574 0.62400001
-0.080228575 0.038628574 0.62400001
-0.079040006 0.038628574 0.62400001
-0.077851437 0.038628574 0.62400001
-0.076540008 0.038566668 0.62300003
-0.075353339 0.038566668 0.62300003
-0.07416667 0.038566668 0.62300003
-0.072980002 0.038566668 0.62300003
-0.07179334 0.038566668 0.62300003
-0.070606671 0.038566668 0.62300003
-0.069308579 0.038504764 0.62200004
-0.068233341 0.038566668 0.62300003
-0.067154288 0.038628574 0.62400001
-0.06596572 0.038628574 0.62400001
-0.06488096 0.038690478 0.625
-0.063690484 0.038690478 0.625
-0.062600002 0.038752384 0.62600005
-0.06150572 0.038814288 0.62700003
-0.060311433 0.038814288 0.62700003
-0.059211433 0.038876195 0.62800002
-0.058015242 0.038876195 0.62800002
-0.056819052 0.038876195 0.62800002
-0.055888575 0.039061908 0.63100004
-0.054773338 0.039123811 0.63200003
-0.053654291 0.039185718 0.63300002
-0.052531432 0.039247621 0.634
-0.050432384 0.039495241 0.63800001
-0.049371433 0.039619051 0.64000005
-0.048227623 0.039680954 0.64100003
-0.047080003 0.039742861 0.64200002
-0.046000004 0.039866671 0.64400005
-0.044773336 0.039866671 0.64400005
-0.10771715 0.04077429 0.63900006
-0.10650001 0.04077429 0.63900006
-0.1051181 0.040710479 0.63800001
-0.10357715 0.040582858 0.63600004
-0.10204381 0.040455241 0.634
-0.10067715 0.04039143 0.63300002
-0.099471435 0.04039143 0.63300002
-0.098110482 0.040327623 0.63200003
-0.096906669 0.040327623 0.63200003
-0.095551431 0.040263813 0.63100004
-0.094349533 0.040263813 0.63100004
-0.092557147 0.040008575 0.62700003
-0.091217145 0.039944764 0.62600005
-0.089880958 0.039880954 0.625
-0.088690482 0.039880954 0.625
-0.087500006 0.039880954 0.625
-0.08630953 0.039880954 0.625
-0.085119054 0.039880954 0.625
-0.083928578 0.039880954 0.625
-0.082738101 0.039880954 0.625
-0.081547625 0.039880954 0.625
-0.080357149 0.039880954 0.625
-0.079040006 0.039817147 0.62400001
-0.077851437 0.039817147 0.62400001
-0.076662861 0.039817147 0.62400001
-0.075474292 0.039817147 0.62400001
-0.074285716 0.039817147 0.62400001
-0.073097147 0.039817147 0.62400001
-0.07179334 0.039753336 0.62300003
-0.070606671 0.039753336 0.62300003
-0.069420002 0.039753336 0.62300003
-0.068233341 0.039753336 0.62300003
-0.067154288 0.039817147 0.62400001
-0.066071436 0.039880954 0.625
-0.06488096 0.039880954 0.625
-0.063792385 0.039944764 0.62600005
-0.062700003 0.040008575 0.62700003
-0.061603814 0.040072385 0.62800002
-0.060407624 0.040072385 0.62800002
-0.059211433 0.040072385 0.62800002
-0.058015242 0.040072385 0.62800002
-0.05709048 0.040263813 0.63100004
-0.055977147 0.040327623 0.63200003
-0.054860003 0.04039143 0.63300002
-0.053739052 0.040455241 0.634
-0.05261429 0.040519051 0.63500005
-0.051485717 0.040582858 0.63600004
-0.050432384 0.040710479 0.63800001
-0.049448576 0.040901907 0.64100003
-0.048227623 0.040901907 0.64100003
-0.047080003 0.040965717 0.64200002
-0.046000004 0.041093335 0.64400005
-0.10528287 0.041991431 0.63900006
-0.10390286 0.041925717 0.63800001
-0.10220477 0.041728575 0.63500005
-0.1008362 0.041662861 0.634
-0.099471435 0.041597147 0.63300002
-0.098265722 0.041597147 0.63300002
-0.09706001 0.041597147 0.63300002
-0.09585429 0.041597147 0.63300002
-0.094499052 0.041531432 0.63200003
-0.093147628 0.041465718 0.63100004
-0.091508575 0.041268576 0.62800002
-0.09016858 0.041202858 0.62700003
-0.088832386 0.041137144 0.62600005
-0.087640002 0.041137144 0.62600005
-0.086447626 0.041137144 0.62600005
-0.085255243 0.041137144 0.62600005
-0.084062859 0.041137144 0.62600005
-0.082870483 0.041137144 0.62600005
-0.0816781 0.041137144 0.62600005
-0.080357149 0.04107143 0.625
-0.079166673 0.04107143 0.625
-0.077976197 0.04107143 0.625
-0.076662861 0.041005716 0.62400001
-0.075474292 0.041005716 0.62400001
-0.074285716 0.041005716 0.62400001
-0.073097147 0.041005716 0.62400001
-0.071908578 0.041005716 0.62400001
-0.070720002 0.041005716 0.62400001
-0.069531433 0.041005716 0.62400001
-0.068342865 0.041005716 0.62400001
-0.067261912 0.04107143 0.625
-0.066071436 0.04107143 0.625
-0.064984769 0.041137144 0.62600005
-0.063894287 0.041202858 0.62700003
-0.062800005 0.041268576 0.62800002
-0.061701909 0.04133429 0.62900001
-0.060503814 0.04133429 0.62900001
-0.05930572 0.04133429 0.62900001
-0.058292385 0.041465718 0.63100004
-0.057180956 0.041531432 0.63200003
-0.05606572 0.041597147 0.63300002
-0.054860003 0.041597147 0.63300002
-0.053739052 0.041662861 0.634
-0.052697148 0.041794289 0.63600004
-0.051647622 0.041925717 0.63800001
-0.050511431 0.041991431 0.63900006
-0.049448576 0.04212286 0.64100003
-0.048302859 0.042188574 0.64200002
-0.047226671 0.042320002 0.64400005
-0.046000004 0.042320002 0.64400005
-0.10422858 0.043276194 0.64000005
-0.10236572 0.043005716 0.63600004
-0.1008362 0.042870481 0.634
-0.099628575 0.042870481 0.634
-0.098265722 0.042802859 0.63300002
-0.09706001 0.042802859 0.63300002
-0.09585429 0.042802859 0.63300002
-0.094499052 0.042735241 0.63200003
-0.093147628 0.042667624 0.63100004
-0.091654293 0.042532384 0.62900001
-0.090312384 0.042464763 0.62800002
-0.08897429 0.042397145 0.62700003
-0.087780006 0.042397145 0.62700003
-0.086585723 0.042397145 0.62700003
-0.085391432 0.042397145 0.62700003
-0.084197149 0.042397145 0.62700003
-0.083002865 0.042397145 0.62700003
-0.081808574 0.042397145 0.62700003
-0.080485716 0.042329527 0.62600005
-0.079166673 0.042261906 0.625
-0.077976197 0.042261906 0.625
-0.076785721 0.042261906 0.625
-0.075595245 0.042261906 0.625
-0.074404769 0.042261906 0.625
-0.073097147 0.042194288 0.62400001
-0.071908578 0.042194288 0.62400001
-0.070720002 0.042194288 0.62400001
-0.069531433 0.042194288 0.62400001
-0.068342865 0.042194288 0.62400001
-0.067261912 0.042261906 0.625
-0.066177145 0.042329527 0.62600005
-0.065088578 0.042397145 0.62700003
-0.063996196 0.042464763 0.62800002
-0.062900007 0.042532384 0.62900001
-0.061701909 0.042532384 0.62900001
-0.060503814 0.042532384 0.62900001
-0.059494291 0.042667624 0.63100004
-0.058384765 0.042735241 0.63200003
-0.057271432 0.042802859 0.63300002
-0.05606572 0.042802859 0.63300002
-0.054946668 0.042870481 0.634
-0.053823814 0.042938098 0.63500005
-0.052697148 0.043005716 0.63600004
-0.051647622 0.043140955 0.63800001
-0.050511431 0.043208573 0.63900006
-0.049448576 0.043343812 0.64100003
-0.048453335 0.043546669 0.64400005
-0.047226671 0.043546669 0.64400005
-0.046000004 0.043546669 0.64400005
0.16667621 0.055041909 0.81400001
-0.10284857 0.044425718 0.63900006
-0.10115429 0.044217147 0.63600004
-0.099628575 0.044078097 0.634
-0.098420955 0.044078097 0.634
-0.097213343 0.044078097 0.634
-0.09585429 0.044008575 0.63300002
-0.094648577 0.044008575 0.63300002
-0.093295246 0.04393905 0.63200003
-0.092091434 0.04393905 0.63200003
-0.090456195 0.043730479 0.62900001
-0.089116193 0.043660954 0.62800002
-0.087920003 0.043660954 0.62800002
-0.086723812 0.043660954 0.62800002
-0.085527621 0.043660954 0.62800002
-0.08433143 0.043660954 0.62800002
-0.083002865 0.043591432 0.62700003
-0.081808574 0.043591432 0.62700003
-0.080614291 0.043591432 0.62700003
-0.07929334 0.043521907 0.62600005
-0.078100957 0.043521907 0.62600005
-0.076785721 0.043452382 0.625
-0.075595245 0.043452382 0.625
-0.074404769 0.043452382 0.625
-0.073214293 0.043452382 0.625
-0.072023816 0.043452382 0.625
-0.07083334 0.043452382 0.625
-0.069642864 0.043452382 0.625
-0.068452388 0.043452382 0.625
-0.067369528 0.043521907 0.62600005
-0.066282861 0.043591432 0.62700003
-0.065192387 0.043660954 0.62800002
-0.063996196 0.043660954 0.62800002
-0.062900007 0.043730479 0.62900001
-0.061898101 0.043869525 0.63100004
-0.060696196 0.043869525 0.63100004
-0.059588574 0.04393905 0.63200003
-0.058384765 0.04393905 0.63200003
-0.057271432 0.044008575 0.63300002
-0.05606572 0.044008575 0.63300002
-0.054946668 0.044078097 0.634
-0.053823814 0.044147622 0.63500005
-0.052697148 0.044217147 0.63600004
-0.051728576 0.044425718 0.63900006
-0.050590478 0.04449524 0.64000005
-0.049525719 0.04463429 0.64200002
-0.048453335 0.044773336 0.64400005
-0.047226671 0.044773336 0.64400005
-0.046000004 0.044773336 0.64400005
-0.10210858 0.045857146 0.64200002
-0.10041429 0.04564286 0.63900006
-0.098731436 0.045428574 0.63600004
-0.097520009 0.045428574 0.63600004
-0.096157148 0.045357145 0.63500005
-0.094798103 0.045285717 0.634
-0.093442865 0.045214288 0.63300002
-0.092237152 0.045214288 0.63300002
-0.090887628 0.045142859 0.63200003
-0.089683816 0.045142859 0.63200003
-0.088340007 0.045071431 0.63100004
-0.086861908 0.044928573 0.62900001
-0.085663818 0.044928573 0.62900001
-0.08446572 0.044928573 0.62900001
-0.083135247 0.044857144 0.62800002
-0.081939057 0.044857144 0.62800002
-0.080742866 0.044857144 0.62800002
-0.079420008 0.044785716 0.62700003
-0.078225717 0.044785716 0.62700003
-0.076908574 0.044714287 0.62600005
-0.075716197 0.044714287 0.62600005
-0.074523814 0.044714287 0.62600005
-0.073331431 0.044714287 0.62600005
-0.072139055 0.044714287 0.62600005
-0.070946671 0.044714287 0.62600005
-0.069754288 0.044714287 0.62600005
-0.068671435 0.044785716 0.62700003
-0.067584768 0.044857144 0.62800002
-0.066494294 0.044928573 0.62900001
-0.065296195 0.044928573 0.62900001
-0.064301908 0.045071431 0.63100004
-0.063200004 0.045142859 0.63200003
-0.06209429 0.045214288 0.63300002
-0.060888577 0.045214288 0.63300002
-0.059777148 0.045285717 0.634
-0.058661908 0.045357145 0.63500005
-0.057452384 0.045357145 0.63500005
-0.056242861 0.045357145 0.63500005
-0.055120002 0.045428574 0.63600004
-0.053908575 0.045428574 0.63600004
-0.052945718 0.04564286 0.63900006
-0.051809527 0.045714289 0.64000005
-0.050748575 0.045857146 0.64200002
-0.049680002 0.046000004 0.64400005
-0.048528574 0.046071433 0.64500004
-0.047373336 0.046142861 0.64600003
-0.04621429 0.04621429 0.64700001
-0.10210858 0.047080003 0.64200002
-0.10057144 0.046933338 0.64000005
-0.099041909 0.04678667 0.63800001
-0.097826675 0.04678667 0.63800001
-0.096308574 0.046640001 0.63600004
-0.094947629 0.046566669 0.63500005
-0.093590483 0.046493337 0.634
-0.092237152 0.046420004 0.63300002
-0.091031432 0.046420004 0.63300002
-0.089683816 0.046346668 0.63200003
-0.088340007 0.046273336 0.63100004
-0.087138101 0.046273336 0.63100004
-0.085936196 0.046273336 0.63100004
-0.08446572 0.046126671 0.62900001
-0.083267622 0.046126671 0.62900001
-0.081939057 0.046053335 0.62800002
-0.080742866 0.046053335 0.62800002
-0.079546675 0.046053335 0.62800002
-0.078350484 0.046053335 0.62800002
-0.077031434 0.045980003 0.62700003
-0.07583715 0.045980003 0.62700003
-0.074642859 0.045980003 0.62700003
-0.073448576 0.045980003 0.62700003
-0.072254293 0.045980003 0.62700003
-0.071060002 0.045980003 0.62700003
-0.069977149 0.046053335 0.62800002
-0.068780959 0.046053335 0.62800002
-0.067584768 0.046053335 0.62800002
-0.066494294 0.046126671 0.62900001
-0.065503813 0.046273336 0.63100004
-0.064403817 0.046346668 0.63200003
-0.063300006 0.046420004 0.63300002
-0.06209429 0.046420004 0.63300002
-0.060984764 0.046493337 0.634
-0.059871431 0.046566669 0.63500005
-0.058661908 0.046566669 0.63500005
-0.057542861 0.046640001 0.63600004
-0.056331433 0.046640001 0.63600004
-0.055120002 0.046640001 0.63600004
-0.054078098 0.04678667 0.63800001
-0.052945718 0.046860002 0.63900006
-0.051890481 0.04700667 0.64100003
-0.050748575 0.047080003 0.64200002
-0.049757145 0.047300003 0.64500004
-0.048603814 0.047373336 0.64600003
-0.047446668 0.047446668 0.64700001
-0.046285719 0.047520004 0.648
-0.10536858 0.04867905 0.64700001
-0.1041362 0.04867905 0.64700001
-0.10258572 0.048528574 0.64500004
-0.10072858 0.048227623 0.64100003
-0.099197149 0.048077147 0.63900006
-0.097826675 0.048001908 0.63800001
-0.096611433 0.048001908 0.63800001
-0.094947629 0.047776192 0.63500005
-0.093738101 0.047776192 0.63500005
-0.092382863 0.047700956 0.634
-0.091175243 0.047700956 0.634
-0.08982572 0.047625717 0.63300002
-0.088480003 0.047550481 0.63200003
-0.087276198 0.047550481 0.63200003
-0.085936196 0.047475241 0.63100004
-0.084734291 0.047475241 0.63100004
-0.083267622 0.047324765 0.62900001
-0.082069531 0.047324765 0.62900001
-0.080871433 0.047324765 0.62900001
-0.079673335 0.047324765 0.62900001
-0.078475244 0.047324765 0.62900001
-0.077154294 0.047249526 0.62800002
-0.075958103 0.047249526 0.62800002
-0.074761912 0.047249526 0.62800002
-0.073565722 0.047249526 0.62800002
-0.072369531 0.047249526 0.62800002
-0.07117334 0.047249526 0.62800002
-0.070088573 0.047324765 0.62900001
-0.068890482 0.047324765 0.62900001
-0.067692384 0.047324765 0.62900001
-0.066494294 0.047324765 0.62900001
-0.065503813 0.047475241 0.63100004
-0.064505719 0.047625717 0.63300002
-0.063300006 0.047625717 0.63300002
-0.062192384 0.047700956 0.634
-0.060984764 0.047700956 0.634
-0.059871431 0.047776192 0.63500005
-0.058661908 0.047776192 0.63500005
-0.057542861 0.047851432 0.63600004
-0.056331433 0.047851432 0.63600004
-0.055293337 0.048001908 0.63800001
-0.054078098 0.048001908 0.63800001
-0.053028576 0.048152383 0.64000005
-0.051890481 0.048227623 0.64100003
-0.050906669 0.048453335 0.64400005
-0.049757145 0.048528574 0.64500004
-0.04867905 0.04867905 0.64700001
-0.047446668 0.04867905 0.64700001
-0.046428576 0.048904765 0.65000004
-0.10883334 0.050374288 0.65300006
-0.10742477 0.050297145 0.65200001
-0.10553144 0.049988575 0.648
-0.1041362 0.049911432 0.64700001
-0.10258572 0.049757145 0.64500004
-0.10120001 0.049680002 0.64400005
-0.099507622 0.049448576 0.64100003
-0.097980008 0.049294289 0.63900006
-0.096611433 0.049217146 0.63800001
-0.095097147 0.049062859 0.63600004
-0.09388572 0.049062859 0.63600004
-0.092382863 0.048908576 0.634
-0.091175243 0.048908576 0.634
-0.08982572 0.048831433 0.63300002
-0.088480003 0.04875429 0.63200003
-0.087276198 0.04875429 0.63200003
-0.085936196 0.048677146 0.63100004
-0.084734291 0.048677146 0.63100004
-0.083532386 0.048677146 0.63100004
-0.082069531 0.04852286 0.62900001
-0.080871433 0.04852286 0.62900001
-0.079673335 0.04852286 0.62900001
-0.078475244 0.04852286 0.62900001
-0.077277146 0.04852286 0.62900001
-0.076079056 0.04852286 0.62900001
-0.074880958 0.04852286 0.62900001
-0.07368286 0.04852286 0.62900001
-0.072484769 0.04852286 0.62900001
-0.07151334 0.048677146 0.63100004
-0.070311435 0.048677146 0.63100004
-0.069219053 0.04875429 0.63200003
-0.06801524 0.04875429 0.63200003
-0.066811435 0.04875429 0.63200003
-0.065607622 0.04875429 0.63200003
-0.064505719 0.048831433 0.63300002
-0.063300006 0.048831433 0.63300002
-0.062192384 0.048908576 0.634
-0.061080955 0.048985716 0.63500005
-0.059871431 0.048985716 0.63500005
-0.058754291 0.049062859 0.63600004
-0.057723813 0.049217146 0.63800001
-0.056508575 0.049217146 0.63800001
-0.055293337 0.049217146 0.63800001
-0.05416286 0.049294289 0.63900006
-0.053028576 0.049371433 0.64000005
-0.051890481 0.049448576 0.64100003
-0.050906669 0.049680002 0.64400005
-0.049834289 0.049834289 0.64600003
-0.04875429 0.049988575 0.648
-0.047520004 0.049988575 0.648
-0.046428576 0.050142862 0.65000004
-0.045329526 0.050297145 0.65200001
-0.044358097 0.050605718 0.65600002
-0.10883334 0.051618099 0.65300006
-0.10758953 0.051618099 0.65300006
-0.10585715 0.051380955 0.65000004
-0.10429715 0.051222861 0.648
-0.10290381 0.051143814 0.64700001
-0.10151429 0.051064767 0.64600003
-0.099662863 0.050748575 0.64200002
-0.098286673 0.050669529 0.64100003
-0.096914291 0.050590478 0.64000005
-0.095396198 0.050432384 0.63800001
-0.09388572 0.05027429 0.63600004
-0.092528574 0.050195243 0.63500005
-0.091175243 0.050116193 0.634
-0.08982572 0.050037146 0.63300002
-0.088620007 0.050037146 0.63300002
-0.087414294 0.050037146 0.63300002
-0.086072385 0.049958099 0.63200003
-0.084734291 0.049879052 0.63100004
-0.083532386 0.049879052 0.63100004
-0.08233048 0.049879052 0.63100004
-0.081128575 0.049879052 0.63100004
-0.07992667 0.049879052 0.63100004
-0.078724764 0.049879052 0.63100004
-0.077522859 0.049879052 0.63100004
-0.076320961 0.049879052 0.63100004
-0.075119056 0.049879052 0.63100004
-0.074034289 0.049958099 0.63200003
-0.072830483 0.049958099 0.63200003
-0.071626671 0.049958099 0.63200003
-0.070422865 0.049958099 0.63200003
-0.069328576 0.050037146 0.63300002
-0.06801524 0.049958099 0.63200003
-0.066917144 0.050037146 0.63300002
-0.065711431 0.050037146 0.63300002
-0.064505719 0.050037146 0.63300002
-0.063400008 0.050116193 0.634
-0.062192384 0.050116193 0.634
-0.061080955 0.050195243 0.63500005
-0.059965719 0.05027429 0.63600004
-0.058754291 0.05027429 0.63600004
-0.057723813 0.050432384 0.63800001
-0.056597147 0.050511431 0.63900006
-0.055380005 0.050511431 0.63900006
-0.054247621 0.050590478 0.64000005
-0.05311143 0.050669529 0.64100003
-0.051971432 0.050748575 0.64200002
-0.050985716 0.050985716 0.64500004
-0.049834289 0.051064767 0.64600003
-0.04875429 0.051222861 0.648
-0.047520004 0.051222861 0.648
-0.046428576 0.051380955 0.65000004
-0.045329526 0.051539052 0.65200001
-0.044358097 0.05185524 0.65600002
-0.10883334 0.052861907 0.65300006
-0.10742477 0.052780956 0.65200001
-0.10618287 0.052780956 0.65200001
-0.1041362 0.052376192 0.64700001
-0.10274477 0.052295242 0.64600003
-0.10135715 0.052214291 0.64500004
-0.099973343 0.052133337 0.64400005
-0.098440006 0.051971432 0.64200002
-0.097065717 0.051890481 0.64100003
-0.095545724 0.051728576 0.63900006
-0.094180956 0.051647622 0.63800001
-0.092674293 0.051485717 0.63600004
-0.091319054 0.051404767 0.63500005
-0.089967623 0.051323812 0.634
-0.088620007 0.051242862 0.63300002
-0.087414294 0.051242862 0.63300002
-0.086072385 0.051161908 0.63200003
-0.08486858 0.051161908 0.63200003
-0.083532386 0.051080957 0.63100004
-0.08233048 0.051080957 0.63100004
-0.08125715 0.051161908 0.63200003
-0.080053337 0.051161908 0.63200003
-0.078849532 0.051161908 0.63200003
-0.077645719 0.051161908 0.63200003
-0.076562859 0.051242862 0.63300002
-0.075357147 0.051242862 0.63300002
-0.074151434 0.051242862 0.63300002
-0.072945721 0.051242862 0.63300002
-0.071740001 0.051242862 0.63300002
-0.070534289 0.051242862 0.63300002
-0.069328576 0.051242862 0.63300002
-0.068122864 0.051242862 0.63300002
-0.066917144 0.051242862 0.63300002
-0.065711431 0.051242862 0.63300002
-0.064505719 0.051242862 0.63300002
-0.063300006 0.051242862 0.63300002
-0.062290478 0.051404767 0.63500005
-0.061177146 0.051485717 0.63600004
-0.060154289 0.051647622 0.63800001
-0.058939051 0.051647622 0.63800001
-0.057814289 0.051728576 0.63900006
-0.056597147 0.051728576 0.63900006
-0.055380005 0.051728576 0.63900006
-0.054332383 0.051890481 0.64100003
-0.053194288 0.051971432 0.64200002
-0.052133337 0.052133337 0.64400005
-0.051064767 0.052295242 0.64600003
-0.049911432 0.052376192 0.64700001
-0.04875429 0.052457146 0.648
-0.047666669 0.052619051 0.65000004
-0.046428576 0.052619051 0.65000004
-0.045399051 0.052861907 0.65300006
-0.044425718 0.053185716 0.65700001
-0.043371432 0.053428575 0.66000003
-0.10883334 0.054105718 0.65300006
-0.10758953 0.054105718 0.65300006
-0.10618287 0.05402286 0.65200001
-0.1041362 0.053608574 0.64700001
-0.10274477 0.053525716 0.64600003
-0.10151429 0.053525716 0.64600003
-0.099973343 0.053360004 0.64400005
-0.098440006 0.053194288 0.64200002
-0.097065717 0.05311143 0.64100003
-0.095545724 0.052945718 0.63900006
-0.094180956 0.05286286 0.63800001
-0.092674293 0.052697148 0.63600004
-0.091462865 0.052697148 0.63600004
-0.089967623 0.052531432 0.634
-0.088760003 0.052531432 0.634
-0.087552384 0.052531432 0.634
-0.086208574 0.052448574 0.63300002
-0.085002862 0.052448574 0.63300002
-0.083797149 0.052448574 0.63300002
-0.082591437 0.052448574 0.63300002
-0.081385717 0.052448574 0.63300002
-0.080180004 0.052448574 0.63300002
-0.079099052 0.052531432 0.634
-0.077891432 0.052531432 0.634
-0.076804765 0.05261429 0.63500005
-0.075476192 0.052531432 0.634
-0.074268579 0.052531432 0.634
-0.07306096 0.052531432 0.634
-0.07185334 0.052531432 0.634
-0.07064572 0.052531432 0.634
-0.0694381 0.052531432 0.634
-0.068122864 0.052448574 0.63300002
-0.06702286 0.052531432 0.634
-0.06581524 0.052531432 0.634
-0.06460762 0.052531432 0.634
-0.063400008 0.052531432 0.634
-0.062388577 0.052697148 0.63600004
-0.061369527 0.05286286 0.63800001
-0.060154289 0.05286286 0.63800001
-0.059031431 0.052945718 0.63900006
-0.057814289 0.052945718 0.63900006
-0.05668572 0.053028576 0.64000005
-0.055466671 0.053028576 0.64000005
-0.054332383 0.05311143 0.64100003
-0.053360004 0.053360004 0.64400005
-0.052214291 0.053442862 0.64500004
-0.051064767 0.053525716 0.64600003
-0.049911432 0.053608574 0.64700001
-0.048904765 0.053857148 0.65000004
-0.047666669 0.053857148 0.65000004
-0.046500005 0.053940002 0.65100002
-0.045329526 0.05402286 0.65200001
-0.044425718 0.054437146 0.65700001
-0.10883334 0.055349529 0.65300006
-0.10742477 0.055264767 0.65200001
-0.10618287 0.055264767 0.65200001
-0.1041362 0.054840956 0.64700001
-0.10274477 0.054756194 0.64600003
-0.10151429 0.054756194 0.64600003
-0.099973343 0.054586671 0.64400005
-0.098746672 0.054586671 0.64400005
-0.09721715 0.054417148 0.64200002
-0.095695242 0.054247621 0.64000005
-0.094328575 0.05416286 0.63900006
-0.092965722 0.054078098 0.63800001
-0.09175048 0.054078098 0.63800001
-0.090109527 0.053823814 0.63500005
-0.088900007 0.053823814 0.63500005
-0.08769048 0.053823814 0.63500005
-0.086344771 0.053739052 0.634
-0.085137151 0.053739052 0.634
-0.083929531 0.053739052 0.634
-0.082721911 0.053739052 0.634
-0.081514291 0.053739052 0.634
-0.080306672 0.053739052 0.634
-0.079223812 0.053823814 0.63500005
-0.078014292 0.053823814 0.63500005
-0.076925717 0.053908575 0.63600004
-0.075595245 0.053823814 0.63500005
-0.074385718 0.053823814 0.63500005
-0.07306096 0.053739052 0.634
-0.07185334 0.053739052 0.634
-0.07064572 0.053739052 0.634
-0.0694381 0.053739052 0.634
-0.06823048 0.053739052 0.634
-0.06702286 0.053739052 0.634
-0.06581524 0.053739052 0.634
-0.06460762 0.053739052 0.634
-0.063400008 0.053739052 0.634
-0.062388577 0.053908575 0.63600004
-0.061369527 0.054078098 0.63800001
-0.060248576 0.05416286 0.63900006
-0.059031431 0.05416286 0.63900006
-0.057904765 0.054247621 0.64000005
-0.056774288 0.054332383 0.64100003
-0.055553336 0.054332383 0.64100003
-0.054417148 0.054417148 0.64200002
-0.053360004 0.054586671 0.64400005
-0.052214291 0.054671433 0.64500004
-0.051143814 0.054840956 0.64700001
-0.049988575 0.054925717 0.648
-0.048904765 0.05509524 0.65000004
-0.047740005 0.055180002 0.65100002
-0.046500005 0.055180002 0.65100002
-0.045329526 0.055264767 0.65200001
-0.044358097 0.055603813 0.65600002
-0.10742477 0.056506671 0.65200001
-0.10634572 0.056593336 0.65300006
-0.10429715 0.056160003 0.648
-0.10290381 0.056073338 0.64700001
-0.10167143 0.056073338 0.64700001
