# .PCD v0.7 - Point Cloud Data file format
VERSION 0.7
FIELDS x y z
SIZE 4 4 4
TYPE F F F
COUNT 1 1 1
WIDTH 1345
HEIGHT 1
VIEWPOINT 0 0 0 1 0 0 0
POINTS 1345
DATA ascii
0.011852382 0.053023811 0.65500003
0.013060001 0.052861907 0.65300006
-0.062634289 0.056177147 0.67800003
-0.061342862 0.056177147 0.67800003
-0.059874289 0.056011431 0.67600006
-0.058500003 0.055928577 0.67500001
-0.05721429 0.055928577 0.67500001
-0.055845719 0.055845719 0.67400002
-0.054561909 0.055845719 0.67400002
-0.0532781 0.055845719 0.67400002
-0.05199429 0.055845719 0.67400002
-0.050710481 0.055845719 0.67400002
-0.049426671 0.055845719 0.67400002
-0.048142862 0.055845719 0.67400002
-0.046720002 0.055680003 0.67200005
-0.045440003 0.055680003 0.67200005
-0.044160005 0.055680003 0.67200005
-0.042816192 0.055597145 0.671
-0.041476194 0.055514291 0.67000002
-0.040140003 0.055431433 0.66900003
-0.038865715 0.055431433 0.66900003
-0.037591431 0.055431433 0.66900003
-0.036208574 0.055265717 0.66700006
-0.034938097 0.055265717 0.66700006
-0.03366762 0.055265717 0.66700006
-0.032397144 0.055265717 0.66700006
-0.031126669 0.055265717 0.66700006
-0.029856192 0.055265717 0.66700006
-0.028542859 0.055182859 0.66600001
-0.027274288 0.055182859 0.66600001
-0.026005715 0.055182859 0.66600001
-0.024700001 0.055100005 0.66500002
-0.023433335 0.055100005 0.66500002
-0.022166668 0.055100005 0.66500002
-0.020837145 0.054934289 0.66300005
-0.019574286 0.054934289 0.66300005
-0.01831143 0.054934289 0.66300005
-0.017048573 0.054934289 0.66300005
-0.015738096 0.054768573 0.66100001
-0.014500953 0.054851431 0.66200006
-0.013220001 0.054768573 0.66100001
-0.011960953 0.054768573 0.66100001
-0.010685715 0.054685719 0.66000003
-0.0094285719 0.054685719 0.66000003
-0.0081714289 0.054685719 0.66000003
-0.0069142859 0.054685719 0.66000003
-0.0056571434 0.054685719 0.66000003
-0.0043866672 0.054520003 0.65800005
-0.0031333335 0.054520003 0.65800005
-0.0018800001 0.054520003 0.65800005
-0.00062571431 0.054437146 0.65700001
0.00062571431 0.054437146 0.65700001
0.0018771429 0.054437146 0.65700001
0.0031238098 0.054354288 0.65600002
0.0043733334 0.054354288 0.65600002
0.0056228577 0.054354288 0.65600002
0.0068619051 0.054271434 0.65500003
0.0081095239 0.054271434 0.65500003
0.0093571432 0.054271434 0.65500003
0.010572381 0.054105718 0.65300006
0.011816191 0.054105718 0.65300006
0.013040001 0.05402286 0.65200001
-0.067900002 0.057553336 0.67900002
-0.066606671 0.057553336 0.67900002
-0.06244953 0.057299051 0.67600006
-0.061161909 0.057299051 0.67600006
-0.05978572 0.05721429 0.67500001
-0.058413338 0.057129528 0.67400002
-0.057129528 0.057129528 0.67400002
-0.055845719 0.057129528 0.67400002
-0.054400004 0.056960005 0.67200005
-0.053120002 0.056960005 0.67200005
-0.051840004 0.056960005 0.67200005
-0.050560005 0.056960005 0.67200005
-0.049280003 0.056960005 0.67200005
-0.048000004 0.056960005 0.67200005
-0.04665048 0.05687524 0.671
-0.045372386 0.05687524 0.671
-0.044094287 0.05687524 0.671
-0.042688575 0.056705717 0.66900003
-0.041414287 0.056705717 0.66900003
-0.040020004 0.056536194 0.66700006
-0.038749527 0.056536194 0.66700006
-0.03747905 0.056536194 0.66700006
-0.036154289 0.056451432 0.66600001
-0.034885716 0.056451432 0.66600001
-0.033617146 0.056451432 0.66600001
-0.032348573 0.056451432 0.66600001
-0.031080002 0.056451432 0.66600001
-0.029811431 0.056451432 0.66600001
-0.028500002 0.056366671 0.66500002
-0.027233334 0.056366671 0.66500002
-0.025966669 0.056366671 0.66500002
-0.024625717 0.056197148 0.66300005
-0.023362858 0.056197148 0.66300005
-0.022100002 0.056197148 0.66300005
-0.020837145 0.056197148 0.66300005
-0.019544763 0.056112386 0.66200006
-0.01828381 0.056112386 0.66200006
-0.016997144 0.056027621 0.66100001
-0.015738096 0.056027621 0.66100001
-0.014479049 0.056027621 0.66100001
-0.013200001 0.05594286 0.66000003
-0.011942858 0.05594286 0.66000003
-0.010653334 0.055773336 0.65800005
-0.0094000008 0.055773336 0.65800005
-0.0081466669 0.055773336 0.65800005
-0.006893334 0.055773336 0.65800005
-0.0056314291 0.055688575 0.65700001
-0.0043800003 0.055688575 0.65700001
-0.0031285717 0.055688575 0.65700001
-0.0018771429 0.055688575 0.65700001
-0.00062476192 0.055603813 0.65600002
0.00062476192 0.055603813 0.65600002
0.0018742859 0.055603813 0.65600002
0.0031238098 0.055603813 0.65600002
0.004366667 0.055519052 0.65500003
0.0056142863 0.055519052 0.65500003
0.0068619051 0.055519052 0.65500003
0.0081095239 0.055519052 0.65500003
0.0093285721 0.055349529 0.65300006
0.010572381 0.055349529 0.65300006
0.011798096 0.055264767 0.65200001
0.01302 0.055180002 0.65100002
0.014260001 0.055180002 0.65100002
0.015476191 0.05509524 0.65000004
-0.069091432 0.058760002 0.67800003
-0.067800008 0.058760002 0.67800003
-0.066508576 0.058760002 0.67800003
-0.065024763 0.058586672 0.67600006
-0.063737147 0.058586672 0.67600006
-0.06244953 0.058586672 0.67600006
-0.061071433 0.058500003 0.67500001
-0.059697147 0.058413338 0.67400002
-0.058240004 0.058240004 0.67200005
-0.056960005 0.058240004 0.67200005
-0.055680003 0.058240004 0.67200005
-0.054400004 0.058240004 0.67200005
-0.053120002 0.058240004 0.67200005
-0.051840004 0.058240004 0.67200005
-0.050560005 0.058240004 0.67200005
-0.04920667 0.058153339 0.671
-0.047928575 0.058153339 0.671
-0.04665048 0.058153339 0.671
-0.045372386 0.058153339 0.671
-0.044028573 0.05806667 0.67000002
-0.042688575 0.057980005 0.66900003
-0.041414287 0.057980005 0.66900003
-0.040020004 0.057806671 0.66700006
-0.038749527 0.057806671 0.66700006
-0.03747905 0.057806671 0.66700006
-0.036154289 0.057720006 0.66600001
-0.034885716 0.057720006 0.66600001
-0.033617146 0.057720006 0.66600001
-0.032348573 0.057720006 0.66600001
-0.031033335 0.057633337 0.66500002
-0.029766669 0.057633337 0.66500002
-0.028500002 0.057633337 0.66500002
-0.027233334 0.057633337 0.66500002
-0.025888573 0.057460003 0.66300005
-0.024625717 0.057460003 0.66300005
-0.023327621 0.057373337 0.66200006
-0.022066668 0.057373337 0.66200006
-0.020805717 0.057373337 0.66200006
-0.019544763 0.057373337 0.66200006
-0.018256191 0.057286669 0.66100001
-0.01697143 0.057200003 0.66000003
-0.015714286 0.057200003 0.66000003
-0.014457144 0.057200003 0.66000003
-0.013160001 0.057026669 0.65800005
-0.011906668 0.057026669 0.65800005
-0.010653334 0.057026669 0.65800005
-0.0094000008 0.057026669 0.65800005
-0.0081466669 0.057026669 0.65800005
-0.0068828575 0.056940004 0.65700001
-0.0056228577 0.056853335 0.65600002
-0.0043733334 0.056853335 0.65600002
-0.0031238098 0.056853335 0.65600002
-0.0018742859 0.056853335 0.65600002
-0.00062476192 0.056853335 0.65600002
0.00062476192 0.056853335 0.65600002
0.0018714287 0.05676667 0.65500003
0.0031190477 0.05676667 0.65500003
0.004366667 0.05676667 0.65500003
0.0056142863 0.05676667 0.65500003
0.0068619051 0.05676667 0.65500003
0.0080847628 0.056593336 0.65300006
0.0093285721 0.056593336 0.65300006
0.010556191 0.056506671 0.65200001
0.011798096 0.056506671 0.65200001
0.01302 0.056420002 0.65100002
0.014238096 0.056333337 0.65000004
0.015476191 0.056333337 0.65000004
0.13484667 0.068553336 0.79100001
0.13786002 0.068553336 0.79100001
0.13936667 0.068553336 0.79100001
0.14087334 0.068553336 0.79100001
0.14238001 0.068553336 0.79100001
0.14539334 0.068553336 0.79100001
0.14690001 0.068553336 0.79100001
-0.088723816 0.060228575 0.68000001
-0.082005717 0.060051434 0.67800003
-0.080714293 0.060051434 0.67800003
-0.075660005 0.060140003 0.67900002
-0.072965719 0.060051434 0.67800003
-0.071674287 0.060051434 0.67800003
-0.070175245 0.059874289 0.67600006
-0.068887621 0.059874289 0.67600006
-0.067600004 0.059874289 0.67600006
-0.066312388 0.059874289 0.67600006
-0.064832382 0.059697147 0.67400002
-0.063548572 0.059697147 0.67400002
-0.062264767 0.059697147 0.67400002
-0.060800005 0.059520002 0.67200005
-0.059520002 0.059520002 0.67200005
-0.058153339 0.059431434 0.671
-0.05687524 0.059431434 0.671
-0.055597145 0.059431434 0.671
-0.0542381 0.059342861 0.67000002
-0.052961908 0.059342861 0.67000002
-0.051685717 0.059342861 0.67000002
-0.050409526 0.059342861 0.67000002
-0.049133338 0.059342861 0.67000002
-0.047785718 0.059254289 0.66900003
-0.04651143 0.059254289 0.66900003
-0.045237146 0.059254289 0.66900003
-0.04383143 0.059077147 0.66700006
-0.042560954 0.059077147 0.66700006
-0.041228574 0.058988575 0.66600001
-0.039960004 0.058988575 0.66600001
-0.038633335 0.058900002 0.66500002
-0.03736667 0.058900002 0.66500002
-0.036100004 0.058900002 0.66500002
-0.034833334 0.058900002 0.66500002
-0.033566669 0.058900002 0.66500002
-0.032300003 0.058900002 0.66500002
-0.030940002 0.058722861 0.66300005
-0.029766669 0.058900002 0.66500002
-0.028414287 0.058722861 0.66300005
-0.02715143 0.058722861 0.66300005
-0.025849525 0.058634289 0.66200006
-0.024588574 0.058634289 0.66200006
-0.023292383 0.05854572 0.66100001
-0.022033336 0.05854572 0.66100001
-0.020774286 0.05854572 0.66100001
-0.019485716 0.058457147 0.66000003
-0.018228572 0.058457147 0.66000003
-0.01697143 0.058457147 0.66000003
-0.015666667 0.058280002 0.65800005
-0.014413334 0.058280002 0.65800005
-0.013160001 0.058280002 0.65800005
-0.011888572 0.058191434 0.65700001
-0.010637144 0.058191434 0.65700001
-0.0093857152 0.058191434 0.65700001
-0.0081342859 0.058191434 0.65700001
-0.0068828575 0.058191434 0.65700001
-0.0056228577 0.058102861 0.65600002
-0.0043733334 0.058102861 0.65600002
-0.0031238098 0.058102861 0.65600002
-0.0018714287 0.058014289 0.65500003
-0.00062380958 0.058014289 0.65500003
0.00062380958 0.058014289 0.65500003
0.0018714287 0.058014289 0.65500003
0.0031190477 0.058014289 0.65500003
0.004366667 0.058014289 0.65500003
0.0055971434 0.057837147 0.65300006
0.0068409527 0.057837147 0.65300006
0.0080847628 0.057837147 0.65300006
0.0093285721 0.057837147 0.65300006
0.010556191 0.057748575 0.65200001
0.011780001 0.057660002 0.65100002
0.013000001 0.057571433 0.65000004
0.014194286 0.057394288 0.648
0.015428573 0.057394288 0.648
-0.092609532 0.061523814 0.68000001
-0.091180004 0.061433338 0.67900002
-0.089886673 0.061433338 0.67900002
-0.088593341 0.061433338 0.67900002
-0.087171435 0.061342862 0.67800003
-0.085880004 0.061342862 0.67800003
-0.08458858 0.061342862 0.67800003
-0.083297148 0.061342862 0.67800003
-0.082005717 0.061342862 0.67800003
-0.080714293 0.061342862 0.67800003
-0.079422861 0.061342862 0.67800003
-0.078131437 0.061342862 0.67800003
-0.076613337 0.061161909 0.67600006
-0.075548574 0.061342862 0.67800003
-0.074038103 0.061161909 0.67600006
-0.072642863 0.061071433 0.67500001
-0.071357146 0.061071433 0.67500001
-0.070071436 0.061071433 0.67500001
-0.06878572 0.061071433 0.67500001
-0.067500003 0.061071433 0.67500001
-0.066214293 0.061071433 0.67500001
-0.064640008 0.060800005 0.67200005
-0.063360006 0.060800005 0.67200005
-0.062080003 0.060800005 0.67200005
-0.060709529 0.060709529 0.671
-0.059431434 0.060709529 0.671
-0.05806667 0.060619052 0.67000002
-0.056790479 0.060619052 0.67000002
-0.055514291 0.060619052 0.67000002
-0.0542381 0.060619052 0.67000002
-0.052961908 0.060619052 0.67000002
-0.051608574 0.060528576 0.66900003
-0.05033429 0.060528576 0.66900003
-0.049060002 0.060528576 0.66900003
-0.047642861 0.060347624 0.66700006
-0.046372384 0.060347624 0.66700006
-0.045101907 0.060347624 0.66700006
-0.043765716 0.060257148 0.66600001
-0.042433336 0.060166672 0.66500002
-0.041166671 0.060166672 0.66500002
-0.039900001 0.060166672 0.66500002
-0.038633335 0.060166672 0.66500002
-0.037254289 0.05998572 0.66300005
-0.03599143 0.05998572 0.66300005
-0.034728575 0.05998572 0.66300005
-0.033465717 0.05998572 0.66300005
-0.032202858 0.05998572 0.66300005
-0.030893335 0.059895243 0.66200006
-0.029677145 0.05998572 0.66300005
-0.028371431 0.059895243 0.66200006
-0.027069526 0.059804767 0.66100001
-0.025810478 0.059804767 0.66100001
-0.024551431 0.059804767 0.66100001
-0.023292383 0.059804767 0.66100001
-0.022000002 0.059714291 0.66000003
-0.020742858 0.059714291 0.66000003
-0.019485716 0.059714291 0.66000003
-0.018228572 0.059714291 0.66000003
-0.01692 0.059533339 0.65800005
-0.015666667 0.059533339 0.65800005
-0.01439143 0.059442863 0.65700001
-0.01314 0.059442863 0.65700001
-0.011870477 0.059352383 0.65600002
-0.010620954 0.059352383 0.65600002
-0.0093857152 0.059442863 0.65700001
-0.0081219049 0.059352383 0.65600002
-0.0068723815 0.059352383 0.65600002
-0.0056142863 0.059261907 0.65500003
-0.004366667 0.059261907 0.65500003
-0.0031238098 0.059352383 0.65600002
-0.0018714287 0.059261907 0.65500003
-0.00062380958 0.059261907 0.65500003
0.00062380958 0.059261907 0.65500003
0.0018657144 0.059080955 0.65300006
0.003109524 0.059080955 0.65300006
0.0043533337 0.059080955 0.65300006
0.005588572 0.058990479 0.65200001
0.0068304767 0.058990479 0.65200001
0.0080723818 0.058990479 0.65200001
0.0093142865 0.058990479 0.65200001
0.010540001 0.058900002 0.65100002
0.011761906 0.058809526 0.65000004
0.012960001 0.058628574 0.648
0.014194286 0.058628574 0.648
-0.093904771 0.062819049 0.68000001
-0.092609532 0.062819049 0.68000001
-0.091180004 0.062726669 0.67900002
-0.089886673 0.062726669 0.67900002
-0.088593341 0.062726669 0.67900002
-0.087171435 0.062634289 0.67800003
-0.085880004 0.062634289 0.67800003
-0.08458858 0.062634289 0.67800003
-0.083297148 0.062634289 0.67800003
-0.082005717 0.062634289 0.67800003
-0.080714293 0.062634289 0.67800003
-0.079188578 0.06244953 0.67600006
-0.078131437 0.062634289 0.67800003
-0.076613337 0.06244953 0.67600006
-0.075548574 0.062634289 0.67800003
-0.074038103 0.06244953 0.67600006
-0.072642863 0.062357146 0.67500001
-0.071357146 0.062357146 0.67500001
-0.06996762 0.062264767 0.67400002
-0.068683811 0.062264767 0.67400002
-0.067400001 0.062264767 0.67400002
-0.066116191 0.062264767 0.67400002
-0.064543813 0.061987624 0.671
-0.063265719 0.061987624 0.671
-0.061987624 0.061987624 0.671
-0.060619052 0.061895244 0.67000002
-0.059342861 0.061895244 0.67000002
-0.05806667 0.061895244 0.67000002
-0.056790479 0.061895244 0.67000002
-0.055431433 0.06180286 0.66900003
-0.054157145 0.06180286 0.66900003
-0.052882861 0.06180286 0.66900003
-0.051608574 0.06180286 0.66900003
-0.050183814 0.061618101 0.66700006
-0.048913337 0.061618101 0.66700006
-0.047642861 0.061618101 0.66700006
-0.046302859 0.061525717 0.66600001
-0.045034289 0.061525717 0.66600001
-0.043700002 0.061433338 0.66500002
-0.042305715 0.061248574 0.66300005
-0.041042861 0.061248574 0.66300005
-0.039780002 0.061248574 0.66300005
-0.038517144 0.061248574 0.66300005
-0.037254289 0.061248574 0.66300005
-0.03599143 0.061248574 0.66300005
-0.034728575 0.061248574 0.66300005
-0.033465717 0.061248574 0.66300005
-0.032154288 0.061156195 0.66200006
-0.030893335 0.061156195 0.66200006
-0.029632382 0.061156195 0.66200006
-0.028328573 0.061063815 0.66100001
-0.027069526 0.061063815 0.66100001
-0.02577143 0.060971431 0.66000003
-0.024514288 0.060971431 0.66000003
-0.023257144 0.060971431 0.66000003
-0.022000002 0.060971431 0.66000003
-0.020742858 0.060971431 0.66000003
-0.019485716 0.060971431 0.66000003
-0.018173335 0.060786672 0.65800005
-0.01692 0.060786672 0.65800005
-0.015642859 0.060694288 0.65700001
-0.01439143 0.060694288 0.65700001
-0.013120001 0.060601909 0.65600002
-0.011870477 0.060601909 0.65600002
-0.010620954 0.060601909 0.65600002
-0.0093714288 0.060601909 0.65600002
-0.0081219049 0.060601909 0.65600002
-0.0068723815 0.060601909 0.65600002
-0.0056142863 0.060509529 0.65500003
-0.004366667 0.060509529 0.65500003
-0.0031190477 0.060509529 0.65500003
-0.0018714287 0.060509529 0.65500003
-0.00062190479 0.060324766 0.65300006
0.00062190479 0.060324766 0.65300006
0.0018657144 0.060324766 0.65300006
0.003109524 0.060324766 0.65300006
0.0043533337 0.060324766 0.65300006
0.005588572 0.060232386 0.65200001
0.0068304767 0.060232386 0.65200001
0.0080723818 0.060232386 0.65200001
0.009300001 0.060140003 0.65100002
0.01052381 0.060047623 0.65000004
0.011761906 0.060047623 0.65000004
0.012960001 0.05986286 0.648
-0.11647144 0.074391432 0.78900003
-0.098940007 0.064020008 0.67900002
-0.09779048 0.064114287 0.68000001
-0.096495241 0.064114287 0.68000001
-0.09520001 0.064114287 0.68000001
-0.093904771 0.064114287 0.68000001
-0.092473343 0.064020008 0.67900002
-0.091180004 0.064020008 0.67900002
-0.089886673 0.064020008 0.67900002
-0.088462859 0.063925721 0.67800003
-0.087171435 0.063925721 0.67800003
-0.085880004 0.063925721 0.67800003
-0.084339052 0.063737147 0.67600006
-0.083051436 0.063737147 0.67600006
-0.081763811 0.063737147 0.67600006
-0.080476195 0.063737147 0.67600006
-0.079071432 0.063642859 0.67500001
-0.077785723 0.063642859 0.67500001
-0.076500006 0.063642859 0.67500001
-0.07532572 0.063737147 0.67600006
-0.07392858 0.063642859 0.67500001
-0.072535239 0.063548572 0.67400002
-0.07125143 0.063548572 0.67400002
-0.06996762 0.063548572 0.67400002
-0.068480007 0.063360006 0.67200005
-0.067200005 0.063360006 0.67200005
-0.065821908 0.063265719 0.671
-0.064447626 0.063171431 0.67000002
-0.063171431 0.063171431 0.67000002
-0.061895244 0.063171431 0.67000002
-0.060528576 0.063077144 0.66900003
-0.059254289 0.063077144 0.66900003
-0.057980005 0.063077144 0.66900003
-0.056705717 0.063077144 0.66900003
-0.055431433 0.063077144 0.66900003
-0.05399524 0.062888578 0.66700006
-0.052724764 0.062888578 0.66700006
-0.051454291 0.062888578 0.66700006
-0.050183814 0.062888578 0.66700006
-0.048840005 0.06279429 0.66600001
-0.047571432 0.06279429 0.66600001
-0.046302859 0.06279429 0.66600001
-0.044966668 0.062700003 0.66500002
-0.043568574 0.062511429 0.66300005
-0.042305715 0.062511429 0.66300005
-0.041042861 0.062511429 0.66300005
-0.039780002 0.062511429 0.66300005
-0.038517144 0.062511429 0.66300005
-0.037198097 0.062417146 0.66200006
-0.035937145 0.062417146 0.66200006
-0.034676194 0.062417146 0.66200006
-0.033415239 0.062417146 0.66200006
-0.032154288 0.062417146 0.66200006
-0.030846668 0.062322862 0.66100001
-0.029587621 0.062322862 0.66100001
-0.028285716 0.062228575 0.66000003
-0.027028574 0.062228575 0.66000003
-0.02577143 0.062228575 0.66000003
-0.024514288 0.062228575 0.66000003
-0.023257144 0.062228575 0.66000003
-0.021933334 0.062040005 0.65800005
-0.020742858 0.062228575 0.66000003
-0.019426668 0.062040005 0.65800005
-0.018173335 0.062040005 0.65800005
-0.01692 0.062040005 0.65800005
-0.015642859 0.061945718 0.65700001
-0.014369525 0.061851434 0.65600002
-0.013120001 0.061851434 0.65600002
-0.011852382 0.061757147 0.65500003
-0.010604762 0.061757147 0.65500003
-0.0093714288 0.061851434 0.65600002
-0.0081095239 0.061757147 0.65500003
-0.0068619051 0.061757147 0.65500003
-0.0056142863 0.061757147 0.65500003
-0.004366667 0.061757147 0.65500003
-0.0031190477 0.061757147 0.65500003
-0.0018657144 0.061568577 0.65300006
-0.00062190479 0.061568577 0.65300006
0.00062190479 0.061568577 0.65300006
0.0018657144 0.061568577 0.65300006
0.003109524 0.061568577 0.65300006
0.0043466669 0.06147429 0.65200001
0.005588572 0.06147429 0.65200001
0.0068200002 0.061380003 0.65100002
0.0080600008 0.061380003 0.65100002
0.009300001 0.061380003 0.65100002
0.01052381 0.061285719 0.65000004
0.011725715 0.061097145 0.648
0.012960001 0.061097145 0.648
-0.10038096 0.065409526 0.68000001
-0.098940007 0.065313339 0.67900002
-0.09779048 0.065409526 0.68000001
-0.096353337 0.065313339 0.67900002
-0.095060006 0.065313339 0.67900002
-0.093904771 0.065409526 0.68000001
-0.092473343 0.065313339 0.67900002
-0.091180004 0.065313339 0.67900002
-0.089886673 0.065313339 0.67900002
-0.08820191 0.065024763 0.67600006
-0.086914293 0.065024763 0.67600006
-0.085626669 0.065024763 0.67600006
-0.084214292 0.064928576 0.67500001
-0.082928576 0.064928576 0.67500001
-0.081642866 0.064928576 0.67500001
-0.080357149 0.064928576 0.67500001
-0.078954294 0.064832382 0.67400002
-0.077670485 0.064832382 0.67400002
-0.076386675 0.064832382 0.67400002
-0.075102866 0.064832382 0.67400002
-0.073819056 0.064832382 0.67400002
-0.072320007 0.064640008 0.67200005
-0.071040004 0.064640008 0.67200005
-0.069760002 0.064640008 0.67200005
-0.068378098 0.064543813 0.671
-0.067100003 0.064543813 0.671
-0.065723814 0.064447626 0.67000002
-0.064447626 0.064447626 0.67000002
-0.063077144 0.064351432 0.66900003
-0.06180286 0.064351432 0.66900003
-0.060347624 0.064159051 0.66700006
-0.059077147 0.064159051 0.66700006
-0.057806671 0.064159051 0.66700006
-0.056536194 0.064159051 0.66700006
-0.055265717 0.064159051 0.66700006
-0.05399524 0.064159051 0.66700006
-0.052724764 0.064159051 0.66700006
-0.051454291 0.064159051 0.66700006
-0.050108574 0.064062864 0.66600001
-0.048840005 0.064062864 0.66600001
-0.047500003 0.063966669 0.66500002
-0.046233337 0.063966669 0.66500002
-0.044831432 0.063774288 0.66300005
-0.043568574 0.063774288 0.66300005
-0.042241909 0.063678101 0.66200006
-0.040980954 0.063678101 0.66200006
-0.039720003 0.063678101 0.66200006
-0.038459051 0.063678101 0.66200006
-0.037198097 0.063678101 0.66200006
-0.035937145 0.063678101 0.66200006
-0.034676194 0.063678101 0.66200006
-0.033364765 0.063581906 0.66100001
-0.032105718 0.063581906 0.66100001
-0.030800002 0.063485719 0.66000003
-0.02954286 0.063485719 0.66000003
-0.028285716 0.063485719 0.66000003
-0.027028574 0.063485719 0.66000003
-0.025693335 0.063293338 0.65800005
-0.024440002 0.063293338 0.65800005
-0.023186669 0.063293338 0.65800005
-0.021933334 0.063293338 0.65800005
-0.020680001 0.063293338 0.65800005
-0.019426668 0.063293338 0.65800005
-0.018145716 0.063197143 0.65700001
-0.016894286 0.063197143 0.65700001
-0.015619049 0.063100956 0.65600002
-0.014369525 0.063100956 0.65600002
-0.013100001 0.063004769 0.65500003
-0.011852382 0.063004769 0.65500003
-0.010604762 0.063004769 0.65500003
-0.0093571432 0.063004769 0.65500003
-0.0081095239 0.063004769 0.65500003
-0.0068619051 0.063004769 0.65500003
-0.0056142863 0.063004769 0.65500003
-0.004366667 0.063004769 0.65500003
-0.003109524 0.062812388 0.65300006
-0.0018657144 0.062812388 0.65300006
-0.00062190479 0.062812388 0.65300006
0.00062190479 0.062812388 0.65300006
0.0018628573 0.062716193 0.65200001
0.0031047622 0.062716193 0.65200001
0.0043466669 0.062716193 0.65200001
0.0055800006 0.062620007 0.65100002
0.0068200002 0.062620007 0.65100002
0.0080600008 0.062620007 0.65100002
0.0092857145 0.062523812 0.65000004
0.01052381 0.062523812 0.65000004
0.011725715 0.062331434 0.648
0.012940001 0.062235244 0.64700001
-0.10282001 0.066606671 0.67900002
-0.1016762 0.066704765 0.68000001
-0.10038096 0.066704765 0.68000001
-0.098940007 0.066606671 0.67900002
-0.097646676 0.066606671 0.67900002
-0.096353337 0.066606671 0.67900002
-0.095060006 0.066606671 0.67900002
-0.093766674 0.066606671 0.67900002
-0.092473343 0.066606671 0.67900002
-0.091045722 0.066508576 0.67800003
-0.089754291 0.066508576 0.67800003
-0.088071436 0.066214293 0.67500001
-0.086785719 0.066214293 0.67500001
-0.085500002 0.066214293 0.67500001
-0.084089532 0.066116191 0.67400002
-0.082805723 0.066116191 0.67400002
-0.081521913 0.066116191 0.67400002
-0.080238104 0.066116191 0.67400002
-0.078954294 0.066116191 0.67400002
-0.077670485 0.066116191 0.67400002
-0.076160006 0.065920003 0.67200005
-0.074880004 0.065920003 0.67200005
-0.073600002 0.065920003 0.67200005
-0.072212383 0.065821908 0.671
-0.070934288 0.065821908 0.671
-0.069656193 0.065821908 0.671
-0.068276197 0.065723814 0.67000002
-0.067000002 0.065723814 0.67000002
-0.06562572 0.06562572 0.66900003
-0.064351432 0.06562572 0.66900003
-0.063077144 0.06562572 0.66900003
-0.061618101 0.065429531 0.66700006
-0.060347624 0.065429531 0.66700006
-0.059077147 0.065429531 0.66700006
-0.057720006 0.065331429 0.66600001
-0.056451432 0.065331429 0.66600001
-0.055182859 0.065331429 0.66600001
-0.05391429 0.065331429 0.66600001
-0.052645717 0.065331429 0.66600001
-0.051300004 0.065233335 0.66500002
-0.050033338 0.065233335 0.66500002
-0.048766669 0.065233335 0.66500002
-0.047357146 0.065037146 0.66300005
-0.046094287 0.065037146 0.66300005
-0.044831432 0.065037146 0.66300005
-0.043568574 0.065037146 0.66300005
-0.042241909 0.064939052 0.66200006
-0.040980954 0.064939052 0.66200006
-0.039720003 0.064939052 0.66200006
-0.038459051 0.064939052 0.66200006
-0.037141908 0.064840958 0.66100001
-0.03588286 0.064840958 0.66100001
-0.034623813 0.064840958 0.66100001
-0.033314288 0.064742863 0.66000003
-0.032057144 0.064742863 0.66000003
-0.030706668 0.064546674 0.65800005
-0.02954286 0.064742863 0.66000003
-0.028200002 0.064546674 0.65800005
-0.026946668 0.064546674 0.65800005
-0.025693335 0.064546674 0.65800005
-0.024440002 0.064546674 0.65800005
-0.023186669 0.064546674 0.65800005
-0.021933334 0.064546674 0.65800005
-0.020648573 0.064448573 0.65700001
-0.019397143 0.064448573 0.65700001
-0.018118097 0.064350478 0.65600002
-0.016868573 0.064350478 0.65600002
-0.015595239 0.064252384 0.65500003
-0.01434762 0.064252384 0.65500003
-0.013100001 0.064252384 0.65500003
-0.011852382 0.064252384 0.65500003
-0.010604762 0.064252384 0.65500003
-0.0093571432 0.064252384 0.65500003
-0.0081095239 0.064252384 0.65500003
-0.0068409527 0.064056195 0.65300006
-0.0055971434 0.064056195 0.65300006
-0.0043533337 0.064056195 0.65300006
-0.003109524 0.064056195 0.65300006
-0.0018657144 0.064056195 0.65300006
-0.0006209524 0.063958101 0.65200001
0.0006209524 0.063958101 0.65200001
0.0018628573 0.063958101 0.65200001
0.0031047622 0.063958101 0.65200001
0.0043466669 0.063958101 0.65200001
0.0055800006 0.063860007 0.65100002
0.0068200002 0.063860007 0.65100002
0.0080476198 0.063761912 0.65000004
0.0092857145 0.063761912 0.65000004
0.01052381 0.063761912 0.65000004
0.011725715 0.063565716 0.648
0.012940001 0.063467622 0.64700001
0.014150477 0.063369527 0.64600003
-0.10282001 0.067900002 0.67900002
-0.10152667 0.067900002 0.67900002
-0.10023334 0.067900002 0.67900002
-0.098940007 0.067900002 0.67900002
-0.097646676 0.067900002 0.67900002
-0.096353337 0.067900002 0.67900002
-0.095060006 0.067900002 0.67900002
-0.093628578 0.067800008 0.67800003
-0.092337146 0.067800008 0.67800003
-0.090777151 0.067600004 0.67600006
-0.089489527 0.067600004 0.67600006
-0.087940961 0.067400001 0.67400002
-0.086657152 0.067400001 0.67400002
-0.085373342 0.067400001 0.67400002
-0.084089532 0.067400001 0.67400002
-0.082560003 0.067200005 0.67200005
-0.081280008 0.067200005 0.67200005
-0.080000006 0.067200005 0.67200005
-0.078720003 0.067200005 0.67200005
-0.077440009 0.067200005 0.67200005
-0.076160006 0.067200005 0.67200005
-0.074768573 0.067100003 0.671
-0.073490478 0.067100003 0.671
-0.072212383 0.067100003 0.671
-0.070828579 0.067000002 0.67000002
-0.069552384 0.067000002 0.67000002
-0.068174288 0.066900007 0.66900003
-0.066900007 0.066900007 0.66900003
-0.065429531 0.066700004 0.66700006
-0.064159051 0.066700004 0.66700006
-0.062888578 0.066700004 0.66700006
-0.061525717 0.066600002 0.66600001
-0.060257148 0.066600002 0.66600001
-0.058900002 0.066500001 0.66500002
-0.057633337 0.066500001 0.66500002
-0.056366671 0.066500001 0.66500002
-0.055100005 0.066500001 0.66500002
-0.053833336 0.066500001 0.66500002
-0.05256667 0.066500001 0.66500002
-0.051145718 0.066300005 0.66300005
-0.049882859 0.066300005 0.66300005
-0.048620004 0.066300005 0.66300005
-0.047357146 0.066300005 0.66300005
-0.046024766 0.066200003 0.66200006
-0.044763811 0.066200003 0.66200006
-0.04350286 0.066200003 0.66200006
-0.042241909 0.066200003 0.66200006
-0.040919051 0.066100001 0.66100001
-0.039660003 0.066100001 0.66100001
-0.038400955 0.066100001 0.66100001
-0.037141908 0.066100001 0.66100001
-0.03588286 0.066100001 0.66100001
-0.034571432 0.066000007 0.66000003
-0.033314288 0.066000007 0.66000003
-0.031960003 0.065800004 0.65800005
-0.030706668 0.065800004 0.65800005
-0.029453335 0.065800004 0.65800005
-0.028200002 0.065800004 0.65800005
-0.026946668 0.065800004 0.65800005
-0.025654288 0.065700002 0.65700001
-0.024402859 0.065700002 0.65700001
-0.023151429 0.065700002 0.65700001
-0.021866668 0.065600008 0.65600002
-0.020617144 0.065600008 0.65600002
-0.019338097 0.065500006 0.65500003
-0.018090477 0.065500006 0.65500003
-0.016868573 0.065600008 0.65600002
-0.015595239 0.065500006 0.65500003
-0.01434762 0.065500006 0.65500003
-0.013060001 0.065300003 0.65300006
-0.011816191 0.065300003 0.65300006
-0.010572381 0.065300003 0.65300006
-0.0093571432 0.065500006 0.65500003
-0.0080847628 0.065300003 0.65300006
-0.0068409527 0.065300003 0.65300006
-0.0055971434 0.065300003 0.65300006
-0.0043533337 0.065300003 0.65300006
-0.003109524 0.065300003 0.65300006
-0.0018628573 0.065200001 0.65200001
-0.0006209524 0.065200001 0.65200001
0.0006209524 0.065200001 0.65200001
0.0018628573 0.065200001 0.65200001
0.0031000001 0.065100007 0.65100002
0.0043333336 0.065000005 0.65000004
0.0055714292 0.065000005 0.65000004
0.0068095243 0.065000005 0.65000004
0.0080476198 0.065000005 0.65000004
0.0092571434 0.064800002 0.648
0.010491429 0.064800002 0.648
0.011725715 0.064800002 0.648
0.012940001 0.064700007 0.64700001
0.014172382 0.064700007 0.64700001
-0.10411334 0.069193341 0.67900002
-0.10282001 0.069193341 0.67900002
-0.10152667 0.069193341 0.67900002
-0.10023334 0.069193341 0.67900002
-0.098794289 0.069091432 0.67800003
-0.097502865 0.069091432 0.67800003
-0.096211433 0.069091432 0.67800003
-0.094920009 0.069091432 0.67800003
-0.093352385 0.068887621 0.67600006
-0.092064768 0.068887621 0.67600006
-0.090642862 0.06878572 0.67500001
-0.089357145 0.06878572 0.67500001
-0.087940961 0.068683811 0.67400002
-0.086657152 0.068683811 0.67400002
-0.085120007 0.068480007 0.67200005
-0.083840005 0.068480007 0.67200005
-0.082560003 0.068480007 0.67200005
-0.081280008 0.068480007 0.67200005
-0.080000006 0.068480007 0.67200005
-0.078720003 0.068480007 0.67200005
-0.07732477 0.068378098 0.671
-0.076046668 0.068378098 0.671
-0.07465715 0.068276197 0.67000002
-0.073380955 0.068276197 0.67000002
-0.072104767 0.068276197 0.67000002
-0.070722863 0.068174288 0.66900003
-0.069448575 0.068174288 0.66900003
-0.068174288 0.068174288 0.66900003
-0.066700004 0.067970477 0.66700006
-0.065429531 0.067970477 0.66700006
-0.064159051 0.067970477 0.66700006
-0.06279429 0.067868575 0.66600001
-0.061433338 0.067766674 0.66500002
-0.060166672 0.067766674 0.66500002
-0.058900002 0.067766674 0.66500002
-0.057633337 0.067766674 0.66500002
-0.056197148 0.067562863 0.66300005
-0.054934289 0.067562863 0.66300005
-0.053671431 0.067562863 0.66300005
-0.052408576 0.067562863 0.66300005
-0.051145718 0.067562863 0.66300005
-0.049882859 0.067562863 0.66300005
-0.048620004 0.067562863 0.66300005
-0.047285717 0.067460954 0.66200006
-0.046024766 0.067460954 0.66200006
-0.044763811 0.067460954 0.66200006
-0.04350286 0.067460954 0.66200006
-0.042178098 0.067359053 0.66100001
-0.040919051 0.067359053 0.66100001
-0.039660003 0.067359053 0.66100001
-0.038400955 0.067359053 0.66100001
-0.037141908 0.067359053 0.66100001
-0.035828575 0.067257144 0.66000003
-0.034571432 0.067257144 0.66000003
-0.033213336 0.06705334 0.65800005
-0.031960003 0.06705334 0.65800005
-0.030660002 0.066951431 0.65700001
-0.029453335 0.06705334 0.65800005
-0.028200002 0.06705334 0.65800005
-0.026905715 0.066951431 0.65700001
-0.025654288 0.066951431 0.65700001
-0.024365716 0.06684953 0.65600002
-0.023116192 0.06684953 0.65600002
-0.021866668 0.06684953 0.65600002
-0.020585716 0.066747621 0.65500003
-0.019338097 0.066747621 0.65500003
-0.018090477 0.066747621 0.65500003
-0.016842859 0.066747621 0.65500003
-0.01554762 0.066543818 0.65300006
-0.014303811 0.066543818 0.65300006
-0.013060001 0.066543818 0.65300006
-0.011816191 0.066543818 0.65300006
-0.010572381 0.066543818 0.65300006
-0.0093285721 0.066543818 0.65300006
-0.0080847628 0.066543818 0.65300006
-0.0068409527 0.066543818 0.65300006
-0.005588572 0.066441908 0.65200001
-0.0043466669 0.066441908 0.65200001
-0.0031047622 0.066441908 0.65200001
-0.0018628573 0.066441908 0.65200001
-0.0006209524 0.066441908 0.65200001
0.0006209524 0.066441908 0.65200001
0.0018628573 0.066441908 0.65200001
0.0031000001 0.066340007 0.65100002
0.0043333336 0.066238098 0.65000004
0.0055714292 0.066238098 0.65000004
0.0067885718 0.066034287 0.648
0.0080228578 0.066034287 0.648
0.0092571434 0.066034287 0.648
0.010491429 0.066034287 0.648
0.01170762 0.065932386 0.64700001
0.012920001 0.065830484 0.64600003
0.014128572 0.065728575 0.64500004
0.015357144 0.065728575 0.64500004
-0.10396001 0.070382863 0.67800003
-0.10266858 0.070382863 0.67800003
-0.10137715 0.070382863 0.67800003
-0.10008572 0.070382863 0.67800003
-0.098794289 0.070382863 0.67800003
-0.097502865 0.070382863 0.67800003
-0.095927626 0.070175245 0.67600006
-0.094640009 0.070175245 0.67600006
-0.093214288 0.070071436 0.67500001
-0.091928579 0.070071436 0.67500001
-0.090642862 0.070071436 0.67500001
-0.089224771 0.06996762 0.67400002
-0.087680005 0.069760002 0.67200005
-0.086400002 0.069760002 0.67200005
-0.085120007 0.069760002 0.67200005
-0.083715245 0.069656193 0.671
-0.08243715 0.069656193 0.671
-0.081159055 0.069656193 0.671
-0.07988096 0.069656193 0.671
-0.078602865 0.069656193 0.671
-0.07732477 0.069656193 0.671
-0.075933337 0.069552384 0.67000002
-0.074545719 0.069448575 0.66900003
-0.073271431 0.069448575 0.66900003
-0.071997151 0.069448575 0.66900003
-0.070722863 0.069448575 0.66900003
-0.069240957 0.069240957 0.66700006
-0.067970477 0.069240957 0.66700006
-0.066600002 0.069137149 0.66600001
-0.065331429 0.069137149 0.66600001
-0.064062864 0.069137149 0.66600001
-0.062700003 0.06903334 0.66500002
-0.061433338 0.06903334 0.66500002
-0.05998572 0.068825722 0.66300005
-0.058722861 0.068825722 0.66300005
-0.057460003 0.068825722 0.66300005
-0.056197148 0.068825722 0.66300005
-0.054934289 0.068825722 0.66300005
-0.053671431 0.068825722 0.66300005
-0.052329529 0.068721913 0.66200006
-0.051068574 0.068721913 0.66200006
-0.049807623 0.068721913 0.66200006
-0.048546668 0.068721913 0.66200006
-0.047285717 0.068721913 0.66200006
-0.046024766 0.068721913 0.66200006
-0.044696193 0.068618096 0.66100001
-0.043437146 0.068618096 0.66100001
-0.042178098 0.068618096 0.66100001
-0.040857144 0.068514287 0.66000003
-0.039600004 0.068514287 0.66000003
-0.03834286 0.068514287 0.66000003
-0.037085716 0.068514287 0.66000003
-0.035720002 0.06830667 0.65800005
-0.034466669 0.06830667 0.65800005
-0.033213336 0.06830667 0.65800005
-0.031911429 0.068202861 0.65700001
-0.030660002 0.068202861 0.65700001
-0.029408574 0.068202861 0.65700001
-0.028157145 0.068202861 0.65700001
-0.026864763 0.068099052 0.65600002
-0.02561524 0.068099052 0.65600002
-0.024365716 0.068099052 0.65600002
-0.023116192 0.068099052 0.65600002
-0.021833334 0.067995243 0.65500003
-0.020585716 0.067995243 0.65500003
-0.019338097 0.067995243 0.65500003
-0.018090477 0.067995243 0.65500003
-0.016842859 0.067995243 0.65500003
-0.01554762 0.067787625 0.65300006
-0.014303811 0.067787625 0.65300006
-0.013060001 0.067787625 0.65300006
-0.011816191 0.067787625 0.65300006
-0.010572381 0.067787625 0.65300006
-0.0093285721 0.067787625 0.65300006
-0.0080847628 0.067787625 0.65300006
-0.0068304767 0.067683816 0.65200001
-0.005588572 0.067683816 0.65200001
-0.0043466669 0.067683816 0.65200001
-0.0031047622 0.067683816 0.65200001
-0.0018628573 0.067683816 0.65200001
-0.00062000006 0.067580007 0.65100002
0.00062000006 0.067580007 0.65100002
0.0018600001 0.067580007 0.65100002
0.0031000001 0.067580007 0.65100002
0.0043333336 0.067476198 0.65000004
0.0055714292 0.067476198 0.65000004
0.0067885718 0.067268573 0.648
0.0080228578 0.067268573 0.648
0.0092571434 0.067268573 0.648
0.010491429 0.067268573 0.648
0.01170762 0.067164764 0.64700001
0.0129 0.066957146 0.64500004
0.014106668 0.066853337 0.64400005
-0.10396001 0.071674287 0.67800003
-0.10266858 0.071674287 0.67800003
-0.1010781 0.071462862 0.67600006
-0.099790484 0.071462862 0.67600006
-0.098502867 0.071462862 0.67600006
-0.097215243 0.071462862 0.67600006
-0.095785722 0.071357146 0.67500001
-0.094500005 0.071357146 0.67500001
-0.093214288 0.071357146 0.67500001
-0.091928579 0.071357146 0.67500001
-0.09050858 0.07125143 0.67400002
-0.089224771 0.07125143 0.67400002
-0.087680005 0.071040004 0.67200005
-0.086271435 0.070934288 0.671
-0.08499334 0.070934288 0.671
-0.083715245 0.070934288 0.671
-0.08231429 0.070828579 0.67000002
-0.081038103 0.070828579 0.67000002
-0.079761907 0.070828579 0.67000002
-0.07848572 0.070828579 0.67000002
-0.077094294 0.070722863 0.66900003
-0.075820006 0.070722863 0.66900003
-0.074322864 0.070511431 0.66700006
-0.073052384 0.070511431 0.66700006
-0.071781911 0.070511431 0.66700006
-0.070511431 0.070511431 0.66700006
-0.069240957 0.070511431 0.66700006
-0.067970477 0.070511431 0.66700006
-0.066600002 0.070405722 0.66600001
-0.065331429 0.070405722 0.66600001
-0.063966669 0.070300005 0.66500002
-0.062700003 0.070300005 0.66500002
-0.061248574 0.070088573 0.66300005
-0.05998572 0.070088573 0.66300005
-0.058722861 0.070088573 0.66300005
-0.057460003 0.070088573 0.66300005
-0.056112386 0.069982864 0.66200006
-0.054851431 0.069982864 0.66200006
-0.05359048 0.069982864 0.66200006
-0.052329529 0.069982864 0.66200006
-0.051068574 0.069982864 0.66200006
-0.049807623 0.069982864 0.66200006
-0.048473336 0.069877148 0.66100001
-0.047214288 0.069877148 0.66100001
-0.045955241 0.069877148 0.66100001
-0.044628575 0.069771431 0.66000003
-0.043371432 0.069771431 0.66000003
-0.042114288 0.069771431 0.66000003
-0.040857144 0.069771431 0.66000003
-0.039480001 0.069560006 0.65800005
-0.038226668 0.069560006 0.65800005
-0.036973335 0.069560006 0.65800005
-0.035720002 0.069560006 0.65800005
-0.034466669 0.069560006 0.65800005
-0.033213336 0.069560006 0.65800005
-0.031911429 0.06945429 0.65700001
-0.030660002 0.06945429 0.65700001
-0.029408574 0.06945429 0.65700001
-0.028114287 0.069348574 0.65600002
-0.026864763 0.069348574 0.65600002
-0.025576193 0.069242865 0.65500003
-0.024328573 0.069242865 0.65500003
-0.023080954 0.069242865 0.65500003
-0.021833334 0.069242865 0.65500003
-0.020585716 0.069242865 0.65500003
-0.019338097 0.069242865 0.65500003
-0.018090477 0.069242865 0.65500003
-0.016842859 0.069242865 0.65500003
-0.01554762 0.069031432 0.65300006
-0.014303811 0.069031432 0.65300006
-0.013060001 0.069031432 0.65300006
-0.011816191 0.069031432 0.65300006
-0.010572381 0.069031432 0.65300006
-0.0093285721 0.069031432 0.65300006
-0.0080847628 0.069031432 0.65300006
-0.0068304767 0.068925716 0.65200001
-0.005588572 0.068925716 0.65200001
-0.0043466669 0.068925716 0.65200001
-0.0031047622 0.068925716 0.65200001
-0.0018600001 0.068820007 0.65100002
-0.00062000006 0.068820007 0.65100002
0.00062000006 0.068820007 0.65100002
0.0018600001 0.068820007 0.65100002
0.0031000001 0.068820007 0.65100002
0.0043333336 0.068714291 0.65000004
0.0055542863 0.068502858 0.648
0.0067885718 0.068502858 0.648
0.0080228578 0.068502858 0.648
0.0092571434 0.068502858 0.648
0.010475239 0.068397149 0.64700001
0.01170762 0.068397149 0.64700001
0.0129 0.068185717 0.64500004
0.014106668 0.068080008 0.64400005
0.015333334 0.068080008 0.64400005
-0.10350001 0.072642863 0.67500001
-0.10221429 0.072642863 0.67500001
-0.10077906 0.072535239 0.67400002
-0.099495247 0.072535239 0.67400002
-0.098211437 0.072535239 0.67400002
-0.096927628 0.072535239 0.67400002
-0.095643818 0.072535239 0.67400002
-0.094360009 0.072535239 0.67400002
-0.093076199 0.072535239 0.67400002
-0.091520004 0.072320007 0.67200005
-0.09010572 0.072212383 0.671
-0.088827625 0.072212383 0.671
-0.087419055 0.072104767 0.67000002
-0.086014293 0.071997151 0.66900003
-0.084740005 0.071997151 0.66900003
-0.083465718 0.071997151 0.66900003
-0.082191437 0.071997151 0.66900003
-0.08091715 0.071997151 0.66900003
-0.079642862 0.071997151 0.66900003
-0.078134291 0.071781911 0.66700006
-0.076863818 0.071781911 0.66700006
-0.075593337 0.071781911 0.66700006
-0.074322864 0.071781911 0.66700006
-0.073052384 0.071781911 0.66700006
-0.071674287 0.071674287 0.66600001
-0.070511431 0.071781911 0.66700006
-0.069137149 0.071674287 0.66600001
-0.067766674 0.071566671 0.66500002
-0.066500001 0.071566671 0.66500002
-0.065037146 0.071351431 0.66300005
-0.063774288 0.071351431 0.66300005
-0.062511429 0.071351431 0.66300005
-0.061248574 0.071351431 0.66300005
-0.05998572 0.071351431 0.66300005
-0.058634289 0.071243815 0.66200006
-0.057373337 0.071243815 0.66200006
-0.056112386 0.071243815 0.66200006
-0.054851431 0.071243815 0.66200006
-0.05359048 0.071243815 0.66200006
-0.052250478 0.071136191 0.66100001
-0.050991431 0.071136191 0.66100001
-0.049657147 0.071028575 0.66000003
-0.048400003 0.071028575 0.66000003
-0.04714286 0.071028575 0.66000003
-0.045885716 0.071028575 0.66000003
-0.044493336 0.070813335 0.65800005
-0.043240003 0.070813335 0.65800005
-0.04198667 0.070813335 0.65800005
-0.040733337 0.070813335 0.65800005
-0.039480001 0.070813335 0.65800005
-0.038226668 0.070813335 0.65800005
-0.036917146 0.070705719 0.65700001
-0.035665717 0.070705719 0.65700001
-0.034414288 0.070705719 0.65700001
-0.033162858 0.070705719 0.65700001
-0.031862859 0.070598103 0.65600002
-0.030613335 0.070598103 0.65600002
-0.02931905 0.070490479 0.65500003
-0.02807143 0.070490479 0.65500003
-0.026823811 0.070490479 0.65500003
-0.025498098 0.07027524 0.65300006
-0.024328573 0.070490479 0.65500003
-0.023080954 0.070490479 0.65500003
-0.021766668 0.07027524 0.65300006
-0.020522859 0.07027524 0.65300006
-0.01927905 0.07027524 0.65300006
-0.018035239 0.07027524 0.65300006
-0.016791429 0.07027524 0.65300006
-0.01554762 0.07027524 0.65300006
-0.014303811 0.07027524 0.65300006
-0.013060001 0.07027524 0.65300006
-0.011798096 0.070167623 0.65200001
-0.010556191 0.070167623 0.65200001
-0.0093142865 0.070167623 0.65200001
-0.0080723818 0.070167623 0.65200001
-0.0068200002 0.070060007 0.65100002
-0.0055800006 0.070060007 0.65100002
-0.0043400005 0.070060007 0.65100002
-0.0031000001 0.070060007 0.65100002
-0.0018600001 0.070060007 0.65100002
-0.00061904767 0.069952384 0.65000004
0.00061904767 0.069952384 0.65000004
0.001857143 0.069952384 0.65000004
0.0030952382 0.069952384 0.65000004
0.0043333336 0.069952384 0.65000004
0.0055542863 0.069737144 0.648
0.0067885718 0.069737144 0.648
0.0080104768 0.069629528 0.64700001
0.0092428578 0.069629528 0.64700001
0.010475239 0.069629528 0.64700001
0.01170762 0.069629528 0.64700001
0.0129 0.069414288 0.64500004
0.014128572 0.069414288 0.64500004
0.015357144 0.069414288 0.64500004
-0.10463049 0.073819056 0.67400002
-0.10334668 0.073819056 0.67400002
-0.10206287 0.073819056 0.67400002
-0.10077906 0.073819056 0.67400002
-0.099495247 0.073819056 0.67400002
-0.097920008 0.073600002 0.67200005
-0.096640006 0.073600002 0.67200005
-0.095360003 0.073600002 0.67200005
-0.094080009 0.073600002 0.67200005
-0.092800006 0.073600002 0.67200005
-0.091520004 0.073600002 0.67200005
-0.09010572 0.073490478 0.671
-0.088827625 0.073490478 0.671
-0.087419055 0.073380955 0.67000002
-0.086014293 0.073271431 0.66900003
-0.084740005 0.073271431 0.66900003
-0.083465718 0.073271431 0.66900003
-0.082191437 0.073271431 0.66900003
-0.08091715 0.073271431 0.66900003
-0.079404764 0.073052384 0.66700006
-0.078134291 0.073052384 0.66700006
-0.076863818 0.073052384 0.66700006
-0.075593337 0.073052384 0.66700006
-0.074211434 0.07294286 0.66600001
-0.07294286 0.07294286 0.66600001
-0.071674287 0.07294286 0.66600001
-0.070405722 0.07294286 0.66600001
-0.06903334 0.072833337 0.66500002
-0.067766674 0.072833337 0.66500002
-0.066300005 0.07261429 0.66300005
-0.065037146 0.07261429 0.66300005
-0.063774288 0.07261429 0.66300005
-0.062511429 0.07261429 0.66300005
-0.061248574 0.07261429 0.66300005
-0.059895243 0.072504766 0.66200006
-0.058634289 0.072504766 0.66200006
-0.057373337 0.072504766 0.66200006
-0.056027621 0.072395243 0.66100001
-0.054768573 0.072395243 0.66100001
-0.053509526 0.072395243 0.66100001
-0.052171431 0.072285719 0.66000003
-0.050914288 0.072285719 0.66000003
-0.049657147 0.072285719 0.66000003
-0.048400003 0.072285719 0.66000003
-0.047000002 0.072066672 0.65800005
-0.045746669 0.072066672 0.65800005
-0.044493336 0.072066672 0.65800005
-0.043240003 0.072066672 0.65800005
-0.04192286 0.071957149 0.65700001
-0.040671431 0.071957149 0.65700001
-0.039420001 0.071957149 0.65700001
-0.038168576 0.071957149 0.65700001
-0.036917146 0.071957149 0.65700001
-0.035665717 0.071957149 0.65700001
-0.034414288 0.071957149 0.65700001
-0.033162858 0.071957149 0.65700001
-0.031814288 0.071738102 0.65500003
-0.030613335 0.071847625 0.65600002
-0.02931905 0.071738102 0.65500003
-0.027985716 0.071519054 0.65300006
-0.026741907 0.071519054 0.65300006
-0.025498098 0.071519054 0.65300006
-0.024254287 0.071519054 0.65300006
-0.023010477 0.071519054 0.65300006
-0.021766668 0.071519054 0.65300006
-0.020522859 0.071519054 0.65300006
-0.01927905 0.071519054 0.65300006
-0.018035239 0.071519054 0.65300006
-0.016791429 0.071519054 0.65300006
-0.01554762 0.071519054 0.65300006
-0.014281905 0.071409531 0.65200001
-0.013040001 0.071409531 0.65200001
-0.011798096 0.071409531 0.65200001
-0.010556191 0.071409531 0.65200001
-0.0093142865 0.071409531 0.65200001
-0.0080600008 0.071300007 0.65100002
-0.0068200002 0.071300007 0.65100002
-0.0055800006 0.071300007 0.65100002
-0.0043400005 0.071300007 0.65100002
-0.0031000001 0.071300007 0.65100002
-0.001857143 0.071190484 0.65000004
-0.00061904767 0.071190484 0.65000004
0.00061904767 0.071190484 0.65000004
0.001857143 0.071190484 0.65000004
0.0030952382 0.071190484 0.65000004
0.0043200003 0.070971437 0.648
0.0055542863 0.070971437 0.648
0.0067885718 0.070971437 0.648
0.0080228578 0.070971437 0.648
0.0092428578 0.070861906 0.64700001
0.010475239 0.070861906 0.64700001
0.01170762 0.070861906 0.64700001
0.012920001 0.070752382 0.64600003
0.014150477 0.070752382 0.64600003
0.015357144 0.070642859 0.64500004
-0.10560001 0.074880004 0.67200005
-0.10463049 0.075102866 0.67400002
-0.10334668 0.075102866 0.67400002
-0.10206287 0.075102866 0.67400002
-0.10048001 0.074880004 0.67200005
-0.099200003 0.074880004 0.67200005
-0.097920008 0.074880004 0.67200005
-0.096496195 0.074768573 0.671
-0.095360003 0.074880004 0.67200005
-0.093940005 0.074768573 0.671
-0.09266191 0.074768573 0.671
-0.091383815 0.074768573 0.671
-0.089971438 0.07465715 0.67000002
-0.088695243 0.07465715 0.67000002
-0.087288581 0.074545719 0.66900003
-0.086014293 0.074545719 0.66900003
-0.084740005 0.074545719 0.66900003
-0.083465718 0.074545719 0.66900003
-0.082191437 0.074545719 0.66900003
-0.080675244 0.074322864 0.66700006
-0.079404764 0.074322864 0.66700006
-0.078134291 0.074322864 0.66700006
-0.07674858 0.074211434 0.66600001
-0.075480007 0.074211434 0.66600001
-0.074211434 0.074211434 0.66600001
-0.07294286 0.074211434 0.66600001
-0.071566671 0.074100003 0.66500002
-0.070405722 0.074211434 0.66600001
-0.06903334 0.074100003 0.66500002
-0.067766674 0.074100003 0.66500002
-0.066300005 0.073877148 0.66300005
-0.065037146 0.073877148 0.66300005
-0.063774288 0.073877148 0.66300005
-0.062511429 0.073877148 0.66300005
-0.061248574 0.073877148 0.66300005
-0.059895243 0.073765717 0.66200006
-0.058634289 0.073765717 0.66200006
-0.057373337 0.073765717 0.66200006
-0.056027621 0.073654294 0.66100001
-0.054768573 0.073654294 0.66100001
-0.053509526 0.073654294 0.66100001
-0.052171431 0.073542863 0.66000003
-0.050914288 0.073542863 0.66000003
-0.049506672 0.073320001 0.65800005
-0.048253335 0.073320001 0.65800005
-0.047000002 0.073320001 0.65800005
-0.045746669 0.073320001 0.65800005
-0.044425718 0.073208578 0.65700001
-0.043174289 0.073208578 0.65700001
-0.04192286 0.073208578 0.65700001
-0.040671431 0.073208578 0.65700001
-0.039420001 0.073208578 0.65700001
-0.038168576 0.073208578 0.65700001
-0.036917146 0.073208578 0.65700001
-0.035665717 0.073208578 0.65700001
-0.034414288 0.073208578 0.65700001
-0.033112384 0.073097147 0.65600002
-0.031814288 0.072985716 0.65500003
-0.030566668 0.072985716 0.65500003
-0.02931905 0.072985716 0.65500003
-0.027985716 0.072762862 0.65300006
-0.026741907 0.072762862 0.65300006
-0.025498098 0.072762862 0.65300006
-0.024254287 0.072762862 0.65300006
-0.023010477 0.072762862 0.65300006
-0.021766668 0.072762862 0.65300006
-0.020522859 0.072762862 0.65300006
-0.01927905 0.072762862 0.65300006
-0.018035239 0.072762862 0.65300006
-0.016791429 0.072762862 0.65300006
-0.01554762 0.072762862 0.65300006
