# .PCD v0.7 - Point Cloud Data file format
VERSION 0.7
FIELDS x y z
SIZE 4 4 4
TYPE F F F
COUNT 1 1 1
WIDTH 1351
HEIGHT 1
VIEWPOINT 0 0 0 1 0 0 0
POINTS 1351
DATA ascii
0.01927905 0.052861907 0.65300006
0.020617144 0.053104766 0.65600002
0.021866668 0.053104766 0.65600002
0.023116192 0.053104766 0.65600002
0.024402859 0.053185716 0.65700001
0.025654288 0.053185716 0.65700001
-0.033112384 0.054354288 0.65600002
-0.031717144 0.054105718 0.65300006
-0.030566668 0.054271434 0.65500003
-0.029229525 0.054105718 0.65300006
-0.027942859 0.05402286 0.65200001
-0.026660001 0.053940002 0.65100002
-0.025380954 0.053857148 0.65000004
-0.024068573 0.053691432 0.648
-0.022728574 0.053442862 0.64500004
-0.021500001 0.053442862 0.64500004
-0.020240001 0.053360004 0.64400005
-0.019013334 0.053360004 0.64400005
-0.01773143 0.053194288 0.64200002
-0.016482858 0.05311143 0.64100003
-0.015238096 0.053028576 0.64000005
-0.014019049 0.053028576 0.64000005
-0.012800001 0.053028576 0.64000005
-0.011562858 0.052945718 0.63900006
-0.010345715 0.052945718 0.63900006
-0.0091285724 0.052945718 0.63900006
-0.0079114288 0.052945718 0.63900006
-0.0066942861 0.052945718 0.63900006
-0.005477143 0.052945718 0.63900006
-0.0042600003 0.052945718 0.63900006
-0.0030428574 0.052945718 0.63900006
-0.0018257144 0.052945718 0.63900006
-0.00060952385 0.053028576 0.64000005
0.00060952385 0.053028576 0.64000005
0.0018285715 0.053028576 0.64000005
0.0030523811 0.05311143 0.64100003
0.0042733336 0.05311143 0.64100003
0.0054942863 0.05311143 0.64100003
0.0067257145 0.053194288 0.64200002
0.0079485718 0.053194288 0.64200002
0.0091714291 0.053194288 0.64200002
0.010426668 0.053360004 0.64400005
0.011653334 0.053360004 0.64400005
0.0129 0.053442862 0.64500004
0.014128572 0.053442862 0.64500004
0.015404763 0.053608574 0.64700001
0.016714286 0.053857148 0.65000004
0.017980002 0.053940002 0.65100002
0.01927905 0.054105718 0.65300006
0.020617144 0.054354288 0.65600002
0.021900002 0.054437146 0.65700001
0.023151429 0.054437146 0.65700001
0.024440002 0.054520003 0.65800005
0.025693335 0.054520003 0.65800005
-0.034466669 0.055773336 0.65800005
-0.033112384 0.055603813 0.65600002
-0.031814288 0.055519052 0.65500003
-0.030613335 0.055603813 0.65600002
-0.02931905 0.055519052 0.65500003
-0.027985716 0.055349529 0.65300006
-0.026700955 0.055264767 0.65200001
-0.025420001 0.055180002 0.65100002
-0.024068573 0.054925717 0.648
-0.022763811 0.054756194 0.64600003
-0.021500001 0.054671433 0.64500004
-0.020240001 0.054586671 0.64400005
-0.019013334 0.054586671 0.64400005
-0.017786669 0.054586671 0.64400005
-0.016508572 0.054417148 0.64200002
-0.015261906 0.054332383 0.64100003
-0.014019049 0.054247621 0.64000005
-0.012800001 0.054247621 0.64000005
-0.011580953 0.054247621 0.64000005
-0.010345715 0.05416286 0.63900006
-0.0091285724 0.05416286 0.63900006
-0.0079238098 0.054247621 0.64000005
-0.0066942861 0.05416286 0.63900006
-0.005477143 0.05416286 0.63900006
-0.0042666672 0.054247621 0.64000005
-0.0030476192 0.054247621 0.64000005
-0.0018285715 0.054247621 0.64000005
-0.00060952385 0.054247621 0.64000005
0.00060952385 0.054247621 0.64000005
0.0018314287 0.054332383 0.64100003
0.0030523811 0.054332383 0.64100003
0.0042733336 0.054332383 0.64100003
0.0054942863 0.054332383 0.64100003
0.0067257145 0.054417148 0.64200002
0.0079485718 0.054417148 0.64200002
0.0092000002 0.054586671 0.64400005
0.010426668 0.054586671 0.64400005
0.011671429 0.054671433 0.64500004
0.0129 0.054671433 0.64500004
0.014150477 0.054756194 0.64600003
0.015428573 0.054925717 0.648
0.016714286 0.05509524 0.65000004
0.017980002 0.055180002 0.65100002
0.01927905 0.055349529 0.65300006
0.020648573 0.055688575 0.65700001
0.021900002 0.055688575 0.65700001
0.023186669 0.055773336 0.65800005
0.024440002 0.055773336 0.65800005
0.02577143 0.05594286 0.66000003
-0.034466669 0.057026669 0.65800005
-0.033162858 0.056940004 0.65700001
-0.031814288 0.05676667 0.65500003
-0.030613335 0.056853335 0.65600002
-0.02931905 0.05676667 0.65500003
-0.027985716 0.056593336 0.65300006
-0.026700955 0.056506671 0.65200001
-0.025420001 0.056420002 0.65100002
-0.02414286 0.056333337 0.65000004
-0.022763811 0.055986669 0.64600003
-0.021500001 0.055900004 0.64500004
-0.02027143 0.055900004 0.64500004
-0.019013334 0.055813339 0.64400005
-0.017786669 0.055813339 0.64400005
-0.016508572 0.055640005 0.64200002
-0.015285715 0.055640005 0.64200002
-0.014040953 0.055553336 0.64100003
-0.012820001 0.055553336 0.64100003
-0.011580953 0.055466671 0.64000005
-0.010361905 0.055466671 0.64000005
-0.009142858 0.055466671 0.64000005
-0.0079238098 0.055466671 0.64000005
-0.0067047626 0.055466671 0.64000005
-0.0054857144 0.055466671 0.64000005
-0.0042666672 0.055466671 0.64000005
-0.0030476192 0.055466671 0.64000005
-0.0018285715 0.055466671 0.64000005
-0.00061047624 0.055553336 0.64100003
0.00061047624 0.055553336 0.64100003
0.0018314287 0.055553336 0.64100003
0.0030523811 0.055553336 0.64100003
0.0042800005 0.055640005 0.64200002
0.0055028577 0.055640005 0.64200002
0.006746667 0.055813339 0.64400005
0.0079733338 0.055813339 0.64400005
0.0092000002 0.055813339 0.64400005
0.010426668 0.055813339 0.64400005
0.011671429 0.055900004 0.64500004
0.012920001 0.055986669 0.64600003
0.014150477 0.055986669 0.64600003
0.015428573 0.056160003 0.648
0.016714286 0.056333337 0.65000004
0.017980002 0.056420002 0.65100002
0.01927905 0.056593336 0.65300006
0.020648573 0.056940004 0.65700001
0.021933334 0.057026669 0.65800005
0.023186669 0.057026669 0.65800005
0.024514288 0.057200003 0.66000003
0.025810478 0.057286669 0.66100001
0.13786002 0.068553336 0.79100001
0.14087334 0.068553336 0.79100001
0.14238001 0.068553336 0.79100001
0.14388667 0.068553336 0.79100001
0.14539334 0.068553336 0.79100001
-0.034466669 0.058280002 0.65800005
-0.033162858 0.058191434 0.65700001
-0.031862859 0.058102861 0.65600002
-0.030613335 0.058102861 0.65600002
-0.029363811 0.058102861 0.65600002
-0.02807143 0.058014289 0.65500003
-0.026700955 0.057748575 0.65200001
-0.025459049 0.057748575 0.65200001
-0.02414286 0.057571433 0.65000004
-0.022763811 0.057217147 0.64600003
-0.021500001 0.057128575 0.64500004
-0.02027143 0.057128575 0.64500004
-0.019013334 0.057040002 0.64400005
-0.017786669 0.057040002 0.64400005
-0.016560001 0.057040002 0.64400005
-0.015285715 0.056862861 0.64200002
-0.014062858 0.056862861 0.64200002
-0.012820001 0.056774288 0.64100003
-0.011599048 0.056774288 0.64100003
-0.010378096 0.056774288 0.64100003
-0.0091571435 0.056774288 0.64100003
-0.0079361908 0.056774288 0.64100003
-0.0067152386 0.056774288 0.64100003
-0.0054942863 0.056774288 0.64100003
-0.0042733336 0.056774288 0.64100003
-0.0030523811 0.056774288 0.64100003
-0.0018314287 0.056774288 0.64100003
-0.00061047624 0.056774288 0.64100003
0.00061047624 0.056774288 0.64100003
0.0018342858 0.056862861 0.64200002
0.003057143 0.056862861 0.64200002
0.0042800005 0.056862861 0.64200002
0.0055028577 0.056862861 0.64200002
0.006746667 0.057040002 0.64400005
0.0079733338 0.057040002 0.64400005
0.0092000002 0.057040002 0.64400005
0.010442858 0.057128575 0.64500004
0.011671429 0.057128575 0.64500004
0.012940001 0.05730572 0.64700001
0.014172382 0.05730572 0.64700001
0.015428573 0.057394288 0.648
0.016740002 0.057660002 0.65100002
0.017980002 0.057660002 0.65100002
0.01927905 0.057837147 0.65300006
0.020617144 0.058102861 0.65600002
0.021933334 0.058280002 0.65800005
0.023186669 0.058280002 0.65800005
0.024514288 0.058457147 0.66000003
0.025810478 0.05854572 0.66100001
-0.034571432 0.059714291 0.66000003
-0.033213336 0.059533339 0.65800005
-0.031960003 0.059533339 0.65800005
-0.030660002 0.059442863 0.65700001
-0.029363811 0.059352383 0.65600002
-0.02807143 0.059261907 0.65500003
-0.026741907 0.059080955 0.65300006
-0.025420001 0.058900002 0.65100002
-0.02414286 0.058809526 0.65000004
-0.022799049 0.058538098 0.64700001
-0.021533335 0.058447622 0.64600003
-0.02027143 0.058357146 0.64500004
-0.019042859 0.058357146 0.64500004
-0.017786669 0.05826667 0.64400005
-0.016560001 0.05826667 0.64400005
-0.015333334 0.05826667 0.64400005
-0.014106668 0.05826667 0.64400005
-0.012840001 0.058085717 0.64200002
-0.011617144 0.058085717 0.64200002
-0.010394286 0.058085717 0.64200002
-0.0091714291 0.058085717 0.64200002
-0.0079485718 0.058085717 0.64200002
-0.0067257145 0.058085717 0.64200002
-0.0055028577 0.058085717 0.64200002
-0.0042800005 0.058085717 0.64200002
-0.003057143 0.058085717 0.64200002
-0.0018342858 0.058085717 0.64200002
-0.00061142864 0.058085717 0.64200002
0.00061142864 0.058085717 0.64200002
0.0018400002 0.05826667 0.64400005
0.0030666669 0.05826667 0.64400005
0.0042933337 0.05826667 0.64400005
0.0055200006 0.05826667 0.64400005
0.006746667 0.05826667 0.64400005
0.0079857148 0.058357146 0.64500004
0.0092142867 0.058357146 0.64500004
0.010459049 0.058447622 0.64600003
0.01170762 0.058538098 0.64700001
0.012960001 0.058628574 0.648
0.014238096 0.058809526 0.65000004
0.015476191 0.058809526 0.65000004
0.016740002 0.058900002 0.65100002
0.018007619 0.058990479 0.65200001
0.019338097 0.059261907 0.65500003
0.020617144 0.059352383 0.65600002
0.022000002 0.059714291 0.66000003
0.023292383 0.059804767 0.66100001
0.024625717 0.05998572 0.66300005
0.025888573 0.05998572 0.66300005
-0.035937145 0.061156195 0.66200006
-0.034571432 0.060971431 0.66000003
-0.033314288 0.060971431 0.66000003
-0.031960003 0.060786672 0.65800005
-0.030660002 0.060694288 0.65700001
-0.029363811 0.060601909 0.65600002
-0.02807143 0.060509529 0.65500003
-0.026741907 0.060324766 0.65300006
-0.025459049 0.060232386 0.65200001
-0.02414286 0.060047623 0.65000004
-0.022904763 0.060047623 0.65000004
-0.021566669 0.05977048 0.64700001
-0.020302858 0.0596781 0.64600003
-0.019042859 0.059585717 0.64500004
-0.017814286 0.059585717 0.64500004
-0.016585715 0.059585717 0.64500004
-0.015333334 0.059493337 0.64400005
-0.014106668 0.059493337 0.64400005
-0.012880001 0.059493337 0.64400005
-0.011617144 0.059308574 0.64200002
-0.010394286 0.059308574 0.64200002
-0.0091714291 0.059308574 0.64200002
-0.0079485718 0.059308574 0.64200002
-0.0067257145 0.059308574 0.64200002
-0.0055028577 0.059308574 0.64200002
-0.0042800005 0.059308574 0.64200002
-0.003057143 0.059308574 0.64200002
-0.0018342858 0.059308574 0.64200002
-0.00061142864 0.059308574 0.64200002
0.00061142864 0.059308574 0.64200002
0.0018400002 0.059493337 0.64400005
0.0030666669 0.059493337 0.64400005
0.0042933337 0.059493337 0.64400005
0.0055200006 0.059493337 0.64400005
0.0067571434 0.059585717 0.64500004
0.0079857148 0.059585717 0.64500004
0.0092142867 0.059585717 0.64500004
0.010459049 0.0596781 0.64600003
0.01170762 0.05977048 0.64700001
0.012960001 0.05986286 0.648
0.014238096 0.060047623 0.65000004
0.015476191 0.060047623 0.65000004
0.016740002 0.060140003 0.65100002
0.018007619 0.060232386 0.65200001
0.01927905 0.060324766 0.65300006
0.020617144 0.060601909 0.65600002
0.022033336 0.061063815 0.66100001
0.023327621 0.061156195 0.66200006
0.024625717 0.061248574 0.66300005
0.025966669 0.061433338 0.66500002
0.027233334 0.061433338 0.66500002
-0.035937145 0.062417146 0.66200006
-0.034571432 0.062228575 0.66000003
-0.033314288 0.062228575 0.66000003
-0.031960003 0.062040005 0.65800005
-0.030660002 0.061945718 0.65700001
-0.029363811 0.061851434 0.65600002
-0.02807143 0.061757147 0.65500003
-0.026741907 0.061568577 0.65300006
-0.025459049 0.06147429 0.65200001
-0.024180003 0.061380003 0.65100002
-0.022904763 0.061285719 0.65000004
-0.021600001 0.061097145 0.648
-0.020334287 0.061002862 0.64700001
-0.019072382 0.060908575 0.64600003
-0.017814286 0.060814291 0.64500004
-0.016585715 0.060814291 0.64500004
-0.015357144 0.060814291 0.64500004
-0.014106668 0.060720004 0.64400005
-0.012880001 0.060720004 0.64400005
-0.011653334 0.060720004 0.64400005
-0.010426668 0.060720004 0.64400005
-0.0092000002 0.060720004 0.64400005
-0.0079485718 0.060531434 0.64200002
-0.006746667 0.060720004 0.64400005
-0.0055200006 0.060720004 0.64400005
-0.0042933337 0.060720004 0.64400005
-0.0030666669 0.060720004 0.64400005
-0.0018400002 0.060720004 0.64400005
-0.00061333337 0.060720004 0.64400005
0.00061333337 0.060720004 0.64400005
0.0018400002 0.060720004 0.64400005
0.0030666669 0.060720004 0.64400005
0.0042933337 0.060720004 0.64400005
0.0055200006 0.060720004 0.64400005
0.0067571434 0.060814291 0.64500004
0.0079857148 0.060814291 0.64500004
0.0092285722 0.060908575 0.64600003
0.010475239 0.061002862 0.64700001
0.011725715 0.061097145 0.648
0.012960001 0.061097145 0.648
0.014238096 0.061285719 0.65000004
0.015476191 0.061285719 0.65000004
0.016740002 0.061380003 0.65100002
0.017980002 0.061380003 0.65100002
0.01927905 0.061568577 0.65300006
0.020617144 0.061851434 0.65600002
0.023327621 0.062417146 0.66200006
0.024625717 0.062511429 0.66300005
0.025966669 0.062700003 0.66500002
-0.035937145 0.063678101 0.66200006
-0.034623813 0.063581906 0.66100001
-0.033364765 0.063581906 0.66100001
-0.032057144 0.063485719 0.66000003
-0.030706668 0.063293338 0.65800005
-0.029408574 0.063197143 0.65700001
-0.02807143 0.063004769 0.65500003
-0.026741907 0.062812388 0.65300006
-0.025459049 0.062716193 0.65200001
-0.024180003 0.062620007 0.65100002
-0.022904763 0.062523812 0.65000004
-0.021600001 0.062331434 0.648
-0.020365715 0.062331434 0.648
-0.019101907 0.062235244 0.64700001
-0.017869525 0.062235244 0.64700001
-0.016611429 0.062139053 0.64600003
-0.015380953 0.062139053 0.64600003
-0.014128572 0.062042862 0.64500004
-0.0129 0.062042862 0.64500004
-0.011671429 0.062042862 0.64500004
-0.010426668 0.061946671 0.64400005
-0.0092000002 0.061946671 0.64400005
-0.0079733338 0.061946671 0.64400005
-0.006746667 0.061946671 0.64400005
-0.0055200006 0.061946671 0.64400005
-0.0042933337 0.061946671 0.64400005
-0.0030666669 0.061946671 0.64400005
-0.0018400002 0.061946671 0.64400005
-0.00061333337 0.061946671 0.64400005
0.00061333337 0.061946671 0.64400005
0.0018400002 0.061946671 0.64400005
0.0030666669 0.061946671 0.64400005
0.0042933337 0.061946671 0.64400005
0.005528572 0.062042862 0.64500004
0.0067571434 0.062042862 0.64500004
0.0079857148 0.062042862 0.64500004
0.0092285722 0.062139053 0.64600003
0.010475239 0.062235244 0.64700001
0.011725715 0.062331434 0.648
0.013000001 0.062523812 0.65000004
0.014238096 0.062523812 0.65000004
0.015500001 0.062620007 0.65100002
0.016765716 0.062716193 0.65200001
0.018007619 0.062716193 0.65200001
0.01927905 0.062812388 0.65300006
0.020617144 0.063100956 0.65600002
0.023327621 0.063678101 0.66200006
0.024625717 0.063774288 0.66300005
0.025966669 0.063966669 0.66500002
-0.037254289 0.065037146 0.66300005
-0.03599143 0.065037146 0.66300005
-0.034676194 0.064939052 0.66200006
-0.033364765 0.064840958 0.66100001
-0.032105718 0.064840958 0.66100001
-0.030800002 0.064742863 0.66000003
-0.029408574 0.064448573 0.65700001
-0.028114287 0.064350478 0.65600002
-0.026823811 0.064252384 0.65500003
-0.025498098 0.064056195 0.65300006
-0.024180003 0.063860007 0.65100002
-0.022904763 0.063761912 0.65000004
-0.021600001 0.063565716 0.648
-0.020365715 0.063565716 0.648
-0.019131429 0.063565716 0.648
-0.017869525 0.063467622 0.64700001
-0.016637145 0.063467622 0.64700001
-0.015380953 0.063369527 0.64600003
-0.014150477 0.063369527 0.64600003
-0.0129 0.063271433 0.64500004
-0.011671429 0.063271433 0.64500004
-0.010442858 0.063271433 0.64500004
-0.0092142867 0.063271433 0.64500004
-0.0079733338 0.063173339 0.64400005
-0.006746667 0.063173339 0.64400005
-0.0055200006 0.063173339 0.64400005
-0.0042933337 0.063173339 0.64400005
-0.0030666669 0.063173339 0.64400005
-0.0018400002 0.063173339 0.64400005
-0.00061333337 0.063173339 0.64400005
0.00061428576 0.063271433 0.64500004
0.0018428572 0.063271433 0.64500004
0.0030714287 0.063271433 0.64500004
0.0043000001 0.063271433 0.64500004
0.005528572 0.063271433 0.64500004
0.0067571434 0.063271433 0.64500004
0.0079980958 0.063369527 0.64600003
0.0092285722 0.063369527 0.64600003
0.010475239 0.063467622 0.64700001
0.011725715 0.063565716 0.648
0.013000001 0.063761912 0.65000004
0.014238096 0.063761912 0.65000004
0.015500001 0.063860007 0.65100002
0.016765716 0.063958101 0.65200001
0.018007619 0.063958101 0.65200001
0.01927905 0.064056195 0.65300006
0.020617144 0.064350478 0.65600002
0.023327621 0.064939052 0.66200006
0.024625717 0.065037146 0.66300005
-0.037254289 0.066300005 0.66300005
-0.03599143 0.066300005 0.66300005
-0.034676194 0.066200003 0.66200006
-0.033415239 0.066200003 0.66200006
-0.032154288 0.066200003 0.66200006
-0.030846668 0.066100001 0.66100001
-0.029408574 0.065700002 0.65700001
-0.028114287 0.065600008 0.65600002
-0.026823811 0.065500006 0.65500003
-0.025498098 0.065300003 0.65300006
-0.024180003 0.065100007 0.65100002
-0.022940002 0.065100007 0.65100002
-0.021666668 0.065000005 0.65000004
-0.020365715 0.064800002 0.648
-0.019131429 0.064800002 0.648
-0.017897144 0.064800002 0.648
-0.016662858 0.064800002 0.648
-0.015404763 0.064700007 0.64700001
-0.014172382 0.064700007 0.64700001
-0.012920001 0.064600006 0.64600003
-0.011689524 0.064600006 0.64600003
-0.010442858 0.064500004 0.64500004
-0.0092142867 0.064500004 0.64500004
-0.0079733338 0.064400002 0.64400005
-0.006746667 0.064400002 0.64400005
-0.0055200006 0.064400002 0.64400005
-0.0042933337 0.064400002 0.64400005
-0.0030666669 0.064400002 0.64400005
-0.0018428572 0.064500004 0.64500004
-0.00061428576 0.064500004 0.64500004
0.00061428576 0.064500004 0.64500004
0.0018428572 0.064500004 0.64500004
0.0030714287 0.064500004 0.64500004
0.0043000001 0.064500004 0.64500004
0.005528572 0.064500004 0.64500004
0.0067676194 0.064600006 0.64600003
0.0080104768 0.064700007 0.64700001
0.0092428578 0.064700007 0.64700001
0.010491429 0.064800002 0.648
0.011761906 0.065000005 0.65000004
0.013000001 0.065000005 0.65000004
0.014260001 0.065100007 0.65100002
0.015523811 0.065200001 0.65200001
0.016791429 0.065300003 0.65300006
0.018035239 0.065300003 0.65300006
0.019338097 0.065500006 0.65500003
0.020617144 0.065600008 0.65600002
0.021933334 0.065800004 0.65800005
0.023327621 0.066200003 0.66200006
-0.03599143 0.067562863 0.66300005
-0.034728575 0.067562863 0.66300005
-0.033415239 0.067460954 0.66200006
-0.032154288 0.067460954 0.66200006
-0.030846668 0.067359053 0.66100001
-0.029408574 0.066951431 0.65700001
-0.028114287 0.06684953 0.65600002
-0.026823811 0.066747621 0.65500003
-0.025498098 0.066543818 0.65300006
-0.024217144 0.066441908 0.65200001
-0.022940002 0.066340007 0.65100002
-0.021666668 0.066238098 0.65000004
-0.020428572 0.066238098 0.65000004
-0.019131429 0.066034287 0.648
-0.017897144 0.066034287 0.648
-0.016662858 0.066034287 0.648
-0.015428573 0.066034287 0.648
-0.014172382 0.065932386 0.64700001
-0.012940001 0.065932386 0.64700001
-0.01170762 0.065932386 0.64700001
-0.010459049 0.065830484 0.64600003
-0.0092142867 0.065728575 0.64500004
-0.0079857148 0.065728575 0.64500004
-0.0067571434 0.065728575 0.64500004
-0.005528572 0.065728575 0.64500004
-0.0043000001 0.065728575 0.64500004
-0.0030714287 0.065728575 0.64500004
-0.0018428572 0.065728575 0.64500004
-0.00061428576 0.065728575 0.64500004
0.00061523815 0.065830484 0.64600003
0.0018457144 0.065830484 0.64600003
0.0030761906 0.065830484 0.64600003
0.004306667 0.065830484 0.64600003
0.0055371434 0.065830484 0.64600003
0.0067676194 0.065830484 0.64600003
0.0080104768 0.065932386 0.64700001
0.0092428578 0.065932386 0.64700001
0.010491429 0.066034287 0.648
0.011761906 0.066238098 0.65000004
0.013000001 0.066238098 0.65000004
0.014260001 0.066340007 0.65100002
0.015523811 0.066441908 0.65200001
0.016791429 0.066543818 0.65300006
0.018035239 0.066543818 0.65300006
0.019338097 0.066747621 0.65500003
0.020617144 0.06684953 0.65600002
0.022000002 0.067257144 0.66000003
0.023327621 0.067460954 0.66200006
0.024588574 0.067460954 0.66200006
-0.036100004 0.06903334 0.66500002
-0.034728575 0.068825722 0.66300005
-0.033415239 0.068721913 0.66200006
-0.032154288 0.068721913 0.66200006
-0.030846668 0.068618096 0.66100001
-0.029408574 0.068202861 0.65700001
-0.028114287 0.068099052 0.65600002
-0.026823811 0.067995243 0.65500003
-0.025498098 0.067787625 0.65300006
-0.024217144 0.067683816 0.65200001
-0.022940002 0.067580007 0.65100002
-0.021666668 0.067476198 0.65000004
-0.020428572 0.067476198 0.65000004
-0.019190477 0.067476198 0.65000004
-0.017897144 0.067268573 0.648
-0.016662858 0.067268573 0.648
-0.015428573 0.067268573 0.648
-0.014194286 0.067268573 0.648
-0.012940001 0.067164764 0.64700001
-0.01170762 0.067164764 0.64700001
-0.010459049 0.067060955 0.64600003
-0.0092285722 0.067060955 0.64600003
-0.0079857148 0.066957146 0.64500004
-0.0067571434 0.066957146 0.64500004
-0.005528572 0.066957146 0.64500004
-0.0043000001 0.066957146 0.64500004
-0.0030714287 0.066957146 0.64500004
-0.0018428572 0.066957146 0.64500004
-0.00061428576 0.066957146 0.64500004
0.00061523815 0.067060955 0.64600003
0.0018457144 0.067060955 0.64600003
0.0030761906 0.067060955 0.64600003
0.004306667 0.067060955 0.64600003
0.0055457149 0.067164764 0.64700001
0.0067780958 0.067164764 0.64700001
0.0080228578 0.067268573 0.648
0.0092571434 0.067268573 0.648
0.010491429 0.067268573 0.648
0.011761906 0.067476198 0.65000004
0.01302 0.067580007 0.65100002
0.014281905 0.067683816 0.65200001
0.01554762 0.067787625 0.65300006
0.016791429 0.067787625 0.65300006
0.018035239 0.067787625 0.65300006
0.019338097 0.067995243 0.65500003
0.020617144 0.068099052 0.65600002
0.022033336 0.068618096 0.66100001
0.023327621 0.068721913 0.66200006
0.024625717 0.068825722 0.66300005
-0.036100004 0.070300005 0.66500002
-0.034728575 0.070088573 0.66300005
-0.033415239 0.069982864 0.66200006
-0.032154288 0.069982864 0.66200006
-0.030800002 0.069771431 0.66000003
-0.029453335 0.069560006 0.65800005
-0.028114287 0.069348574 0.65600002
-0.026823811 0.069242865 0.65500003
-0.025576193 0.069242865 0.65500003
-0.024254287 0.069031432 0.65300006
-0.02297524 0.068925716 0.65200001
-0.021666668 0.068714291 0.65000004
-0.020428572 0.068714291 0.65000004
-0.019190477 0.068714291 0.65000004
-0.017952383 0.068714291 0.65000004
-0.016662858 0.068502858 0.648
-0.015428573 0.068502858 0.648
-0.014194286 0.068502858 0.648
-0.012960001 0.068502858 0.648
-0.011725715 0.068502858 0.648
-0.010459049 0.068291433 0.64600003
-0.0092285722 0.068291433 0.64600003
-0.0079980958 0.068291433 0.64600003
-0.0067571434 0.068185717 0.64500004
-0.005528572 0.068185717 0.64500004
-0.0043000001 0.068185717 0.64500004
-0.0030714287 0.068185717 0.64500004
-0.0018428572 0.068185717 0.64500004
-0.00061428576 0.068185717 0.64500004
0.00061523815 0.068291433 0.64600003
0.0018457144 0.068291433 0.64600003
0.0030809527 0.068397149 0.64700001
0.0043133334 0.068397149 0.64700001
0.0055457149 0.068397149 0.64700001
0.0067885718 0.068502858 0.648
0.0080228578 0.068502858 0.648
0.0092571434 0.068502858 0.648
0.01052381 0.068714291 0.65000004
0.011761906 0.068714291 0.65000004
0.01302 0.068820007 0.65100002
0.014281905 0.068925716 0.65200001
0.015523811 0.068925716 0.65200001
0.016791429 0.069031432 0.65300006
0.018035239 0.069031432 0.65300006
0.019338097 0.069242865 0.65500003
0.020680001 0.069560006 0.65800005
0.023327621 0.069982864 0.66200006
0.024588574 0.069982864 0.66200006
-0.03747905 0.071781911 0.66700006
-0.036100004 0.071566671 0.66500002
-0.034728575 0.071351431 0.66300005
-0.033415239 0.071243815 0.66200006
-0.032154288 0.071243815 0.66200006
-0.030800002 0.071028575 0.66000003
-0.029453335 0.070813335 0.65800005
-0.028157145 0.070705719 0.65700001
-0.026864763 0.070598103 0.65600002
-0.025576193 0.070490479 0.65500003
-0.024254287 0.07027524 0.65300006
-0.023010477 0.07027524 0.65300006
-0.021733334 0.070167623 0.65200001
-0.020460002 0.070060007 0.65100002
-0.019190477 0.069952384 0.65000004
-0.017952383 0.069952384 0.65000004
-0.016714286 0.069952384 0.65000004
-0.015428573 0.069737144 0.648
-0.014194286 0.069737144 0.648
-0.012960001 0.069737144 0.648
-0.011725715 0.069737144 0.648
-0.010475239 0.069629528 0.64700001
-0.0092285722 0.069521911 0.64600003
-0.0079980958 0.069521911 0.64600003
-0.0067571434 0.069414288 0.64500004
-0.005528572 0.069414288 0.64500004
-0.0043000001 0.069414288 0.64500004
-0.0030714287 0.069414288 0.64500004
-0.0018428572 0.069414288 0.64500004
-0.00061428576 0.069414288 0.64500004
0.00061523815 0.069521911 0.64600003
0.0018485716 0.069629528 0.64700001
0.0030809527 0.069629528 0.64700001
0.0043200003 0.069737144 0.648
0.0055542863 0.069737144 0.648
0.0067885718 0.069737144 0.648
0.0080228578 0.069737144 0.648
0.0092571434 0.069737144 0.648
0.01052381 0.069952384 0.65000004
0.011780001 0.070060007 0.65100002
0.01302 0.070060007 0.65100002
0.014281905 0.070167623 0.65200001
0.01554762 0.07027524 0.65300006
0.016791429 0.07027524 0.65300006
0.018090477 0.070490479 0.65500003
0.019338097 0.070490479 0.65500003
0.020617144 0.070598103 0.65600002
0.022000002 0.071028575 0.66000003
0.023327621 0.071243815 0.66200006
0.024625717 0.071351431 0.66300005
0.026005715 0.071674287 0.66600001
-0.036100004 0.072833337 0.66500002
-0.034728575 0.07261429 0.66300005
-0.033415239 0.072504766 0.66200006
-0.032154288 0.072504766 0.66200006
-0.030800002 0.072285719 0.66000003
-0.029453335 0.072066672 0.65800005
-0.028157145 0.071957149 0.65700001
-0.026864763 0.071847625 0.65600002
-0.025576193 0.071738102 0.65500003
-0.024328573 0.071738102 0.65500003
-0.023010477 0.071519054 0.65300006
-0.021766668 0.071519054 0.65300006
-0.020491431 0.071409531 0.65200001
-0.019220002 0.071300007 0.65100002
-0.017952383 0.071190484 0.65000004
-0.016714286 0.071190484 0.65000004
-0.015476191 0.071190484 0.65000004
-0.014194286 0.070971437 0.648
-0.012960001 0.070971437 0.648
-0.011725715 0.070971437 0.648
-0.010491429 0.070971437 0.648
-0.0092428578 0.070861906 0.64700001
-0.0080104768 0.070861906 0.64700001
-0.0067676194 0.070752382 0.64600003
-0.0055371434 0.070752382 0.64600003
-0.004306667 0.070752382 0.64600003
-0.0030809527 0.070861906 0.64700001
-0.0018485716 0.070861906 0.64700001
-0.00061619049 0.070861906 0.64700001
0.00061714288 0.070971437 0.648
0.0018514286 0.070971437 0.648
0.0030857145 0.070971437 0.648
0.0043333336 0.071190484 0.65000004
0.0055714292 0.071190484 0.65000004
0.0068095243 0.071190484 0.65000004
0.0080476198 0.071190484 0.65000004
0.0092857145 0.071190484 0.65000004
0.010540001 0.071300007 0.65100002
0.011798096 0.071409531 0.65200001
0.013040001 0.071409531 0.65200001
0.014303811 0.071519054 0.65300006
0.015595239 0.071738102 0.65500003
0.016842859 0.071738102 0.65500003
0.018118097 0.071847625 0.65600002
0.019397143 0.071957149 0.65700001
0.020680001 0.072066672 0.65800005
0.022000002 0.072285719 0.66000003
0.023433335 0.072833337 0.66500002
0.024700001 0.072833337 0.66500002
0.026005715 0.07294286 0.66600001
-0.036154289 0.074211434 0.66600001
-0.034833334 0.074100003 0.66500002
-0.033465717 0.073877148 0.66300005
-0.032154288 0.073765717 0.66200006
-0.030800002 0.073542863 0.66000003
-0.02954286 0.073542863 0.66000003
-0.028200002 0.073320001 0.65800005
-0.026905715 0.073208578 0.65700001
-0.02561524 0.073097147 0.65600002
-0.024328573 0.072985716 0.65500003
-0.023080954 0.072985716 0.65500003
-0.021766668 0.072762862 0.65300006
-0.020491431 0.072651431 0.65200001
-0.019220002 0.072540008 0.65100002
-0.017980002 0.072540008 0.65100002
-0.016740002 0.072540008 0.65100002
-0.015476191 0.072428577 0.65000004
-0.014238096 0.072428577 0.65000004
-0.012960001 0.072205722 0.648
-0.011725715 0.072205722 0.648
-0.010491429 0.072205722 0.648
-0.0092428578 0.072094291 0.64700001
-0.0080104768 0.072094291 0.64700001
-0.0067676194 0.071982861 0.64600003
-0.0055371434 0.071982861 0.64600003
-0.0043133334 0.072094291 0.64700001
-0.0030809527 0.072094291 0.64700001
-0.0018514286 0.072205722 0.648
-0.00061714288 0.072205722 0.648
0.00061714288 0.072205722 0.648
0.0018514286 0.072205722 0.648
0.0030952382 0.072428577 0.65000004
0.0043333336 0.072428577 0.65000004
0.0055714292 0.072428577 0.65000004
0.0068095243 0.072428577 0.65000004
0.0080600008 0.072540008 0.65100002
0.009300001 0.072540008 0.65100002
0.010556191 0.072651431 0.65200001
0.011798096 0.072651431 0.65200001
0.013060001 0.072762862 0.65300006
0.01434762 0.072985716 0.65500003
0.015595239 0.072985716 0.65500003
0.016868573 0.073097147 0.65600002
0.018118097 0.073097147 0.65600002
0.019397143 0.073208578 0.65700001
0.020680001 0.073320001 0.65800005
0.022033336 0.073654294 0.66100001
0.023468573 0.074211434 0.66600001
0.024700001 0.074100003 0.66500002
0.026044764 0.074322864 0.66700006
0.02731524 0.074322864 0.66700006
-0.036154289 0.075480007 0.66600001
-0.034833334 0.075366668 0.66500002
-0.033465717 0.075140007 0.66300005
-0.032154288 0.075026669 0.66200006
-0.030846668 0.074913338 0.66100001
-0.02954286 0.074800007 0.66000003
-0.028200002 0.074573338 0.65800005
-0.026946668 0.074573338 0.65800005
-0.02561524 0.074346669 0.65600002
-0.024365716 0.074346669 0.65600002
-0.023080954 0.074233338 0.65500003
-0.021833334 0.074233338 0.65500003
-0.020522859 0.074006669 0.65300006
-0.019249525 0.073893338 0.65200001
-0.017980002 0.073780008 0.65100002
-0.016740002 0.073780008 0.65100002
-0.015500001 0.073780008 0.65100002
-0.014238096 0.073666669 0.65000004
-0.013000001 0.073666669 0.65000004
-0.011725715 0.073440008 0.648
-0.010491429 0.073440008 0.648
-0.0092571434 0.073440008 0.648
-0.0080104768 0.07332667 0.64700001
-0.0067780958 0.07332667 0.64700001
-0.0055457149 0.07332667 0.64700001
-0.0043133334 0.07332667 0.64700001
-0.0030857145 0.073440008 0.648
-0.0018514286 0.073440008 0.648
-0.00061714288 0.073440008 0.648
0.00061714288 0.073440008 0.648
0.001857143 0.073666669 0.65000004
0.0030952382 0.073666669 0.65000004
0.0043333336 0.073666669 0.65000004
0.0055714292 0.073666669 0.65000004
0.0068200002 0.073780008 0.65100002
0.0080600008 0.073780008 0.65100002
0.0093142865 0.073893338 0.65200001
0.010556191 0.073893338 0.65200001
0.011798096 0.073893338 0.65200001
0.013060001 0.074006669 0.65300006
0.01434762 0.074233338 0.65500003
0.015595239 0.074233338 0.65500003
0.016868573 0.074346669 0.65600002
0.018118097 0.074346669 0.65600002
0.019426668 0.074573338 0.65800005
0.020742858 0.074800007 0.66000003
0.022033336 0.074913338 0.66100001
0.023468573 0.075480007 0.66600001
0.024700001 0.075366668 0.66500002
0.025966669 0.075366668 0.66500002
0.02731524 0.075593337 0.66700006
-0.036154289 0.07674858 0.66600001
-0.034833334 0.076633342 0.66500002
-0.033465717 0.076402865 0.66300005
-0.032154288 0.076287627 0.66200006
-0.030846668 0.076172389 0.66100001
-0.02954286 0.076057151 0.66000003
-0.028285716 0.076057151 0.66000003
-0.026946668 0.075826675 0.65800005
-0.025654288 0.075711437 0.65700001
-0.024365716 0.075596198 0.65600002
-0.023080954 0.07548096 0.65500003
-0.021833334 0.07548096 0.65500003
-0.020522859 0.075250484 0.65300006
-0.019249525 0.075135246 0.65200001
-0.018007619 0.075135246 0.65200001
-0.016765716 0.075135246 0.65200001
-0.015500001 0.075020008 0.65100002
-0.014238096 0.07490477 0.65000004
-0.013000001 0.07490477 0.65000004
-0.011761906 0.07490477 0.65000004
-0.010491429 0.074674293 0.648
-0.0092571434 0.074674293 0.648
-0.0080228578 0.074674293 0.648
-0.0067780958 0.074559055 0.64700001
-0.0055542863 0.074674293 0.648
-0.0043200003 0.074674293 0.648
-0.0030857145 0.074674293 0.648
-0.0018514286 0.074674293 0.648
-0.00061904767 0.07490477 0.65000004
0.00061904767 0.07490477 0.65000004
0.001857143 0.07490477 0.65000004
0.0030952382 0.07490477 0.65000004
0.0043333336 0.07490477 0.65000004
0.0055800006 0.075020008 0.65100002
0.0068200002 0.075020008 0.65100002
0.0080600008 0.075020008 0.65100002
0.0093142865 0.075135246 0.65200001
0.010556191 0.075135246 0.65200001
0.011816191 0.075250484 0.65300006
0.013060001 0.075250484 0.65300006
0.01434762 0.07548096 0.65500003
0.015619049 0.075596198 0.65600002
0.016894286 0.075711437 0.65700001
0.018145716 0.075711437 0.65700001
0.019485716 0.076057151 0.66000003
0.020774286 0.076172389 0.66100001
0.022066668 0.076287627 0.66200006
0.023433335 0.076633342 0.66500002
0.024700001 0.076633342 0.66500002
0.026005715 0.07674858 0.66600001
-0.036208574 0.078134291 0.66700006
-0.034885716 0.078017145 0.66600001
-0.033566669 0.077900007 0.66500002
-0.032202858 0.077665716 0.66300005
-0.030893335 0.077548578 0.66200006
-0.029587621 0.077431433 0.66100001
-0.028285716 0.077314287 0.66000003
-0.027028574 0.077314287 0.66000003
-0.025693335 0.077080004 0.65800005
-0.024402859 0.076962866 0.65700001
-0.023116192 0.07684572 0.65600002
-0.021833334 0.076728575 0.65500003
-0.020585716 0.076728575 0.65500003
-0.01927905 0.076494291 0.65300006
-0.018007619 0.076377146 0.65200001
-0.016765716 0.076377146 0.65200001
-0.015523811 0.076377146 0.65200001
-0.014260001 0.076260008 0.65100002
-0.013000001 0.076142862 0.65000004
-0.011761906 0.076142862 0.65000004
-0.01052381 0.076142862 0.65000004
-0.0092571434 0.075908579 0.648
-0.0080228578 0.075908579 0.648
-0.0067885718 0.075908579 0.648
-0.0055542863 0.075908579 0.648
-0.0043200003 0.075908579 0.648
-0.0030952382 0.076142862 0.65000004
-0.001857143 0.076142862 0.65000004
-0.00061904767 0.076142862 0.65000004
0.00061904767 0.076142862 0.65000004
0.001857143 0.076142862 0.65000004
0.0031000001 0.076260008 0.65100002
0.0043400005 0.076260008 0.65100002
0.0055800006 0.076260008 0.65100002
0.0068304767 0.076377146 0.65200001
0.0080723818 0.076377146 0.65200001
0.0093285721 0.076494291 0.65300006
0.010572381 0.076494291 0.65300006
0.011816191 0.076494291 0.65300006
0.013100001 0.076728575 0.65500003
0.014369525 0.07684572 0.65600002
0.015642859 0.076962866 0.65700001
0.016894286 0.076962866 0.65700001
0.018173335 0.077080004 0.65800005
0.019485716 0.077314287 0.66000003
0.020774286 0.077431433 0.66100001
0.022066668 0.077548578 0.66200006
0.023433335 0.077900007 0.66500002
0.024700001 0.077900007 0.66500002
0.026005715 0.078017145 0.66600001
-0.036208574 0.079404764 0.66700006
-0.034885716 0.079285719 0.66600001
-0.033617146 0.079285719 0.66600001
-0.032300003 0.079166673 0.66500002
-0.030940002 0.078928575 0.66300005
-0.029632382 0.07880953 0.66200006
-0.028328573 0.078690484 0.66100001
-0.027028574 0.078571431 0.66000003
-0.025693335 0.078333341 0.65800005
-0.024402859 0.078214288 0.65700001
-0.023116192 0.078095242 0.65600002
-0.021833334 0.077976197 0.65500003
-0.020585716 0.077976197 0.65500003
-0.01927905 0.077738099 0.65300006
-0.018007619 0.077619053 0.65200001
-0.016791429 0.077738099 0.65300006
-0.015523811 0.077619053 0.65200001
-0.014260001 0.077500008 0.65100002
-0.01302 0.077500008 0.65100002
-0.011761906 0.077380955 0.65000004
-0.01052381 0.077380955 0.65000004
-0.0092857145 0.077380955 0.65000004
-0.0080228578 0.077142864 0.648
-0.0067885718 0.077142864 0.648
-0.0055714292 0.077380955 0.65000004
-0.0043333336 0.077380955 0.65000004
-0.0030952382 0.077380955 0.65000004
-0.001857143 0.077380955 0.65000004
-0.00061904767 0.077380955 0.65000004
0.00061904767 0.077380955 0.65000004
0.0018600001 0.077500008 0.65100002
0.0031000001 0.077500008 0.65100002
0.0043400005 0.077500008 0.65100002
0.005588572 0.077619053 0.65200001
0.0068304767 0.077619053 0.65200001
0.0080847628 0.077738099 0.65300006
0.0093285721 0.077738099 0.65300006
0.010572381 0.077738099 0.65300006
0.011852382 0.077976197 0.65500003
0.013120001 0.078095242 0.65600002
0.014369525 0.078095242 0.65600002
0.015642859 0.078214288 0.65700001
0.01692 0.078333341 0.65800005
0.018173335 0.078333341 0.65800005
0.019515239 0.078690484 0.66100001
0.020774286 0.078690484 0.66100001
0.022066668 0.07880953 0.66200006
0.023468573 0.079285719 0.66600001
0.024737144 0.079285719 0.66600001
0.026122859 0.079642862 0.66900003
-0.036317144 0.08091715 0.66900003
-0.034938097 0.080675244 0.66700006
-0.033617146 0.080554292 0.66600001
-0.032300003 0.080433339 0.66500002
-0.030940002 0.080191433 0.66300005
-0.029632382 0.080070481 0.66200006
-0.028371431 0.080070481 0.66200006
-0.027069526 0.079949528 0.66100001
-0.02577143 0.079828575 0.66000003
-0.024440002 0.07958667 0.65800005
-0.023116192 0.079344764 0.65600002
-0.021833334 0.079223812 0.65500003
-0.020585716 0.079223812 0.65500003
-0.01927905 0.078981914 0.65300006
-0.018035239 0.078981914 0.65300006
-0.016791429 0.078981914 0.65300006
-0.01554762 0.078981914 0.65300006
-0.014281905 0.078860961 0.65200001
-0.01302 0.078740008 0.65100002
-0.011780001 0.078740008 0.65100002
-0.010540001 0.078740008 0.65100002
-0.009300001 0.078740008 0.65100002
-0.0080476198 0.078619055 0.65000004
-0.0068095243 0.078619055 0.65000004
-0.0055714292 0.078619055 0.65000004
-0.0043333336 0.078619055 0.65000004
-0.0031000001 0.078740008 0.65100002
-0.001857143 0.078619055 0.65000004
-0.00062000006 0.078740008 0.65100002
0.00062000006 0.078740008 0.65100002
0.0018600001 0.078740008 0.65100002
0.0031000001 0.078740008 0.65100002
0.0043466669 0.078860961 0.65200001
0.005588572 0.078860961 0.65200001
0.0068409527 0.078981914 0.65300006
0.0080847628 0.078981914 0.65300006
0.0093571432 0.079223812 0.65500003
0.010604762 0.079223812 0.65500003
0.011852382 0.079223812 0.65500003
0.013120001 0.079344764 0.65600002
0.01439143 0.079465717 0.65700001
0.015666667 0.07958667 0.65800005
0.01692 0.07958667 0.65800005
0.018228572 0.079828575 0.66000003
0.019515239 0.079949528 0.66100001
0.020805717 0.080070481 0.66200006
0.022100002 0.080191433 0.66300005
0.023433335 0.080433339 0.66500002
0.024737144 0.080554292 0.66600001
0.026161907 0.081038103 0.67000002
0.027438097 0.081038103 0.67000002
-0.036371432 0.08231429 0.67000002
-0.03504286 0.082191437 0.66900003
-0.03366762 0.081945717 0.66700006
-0.032348573 0.081822865 0.66600001
-0.031033335 0.081700005 0.66500002
-0.029766669 0.081700005 0.66500002
-0.028371431 0.081331432 0.66200006
-0.027110478 0.081331432 0.66200006
-0.02577143 0.081085719 0.66000003
-0.024440002 0.080840006 0.65800005
-0.023151429 0.080717146 0.65700001
-0.021866668 0.080594294 0.65600002
-0.020585716 0.080471434 0.65500003
-0.01927905 0.080225721 0.65300006
-0.018035239 0.080225721 0.65300006
-0.016791429 0.080225721 0.65300006
-0.01554762 0.080225721 0.65300006
-0.014281905 0.080102861 0.65200001
-0.013040001 0.080102861 0.65200001
-0.011780001 0.079980008 0.65100002
-0.010540001 0.079980008 0.65100002
-0.009300001 0.079980008 0.65100002
-0.0080476198 0.079857148 0.65000004
-0.0068095243 0.079857148 0.65000004
-0.0055714292 0.079857148 0.65000004
-0.0043333336 0.079857148 0.65000004
-0.0031000001 0.079980008 0.65100002
-0.0018600001 0.079980008 0.65100002
-0.00062000006 0.079980008 0.65100002
0.00062000006 0.079980008 0.65100002
0.0018600001 0.079980008 0.65100002
0.0031047622 0.080102861 0.65200001
0.0043466669 0.080102861 0.65200001
0.0055971434 0.080225721 0.65300006
0.0068409527 0.080225721 0.65300006
0.0080847628 0.080225721 0.65300006
0.0093571432 0.080471434 0.65500003
0.010604762 0.080471434 0.65500003
0.011870477 0.080594294 0.65600002
0.01314 0.080717146 0.65700001
0.01439143 0.080717146 0.65700001
0.015666667 0.080840006 0.65800005
0.01697143 0.081085719 0.66000003
0.018256191 0.081208579 0.66100001
0.019544763 0.081331432 0.66200006
0.020837145 0.081454292 0.66300005
0.022166668 0.081700005 0.66500002
0.023468573 0.081822865 0.66600001
0.024737144 0.081822865 0.66600001
0.026122859 0.082191437 0.66900003
0.027479049 0.08243715 0.671
0.028885717 0.082805723 0.67400002
-0.037703812 0.083715245 0.671
-0.036371432 0.083590485 0.67000002
-0.03504286 0.083465718 0.66900003
-0.03366762 0.083216198 0.66700006
-0.032348573 0.08309143 0.66600001
-0.031033335 0.08296667 0.66500002
-0.029766669 0.08296667 0.66500002
-0.028414287 0.08271715 0.66300005
-0.027110478 0.082592383 0.66200006
-0.025810478 0.082467623 0.66100001
-0.024514288 0.082342863 0.66000003
-0.023186669 0.082093336 0.65800005
-0.021866668 0.081843816 0.65600002
-0.020585716 0.081719056 0.65500003
-0.01927905 0.081469528 0.65300006
-0.018035239 0.081469528 0.65300006
-0.016791429 0.081469528 0.65300006
-0.01554762 0.081469528 0.65300006
-0.014303811 0.081469528 0.65300006
-0.013040001 0.081344768 0.65200001
-0.011798096 0.081344768 0.65200001
-0.010556191 0.081344768 0.65200001
-0.009300001 0.081220008 0.65100002
-0.0080476198 0.081095241 0.65000004
-0.0068095243 0.081095241 0.65000004
-0.0055714292 0.081095241 0.65000004
-0.0043333336 0.081095241 0.65000004
-0.0031000001 0.081220008 0.65100002
-0.0018600001 0.081220008 0.65100002
-0.00062000006 0.081220008 0.65100002
0.0006209524 0.081344768 0.65200001
0.0018628573 0.081344768 0.65200001
0.0031047622 0.081344768 0.65200001
0.0043533337 0.081469528 0.65300006
0.0055971434 0.081469528 0.65300006
0.0068409527 0.081469528 0.65300006
0.0081095239 0.081719056 0.65500003
0.0093571432 0.081719056 0.65500003
0.010604762 0.081719056 0.65500003
0.011870477 0.081843816 0.65600002
0.01314 0.081968576 0.65700001
0.014413334 0.082093336 0.65800005
0.015666667 0.082093336 0.65800005
0.01697143 0.082342863 0.66000003
0.018256191 0.082467623 0.66100001
0.019574286 0.08271715 0.66300005
0.020837145 0.08271715 0.66300005
0.022166668 0.08296667 0.66500002
0.023468573 0.08309143 0.66600001
0.024848573 0.083465718 0.66900003
0.026161907 0.083590485 0.67000002
0.027520001 0.083840005 0.67200005
0.028885717 0.084089532 0.67400002
-0.037703812 0.08499334 0.671
-0.036371432 0.084866673 0.67000002
-0.035095241 0.084866673 0.67000002
-0.033768572 0.084740005 0.66900003
-0.032397144 0.084486671 0.66700006
-0.031080002 0.084360003 0.66600001
-0.029811431 0.084360003 0.66600001
-0.028414287 0.083980009 0.66300005
-0.02715143 0.083980009 0.66300005
-0.025849525 0.083853342 0.66200006
-0.024514288 0.083600007 0.66000003
-0.023186669 0.083346672 0.65800005
-0.021900002 0.083220005 0.65700001
-0.020617144 0.083093338 0.65600002
-0.019338097 0.08296667 0.65500003
-0.018090477 0.08296667 0.65500003
-0.016842859 0.08296667 0.65500003
-0.01554762 0.082713336 0.65300006
-0.014303811 0.082713336 0.65300006
-0.013060001 0.082713336 0.65300006
-0.011798096 0.082586668 0.65200001
-0.010556191 0.082586668 0.65200001
-0.0093142865 0.082586668 0.65200001
-0.0080600008 0.082460009 0.65100002
-0.0068095243 0.082333341 0.65000004
-0.0055800006 0.082460009 0.65100002
-0.0043400005 0.082460009 0.65100002
-0.0031000001 0.082460009 0.65100002
-0.0018600001 0.082460009 0.65100002
-0.0006209524 0.082586668 0.65200001
0.0006209524 0.082586668 0.65200001
0.0018628573 0.082586668 0.65200001
0.003109524 0.082713336 0.65300006
0.0043533337 0.082713336 0.65300006
0.0055971434 0.082713336 0.65300006
0.0068409527 0.082713336 0.65300006
0.0081095239 0.08296667 0.65500003
0.0093571432 0.08296667 0.65500003
0.010620954 0.083093338 0.65600002
0.011870477 0.083093338 0.65600002
0.013160001 0.083346672 0.65800005
0.014413334 0.083346672 0.65800005
0.015714286 0.083600007 0.66000003
0.016997144 0.083726674 0.66100001
0.01828381 0.083853342 0.66200006
0.019574286 0.083980009 0.66300005
0.020900002 0.084233336 0.66500002
0.022166668 0.084233336 0.66500002
0.02350381 0.084486671 0.66700006
0.024848573 0.084740005 0.66900003
0.026161907 0.084866673 0.67000002
0.027520001 0.085120007 0.67200005
0.028885717 0.085373342 0.67400002
-0.037760001 0.086400002 0.67200005
-0.036425717 0.086271435 0.671
-0.035095241 0.08614286 0.67000002
-0.03381905 0.08614286 0.67000002
-0.032494288 0.086014293 0.66900003
-0.031126669 0.085757151 0.66700006
-0.029856192 0.085757151 0.66700006
-0.028500002 0.085500002 0.66500002
-0.027233334 0.085500002 0.66500002
-0.025888573 0.08524286 0.66300005
-0.024588574 0.085114293 0.66200006
-0.023292383 0.084985718 0.66100001
-0.021933334 0.084600009 0.65800005
-0.020585716 0.084214292 0.65500003
-0.019338097 0.084214292 0.65500003
-0.018090477 0.084214292 0.65500003
-0.016842859 0.084214292 0.65500003
-0.015595239 0.084214292 0.65500003
-0.014303811 0.083957151 0.65300006
-0.013060001 0.083957151 0.65300006
-0.011816191 0.083957151 0.65300006
-0.010572381 0.083957151 0.65300006
-0.0093142865 0.083828576 0.65200001
-0.0080600008 0.083700009 0.65100002
-0.0068200002 0.083700009 0.65100002
-0.0055800006 0.083700009 0.65100002
-0.0043400005 0.083700009 0.65100002
-0.0031000001 0.083700009 0.65100002
-0.0018600001 0.083700009 0.65100002
-0.0006209524 0.083828576 0.65200001
0.0006209524 0.083828576 0.65200001
0.0018657144 0.083957151 0.65300006
0.003109524 0.083957151 0.65300006
0.0043533337 0.083957151 0.65300006
0.0055971434 0.083957151 0.65300006
0.0068619051 0.084214292 0.65500003
0.0081095239 0.084214292 0.65500003
0.0093714288 0.08434286 0.65600002
0.010620954 0.08434286 0.65600002
0.011888572 0.084471434 0.65700001
0.013160001 0.084600009 0.65800005
0.014457144 0.084857151 0.66000003
0.015738096 0.084985718 0.66100001
0.017022857 0.085114293 0.66200006
0.01831143 0.08524286 0.66300005
0.019574286 0.08524286 0.66300005
0.020900002 0.085500002 0.66500002
0.022200001 0.085628577 0.66600001
0.02350381 0.085757151 0.66700006
0.024848573 0.086014293 0.66900003
0.026161907 0.08614286 0.67000002
0.027520001 0.086400002 0.67200005
0.028885717 0.086657152 0.67400002
-0.037928574 0.088071436 0.67500001
-0.036588576 0.087940961 0.67400002
-0.035200004 0.087680005 0.67200005
-0.033869527 0.08754953 0.671
-0.032542858 0.087419055 0.67000002
-0.031220002 0.087288581 0.66900003
-0.029856192 0.087027624 0.66700006
-0.028500002 0.086766675 0.66500002
-0.027233334 0.086766675 0.66500002
-0.025888573 0.086505719 0.66300005
-0.024625717 0.086505719 0.66300005
-0.023327621 0.086375244 0.66200006
-0.022033336 0.086244769 0.66100001
-0.020742858 0.086114295 0.66000003
-0.019426668 0.085853338 0.65800005
-0.018118097 0.085592389 0.65600002
-0.016868573 0.085592389 0.65600002
-0.015595239 0.085461907 0.65500003
-0.01434762 0.085461907 0.65500003
-0.013100001 0.085461907 0.65500003
-0.011816191 0.085200958 0.65300006
-0.010572381 0.085200958 0.65300006
-0.0093285721 0.085200958 0.65300006
-0.0080723818 0.085070483 0.65200001
-0.0068304767 0.085070483 0.65200001
-0.005588572 0.085070483 0.65200001
-0.0043466669 0.085070483 0.65200001
-0.003109524 0.085200958 0.65300006
-0.0018657144 0.085200958 0.65300006
-0.00062190479 0.085200958 0.65300006
0.00062190479 0.085200958 0.65300006
0.0018657144 0.085200958 0.65300006
0.003109524 0.085200958 0.65300006
0.004366667 0.085461907 0.65500003
0.0056142863 0.085461907 0.65500003
0.0068619051 0.085461907 0.65500003
0.0081219049 0.085592389 0.65600002
0.0093714288 0.085592389 0.65600002
0.010637144 0.085722864 0.65700001
0.011942858 0.086114295 0.66000003
0.013200001 0.086114295 0.66000003
0.014479049 0.086244769 0.66100001
0.015761906 0.086375244 0.66200006
0.017048573 0.086505719 0.66300005
0.01831143 0.086505719 0.66300005
0.019633334 0.086766675 0.66500002
0.020900002 0.086766675 0.66500002
0.022200001 0.08689715 0.66600001
0.02350381 0.087027624 0.66700006
0.024848573 0.087288581 0.66900003
0.026161907 0.087419055 0.67000002
0.027479049 0.08754953 0.671
-0.037928574 0.089357145 0.67500001
-0.036642861 0.089357145 0.67500001
-0.035200004 0.088960007 0.67200005
-0.033869527 0.088827625 0.671
-0.032542858 0.088695243 0.67000002
-0.031220002 0.088562861 0.66900003
-0.029945716 0.088562861 0.66900003
-0.028585717 0.088298105 0.66700006
-0.027233334 0.088033341 0.66500002
-0.025966669 0.088033341 0.66500002
-0.024625717 0.087768577 0.66300005
-0.023362858 0.087768577 0.66300005
-0.022066668 0.087636195 0.66200006
-0.020742858 0.087371431 0.66000003
-0.019426668 0.087106675 0.65800005
-0.018145716 0.086974293 0.65700001
-0.016868573 0.086841911 0.65600002
-0.015595239 0.086709529 0.65500003
-0.01434762 0.086709529 0.65500003
-0.013100001 0.086709529 0.65500003
-0.011852382 0.086709529 0.65500003
-0.010572381 0.086444765 0.65300006
-0.0093285721 0.086444765 0.65300006
-0.0080847628 0.086444765 0.65300006
-0.0068304767 0.086312383 0.65200001
-0.005588572 0.086312383 0.65200001
-0.0043533337 0.086444765 0.65300006
-0.003109524 0.086444765 0.65300006
-0.0018657144 0.086444765 0.65300006
-0.00062190479 0.086444765 0.65300006
0.00062190479 0.086444765 0.65300006
0.0018657144 0.086444765 0.65300006
0.0031190477 0.086709529 0.65500003
0.004366667 0.086709529 0.65500003
0.0056142863 0.086709529 0.65500003
0.0068619051 0.086709529 0.65500003
