# .PCD v0.7 - Point Cloud Data file format
VERSION 0.7
FIELDS x y z
SIZE 4 4 4
TYPE F F F
COUNT 1 1 1
WIDTH 1374
HEIGHT 1
VIEWPOINT 0 0 0 1 0 0 0
POINTS 1374
DATA ascii
-0.06830667 0.058280002 0.65800005
-0.06705334 0.058280002 0.65800005
-0.062600002 0.05544572 0.62600005
-0.061407622 0.05544572 0.62600005
-0.060311433 0.055534288 0.62700003
-0.059117146 0.055534288 0.62700003
-0.060971431 0.058457147 0.66000003
-0.059714291 0.058457147 0.66000003
-0.058457147 0.058457147 0.66000003
-0.057200003 0.058457147 0.66000003
-0.05594286 0.058457147 0.66000003
-0.054934289 0.058722861 0.66300005
-0.051454291 0.059077147 0.66700006
-0.050183814 0.059077147 0.66700006
-0.049060002 0.059254289 0.66900003
-0.047857147 0.059342861 0.67000002
-0.046720002 0.059520002 0.67200005
-0.045575242 0.059697147 0.67400002
-0.044291433 0.059697147 0.67400002
-0.043007623 0.059697147 0.67400002
-0.041785717 0.05978572 0.67500001
-0.040500004 0.05978572 0.67500001
-0.039272383 0.059874289 0.67600006
-0.038097147 0.060051434 0.67800003
-0.036914289 0.060228575 0.68000001
-0.035723813 0.06040572 0.68200004
-0.034424763 0.06040572 0.68200004
-0.033174288 0.060494289 0.68300003
-0.031920001 0.060582861 0.68400002
-0.030617144 0.060582861 0.68400002
-0.20717716 0.063695244 0.70400006
-0.20671335 0.063966669 0.70700002
-0.20536669 0.063966669 0.70700002
-0.20402001 0.063966669 0.70700002
-0.20296001 0.064057149 0.708
-0.20161144 0.064057149 0.708
-0.20026287 0.064057149 0.708
-0.1994762 0.064238101 0.71000004
-0.19840287 0.064328574 0.71100003
-0.19704859 0.064328574 0.71100003
-0.1956943 0.064328574 0.71100003
-0.19488668 0.064509526 0.71300006
-0.19352858 0.064509526 0.71300006
-0.19244002 0.064600006 0.71400005
-0.19081239 0.064509526 0.71300006
-0.16248572 0.065685719 0.72600001
-0.16110286 0.065685719 0.72600001
-0.15972 0.065685719 0.72600001
-0.15833715 0.065685719 0.72600001
-0.15738668 0.065866672 0.72800004
-0.156 0.065866672 0.72800004
-0.15482572 0.065957144 0.72900003
-0.15385811 0.066138096 0.73100001
-0.1526743 0.066228576 0.73200005
-0.15169334 0.066409528 0.73400003
-0.15070477 0.066590481 0.73600006
-0.14930287 0.066590481 0.73600006
-0.14790097 0.066590481 0.73600006
-0.14649905 0.066590481 0.73600006
-0.14509715 0.066590481 0.73600006
-0.14369525 0.066590481 0.73600006
-0.14229335 0.066590481 0.73600006
-0.14089143 0.066590481 0.73600006
-0.13948953 0.066590481 0.73600006
-0.13827525 0.06668096 0.73700005
-0.13687144 0.06668096 0.73700005
-0.12811525 0.063061908 0.69700003
-0.12696953 0.063152388 0.69800001
-0.12564 0.063152388 0.69800001
-0.12431049 0.063152388 0.69800001
-0.12298096 0.063152388 0.69800001
-0.12165143 0.063152388 0.69800001
-0.12032191 0.063152388 0.69800001
-0.11899239 0.063152388 0.69800001
-0.11749429 0.063061908 0.69700003
-0.11583334 0.062880956 0.69500005
-0.11450953 0.062880956 0.69500005
-0.11351144 0.063061908 0.69700003
-0.11218382 0.063061908 0.69700003
-0.11101525 0.063152388 0.69800001
-0.10975334 0.063966669 0.70700002
-0.10856001 0.064057149 0.708
-0.10721143 0.064057149 0.708
-0.10586286 0.064057149 0.708
-0.10451429 0.064057149 0.708
-0.10316572 0.064057149 0.708
-0.10167334 0.063966669 0.70700002
-0.10004286 0.063785717 0.70500004
-0.098700009 0.063785717 0.70500004
-0.097080961 0.063604765 0.70300001
-0.095741913 0.063604765 0.70300001
-0.094134293 0.063423812 0.70100003
-0.092799053 0.063423812 0.70100003
-0.091463819 0.063423812 0.70100003
-0.090128578 0.063423812 0.70100003
-0.088793337 0.063423812 0.70100003
-0.087458104 0.063423812 0.70100003
-0.086000003 0.06333334 0.70000005
-0.084666669 0.06333334 0.70000005
-0.070153341 0.056004766 0.61900002
-0.069085717 0.056095243 0.62
-0.069771431 0.059714291 0.66000003
-0.06488096 0.056547623 0.625
-0.063690484 0.056547623 0.625
-0.062600002 0.056638099 0.62600005
-0.061407622 0.056638099 0.62600005
-0.060215242 0.056638099 0.62600005
-0.059022862 0.056638099 0.62600005
-0.057922862 0.056728575 0.62700003
-0.056819052 0.056819052 0.62800002
-0.055622861 0.056819052 0.62800002
-0.05442667 0.056819052 0.62800002
-0.047520004 0.055733338 0.61600006
-0.049426671 0.060980957 0.67400002
-0.048142862 0.060980957 0.67400002
-0.046859052 0.060980957 0.67400002
-0.04564286 0.061071433 0.67500001
-0.044291433 0.060980957 0.67400002
-0.04307143 0.061071433 0.67500001
-0.041785717 0.061071433 0.67500001
-0.040500004 0.061071433 0.67500001
-0.039272383 0.061161909 0.67600006
-0.038097147 0.061342862 0.67800003
-0.036914289 0.061523814 0.68000001
-0.035723813 0.061704766 0.68200004
-0.034424763 0.061704766 0.68200004
-0.033174288 0.061795242 0.68300003
-0.031920001 0.061885718 0.68400002
-0.030617144 0.061885718 0.68400002
-0.21120001 0.065036193 0.70400006
-0.20985906 0.065036193 0.70400006
-0.20822191 0.064943813 0.70300001
-0.20717716 0.065036193 0.70400006
-0.20583621 0.065036193 0.70400006
-0.20478573 0.065128572 0.70500004
-0.20402001 0.065313339 0.70700002
-0.20296001 0.065405719 0.708
-0.20161144 0.065405719 0.708
-0.20026287 0.065405719 0.708
-0.1994762 0.065590478 0.71000004
-0.19840287 0.065682858 0.71100003
-0.19704859 0.065682858 0.71100003
-0.1956943 0.065682858 0.71100003
-0.19488668 0.065867625 0.71300006
-0.19352858 0.065867625 0.71300006
-0.19244002 0.065960005 0.71400005
-0.16248572 0.067068577 0.72600001
-0.16110286 0.067068577 0.72600001
-0.15972 0.067068577 0.72600001
-0.15833715 0.067068577 0.72600001
-0.1569543 0.067068577 0.72600001
-0.15557145 0.067068577 0.72600001
-0.15461335 0.067253336 0.72800004
-0.15343715 0.067345716 0.72900003
-0.1526743 0.067622863 0.73200005
-0.15169334 0.067807622 0.73400003
-0.15070477 0.067992382 0.73600006
-0.14930287 0.067992382 0.73600006
-0.14790097 0.067992382 0.73600006
-0.14649905 0.067992382 0.73600006
-0.14509715 0.067992382 0.73600006
-0.14389049 0.068084769 0.73700005
-0.14248668 0.068084769 0.73700005
-0.14108287 0.068084769 0.73700005
-0.13967906 0.068084769 0.73700005
-0.13827525 0.068084769 0.73700005
-0.13687144 0.068084769 0.73700005
-0.12866667 0.064666674 0.70000005
-0.12733334 0.064666674 0.70000005
-0.126 0.064666674 0.70000005
-0.12466668 0.064666674 0.70000005
-0.12333334 0.064666674 0.70000005
-0.12200001 0.064666674 0.70000005
-0.12066668 0.064666674 0.70000005
-0.11933334 0.064666674 0.70000005
-0.11800001 0.064666674 0.70000005
-0.11633334 0.064481907 0.69800001
-0.11500382 0.064481907 0.69800001
-0.11400001 0.064666674 0.70000005
-0.11266667 0.064666674 0.70000005
-0.11149239 0.064759053 0.70100003
-0.11078572 0.065128572 0.70500004
-0.10975334 0.065313339 0.70700002
-0.10856001 0.065405719 0.708
-0.10721143 0.065405719 0.708
-0.10616191 0.065590478 0.71000004
-0.10480953 0.065590478 0.71000004
-0.10316572 0.065405719 0.708
-0.10167334 0.065313339 0.70700002
-0.10032667 0.065313339 0.70700002
-0.098700009 0.065128572 0.70500004
-0.097357146 0.065128572 0.70500004
-0.095741913 0.064943813 0.70300001
-0.094134293 0.064759053 0.70100003
-0.092799053 0.064759053 0.70100003
-0.091463819 0.064759053 0.70100003
-0.090128578 0.064759053 0.70100003
-0.088793337 0.064759053 0.70100003
-0.087333336 0.064666674 0.70000005
-0.086000003 0.064666674 0.70000005
-0.074869528 0.057183813 0.61900002
-0.073809527 0.057276193 0.62
-0.072628573 0.057276193 0.62
-0.071447626 0.057276193 0.62
-0.070153341 0.057183813 0.61900002
-0.069085717 0.057276193 0.62
-0.067904763 0.057276193 0.62
-0.066939048 0.057460956 0.62200004
-0.065754287 0.057460956 0.62200004
-0.064673334 0.057553336 0.62300003
-0.063588575 0.057645719 0.62400001
-0.062500007 0.057738099 0.625
-0.061309528 0.057738099 0.625
-0.060215242 0.057830479 0.62600005
-0.059022862 0.057830479 0.62600005
-0.057922862 0.057922862 0.62700003
-0.056819052 0.058015242 0.62800002
-0.055622861 0.058015242 0.62800002
-0.054513335 0.058107622 0.62900001
-0.047520004 0.05690667 0.61600006
-0.046346668 0.05690667 0.61600006
-0.042965718 0.057091434 0.61800003
-0.041856192 0.057183813 0.61900002
-0.041785717 0.062357146 0.67500001
-0.040500004 0.062357146 0.67500001
-0.039272383 0.06244953 0.67600006
-0.037984766 0.06244953 0.67600006
-0.036914289 0.062819049 0.68000001
-0.035776194 0.063096195 0.68300003
-0.034424763 0.063003816 0.68200004
-0.033174288 0.063096195 0.68300003
-0.031920001 0.063188575 0.68400002
-0.030617144 0.063188575 0.68400002
-0.029314287 0.063188575 0.68400002
-0.21254097 0.066377148 0.70400006
-0.21120001 0.066377148 0.70400006
-0.20985906 0.066377148 0.70400006
-0.20822191 0.066282861 0.70300001
-0.20717716 0.066377148 0.70400006
-0.20583621 0.066377148 0.70400006
-0.20478573 0.066471435 0.70500004
-0.20344287 0.066471435 0.70500004
-0.20267335 0.066660002 0.70700002
-0.20132668 0.066660002 0.70700002
-0.20026287 0.066754289 0.708
-0.1994762 0.066942863 0.71000004
-0.19840287 0.06703715 0.71100003
-0.19704859 0.06703715 0.71100003
-0.1956943 0.06703715 0.71100003
-0.19488668 0.067225717 0.71300006
-0.19380002 0.067320004 0.71400005
-0.19244002 0.067320004 0.71400005
-0.16293335 0.068640001 0.72800004
-0.16110286 0.068451434 0.72600001
-0.15972 0.068451434 0.72600001
-0.15833715 0.068451434 0.72600001
-0.1569543 0.068451434 0.72600001
-0.15557145 0.068451434 0.72600001
-0.15461335 0.068640001 0.72800004
-0.15322667 0.068640001 0.72800004
-0.15246573 0.068922862 0.73100001
-0.15169334 0.069205716 0.73400003
-0.15070477 0.06939429 0.73600006
-0.14930287 0.06939429 0.73600006
-0.14810191 0.069488578 0.73700005
-0.1466981 0.069488578 0.73700005
-0.14529429 0.069488578 0.73700005
-0.14389049 0.069488578 0.73700005
-0.14248668 0.069488578 0.73700005
-0.14108287 0.069488578 0.73700005
-0.13967906 0.069488578 0.73700005
-0.13827525 0.069488578 0.73700005
-0.13687144 0.069488578 0.73700005
-0.12885049 0.066094287 0.70100003
-0.12751524 0.066094287 0.70100003
-0.12618001 0.066094287 0.70100003
-0.12484477 0.066094287 0.70100003
-0.12350953 0.066094287 0.70100003
-0.12200001 0.066000007 0.70000005
-0.12066668 0.066000007 0.70000005
-0.11933334 0.066000007 0.70000005
-0.11800001 0.066000007 0.70000005
-0.11666667 0.066000007 0.70000005
-0.11533334 0.066000007 0.70000005
-0.11416286 0.066094287 0.70100003
-0.11282763 0.066094287 0.70100003
-0.11181048 0.066282861 0.70300001
-0.11078572 0.066471435 0.70500004
-0.10975334 0.066660002 0.70700002
-0.10856001 0.066754289 0.708
-0.10751429 0.066942863 0.71000004
-0.10631143 0.06703715 0.71100003
-0.10480953 0.066942863 0.71000004
-0.10316572 0.066754289 0.708
-0.10181715 0.066754289 0.708
-0.10032667 0.066660002 0.70700002
-0.098700009 0.066471435 0.70500004
-0.097219057 0.066377148 0.70400006
-0.095741913 0.066282861 0.70300001
-0.094402865 0.066282861 0.70300001
-0.093063816 0.066282861 0.70300001
-0.091463819 0.066094287 0.70100003
-0.090128578 0.066094287 0.70100003
-0.088793337 0.066094287 0.70100003
-0.073690481 0.05836286 0.61900002
-0.072511435 0.05836286 0.61900002
-0.071332388 0.05836286 0.61900002
-0.070153341 0.05836286 0.61900002
-0.069085717 0.058457147 0.62
-0.067904763 0.058457147 0.62
-0.066939048 0.058645718 0.62200004
-0.065754287 0.058645718 0.62200004
-0.064673334 0.058740005 0.62300003
-0.063486673 0.058740005 0.62300003
-0.062400006 0.058834288 0.62400001
-0.061309528 0.058928575 0.625
-0.060119051 0.058928575 0.625
-0.059022862 0.059022862 0.62600005
-0.057922862 0.059117146 0.62700003
-0.056819052 0.059211433 0.62800002
-0.055622861 0.059211433 0.62800002
-0.05442667 0.059211433 0.62800002
-0.050791431 0.057797145 0.61300004
-0.048535243 0.057891432 0.61400002
-0.047520004 0.058080003 0.61600006
-0.046346668 0.058080003 0.61600006
-0.045173336 0.058080003 0.61600006
-0.044071432 0.05817429 0.61700004
-0.042896193 0.05817429 0.61700004
-0.041720957 0.05817429 0.61700004
-0.040545717 0.05817429 0.61700004
-0.040500004 0.063642859 0.67500001
-0.039272383 0.063737147 0.67600006
-0.037928574 0.063642859 0.67500001
-0.035776194 0.064397149 0.68300003
-0.034323812 0.064114287 0.68000001
-0.033125717 0.064302862 0.68200004
-0.031826667 0.064302862 0.68200004
-0.2129705 0.067429528 0.70100003
-0.21254097 0.067718096 0.70400006
-0.21120001 0.067718096 0.70400006
-0.20956096 0.067621909 0.70300001
-0.20822191 0.067621909 0.70300001
-0.20688286 0.067621909 0.70300001
-0.20583621 0.067718096 0.70400006
-0.20449525 0.067718096 0.70400006
-0.20344287 0.067814291 0.70500004
-0.20267335 0.068006672 0.70700002
-0.20132668 0.068006672 0.70700002
-0.20026287 0.068102859 0.708
-0.1994762 0.06829524 0.71000004
-0.19812383 0.06829524 0.71000004
-0.19704859 0.068391435 0.71100003
-0.19624478 0.068583816 0.71300006
-0.19516002 0.068680003 0.71400005
-0.19515716 0.069160961 0.71900004
-0.16248572 0.069834292 0.72600001
-0.16110286 0.069834292 0.72600001
-0.15972 0.069834292 0.72600001
-0.15811905 0.069738097 0.72500002
-0.1567381 0.069738097 0.72500002
-0.15535715 0.069738097 0.72500002
-0.15418859 0.069834292 0.72600001
-0.15280573 0.069834292 0.72600001
-0.15184002 0.070026673 0.72800004
-0.15128002 0.070411436 0.73200005
-0.15090953 0.070892386 0.73700005
-0.14950572 0.070892386 0.73700005
-0.14810191 0.070892386 0.73700005
-0.1466981 0.070892386 0.73700005
-0.14529429 0.070892386 0.73700005
-0.14389049 0.070892386 0.73700005
-0.14248668 0.070892386 0.73700005
-0.14108287 0.070892386 0.73700005
-0.13967906 0.070892386 0.73700005
-0.13827525 0.070892386 0.73700005
-0.13687144 0.070892386 0.73700005
-0.13546763 0.070892386 0.73700005
-0.12787905 0.067621909 0.70300001
-0.12654001 0.067621909 0.70300001
-0.12484477 0.067429528 0.70100003
-0.12350953 0.067429528 0.70100003
-0.12217429 0.067429528 0.70100003
-0.12083905 0.067429528 0.70100003
-0.11950382 0.067429528 0.70100003
-0.11816858 0.067429528 0.70100003
-0.11683334 0.067429528 0.70100003
-0.1154981 0.067429528 0.70100003
-0.11416286 0.067429528 0.70100003
-0.11314953 0.067621909 0.70300001
-0.11196953 0.067718096 0.70400006
-0.11078572 0.067814291 0.70500004
-0.10975334 0.068006672 0.70700002
-0.10856001 0.068102859 0.708
-0.10751429 0.06829524 0.71000004
-0.10631143 0.068391435 0.71100003
-0.10480953 0.06829524 0.71000004
-0.10345715 0.06829524 0.71000004
-0.10181715 0.068102859 0.708
-0.10032667 0.068006672 0.70700002
-0.09898001 0.068006672 0.70700002
-0.097357146 0.067814291 0.70500004
-0.095741913 0.067621909 0.70300001
-0.094402865 0.067621909 0.70300001
-0.093063816 0.067621909 0.70300001
-0.091463819 0.067429528 0.70100003
-0.074748576 0.059445716 0.61800003
-0.073690481 0.059541907 0.61900002
-0.072511435 0.059541907 0.61900002
-0.071332388 0.059541907 0.61900002
-0.070153341 0.059541907 0.61900002
-0.069085717 0.059638098 0.62
-0.067904763 0.059638098 0.62
-0.066723816 0.059638098 0.62
-0.065542862 0.059638098 0.62
-0.064569525 0.059830479 0.62200004
-0.063384764 0.059830479 0.62200004
-0.062400006 0.060022861 0.62400001
-0.061211433 0.060022861 0.62400001
-0.060119051 0.060119051 0.625
-0.059022862 0.060215242 0.62600005
-0.057922862 0.060311433 0.62700003
-0.056819052 0.060407624 0.62800002
-0.055622861 0.060407624 0.62800002
-0.049623813 0.058964767 0.61300004
-0.048535243 0.059060957 0.61400002
-0.047442861 0.059157148 0.61500001
-0.046346668 0.059253339 0.61600006
-0.045173336 0.059253339 0.61600006
-0.044000003 0.059253339 0.61600006
-0.042826671 0.059253339 0.61600006
-0.041653335 0.059253339 0.61600006
-0.040480003 0.059253339 0.61600006
-0.03924286 0.059157148 0.61500001
-0.038071431 0.059157148 0.61500001
-0.036960002 0.059253339 0.61600006
-0.03578667 0.059253339 0.61600006
-0.035723813 0.065601908 0.68200004
-0.034323812 0.065409526 0.68000001
-0.033125717 0.065601908 0.68200004
-0.031873334 0.065698102 0.68300003
-0.030572383 0.065698102 0.68300003
-0.2162562 0.068960957 0.70300001
-0.21491715 0.068960957 0.70300001
-0.2129705 0.068764769 0.70100003
-0.21163525 0.068764769 0.70100003
-0.21090001 0.068960957 0.70300001
-0.20956096 0.068960957 0.70300001
-0.20822191 0.068960957 0.70300001
-0.20688286 0.068960957 0.70300001
-0.20583621 0.069059052 0.70400006
-0.20449525 0.069059052 0.70400006
-0.20344287 0.069157146 0.70500004
-0.20210001 0.069157146 0.70500004
-0.20132668 0.069353335 0.70700002
-0.20026287 0.069451436 0.708
-0.1989143 0.069451436 0.708
-0.19812383 0.069647625 0.71000004
-0.19704859 0.069745719 0.71100003
-0.16248572 0.071217149 0.72600001
-0.16110286 0.071217149 0.72600001
-0.15972 0.071217149 0.72600001
-0.15833715 0.071217149 0.72600001
-0.1569543 0.071217149 0.72600001
-0.15557145 0.071217149 0.72600001
-0.15418859 0.071217149 0.72600001
-0.15280573 0.071217149 0.72600001
-0.15142287 0.071217149 0.72600001
-0.15128002 0.071805716 0.73200005
-0.15090953 0.072296195 0.73700005
-0.14950572 0.072296195 0.73700005
-0.14810191 0.072296195 0.73700005
-0.1466981 0.072296195 0.73700005
-0.14529429 0.072296195 0.73700005
-0.14389049 0.072296195 0.73700005
-0.14248668 0.072296195 0.73700005
-0.14108287 0.072296195 0.73700005
-0.13967906 0.072296195 0.73700005
-0.13827525 0.072296195 0.73700005
-0.13724287 0.072492383 0.73900002
-0.13583525 0.072492383 0.73900002
-0.12806097 0.069059052 0.70400006
-0.12672001 0.069059052 0.70400006
-0.12520096 0.068960957 0.70300001
-0.12386192 0.068960957 0.70300001
-0.12217429 0.068764769 0.70100003
-0.12083905 0.068764769 0.70100003
-0.11950382 0.068764769 0.70100003
-0.11816858 0.068764769 0.70100003
-0.11683334 0.068764769 0.70100003
-0.1154981 0.068764769 0.70100003
-0.11448858 0.068960957 0.70300001
-0.11314953 0.068960957 0.70300001
-0.11196953 0.069059052 0.70400006
-0.11110001 0.069353335 0.70700002
-0.10990858 0.069451436 0.708
-0.10886668 0.069647625 0.71000004
-0.10766573 0.069745719 0.71100003
-0.10661048 0.069941908 0.71300006
-0.10495715 0.069745719 0.71100003
-0.10360286 0.069745719 0.71100003
-0.10210477 0.069647625 0.71000004
-0.10046858 0.069451436 0.708
-0.09898001 0.069353335 0.70700002
-0.097357146 0.069157146 0.70500004
-0.095741913 0.068960957 0.70300001
-0.094402865 0.068960957 0.70300001
-0.092799053 0.068764769 0.70100003
-0.078406669 0.060720958 0.61900002
-0.077227622 0.060720958 0.61900002
-0.075925723 0.06062286 0.61800003
-0.074748576 0.06062286 0.61800003
-0.073571436 0.06062286 0.61800003
-0.072394289 0.06062286 0.61800003
-0.071217149 0.06062286 0.61800003
-0.070040002 0.06062286 0.61800003
-0.068862863 0.06062286 0.61800003
-0.067795239 0.060720958 0.61900002
-0.066723816 0.060819052 0.62
-0.065437146 0.060720958 0.61900002
-0.064361908 0.060819052 0.62
-0.063079052 0.060720958 0.61900002
-0.062200002 0.061015241 0.62200004
-0.061015241 0.061015241 0.62200004
-0.059830479 0.061015241 0.62200004
-0.057702862 0.06003429 0.61200005
-0.056537148 0.06003429 0.61200005
-0.055371433 0.06003429 0.61200005
-0.054205719 0.06003429 0.61200005
-0.053040005 0.06003429 0.61200005
-0.051874287 0.06003429 0.61200005
-0.050708573 0.06003429 0.61200005
-0.049542859 0.06003429 0.61200005
-0.048456192 0.060132384 0.61300004
-0.047442861 0.060328577 0.61500001
-0.046271432 0.060328577 0.61500001
-0.045100003 0.060328577 0.61500001
-0.044000003 0.060426671 0.61600006
-0.042757146 0.060328577 0.61500001
-0.041585717 0.060328577 0.61500001
-0.040414289 0.060328577 0.61500001
-0.03924286 0.060328577 0.61500001
-0.038071431 0.060328577 0.61500001
-0.036960002 0.060426671 0.61600006
-0.03578667 0.060426671 0.61600006
-0.03561905 0.066704765 0.68000001
-0.034323812 0.066704765 0.68000001
-0.033125717 0.066900954 0.68200004
-0.21564096 0.070100002 0.70100003
-0.21430573 0.070100002 0.70100003
-0.2129705 0.070100002 0.70100003
-0.21163525 0.070100002 0.70100003
-0.21030001 0.070100002 0.70100003
-0.20956096 0.070300005 0.70300001
-0.20822191 0.070300005 0.70300001
-0.20688286 0.070300005 0.70300001
-0.20583621 0.070400007 0.70400006
-0.20449525 0.070400007 0.70400006
-0.2031543 0.070400007 0.70400006
-0.20210001 0.070500001 0.70500004
-0.20075716 0.070500001 0.70500004
-0.19998002 0.070700005 0.70700002
-0.16248572 0.072600007 0.72600001
-0.16110286 0.072600007 0.72600001
-0.15972 0.072600007 0.72600001
-0.15833715 0.072600007 0.72600001
-0.1567381 0.072500005 0.72500002
-0.15535715 0.072500005 0.72500002
-0.15418859 0.072600007 0.72600001
-0.15280573 0.072600007 0.72600001
-0.15142287 0.072600007 0.72600001
-0.15045334 0.072800003 0.72800004
-0.15090953 0.073700003 0.73700005
-0.14950572 0.073700003 0.73700005
-0.14850383 0.073900007 0.73900002
-0.1470962 0.073900007 0.73900002
-0.14568858 0.073900007 0.73900002
-0.14428096 0.073900007 0.73900002
-0.14287335 0.073900007 0.73900002
-0.14146572 0.073900007 0.73900002
-0.1400581 0.073900007 0.73900002
-0.13865049 0.073900007 0.73900002
-0.13724287 0.073900007 0.73900002
-0.13583525 0.073900007 0.73900002
-0.12824287 0.070500001 0.70500004
-0.1269 0.070500001 0.70500004
-0.12537906 0.070400007 0.70400006
-0.12386192 0.070300005 0.70300001
-0.12252287 0.070300005 0.70300001
-0.12118382 0.070300005 0.70300001
-0.11984477 0.070300005 0.70300001
-0.11816858 0.070100002 0.70100003
-0.11716668 0.070300005 0.70300001
-0.11582763 0.070300005 0.70300001
-0.11448858 0.070300005 0.70300001
-0.11331049 0.070400007 0.70400006
-0.11212858 0.070500001 0.70500004
-0.11110001 0.070700005 0.70700002
-0.10990858 0.070800006 0.708
-0.10886668 0.071000002 0.71000004
-0.10766573 0.071100004 0.71100003
-0.10661048 0.071300007 0.71300006
-0.10525239 0.071300007 0.71300006
-0.10389429 0.071300007 0.71300006
-0.10224858 0.071100004 0.71100003
-0.10075239 0.071000002 0.71000004
-0.079457149 0.061800003 0.61800003
-0.078280002 0.061800003 0.61800003
-0.077102862 0.061800003 0.61800003
-0.075802863 0.061700005 0.61700004
-0.074627623 0.061700005 0.61700004
-0.073452383 0.061700005 0.61700004
-0.072277151 0.061700005 0.61700004
-0.071217149 0.061800003 0.61800003
-0.070040002 0.061800003 0.61800003
-0.068862863 0.061800003 0.61800003
-0.067795239 0.061900005 0.61900002
-0.066616192 0.061900005 0.61900002
-0.065437146 0.061900005 0.61900002
-0.064258099 0.061900005 0.61900002
-0.06297715 0.061800003 0.61800003
-0.061900005 0.061900005 0.61900002
-0.060720958 0.061900005 0.61900002
-0.059445716 0.061800003 0.61800003
-0.057702862 0.061200004 0.61200005
-0.056537148 0.061200004 0.61200005
-0.055371433 0.061200004 0.61200005
-0.054205719 0.061200004 0.61200005
-0.053040005 0.061200004 0.61200005
-0.051789526 0.061100002 0.611
-0.050708573 0.061200004 0.61200005
-0.049542859 0.061200004 0.61200005
-0.048377145 0.061200004 0.61200005
-0.047365718 0.061400004 0.61400002
-0.046271432 0.061500005 0.61500001
-0.045026671 0.061400004 0.61400002
-0.043928575 0.061500005 0.61500001
-0.042687621 0.061400004 0.61400002
-0.0415181 0.061400004 0.61400002
-0.040348575 0.061400004 0.61400002
-0.039179049 0.061400004 0.61400002
-0.038071431 0.061500005 0.61500001
-0.036900003 0.061500005 0.61500001
-0.035728574 0.061500005 0.61500001
-0.03561905 0.068000004 0.68000001
-0.034323812 0.068000004 0.68000001
-0.033028573 0.068000004 0.68000001
-0.2157381 0.071027622 0.69700003
-0.21441048 0.071027622 0.69700003
-0.21400002 0.071333341 0.70000005
-0.21266668 0.071333341 0.70000005
-0.21133335 0.071333341 0.70000005
-0.21000001 0.071333341 0.70000005
-0.20896478 0.071435243 0.70100003
-0.20762953 0.071435243 0.70100003
-0.20688286 0.071639054 0.70300001
-0.20554382 0.071639054 0.70300001
-0.20449525 0.071740955 0.70400006
-0.2031543 0.071740955 0.70400006
-0.20181334 0.071740955 0.70400006
-0.20075716 0.071842864 0.70500004
-0.16248572 0.073982865 0.72600001
-0.16110286 0.073982865 0.72600001
-0.15972 0.073982865 0.72600001
-0.15833715 0.073982865 0.72600001
-0.1569543 0.073982865 0.72600001
-0.15557145 0.073982865 0.72600001
-0.15418859 0.073982865 0.72600001
-0.15280573 0.073982865 0.72600001
-0.15142287 0.073982865 0.72600001
-0.15045334 0.074186675 0.72800004
-0.15090953 0.075103812 0.73700005
-0.14991143 0.075307623 0.73900002
-0.14850383 0.075307623 0.73900002
-0.1470962 0.075307623 0.73900002
-0.14568858 0.075307623 0.73900002
-0.14428096 0.075307623 0.73900002
-0.14287335 0.075307623 0.73900002
-0.14146572 0.075307623 0.73900002
-0.1400581 0.075307623 0.73900002
-0.13865049 0.075307623 0.73900002
-0.13742858 0.075409532 0.74000001
-0.12995334 0.072046675 0.70700002
-0.12860668 0.072046675 0.70700002
-0.12726001 0.072046675 0.70700002
-0.12555715 0.071842864 0.70500004
-0.1240381 0.071740955 0.70400006
-0.12269715 0.071740955 0.70400006
-0.12118382 0.071639054 0.70300001
-0.11984477 0.071639054 0.70300001
-0.11850572 0.071639054 0.70300001
-0.11716668 0.071639054 0.70300001
-0.11599239 0.071740955 0.70400006
-0.11465143 0.071740955 0.70400006
-0.11347143 0.071842864 0.70500004
-0.11244667 0.072046675 0.70700002
-0.11110001 0.072046675 0.70700002
-0.10990858 0.072148576 0.708
-0.10886668 0.072352387 0.71000004
-0.10796858 0.072658099 0.71300006
-0.10661048 0.072658099 0.71300006
-0.10525239 0.072658099 0.71300006
-0.10389429 0.072658099 0.71300006
-0.10253619 0.072658099 0.71300006
-0.079457149 0.06297715 0.61800003
-0.078153342 0.062875241 0.61700004
-0.077102862 0.06297715 0.61800003
-0.075802863 0.062875241 0.61700004
-0.074627623 0.062875241 0.61700004
-0.073452383 0.062875241 0.61700004
-0.072277151 0.062875241 0.61700004
-0.071101911 0.062875241 0.61700004
-0.069926672 0.062875241 0.61700004
-0.068751432 0.062875241 0.61700004
-0.067685716 0.06297715 0.61800003
-0.066508576 0.06297715 0.61800003
-0.065331429 0.06297715 0.61800003
-0.06415429 0.06297715 0.61800003
-0.062875241 0.062875241 0.61700004
-0.061700005 0.062875241 0.61700004
-0.060230479 0.062569529 0.61400002
-0.058772385 0.062263813 0.611
-0.057420004 0.062060002 0.60900003
-0.056260005 0.062060002 0.60900003
-0.055100005 0.062060002 0.60900003
-0.053940002 0.062060002 0.60900003
-0.052780002 0.062060002 0.60900003
-0.051620003 0.062060002 0.60900003
-0.050460003 0.062060002 0.60900003
-0.049461909 0.062263813 0.611
-0.048298098 0.062263813 0.611
-0.047211431 0.062365718 0.61200005
-0.046045717 0.062365718 0.61200005
-0.044953335 0.062467624 0.61300004
-0.043785717 0.062467624 0.61300004
-0.0426181 0.062467624 0.61300004
-0.0415181 0.062569529 0.61400002
-0.040348575 0.062569529 0.61400002
-0.039179049 0.062569529 0.61400002
-0.038009528 0.062569529 0.61400002
-0.036900003 0.06267143 0.61500001
-0.035670478 0.062569529 0.61400002
-0.034613337 0.062773339 0.61600006
-0.03360286 0.063079052 0.61900002
-0.032423813 0.063079052 0.61900002
-0.2157381 0.072355241 0.69700003
-0.21441048 0.072355241 0.69700003
-0.21308286 0.072355241 0.69700003
-0.21205907 0.07245905 0.69800001
-0.21072954 0.07245905 0.69800001
-0.21000001 0.072666675 0.70000005
-0.20896478 0.072770484 0.70100003
-0.20762953 0.072770484 0.70100003
-0.20688286 0.072978102 0.70300001
-0.20554382 0.072978102 0.70300001
-0.20420477 0.072978102 0.70300001
-0.2031543 0.073081911 0.70400006
-0.20181334 0.073081911 0.70400006
-0.2004724 0.073081911 0.70400006
-0.16386858 0.075365722 0.72600001
-0.16248572 0.075365722 0.72600001
-0.16110286 0.075365722 0.72600001
-0.15972 0.075365722 0.72600001
-0.15833715 0.075365722 0.72600001
-0.1567381 0.075261913 0.72500002
-0.15535715 0.075261913 0.72500002
-0.1539762 0.075261913 0.72500002
-0.15280573 0.075365722 0.72600001
-0.15142287 0.075365722 0.72600001
-0.15004002 0.075365722 0.72600001
-0.15090953 0.076507621 0.73700005
-0.14991143 0.076715246 0.73900002
-0.14850383 0.076715246 0.73900002
-0.1470962 0.076715246 0.73900002
-0.14568858 0.076715246 0.73900002
-0.14428096 0.076715246 0.73900002
-0.14306667 0.076819055 0.74000001
-0.14165716 0.076819055 0.74000001
-0.14024763 0.076819055 0.74000001
-0.1388381 0.076819055 0.74000001
-0.13742858 0.076819055 0.74000001
-0.12995334 0.073393337 0.70700002
-0.12860668 0.073393337 0.70700002
-0.12726001 0.073393337 0.70700002
-0.12591334 0.073393337 0.70700002
-0.12421429 0.07318572 0.70500004
-0.12287144 0.07318572 0.70500004
-0.1213562 0.073081911 0.70400006
-0.12001525 0.073081911 0.70400006
-0.11867429 0.073081911 0.70400006
-0.11733334 0.073081911 0.70400006
-0.11615715 0.07318572 0.70500004
-0.1148143 0.07318572 0.70500004
-0.11347143 0.07318572 0.70500004
-0.11244667 0.073393337 0.70700002
-0.11110001 0.073393337 0.70700002
-0.10990858 0.073497146 0.708
-0.10886668 0.073704764 0.71000004
-0.10796858 0.074016199 0.71300006
-0.10661048 0.074016199 0.71300006
-0.10525239 0.074016199 0.71300006
-0.10389429 0.074016199 0.71300006
-0.10253619 0.074016199 0.71300006
-0.080503814 0.064050481 0.61700004
-0.079328574 0.064050481 0.61700004
-0.078153342 0.064050481 0.61700004
-0.076978102 0.064050481 0.61700004
-0.075802863 0.064050481 0.61700004
-0.07450667 0.063946672 0.61600006
-0.073333338 0.063946672 0.61600006
-0.072160006 0.063946672 0.61600006
-0.070986673 0.063946672 0.61600006
-0.069813341 0.063946672 0.61600006
-0.068640001 0.063946672 0.61600006
-0.067466669 0.063946672 0.61600006
-0.06640096 0.064050481 0.61700004
-0.06522572 0.064050481 0.61700004
-0.063946672 0.063946672 0.61600006
-0.06267143 0.063842863 0.61500001
-0.061400004 0.063739054 0.61400002
-0.06003429 0.063531436 0.61200005
-0.058580004 0.063220002 0.60900003
-0.057420004 0.063220002 0.60900003
-0.056167621 0.063116193 0.60800004
-0.055100005 0.063220002 0.60900003
-0.053940002 0.063220002 0.60900003
-0.052780002 0.063220002 0.60900003
-0.051620003 0.063220002 0.60900003
-0.050460003 0.063220002 0.60900003
-0.049300004 0.063220002 0.60900003
-0.048140004 0.063220002 0.60900003
-0.046980005 0.063220002 0.60900003
-0.045970481 0.06342762 0.611
-0.044880003 0.063531436 0.61200005
-0.043714289 0.063531436 0.61200005
-0.042548575 0.063531436 0.61200005
-0.041450478 0.063635245 0.61300004
-0.04028286 0.063635245 0.61300004
-0.039115239 0.063635245 0.61300004
-0.038009528 0.063739054 0.61400002
-0.036840003 0.063739054 0.61400002
-0.035670478 0.063739054 0.61400002
-0.034613337 0.063946672 0.61600006
-0.033548575 0.06415429 0.61800003
-0.032423813 0.064258099 0.61900002
-0.03021143 0.064569525 0.62200004
-0.031820003 0.080660008 0.77700001
-0.21613145 0.073365718 0.69400001
-0.21511906 0.073471434 0.69500005
-0.21379524 0.073471434 0.69500005
-0.21247144 0.073471434 0.69500005
-0.21175525 0.07368286 0.69700003
-0.21042763 0.07368286 0.69700003
-0.20940001 0.073788576 0.69800001
-0.20896478 0.074105717 0.70100003
-0.20762953 0.074105717 0.70100003
-0.20688286 0.07431715 0.70300001
-0.20554382 0.07431715 0.70300001
-0.20420477 0.07431715 0.70300001
-0.2031543 0.074422859 0.70400006
-0.20181334 0.074422859 0.70400006
-0.16386858 0.07674858 0.72600001
-0.16248572 0.07674858 0.72600001
-0.16110286 0.07674858 0.72600001
-0.15972 0.07674858 0.72600001
-0.15811905 0.076642863 0.72500002
-0.1567381 0.076642863 0.72500002
-0.15535715 0.076642863 0.72500002
-0.1539762 0.076642863 0.72500002
-0.15259525 0.076642863 0.72500002
-0.1512143 0.076642863 0.72500002
-0.15004002 0.07674858 0.72600001
-0.15090953 0.077911437 0.73700005
-0.14991143 0.078122862 0.73900002
-0.14850383 0.078122862 0.73900002
-0.14729525 0.078228578 0.74000001
-0.14568858 0.078122862 0.73900002
-0.14447621 0.078228578 0.74000001
-0.14306667 0.078228578 0.74000001
-0.14165716 0.078228578 0.74000001
-0.14024763 0.078228578 0.74000001
-0.1388381 0.078228578 0.74000001
-0.13780001 0.078440003 0.74200004
-0.13657048 0.078545719 0.74300003
-0.12860668 0.074740008 0.70700002
-0.12726001 0.074740008 0.70700002
-0.12591334 0.074740008 0.70700002
-0.12421429 0.074528575 0.70500004
-0.12287144 0.074528575 0.70500004
-0.12152858 0.074528575 0.70500004
-0.12018573 0.074528575 0.70500004
-0.11884286 0.074528575 0.70500004
-0.11750001 0.074528575 0.70500004
-0.11615715 0.074528575 0.70500004
-0.1148143 0.074528575 0.70500004
-0.11379334 0.074740008 0.70700002
-0.11244667 0.074740008 0.70700002
-0.11110001 0.074740008 0.70700002
-0.10990858 0.074845716 0.708
-0.10886668 0.075057149 0.71000004
-0.10766573 0.075162865 0.71100003
-0.10661048 0.07537429 0.71300006
-0.10525239 0.07537429 0.71300006
-0.10389429 0.07537429 0.71300006
-0.10253619 0.07537429 0.71300006
-0.081679054 0.06522572 0.61700004
-0.080503814 0.06522572 0.61700004
-0.079328574 0.06522572 0.61700004
-0.078026675 0.065120004 0.61600006
-0.076853335 0.065120004 0.61600006
-0.075680003 0.065120004 0.61600006
-0.07450667 0.065120004 0.61600006
-0.073214293 0.065014288 0.61500001
-0.07204286 0.065014288 0.61500001
-0.070871435 0.065014288 0.61500001
-0.069700003 0.065014288 0.61500001
-0.068528578 0.065014288 0.61500001
-0.067357145 0.065014288 0.61500001
-0.06618572 0.065014288 0.61500001
-0.065014288 0.065014288 0.61500001
-0.063635245 0.064802863 0.61300004
-0.062365718 0.064697146 0.61200005
-0.061200004 0.064697146 0.61200005
-0.059740003 0.064380005 0.60900003
-0.058580004 0.064380005 0.60900003
-0.057325717 0.064274289 0.60800004
-0.056167621 0.064274289 0.60800004
-0.055009529 0.064274289 0.60800004
-0.053851433 0.064274289 0.60800004
-0.052693337 0.064274289 0.60800004
-0.051535241 0.064274289 0.60800004
-0.050377145 0.064274289 0.60800004
-0.04921905 0.064274289 0.60800004
-0.048060957 0.064274289 0.60800004
-0.046902861 0.064274289 0.60800004
-0.045744766 0.064274289 0.60800004
-0.044660002 0.064380005 0.60900003
-0.043500002 0.064380005 0.60900003
-0.042479049 0.06459143 0.611
-0.04138286 0.064697146 0.61200005
-0.040217146 0.064697146 0.61200005
-0.039115239 0.064802863 0.61300004
-0.037947621 0.064802863 0.61300004
-0.036780003 0.064802863 0.61300004
-0.035670478 0.064908579 0.61400002
-0.034557145 0.065014288 0.61500001
-0.033494286 0.06522572 0.61700004
-0.032423813 0.065437146 0.61900002
-0.03129524 0.065542862 0.62
-0.03021143 0.065754287 0.62200004
-0.029073335 0.065860003 0.62300003
-0.027886668 0.065860003 0.62300003
-0.026742859 0.06596572 0.62400001
-0.025554288 0.06596572 0.62400001
-0.21882859 0.07425715 0.69000006
-0.21751431 0.07425715 0.69000006
-0.21620001 0.07425715 0.69000006
-0.21519716 0.074364766 0.69100004
-0.21450001 0.074580006 0.69300002
-0.21379524 0.074795246 0.69500005
-0.21247144 0.074795246 0.69500005
-0.21175525 0.075010478 0.69700003
-0.21042763 0.075010478 0.69700003
-0.20940001 0.075118102 0.69800001
-0.20866668 0.075333342 0.70000005
-0.20733334 0.075333342 0.70000005
-0.2062943 0.075440958 0.70100003
-0.20554382 0.075656198 0.70300001
-0.20420477 0.075656198 0.70300001
-0.20286573 0.075656198 0.70300001
-0.20181334 0.075763814 0.70400006
-0.16386858 0.078131437 0.72600001
-0.16248572 0.078131437 0.72600001
-0.16088097 0.078023814 0.72500002
-0.15950002 0.078023814 0.72500002
-0.15811905 0.078023814 0.72500002
-0.1567381 0.078023814 0.72500002
-0.15535715 0.078023814 0.72500002
-0.1539762 0.078023814 0.72500002
-0.15259525 0.078023814 0.72500002
-0.1512143 0.078023814 0.72500002
-0.15004002 0.078131437 0.72600001
-0.14865716 0.078131437 0.72600001
-0.1501143 0.079638101 0.74000001
-0.14870477 0.079638101 0.74000001
-0.14729525 0.079638101 0.74000001
-0.14588572 0.079638101 0.74000001
-0.14447621 0.079638101 0.74000001
-0.14306667 0.079638101 0.74000001
-0.14204001 0.079853341 0.74200004
-0.14062667 0.079853341 0.74200004
-0.13921334 0.079853341 0.74200004
-0.13798572 0.079960957 0.74300003
-0.13657048 0.079960957 0.74300003
-0.12878858 0.076194294 0.708
-0.12726001 0.07608667 0.70700002
-0.12591334 0.07608667 0.70700002
-0.12456667 0.07608667 0.70700002
-0.12322001 0.07608667 0.70700002
-0.12187334 0.07608667 0.70700002
-0.12052667 0.07608667 0.70700002
-0.11918001 0.07608667 0.70700002
-0.11783334 0.07608667 0.70700002
-0.11648668 0.07608667 0.70700002
-0.11514001 0.07608667 0.70700002
-0.11379334 0.07608667 0.70700002
-0.11244667 0.07608667 0.70700002
-0.11125715 0.076194294 0.708
-0.10990858 0.076194294 0.708
-0.10856001 0.076194294 0.708
-0.10751429 0.076409526 0.71000004
-0.10631143 0.07651715 0.71100003
-0.10495715 0.07651715 0.71100003
-0.10389429 0.07673239 0.71300006
-0.10253619 0.07673239 0.71300006
-0.082720004 0.066293336 0.61600006
-0.081546672 0.066293336 0.61600006
-0.080373339 0.066293336 0.61600006
-0.079200007 0.066293336 0.61600006
-0.078026675 0.066293336 0.61600006
-0.076853335 0.066293336 0.61600006
-0.07555715 0.06618572 0.61500001
-0.074264765 0.066078097 0.61400002
-0.07309524 0.066078097 0.61400002
-0.071925722 0.066078097 0.61400002
-0.070640959 0.06597048 0.61300004
-0.069473341 0.06597048 0.61300004
-0.068305716 0.06597048 0.61300004
-0.067138098 0.06597048 0.61300004
-0.065862864 0.065862864 0.61200005
-0.06459143 0.065755241 0.611
-0.063220002 0.065540001 0.60900003
-0.061856195 0.065324768 0.60700005
-0.060700003 0.065324768 0.60700005
-0.059543815 0.065324768 0.60700005
-0.058387622 0.065324768 0.60700005
-0.057231434 0.065324768 0.60700005
-0.056075241 0.065324768 0.60700005
-0.054919053 0.065324768 0.60700005
-0.053762861 0.065324768 0.60700005
-0.052606668 0.065324768 0.60700005
-0.05145048 0.065324768 0.60700005
-0.050294288 0.065324768 0.60700005
-0.049138099 0.065324768 0.60700005
-0.04790286 0.065217145 0.60600001
-0.046748575 0.065217145 0.60600001
-0.04559429 0.065217145 0.60600001
-0.044513337 0.065324768 0.60700005
-0.043357145 0.065324768 0.60700005
-0.042270478 0.065432385 0.60800004
-0.041112382 0.065432385 0.60800004
-0.040151432 0.065755241 0.611
-0.038987622 0.065755241 0.611
-0.037885718 0.065862864 0.61200005
-0.036780003 0.06597048 0.61300004
-0.035612382 0.06597048 0.61300004
-0.034500953 0.066078097 0.61400002
-0.033440001 0.066293336 0.61600006
-0.03231905 0.06640096 0.61700004
-0.031244764 0.066616192 0.61900002
-0.030114288 0.066723816 0.62
-0.029026669 0.066939048 0.62200004
-0.027886668 0.067046672 0.62300003
-0.026742859 0.067154288 0.62400001
-0.025554288 0.067154288 0.62400001
-0.024404764 0.067261912 0.625
-0.023251429 0.067369528 0.62600005
-0.022059049 0.067369528 0.62600005
-0.020866668 0.067369528 0.62600005
-0.22014287 0.075571433 0.69000006
-0.21882859 0.075571433 0.69000006
-0.21751431 0.075571433 0.69000006
-0.21651335 0.075680956 0.69100004
-0.21582001 0.075900003 0.69300002
-0.21480954 0.076009527 0.69400001
-0.21379524 0.07611905 0.69500005
-0.21247144 0.07611905 0.69500005
-0.21175525 0.076338097 0.69700003
-0.21042763 0.076338097 0.69700003
-0.20910001 0.076338097 0.69700003
-0.20866668 0.076666668 0.70000005
-0.20733334 0.076666668 0.70000005
-0.2062943 0.076776199 0.70100003
-0.20554382 0.076995246 0.70300001
-0.20420477 0.076995246 0.70300001
-0.20286573 0.076995246 0.70300001
-0.16386858 0.079514287 0.72600001
-0.16248572 0.079514287 0.72600001
-0.16088097 0.079404764 0.72500002
-0.15950002 0.079404764 0.72500002
-0.15811905 0.079404764 0.72500002
-0.1567381 0.079404764 0.72500002
-0.15535715 0.079404764 0.72500002
-0.1539762 0.079404764 0.72500002
-0.15259525 0.079404764 0.72500002
-0.1512143 0.079404764 0.72500002
-0.15004002 0.079514287 0.72600001
-0.14865716 0.079514287 0.72600001
-0.1501143 0.081047624 0.74000001
-0.14870477 0.081047624 0.74000001
-0.14769334 0.081266671 0.74200004
-0.14628001 0.081266671 0.74200004
-0.14486668 0.081266671 0.74200004
-0.14345334 0.081266671 0.74200004
-0.14223143 0.081376195 0.74300003
-0.1408162 0.081376195 0.74300003
-0.13940096 0.081376195 0.74300003
-0.13835715 0.081595242 0.74500006
-0.13693811 0.081595242 0.74500006
-0.13551906 0.081595242 0.74500006
-0.12726001 0.07743334 0.70700002
-0.12591334 0.07743334 0.70700002
-0.12456667 0.07743334 0.70700002
-0.12322001 0.07743334 0.70700002
-0.12187334 0.07743334 0.70700002
-0.12052667 0.07743334 0.70700002
-0.11918001 0.07743334 0.70700002
-0.11800001 0.077542864 0.708
-0.11648668 0.07743334 0.70700002
-0.11530287 0.077542864 0.708
-0.11395429 0.077542864 0.708
-0.11260572 0.077542864 0.708
-0.11125715 0.077542864 0.708
-0.10990858 0.077542864 0.708
-0.10856001 0.077542864 0.708
-0.10751429 0.077761911 0.71000004
-0.10616191 0.077761911 0.71000004
-0.10480953 0.077761911 0.71000004
-0.10360286 0.077871434 0.71100003
-0.083757147 0.067357145 0.61500001
-0.082720004 0.067466669 0.61600006
-0.081546672 0.067466669 0.61600006
-0.080373339 0.067466669 0.61600006
-0.079200007 0.067466669 0.61600006
-0.077900007 0.067357145 0.61500001
-0.076728575 0.067357145 0.61500001
-0.07543429 0.067247622 0.61400002
-0.074143812 0.067138098 0.61300004
-0.072976194 0.067138098 0.61300004
-0.071808577 0.067138098 0.61300004
-0.070640959 0.067138098 0.61300004
-0.069473341 0.067138098 0.61300004
-0.068194292 0.067028575 0.61200005
-0.067028575 0.067028575 0.61200005
-0.065755241 0.066919051 0.611
-0.064380005 0.066700004 0.60900003
-0.062908575 0.066371433 0.60600001
-0.06175429 0.066371433 0.60600001
-0.060500003 0.06626191 0.60500002
-0.059445716 0.066371433 0.60600001
-0.058291432 0.066371433 0.60600001
-0.057137147 0.066371433 0.60600001
-0.055982862 0.066371433 0.60600001
-0.054919053 0.066480957 0.60700005
-0.053762861 0.066480957 0.60700005
-0.052606668 0.066480957 0.60700005
-0.05145048 0.066480957 0.60700005
-0.050211433 0.066371433 0.60600001
-0.049057145 0.066371433 0.60600001
-0.047823813 0.06626191 0.60500002
-0.046671432 0.06626191 0.60500002
-0.04551905 0.06626191 0.60500002
-0.044366669 0.06626191 0.60500002
-0.043285716 0.066371433 0.60600001
-0.042200956 0.066480957 0.60700005
-0.041044764 0.066480957 0.60700005
-0.03995429 0.066590481 0.60800004
-0.038860004 0.066700004 0.60900003
-0.037823811 0.066919051 0.611
-0.036720004 0.067028575 0.61200005
-0.035612382 0.067138098 0.61300004
-0.034500953 0.067247622 0.61400002
-0.033440001 0.067466669 0.61600006
-0.03231905 0.067576192 0.61700004
-0.031194288 0.067685716 0.61800003
-0.030114288 0.067904763 0.62
-0.029026669 0.068123817 0.62200004
-0.027886668 0.068233341 0.62300003
-0.026700001 0.068233341 0.62300003
-0.025554288 0.068342865 0.62400001
-0.024404764 0.068452388 0.625
-0.023251429 0.068561912 0.62600005
-0.022059049 0.068561912 0.62600005
-0.22014287 0.076885723 0.69000006
-0.21851145 0.076774292 0.68900001
-0.21751431 0.076885723 0.69000006
-0.21620001 0.076885723 0.69000006
-0.21519716 0.076997146 0.69100004
-0.21480954 0.077331431 0.69400001
-0.21379524 0.077442862 0.69500005
-0.21247144 0.077442862 0.69500005
-0.21175525 0.077665716 0.69700003
-0.21042763 0.077665716 0.69700003
-0.20910001 0.077665716 0.69700003
-0.20866668 0.078000002 0.70000005
-0.20733334 0.078000002 0.70000005
-0.2062943 0.078111432 0.70100003
-0.20554382 0.078334294 0.70300001
-0.18013334 0.086022861 0.77200001
-0.17056286 0.082122862 0.73700005
-0.16915905 0.082122862 0.73700005
-0.16707239 0.081788577 0.73400003
-0.16432001 0.081120007 0.72800004
-0.16248572 0.080897145 0.72600001
-0.16088097 0.080785722 0.72500002
-0.15950002 0.080785722 0.72500002
-0.15811905 0.080785722 0.72500002
-0.1567381 0.080785722 0.72500002
-0.15535715 0.080785722 0.72500002
-0.1539762 0.080785722 0.72500002
-0.15259525 0.080785722 0.72500002
-0.1512143 0.080785722 0.72500002
-0.14983334 0.080785722 0.72500002
-0.14845239 0.080785722 0.72500002
-0.14707144 0.080785722 0.72500002
-0.14910668 0.082680002 0.74200004
-0.14789239 0.082791433 0.74300003
-0.14647715 0.082791433 0.74300003
-0.14486668 0.082680002 0.74200004
-0.14364667 0.082791433 0.74300003
-0.14223143 0.082791433 0.74300003
-0.14119525 0.083014295 0.74500006
-0.14015144 0.083237149 0.74700004
-0.13872857 0.083237149 0.74700004
-0.12591334 0.078780003 0.70700002
-0.12456667 0.078780003 0.70700002
-0.12322001 0.078780003 0.70700002
-0.12204573 0.078891434 0.708
-0.12069715 0.078891434 0.708
-0.11934858 0.078891434 0.708
-0.11800001 0.078891434 0.708
-0.11665144 0.078891434 0.708
-0.11530287 0.078891434 0.708
-0.11395429 0.078891434 0.708
-0.11260572 0.078891434 0.708
-0.11125715 0.078891434 0.708
-0.10990858 0.078891434 0.708
-0.10856001 0.078891434 0.708
-0.10721143 0.078891434 0.708
-0.10616191 0.079114288 0.71000004
-0.10480953 0.079114288 0.71000004
-0.10345715 0.079114288 0.71000004
-0.083757147 0.068528578 0.61500001
-0.082585722 0.068528578 0.61500001
-0.08141429 0.068528578 0.61500001
-0.080242865 0.068528578 0.61500001
-0.079071432 0.068528578 0.61500001
-0.07777334 0.068417147 0.61400002
-0.076603815 0.068417147 0.61400002
-0.07531143 0.068305716 0.61300004
-0.074143812 0.068305716 0.61300004
-0.072976194 0.068305716 0.61300004
-0.071691431 0.068194292 0.61200005
-0.070525721 0.068194292 0.61200005
-0.069360003 0.068194292 0.61200005
-0.068194292 0.068194292 0.61200005
-0.066919051 0.068082862 0.611
-0.065432385 0.067748576 0.60800004
-0.063957147 0.067414291 0.60500002
-0.062804766 0.067414291 0.60500002
-0.061550479 0.06730286 0.60400003
-0.060400005 0.06730286 0.60400003
-0.059347622 0.067414291 0.60500002
-0.058195241 0.067414291 0.60500002
-0.057042859 0.067414291 0.60500002
-0.055890478 0.067414291 0.60500002
-0.054828577 0.067525722 0.60600001
-0.053674288 0.067525722 0.60600001
-0.052520003 0.067525722 0.60600001
-0.051196195 0.06730286 0.60400003
-0.050045718 0.06730286 0.60400003
-0.04889524 0.06730286 0.60400003
-0.047744766 0.06730286 0.60400003
-0.046594288 0.06730286 0.60400003
-0.045443814 0.06730286 0.60400003
-0.044293337 0.06730286 0.60400003
-0.043214288 0.067414291 0.60500002
-0.042131431 0.067525722 0.60600001
-0.040977146 0.067525722 0.60600001
-0.039888576 0.067637146 0.60700005
-0.038796194 0.067748576 0.60800004
-0.037700001 0.067860007 0.60900003
-0.036720004 0.068194292 0.61200005
-0.035612382 0.068305716 0.61300004
-0.034500953 0.068417147 0.61400002
-0.033385716 0.068528578 0.61500001
-0.03231905 0.068751432 0.61700004
-0.031143812 0.068751432 0.61700004
-0.030065717 0.068974294 0.61900002
-0.028933335 0.069085717 0.62
-0.027841907 0.069308579 0.62200004
-0.026700001 0.069420002 0.62300003
-0.025513334 0.069420002 0.62300003
-0.024365716 0.069531433 0.62400001
-0.023251429 0.069754288 0.62600005
-0.022059049 0.069754288 0.62600005
-0.22570954 0.078766674 0.69500005
-0.22406287 0.078653336 0.69400001
-0.22113621 0.078086674 0.68900001
-0.21982382 0.078086674 0.68900001
-0.21787716 0.077860005 0.68700004
-0.21751431 0.078200005 0.69000006
-0.21620001 0.078200005 0.69000006
-0.21519716 0.078313336 0.69100004
-0.21450001 0.078540005 0.69300002
-0.21379524 0.078766674 0.69500005
-0.21247144 0.078766674 0.69500005
-0.21114764 0.078766674 0.69500005
-0.21042763 0.078993335 0.69700003
-0.20910001 0.078993335 0.69700003
-0.20807049 0.079106674 0.69800001
-0.20762953 0.079446673 0.70100003
-0.20688286 0.079673335 0.70300001
-0.18553334 0.087266669 0.77000004
-0.18406668 0.087266669 0.77000004
-0.1747743 0.083526671 0.73700005
-0.17337048 0.083526671 0.73700005
-0.17196667 0.083526671 0.73700005
-0.17056286 0.083526671 0.73700005
-0.16915905 0.083526671 0.73700005
-0.16707239 0.083186671 0.73400003
-0.16522287 0.082960002 0.73200005
-0.16248572 0.082280003 0.72600001
-0.16088097 0.082166672 0.72500002
-0.15950002 0.082166672 0.72500002
-0.15811905 0.082166672 0.72500002
-0.1567381 0.082166672 0.72500002
-0.15492858 0.081940003 0.72300005
-0.15355144 0.081940003 0.72300005
-0.15217429 0.081940003 0.72300005
-0.15079716 0.081940003 0.72300005
-0.14942001 0.081940003 0.72300005
-0.14804287 0.081940003 0.72300005
-0.14746286 0.084773339 0.74800003
-0.1454524 0.08443334 0.74500006
-0.14403334 0.08443334 0.74500006
-0.14299715 0.084660009 0.74700004
-0.14157429 0.084660009 0.74700004
-0.1233943 0.080240004 0.708
-0.12204573 0.080240004 0.708
-0.12069715 0.080240004 0.708
-0.11934858 0.080240004 0.708
-0.11800001 0.080240004 0.708
-0.11665144 0.080240004 0.708
-0.11530287 0.080240004 0.708
-0.11395429 0.080240004 0.708
-0.11260572 0.080240004 0.708
-0.11125715 0.080240004 0.708
-0.10990858 0.080240004 0.708
-0.10856001 0.080240004 0.708
-0.10721143 0.080240004 0.708
-0.10586286 0.080240004 0.708
-0.10451429 0.080240004 0.708
-0.10316572 0.080240004 0.708
-0.083757147 0.069700003 0.61500001
-0.082585722 0.069700003 0.61500001
-0.08141429 0.069700003 0.61500001
-0.080112383 0.069586672 0.61400002
-0.078942865 0.069586672 0.61400002
-0.077646673 0.069473341 0.61300004
-0.076479055 0.069473341 0.61300004
-0.075188577 0.069360003 0.61200005
-0.074022859 0.069360003 0.61200005
-0.072857149 0.069360003 0.61200005
-0.071691431 0.069360003 0.61200005
-0.070525721 0.069360003 0.61200005
-0.069246672 0.069246672 0.611
-0.068082862 0.069246672 0.611
-0.066919051 0.069246672 0.611
-0.065217145 0.068680003 0.60600001
-0.063851431 0.068453334 0.60400003
-0.062700957 0.068453334 0.60400003
-0.061550479 0.068453334 0.60400003
-0.060400005 0.068453334 0.60400003
