# .PCD v0.7 - Point Cloud Data file format
VERSION 0.7
FIELDS x y z
SIZE 4 4 4
TYPE F F F
COUNT 1 1 1
WIDTH 1407
HEIGHT 1
VIEWPOINT 0 0 0 1 0 0 0
POINTS 1407
DATA ascii
0.022686668 0.090193339 0.58100003
0.023793334 0.090193339 0.58100003
0.024942858 0.090348579 0.58200002
0.026096193 0.090503812 0.583
0.027206669 0.090503812 0.583
0.028317144 0.090503812 0.583
0.029478097 0.090659052 0.58400005
0.030695241 0.090969533 0.58600003
0.031811431 0.090969533 0.58600003
0.032983813 0.091124766 0.58700001
0.034043811 0.090969533 0.58600003
0.035220001 0.091124766 0.58700001
0.036338098 0.091124766 0.58700001
0.037392382 0.090969533 0.58600003
0.03857429 0.091124766 0.58700001
0.039692383 0.091124766 0.58700001
0.040810481 0.091124766 0.58700001
0.041928574 0.091124766 0.58700001
0.043120004 0.091280006 0.588
0.044240002 0.091280006 0.588
0.045437146 0.091435246 0.58900005
0.046559051 0.091435246 0.58900005
0.047680955 0.091435246 0.58900005
0.04880286 0.091435246 0.58900005
0.050009526 0.091590479 0.59000003
0.10297143 0.10556191 0.68000001
0.10411334 0.10540667 0.67900002
0.10540667 0.10540667 0.67900002
0.10670001 0.10540667 0.67900002
0.10783429 0.10525144 0.67800003
0.10880382 0.10494096 0.67600006
0.11009143 0.10494096 0.67600006
0.16263334 0.10820096 0.69700003
0.16349049 0.10789049 0.69500005
0.16457716 0.10773525 0.69400001
0.16566001 0.10758001 0.69300002
0.16625716 0.10711429 0.69000006
0.16732858 0.10695905 0.68900001
0.16815144 0.10664858 0.68700004
0.16921334 0.10649334 0.68600005
0.17218287 0.10059429 0.648
0.17341715 0.10059429 0.648
-0.027600002 0.10120001 0.64400005
-0.02629143 0.10088572 0.64200002
-0.025029525 0.10072858 0.64100003
-0.023734286 0.10041429 0.63900006
-0.022517145 0.10041429 0.63900006
-0.021200001 0.099942863 0.63600004
-0.019957144 0.099785723 0.63500005
-0.018718097 0.099628575 0.634
-0.017289525 0.098371439 0.62600005
-0.015942859 0.097428575 0.62
-0.014690477 0.096957147 0.61700004
-0.013515239 0.096957147 0.61700004
-0.012260001 0.096328579 0.61300004
-0.011056191 0.096014291 0.611
-0.0098438105 0.095542863 0.60800004
-0.008671429 0.095385723 0.60700005
-0.0075028576 0.095228575 0.60600001
-0.0063380958 0.095071435 0.60500002
-0.0051514287 0.094442867 0.60100001
-0.0040000002 0.094285719 0.60000002
-0.0028476191 0.093971431 0.59800005
-0.0017028572 0.093657151 0.59600002
-0.00056666671 0.093500003 0.59500003
0.00056476193 0.093185723 0.59300005
0.0016857143 0.092714295 0.59000003
0.002804762 0.092557147 0.58900005
0.0039133336 0.092242867 0.58700001
0.0050142859 0.091928579 0.58500004
0.0061180955 0.091771431 0.58400005
0.0072057149 0.091457151 0.58200002
0.0082714288 0.090985723 0.57900006
0.0093580959 0.090828575 0.57800001
0.010459049 0.090828575 0.57800001
0.01156 0.090828575 0.57800001
0.012660953 0.090828575 0.57800001
0.013761906 0.090828575 0.57800001
0.014862858 0.090828575 0.57800001
0.015963811 0.090828575 0.57800001
0.017064763 0.090828575 0.57800001
0.018165715 0.090828575 0.57800001
0.019333335 0.091142863 0.58000004
0.020438097 0.091142863 0.58000004
0.021542858 0.091142863 0.58000004
0.022686668 0.091300003 0.58100003
0.023793334 0.091300003 0.58100003
0.024942858 0.091457151 0.58200002
0.026096193 0.091614291 0.583
0.027206669 0.091614291 0.583
0.028317144 0.091614291 0.583
0.029427622 0.091614291 0.583
0.03064286 0.091928579 0.58500004
0.031811431 0.092085719 0.58600003
0.032927621 0.092085719 0.58600003
0.034043811 0.092085719 0.58600003
0.035160001 0.092085719 0.58600003
0.036338098 0.092242867 0.58700001
0.037456192 0.092242867 0.58700001
0.03857429 0.092242867 0.58700001
0.039692383 0.092242867 0.58700001
0.040810481 0.092242867 0.58700001
0.041928574 0.092242867 0.58700001
0.043120004 0.092400007 0.588
0.044240002 0.092400007 0.588
0.045437146 0.092557147 0.58900005
0.046559051 0.092557147 0.58900005
0.047680955 0.092557147 0.58900005
0.04880286 0.092557147 0.58900005
0.050009526 0.092714295 0.59000003
0.051133338 0.092714295 0.59000003
0.10297143 0.10685715 0.68000001
0.10411334 0.10670001 0.67900002
0.10540667 0.10670001 0.67900002
0.10670001 0.10670001 0.67900002
0.10783429 0.10654286 0.67800003
0.10912572 0.10654286 0.67800003
0.11009143 0.10622858 0.67600006
0.16457716 0.10905715 0.69400001
0.16518192 0.10858572 0.69100004
0.16601621 0.10827143 0.68900001
0.16684286 0.10795715 0.68700004
0.16815144 0.10795715 0.68700004
0.16921334 0.10780001 0.68600005
0.17068477 0.10167143 0.64700001
0.17191716 0.10167143 0.64700001
0.17314954 0.10167143 0.64700001
-0.027642859 0.10258572 0.64500004
-0.026373334 0.10242667 0.64400005
-0.025068574 0.10210858 0.64200002
-0.023771429 0.10179048 0.64000005
-0.022517145 0.10163143 0.63900006
-0.021266667 0.10147239 0.63800001
-0.019957144 0.10099524 0.63500005
-0.018718097 0.1008362 0.634
-0.017317144 0.099722862 0.62700003
-0.015942859 0.098609529 0.62
-0.014690477 0.098132387 0.61700004
-0.013493334 0.097973339 0.61600006
-0.012240001 0.097337149 0.61200005
-0.011020001 0.096860006 0.60900003
-0.0098438105 0.096700959 0.60800004
-0.008671429 0.096541911 0.60700005
-0.0074904766 0.096223816 0.60500002
-0.0063276193 0.096064769 0.60400003
-0.0051514287 0.095587626 0.60100001
-0.0040000002 0.095428579 0.60000002
-0.0028476191 0.095110483 0.59800005
-0.0017057144 0.094951436 0.597
-0.00056666671 0.094633341 0.59500003
0.00056571432 0.094474293 0.59400004
0.0016885715 0.093997151 0.59100002
0.002804762 0.093679056 0.58900005
0.0039133336 0.09336096 0.58700001
0.0050228573 0.093201913 0.58600003
0.0061180955 0.092883818 0.58400005
0.0072180959 0.09272477 0.583
0.0082714288 0.09208858 0.57900006
0.0093580959 0.091929533 0.57800001
0.010459049 0.091929533 0.57800001
0.01154 0.091770485 0.57700002
0.012660953 0.091929533 0.57800001
0.013761906 0.091929533 0.57800001
0.014862858 0.091929533 0.57800001
0.015963811 0.091929533 0.57800001
0.017064763 0.091929533 0.57800001
0.018165715 0.091929533 0.57800001
0.019300001 0.09208858 0.57900006
0.020438097 0.092247628 0.58000004
0.021542858 0.092247628 0.58000004
0.022647621 0.092247628 0.58000004
0.023793334 0.092406675 0.58100003
0.024942858 0.092565723 0.58200002
0.02605143 0.092565723 0.58200002
0.027206669 0.09272477 0.583
0.028317144 0.09272477 0.583
0.029427622 0.09272477 0.583
0.030590478 0.092883818 0.58400005
0.031757146 0.093042865 0.58500004
0.032927621 0.093201913 0.58600003
0.034043811 0.093201913 0.58600003
0.035160001 0.093201913 0.58600003
0.036276191 0.093201913 0.58600003
0.037456192 0.09336096 0.58700001
0.03857429 0.09336096 0.58700001
0.039692383 0.09336096 0.58700001
0.040810481 0.09336096 0.58700001
0.041928574 0.09336096 0.58700001
0.043046668 0.09336096 0.58700001
0.044240002 0.093520008 0.588
0.045360003 0.093520008 0.588
0.046559051 0.093679056 0.58900005
0.047680955 0.093679056 0.58900005
0.04880286 0.093679056 0.58900005
0.050009526 0.093838103 0.59000003
0.051133338 0.093838103 0.59000003
0.10426667 0.10815239 0.68000001
0.10540667 0.10799334 0.67900002
0.10670001 0.10799334 0.67900002
0.10783429 0.10783429 0.67800003
0.10880382 0.1075162 0.67600006
0.11009143 0.1075162 0.67600006
0.11104953 0.1071981 0.67400002
0.16457716 0.11037906 0.69400001
0.16518192 0.10990191 0.69100004
0.16601621 0.10958382 0.68900001
0.16684286 0.10926572 0.68700004
0.16790667 0.10910667 0.68600005
0.16921334 0.10910667 0.68600005
0.17052001 0.10910667 0.68600005
-0.027642859 0.10381429 0.64500004
-0.026373334 0.10365334 0.64400005
-0.025146669 0.10365334 0.64400005
-0.023808572 0.10317048 0.64100003
-0.022552382 0.10300953 0.64000005
-0.021200001 0.10236572 0.63600004
-0.019957144 0.10220477 0.63500005
-0.018718097 0.10204381 0.634
-0.017372383 0.10123906 0.62900001
-0.016020002 0.10027334 0.62300003
-0.014666667 0.099146672 0.61600006
-0.013471429 0.098985724 0.61500001
-0.012240001 0.098502867 0.61200005
-0.011056191 0.098341912 0.611
-0.0098438105 0.097859055 0.60800004
-0.008671429 0.0976981 0.60700005
-0.0075028576 0.097537152 0.60600001
-0.0063380958 0.097376198 0.60500002
-0.0051600002 0.09689334 0.60200006
-0.0040066671 0.096732385 0.60100001
-0.0028571431 0.096571438 0.60000002
-0.0017057144 0.096088581 0.597
-0.00056666671 0.095766671 0.59500003
0.00056571432 0.095605724 0.59400004
0.0016885715 0.095122866 0.59100002
0.0028095241 0.094961911 0.59000003
0.00392 0.094640009 0.588
0.0050228573 0.094318099 0.58600003
0.0061285719 0.094157152 0.58500004
0.0072180959 0.093835242 0.583
0.0082714288 0.093191437 0.57900006
0.0093580959 0.093030483 0.57800001
0.010459049 0.093030483 0.57800001
0.01156 0.093030483 0.57800001
0.012660953 0.093030483 0.57800001
0.013761906 0.093030483 0.57800001
0.014862858 0.093030483 0.57800001
0.015963811 0.093030483 0.57800001
0.017064763 0.093030483 0.57800001
0.018165715 0.093030483 0.57800001
0.019300001 0.093191437 0.57900006
0.020402858 0.093191437 0.57900006
0.021542858 0.093352385 0.58000004
0.022647621 0.093352385 0.58000004
0.023752382 0.093352385 0.58000004
0.024900002 0.09351334 0.58100003
0.02605143 0.093674295 0.58200002
0.027206669 0.093835242 0.583
0.028317144 0.093835242 0.583
0.029427622 0.093835242 0.583
0.030590478 0.093996197 0.58400005
0.031757146 0.094157152 0.58500004
0.032871429 0.094157152 0.58500004
0.033985715 0.094157152 0.58500004
0.035160001 0.094318099 0.58600003
0.036276191 0.094318099 0.58600003
0.037456192 0.094479054 0.58700001
0.03857429 0.094479054 0.58700001
0.039692383 0.094479054 0.58700001
0.040810481 0.094479054 0.58700001
0.041928574 0.094479054 0.58700001
0.043046668 0.094479054 0.58700001
0.044240002 0.094640009 0.588
0.045360003 0.094640009 0.588
0.046559051 0.094800957 0.58900005
0.047680955 0.094800957 0.58900005
0.04880286 0.094800957 0.58900005
0.049924765 0.094800957 0.58900005
0.051133338 0.094961911 0.59000003
0.10297143 0.10944763 0.68000001
0.10426667 0.10944763 0.68000001
0.10540667 0.10928667 0.67900002
0.10670001 0.10928667 0.67900002
0.10783429 0.10912572 0.67800003
0.10912572 0.10912572 0.67800003
0.11009143 0.10880382 0.67600006
0.11104953 0.10848191 0.67400002
0.11200001 0.10816 0.67200005
0.16398668 0.11041334 0.68600005
0.16529335 0.11041334 0.68600005
0.1666 0.11041334 0.68600005
0.16741715 0.11009143 0.68400002
0.16872001 0.11009143 0.68400002
0.17002288 0.11009143 0.68400002
-0.027642859 0.10504287 0.64500004
-0.026373334 0.10488001 0.64400005
-0.025146669 0.10488001 0.64400005
-0.023808572 0.10439143 0.64100003
-0.02258762 0.10439143 0.64100003
-0.021200001 0.10357715 0.63600004
-0.019957144 0.10341429 0.63500005
-0.018688573 0.10308858 0.63300002
-0.017344764 0.10227429 0.62800002
-0.016148573 0.10227429 0.62800002
-0.014666667 0.10032 0.61600006
-0.013471429 0.10015715 0.61500001
-0.012240001 0.099668577 0.61200005
-0.011056191 0.099505723 0.611
-0.0098600006 0.099180005 0.60900003
-0.008671429 0.098854296 0.60700005
-0.0075028576 0.098691434 0.60600001
-0.0063276193 0.098365724 0.60400003
-0.0051600002 0.098040007 0.60200006
-0.0040066671 0.097877152 0.60100001
-0.0028571431 0.09771429 0.60000002
-0.0017085716 0.09738858 0.59800005
-0.00056666671 0.096900009 0.59500003
0.00056571432 0.096737146 0.59400004
0.0016885715 0.096248575 0.59100002
0.0028095241 0.09608572 0.59000003
0.0039266669 0.095922865 0.58900005
0.0050314288 0.095597148 0.58700001
0.0061285719 0.095271438 0.58500004
0.0072180959 0.094945721 0.583
0.0082714288 0.094294295 0.57900006
0.0093580959 0.094131432 0.57800001
0.010459049 0.094131432 0.57800001
0.01154 0.093968578 0.57700002
0.012660953 0.094131432 0.57800001
0.013761906 0.094131432 0.57800001
0.014862858 0.094131432 0.57800001
0.015963811 0.094131432 0.57800001
0.017064763 0.094131432 0.57800001
0.018165715 0.094131432 0.57800001
0.019300001 0.094294295 0.57900006
0.020402858 0.094294295 0.57900006
0.021542858 0.09445715 0.58000004
0.022647621 0.09445715 0.58000004
0.023752382 0.09445715 0.58000004
0.024900002 0.094620004 0.58100003
0.02605143 0.094782867 0.58200002
0.027206669 0.094945721 0.583
0.028317144 0.094945721 0.583
0.029427622 0.094945721 0.583
0.030538097 0.094945721 0.583
0.031702857 0.095108576 0.58400005
0.032871429 0.095271438 0.58500004
0.033985715 0.095271438 0.58500004
0.035160001 0.095434293 0.58600003
0.036276191 0.095434293 0.58600003
0.037456192 0.095597148 0.58700001
0.03857429 0.095597148 0.58700001
0.039692383 0.095597148 0.58700001
0.040810481 0.095597148 0.58700001
0.041928574 0.095597148 0.58700001
0.043046668 0.095597148 0.58700001
0.044240002 0.095760003 0.588
0.045360003 0.095760003 0.588
0.046559051 0.095922865 0.58900005
0.047600005 0.095760003 0.588
0.04880286 0.095922865 0.58900005
0.049924765 0.095922865 0.58900005
0.051220004 0.096248575 0.59100002
0.10411334 0.11058 0.67900002
0.10540667 0.11058 0.67900002
0.10670001 0.11058 0.67900002
0.10783429 0.11041715 0.67800003
0.10912572 0.11041715 0.67800003
0.11009143 0.11009143 0.67600006
0.1112143 0.10992858 0.67500001
0.11233334 0.10976572 0.67400002
0.16529335 0.11172001 0.68600005
0.1666 0.11172001 0.68600005
0.16741715 0.11139429 0.68400002
0.16872001 0.11139429 0.68400002
0.16977429 0.11123144 0.68300003
-0.027642859 0.10627144 0.64500004
-0.026414288 0.10627144 0.64500004
-0.025146669 0.10610668 0.64400005
-0.023808572 0.10561239 0.64100003
-0.02258762 0.10561239 0.64100003
-0.021466669 0.10610668 0.64400005
-0.019957144 0.10462382 0.63500005
-0.018688573 0.10429429 0.63300002
-0.01742762 0.10396477 0.63100004
-0.016225716 0.10396477 0.63100004
-0.014642858 0.10132858 0.61500001
-0.013471429 0.10132858 0.61500001
-0.012240001 0.1008343 0.61200005
-0.011074287 0.1008343 0.61200005
-0.0098923817 0.10066953 0.611
-0.0086857146 0.10017525 0.60800004
-0.0075028576 0.099845722 0.60600001
-0.0063276193 0.099516198 0.60400003
-0.0051600002 0.099186674 0.60200006
-0.0040066671 0.099021912 0.60100001
-0.0028523812 0.098692387 0.59900004
-0.0017114286 0.098692387 0.59900004
-0.00056857144 0.098362863 0.597
0.00056571432 0.097868577 0.59400004
0.0016885715 0.09737429 0.59100002
0.0028095241 0.097209528 0.59000003
0.00392 0.096880004 0.588
0.0050314288 0.096715242 0.58700001
0.0061390479 0.09655048 0.58600003
0.0072304765 0.096220955 0.58400005
0.0082714288 0.095397152 0.57900006
0.0093580959 0.09523239 0.57800001
0.010459049 0.09523239 0.57800001
0.01156 0.09523239 0.57800001
0.012660953 0.09523239 0.57800001
0.013761906 0.09523239 0.57800001
0.014862858 0.09523239 0.57800001
0.015963811 0.09523239 0.57800001
0.017064763 0.09523239 0.57800001
0.018165715 0.09523239 0.57800001
0.019266669 0.09523239 0.57800001
0.020402858 0.095397152 0.57900006
0.021505715 0.095397152 0.57900006
0.022608573 0.095397152 0.57900006
0.023752382 0.095561914 0.58000004
0.024900002 0.095726676 0.58100003
0.02605143 0.095891438 0.58200002
0.027160002 0.095891438 0.58200002
0.028268574 0.095891438 0.58200002
0.029427622 0.096056193 0.583
0.030538097 0.096056193 0.583
0.031702857 0.096220955 0.58400005
0.03281524 0.096220955 0.58400005
0.033985715 0.096385717 0.58500004
0.035160001 0.09655048 0.58600003
0.036276191 0.09655048 0.58600003
0.037392382 0.09655048 0.58600003
0.038508575 0.09655048 0.58600003
0.039692383 0.096715242 0.58700001
0.040810481 0.096715242 0.58700001
0.041928574 0.096715242 0.58700001
0.043046668 0.096715242 0.58700001
0.044240002 0.096880004 0.588
0.045360003 0.096880004 0.588
0.046559051 0.097044766 0.58900005
0.047680955 0.097044766 0.58900005
0.04880286 0.097044766 0.58900005
0.050009526 0.097209528 0.59000003
0.051220004 0.09737429 0.59100002
0.10411334 0.11187334 0.67900002
0.10540667 0.11187334 0.67900002
0.10654286 0.11170858 0.67800003
0.10783429 0.11170858 0.67800003
0.10912572 0.11170858 0.67800003
0.11041715 0.11170858 0.67800003
0.11137906 0.11137906 0.67600006
0.11233334 0.11104953 0.67400002
0.1666 0.11302667 0.68600005
0.16741715 0.11269715 0.68400002
0.16847335 0.11253238 0.68300003
0.16977429 0.11253238 0.68300003
-0.027642859 0.10750001 0.64500004
-0.026414288 0.10750001 0.64500004
-0.025146669 0.10733334 0.64400005
-0.023845715 0.10700001 0.64200002
-0.02258762 0.10683334 0.64100003
-0.021366669 0.10683334 0.64100003
-0.019957144 0.10583334 0.63500005
-0.018718097 0.10566667 0.634
-0.01742762 0.10516667 0.63100004
-0.016148573 0.10466667 0.62800002
-0.014690477 0.10283334 0.61700004
-0.013515239 0.10283334 0.61700004
-0.012260001 0.10216668 0.61300004
-0.011092382 0.10216668 0.61300004
-0.0098923817 0.10183334 0.611
-0.0087000001 0.1015 0.60900003
-0.0075028576 0.101 0.60600001
-0.0063276193 0.10066667 0.60400003
-0.0051514287 0.10016667 0.60100001
-0.0040000002 0.10000001 0.60000002
-0.0028523812 0.099833339 0.59900004
-0.0017085716 0.09966667 0.59800005
-0.00056857144 0.099500008 0.597
0.00056761911 0.099333338 0.59600002
0.0016885715 0.098500006 0.59100002
0.0028095241 0.098333336 0.59000003
0.00392 0.098000005 0.588
0.0050314288 0.097833343 0.58700001
0.0061390479 0.097666673 0.58600003
0.0072304765 0.097333342 0.58400005
0.0082857152 0.096666671 0.58000004
0.009374286 0.096500009 0.57900006
0.010459049 0.09633334 0.57800001
0.01154 0.09616667 0.57700002
0.012639049 0.09616667 0.57700002
0.013738096 0.09616667 0.57700002
0.014837144 0.09616667 0.57700002
0.015936192 0.09616667 0.57700002
0.017035238 0.09616667 0.57700002
0.018134287 0.09616667 0.57700002
0.019266669 0.09633334 0.57800001
0.020402858 0.096500009 0.57900006
0.021505715 0.096500009 0.57900006
0.022608573 0.096500009 0.57900006
0.02371143 0.096500009 0.57900006
0.024857145 0.096666671 0.58000004
0.026006669 0.096833341 0.58100003
0.027113335 0.096833341 0.58100003
0.028268574 0.097000003 0.58200002
0.029377146 0.097000003 0.58200002
0.030485716 0.097000003 0.58200002
0.031648573 0.097166672 0.583
0.03281524 0.097333342 0.58400005
0.033985715 0.097500004 0.58500004
0.035160001 0.097666673 0.58600003
0.036276191 0.097666673 0.58600003
0.037392382 0.097666673 0.58600003
0.038508575 0.097666673 0.58600003
0.039692383 0.097833343 0.58700001
0.040810481 0.097833343 0.58700001
0.041928574 0.097833343 0.58700001
0.043046668 0.097833343 0.58700001
0.044164766 0.097833343 0.58700001
0.045360003 0.098000005 0.588
0.046559051 0.098166674 0.58900005
0.047680955 0.098166674 0.58900005
0.04880286 0.098166674 0.58900005
0.049924765 0.098166674 0.58900005
0.051220004 0.098500006 0.59100002
0.10540667 0.11316667 0.67900002
0.10670001 0.11316667 0.67900002
0.10799334 0.11316667 0.67900002
0.10912572 0.11300001 0.67800003
0.11041715 0.11300001 0.67800003
0.11137906 0.11266667 0.67600006
0.11266667 0.11266667 0.67600006
0.16847335 0.11383334 0.68300003
0.16878001 0.11316667 0.67900002
-0.027685717 0.10889715 0.64600003
-0.02645524 0.10889715 0.64600003
-0.025185715 0.10872858 0.64500004
-0.023845715 0.10822286 0.64200002
-0.02258762 0.1080543 0.64100003
-0.021400001 0.10822286 0.64200002
-0.020051429 0.10754858 0.63800001
-0.01874762 0.10704286 0.63500005
-0.017372383 0.10603143 0.62900001
-0.016148573 0.10586286 0.62800002
-0.014952382 0.10586286 0.62800002
-0.01342762 0.10333429 0.61300004
-0.012260001 0.10333429 0.61300004
-0.011110477 0.10350286 0.61400002
-0.0099085718 0.10316572 0.61200005
-0.0087285722 0.10299715 0.611
-0.0075400006 0.10266001 0.60900003
-0.0063590482 0.10232286 0.60700005
-0.0051514287 0.10131144 0.60100001
-0.0040000002 0.10114286 0.60000002
-0.0028523812 0.10097429 0.59900004
-0.0017085716 0.10080572 0.59800005
-0.00056857144 0.10063715 0.597
0.00056761911 0.10046858 0.59600002
0.0017000001 0.10030001 0.59500003
0.0028142859 0.099625722 0.59100002
0.00392 0.099120006 0.588
0.0050314288 0.098951437 0.58700001
0.0061390479 0.098782867 0.58600003
0.0072304765 0.098445721 0.58400005
0.0083142864 0.098108575 0.58200002
0.0093904771 0.097771436 0.58000004
0.010459049 0.09743429 0.57800001
0.01156 0.09743429 0.57800001
0.012639049 0.09726572 0.57700002
0.013738096 0.09726572 0.57700002
0.014811429 0.097097151 0.57600003
0.015908573 0.097097151 0.57600003
0.017005716 0.097097151 0.57600003
0.018134287 0.09726572 0.57700002
0.019266669 0.09743429 0.57800001
0.020367621 0.09743429 0.57800001
0.021505715 0.097602867 0.57900006
0.022608573 0.097602867 0.57900006
0.02371143 0.097602867 0.57900006
0.024857145 0.097771436 0.58000004
0.025961906 0.097771436 0.58000004
0.027113335 0.097940005 0.58100003
0.028220002 0.097940005 0.58100003
0.029377146 0.098108575 0.58200002
0.030485716 0.098108575 0.58200002
0.031648573 0.098277152 0.583
0.03281524 0.098445721 0.58400005
0.033985715 0.09861429 0.58500004
0.035160001 0.098782867 0.58600003
0.036276191 0.098782867 0.58600003
0.037392382 0.098782867 0.58600003
0.038508575 0.098782867 0.58600003
0.039692383 0.098951437 0.58700001
0.040810481 0.098951437 0.58700001
0.041928574 0.098951437 0.58700001
0.043046668 0.098951437 0.58700001
0.044164766 0.098951437 0.58700001
0.045360003 0.099120006 0.588
0.046559051 0.099288575 0.58900005
0.047680955 0.099288575 0.58900005
0.04880286 0.099288575 0.58900005
0.049924765 0.099288575 0.58900005
0.051133338 0.099457152 0.59000003
0.10799334 0.11446001 0.67900002
0.10928667 0.11446001 0.67900002
0.11058 0.11446001 0.67900002
0.11187334 0.11446001 0.67900002
-0.02645524 0.11012763 0.64600003
-0.025224764 0.11012763 0.64600003
-0.023845715 0.10944572 0.64200002
-0.022552382 0.10910477 0.64000005
-0.021333335 0.10910477 0.64000005
-0.020082859 0.10893429 0.63900006
-0.018836191 0.10876381 0.63800001
-0.017317144 0.10688858 0.62700003
-0.016122859 0.10688858 0.62700003
-0.014857144 0.10637715 0.62400001
-0.013668573 0.10637715 0.62400001
-0.012320001 0.10501334 0.61600006
-0.011128572 0.10484286 0.61500001
-0.009940953 0.10467239 0.61400002
-0.0087428577 0.10433143 0.61200005
-0.0075771431 0.10433143 0.61200005
-0.0063066669 0.10262667 0.60200006
-0.0051514287 0.1024562 0.60100001
-0.0040000002 0.10228572 0.60000002
-0.0028523812 0.10211524 0.59900004
-0.0017085716 0.10194477 0.59800005
-0.00056857144 0.10177429 0.597
0.00056761911 0.10160381 0.59600002
0.0017000001 0.10143334 0.59500003
0.0028142859 0.10075144 0.59100002
0.00392 0.10024001 0.588
0.0050228573 0.099899054 0.58600003
0.0061285719 0.099728577 0.58500004
0.0072180959 0.099387623 0.583
0.0083142864 0.099217147 0.58200002
0.0093904771 0.098876201 0.58000004
0.010477143 0.098705724 0.57900006
0.01156 0.098535247 0.57800001
0.012639049 0.09836477 0.57700002
0.013738096 0.09836477 0.57700002
0.014811429 0.098194294 0.57600003
0.015908573 0.098194294 0.57600003
0.017005716 0.098194294 0.57600003
0.018134287 0.09836477 0.57700002
0.019266669 0.098535247 0.57800001
0.020367621 0.098535247 0.57800001
0.021505715 0.098705724 0.57900006
0.022608573 0.098705724 0.57900006
0.02371143 0.098705724 0.57900006
0.024814287 0.098705724 0.57900006
0.025961906 0.098876201 0.58000004
0.027066668 0.098876201 0.58000004
0.028171431 0.098876201 0.58000004
0.029326668 0.09904667 0.58100003
0.030433334 0.09904667 0.58100003
0.031594288 0.099217147 0.58200002
0.03281524 0.0995581 0.58400005
0.033985715 0.099728577 0.58500004
0.035160001 0.099899054 0.58600003
0.036276191 0.099899054 0.58600003
0.037392382 0.099899054 0.58600003
0.038508575 0.099899054 0.58600003
0.039692383 0.10006953 0.58700001
0.040740956 0.099899054 0.58600003
0.041928574 0.10006953 0.58700001
0.043046668 0.10006953 0.58700001
0.044164766 0.10006953 0.58700001
0.045360003 0.10024001 0.588
0.046480004 0.10024001 0.588
0.047680955 0.10041048 0.58900005
0.04880286 0.10041048 0.58900005
0.049840003 0.10024001 0.588
0.051133338 0.10058096 0.59000003
0.052257147 0.10058096 0.59000003
0.10847048 0.11626477 0.68200004
0.10976953 0.11626477 0.68200004
0.11106858 0.11626477 0.68200004
0.11236763 0.11626477 0.68200004
0.16853143 0.11558287 0.67800003
-0.028093334 0.11825334 0.68600005
-0.025029525 0.1104962 0.64100003
-0.023808572 0.1104962 0.64100003
-0.022552382 0.11032382 0.64000005
-0.021333335 0.11032382 0.64000005
-0.020114288 0.11032382 0.64000005
-0.018895239 0.11032382 0.64000005
-0.017344764 0.10825524 0.62800002
-0.016122859 0.10808286 0.62700003
-0.014857144 0.10756572 0.62400001
-0.013668573 0.10756572 0.62400001
-0.012340001 0.10635906 0.61700004
-0.011164763 0.10635906 0.61700004
-0.0099571431 0.10601429 0.61500001
-0.0087857153 0.10601429 0.61500001
-0.0076142862 0.10601429 0.61500001
-0.0062961909 0.10360096 0.60100001
-0.0051514287 0.10360096 0.60100001
-0.0040000002 0.10342858 0.60000002
-0.0028523812 0.1032562 0.59900004
-0.0017114286 0.1032562 0.59900004
-0.00056857144 0.10291144 0.597
0.00056857144 0.10291144 0.597
0.0017000001 0.10256667 0.59500003
0.0028190478 0.10204953 0.59200001
0.0039266669 0.10153238 0.58900005
0.0050228573 0.10101525 0.58600003
0.0061285719 0.10084286 0.58500004
0.0072180959 0.1004981 0.583
0.0083142864 0.10032572 0.58200002
0.0093904771 0.099980958 0.58000004
0.010477143 0.099808581 0.57900006
0.01156 0.099636197 0.57800001
0.012639049 0.099463813 0.57700002
0.013738096 0.099463813 0.57700002
0.014811429 0.099291436 0.57600003
0.015908573 0.099291436 0.57600003
0.017005716 0.099291436 0.57600003
0.018134287 0.099463813 0.57700002
0.019233335 0.099463813 0.57700002
0.020367621 0.099636197 0.57800001
0.021468572 0.099636197 0.57800001
0.022608573 0.099808581 0.57900006
0.02371143 0.099808581 0.57900006
0.024814287 0.099808581 0.57900006
0.025917144 0.099808581 0.57900006
0.027020002 0.099808581 0.57900006
0.028122859 0.099808581 0.57900006
0.029276192 0.099980958 0.58000004
0.030433334 0.10015334 0.58100003
0.031540003 0.10015334 0.58100003
0.032759048 0.1004981 0.583
0.034043811 0.10101525 0.58600003
0.035160001 0.10101525 0.58600003
0.036276191 0.10101525 0.58600003
0.037392382 0.10101525 0.58600003
0.038508575 0.10101525 0.58600003
0.039692383 0.10118762 0.58700001
0.040740956 0.10101525 0.58600003
0.041928574 0.10118762 0.58700001
0.043046668 0.10118762 0.58700001
0.044164766 0.10118762 0.58700001
0.045282859 0.10118762 0.58700001
0.046480004 0.10136001 0.588
0.047680955 0.10153238 0.58900005
0.04880286 0.10153238 0.58900005
0.049840003 0.10136001 0.588
0.051046669 0.10153238 0.58900005
0.052257147 0.10170477 0.59000003
0.10847048 0.11756381 0.68200004
0.10976953 0.11756381 0.68200004
-0.025029525 0.11171715 0.64100003
-0.023808572 0.11171715 0.64100003
-0.022552382 0.11154287 0.64000005
-0.021366669 0.11171715 0.64100003
-0.020114288 0.11154287 0.64000005
-0.018865716 0.11136858 0.63900006
-0.017261906 0.10892858 0.625
-0.016071429 0.10892858 0.625
-0.014833334 0.10858001 0.62300003
-0.013624763 0.10840572 0.62200004
-0.0124 0.10805715 0.62
-0.011164763 0.10753429 0.61700004
-0.0099733341 0.10736001 0.61600006
-0.0088000009 0.10736001 0.61600006
-0.0076142862 0.10718572 0.61500001
-0.0051514287 0.10474572 0.60100001
-0.0040000002 0.10457143 0.60000002
-0.0028571431 0.10457143 0.60000002
-0.0017114286 0.10439715 0.59900004
-0.00056952384 0.10422286 0.59800005
0.00056857144 0.10404858 0.597
0.0017028572 0.1038743 0.59600002
0.0028238096 0.10335144 0.59300005
0.0039400002 0.10300286 0.59100002
0.0050400002 0.10248001 0.588
0.0061390479 0.10213143 0.58600003
0.0072304765 0.10178287 0.58400005
0.0083142864 0.10143429 0.58200002
0.0093904771 0.10108572 0.58000004
0.010477143 0.10091144 0.57900006
0.01156 0.10073715 0.57800001
0.012639049 0.10056286 0.57700002
0.013738096 0.10056286 0.57700002
0.014811429 0.10038858 0.57600003
0.015908573 0.10038858 0.57600003
0.016976191 0.1002143 0.57500005
0.018102858 0.10038858 0.57600003
0.019233335 0.10056286 0.57700002
0.020332383 0.10056286 0.57700002
0.021468572 0.10073715 0.57800001
0.022569526 0.10073715 0.57800001
0.02371143 0.10091144 0.57900006
0.024814287 0.10091144 0.57900006
0.025917144 0.10091144 0.57900006
0.027020002 0.10091144 0.57900006
0.028122859 0.10091144 0.57900006
0.029276192 0.10108572 0.58000004
0.030380955 0.10108572 0.58000004
0.031540003 0.10126001 0.58100003
0.032759048 0.10160857 0.583
0.033985715 0.10195715 0.58500004
0.035160001 0.10213143 0.58600003
0.036276191 0.10213143 0.58600003
0.037392382 0.10213143 0.58600003
0.038508575 0.10213143 0.58600003
0.039624766 0.10213143 0.58600003
0.040740956 0.10213143 0.58600003
0.041857146 0.10213143 0.58600003
0.043046668 0.10230572 0.58700001
0.044164766 0.10230572 0.58700001
0.045282859 0.10230572 0.58700001
0.046480004 0.10248001 0.588
0.047600005 0.10248001 0.588
0.04880286 0.10265429 0.58900005
0.049840003 0.10248001 0.588
0.051046669 0.10265429 0.58900005
0.052168574 0.10265429 0.58900005
0.16748668 0.11834001 0.67900002
-0.023808572 0.11293811 0.64100003
-0.02258762 0.11293811 0.64100003
-0.021333335 0.11276191 0.64000005
-0.020114288 0.11276191 0.64000005
-0.018865716 0.11258572 0.63900006
-0.017648572 0.11258572 0.63900006
-0.016020002 0.10976668 0.62300003
-0.014833334 0.10976668 0.62300003
-0.013646668 0.10976668 0.62300003
-0.0124 0.1092381 0.62
-0.011182858 0.10888572 0.61800003
-0.0099733341 0.10853334 0.61600006
-0.0087857153 0.10835715 0.61500001
-0.0076142862 0.10835715 0.61500001
-0.0051600002 0.10606667 0.60200006
-0.0040066671 0.10589048 0.60100001
-0.0028571431 0.10571429 0.60000002
-0.0017114286 0.1055381 0.59900004
-0.00056952384 0.10536191 0.59800005
0.00056857144 0.10518572 0.597
0.0017028572 0.10500953 0.59600002
0.0028285717 0.10465715 0.59400004
0.0039466671 0.10430477 0.59200001
0.0050485716 0.10377619 0.58900005
0.0061495244 0.10342382 0.58700001
0.0072304765 0.10289524 0.58400005
0.0083142864 0.10254286 0.58200002
0.0094066672 0.10236667 0.58100003
0.010477143 0.1020143 0.57900006
0.01156 0.1018381 0.57800001
0.012639049 0.10166191 0.57700002
0.013714286 0.10148572 0.57600003
0.014811429 0.10148572 0.57600003
0.015880954 0.10130953 0.57500005
0.016976191 0.10130953 0.57500005
0.01807143 0.10130953 0.57500005
0.019200001 0.10148572 0.57600003
0.020332383 0.10166191 0.57700002
0.021468572 0.1018381 0.57800001
0.022569526 0.1018381 0.57800001
0.023670478 0.1018381 0.57800001
0.02477143 0.1018381 0.57800001
0.025917144 0.1020143 0.57900006
0.026973335 0.1018381 0.57800001
0.028122859 0.1020143 0.57900006
0.029225716 0.1020143 0.57900006
0.030328574 0.1020143 0.57900006
0.031485718 0.10219048 0.58000004
0.032759048 0.10271905 0.583
0.033985715 0.10307144 0.58500004
0.035100002 0.10307144 0.58500004
0.036276191 0.10324763 0.58600003
0.037392382 0.10324763 0.58600003
0.038508575 0.10324763 0.58600003
0.039624766 0.10324763 0.58600003
0.040740956 0.10324763 0.58600003
0.041857146 0.10324763 0.58600003
0.042973336 0.10324763 0.58600003
0.044089526 0.10324763 0.58600003
0.045282859 0.10342382 0.58700001
0.046400957 0.10342382 0.58700001
0.047600005 0.10360001 0.588
0.04880286 0.10377619 0.58900005
0.049924765 0.10377619 0.58900005
0.051046669 0.10377619 0.58900005
0.052168574 0.10377619 0.58900005
-0.023808572 0.11415906 0.64100003
-0.02258762 0.11415906 0.64100003
-0.021333335 0.11398096 0.64000005
-0.020114288 0.11398096 0.64000005
-0.018895239 0.11398096 0.64000005
-0.017565716 0.11326858 0.63600004
-0.016097143 0.11148763 0.62600005
-0.014857144 0.11113144 0.62400001
-0.013646668 0.11095334 0.62300003
-0.012440001 0.11077525 0.62200004
-0.011200953 0.11024096 0.61900002
-0.0099733341 0.10970668 0.61600006
-0.0088000009 0.10970668 0.61600006
-0.0076266672 0.10970668 0.61600006
-0.0051685716 0.10739143 0.60300004
-0.0040133335 0.10721334 0.60200006
-0.0028571431 0.10685715 0.60000002
-0.0017114286 0.10667905 0.59900004
-0.00056952384 0.10650096 0.59800005
0.00056952384 0.10650096 0.59800005
0.0017028572 0.10614477 0.59600002
0.0028285717 0.10578858 0.59400004
0.0039533335 0.10561048 0.59300005
0.0050657145 0.10525429 0.59100002
0.0061600003 0.10472 0.588
0.0072304765 0.10400762 0.58400005
0.0083142864 0.10365143 0.58200002
0.0093904771 0.10329524 0.58000004
0.010477143 0.10311715 0.57900006
0.01156 0.10293905 0.57800001
0.012639049 0.10276096 0.57700002
0.013714286 0.10258286 0.57600003
0.014811429 0.10258286 0.57600003
0.015880954 0.10240477 0.57500005
0.016976191 0.10240477 0.57500005
0.01807143 0.10240477 0.57500005
0.019200001 0.10258286 0.57600003
0.020297144 0.10258286 0.57600003
0.021431429 0.10276096 0.57700002
0.022569526 0.10293905 0.57800001
0.023670478 0.10293905 0.57800001
0.02477143 0.10293905 0.57800001
0.025872383 0.10293905 0.57800001
0.026973335 0.10293905 0.57800001
0.028074287 0.10293905 0.57800001
0.029225716 0.10311715 0.57900006
0.030328574 0.10311715 0.57900006
0.031485718 0.10329524 0.58000004
0.032702859 0.10365143 0.58200002
0.033985715 0.10418572 0.58500004
0.035100002 0.10418572 0.58500004
0.036276191 0.10436381 0.58600003
0.037392382 0.10436381 0.58600003
0.038508575 0.10436381 0.58600003
0.039624766 0.10436381 0.58600003
0.040740956 0.10436381 0.58600003
0.041857146 0.10436381 0.58600003
0.042973336 0.10436381 0.58600003
0.044089526 0.10436381 0.58600003
0.045282859 0.10454191 0.58700001
0.046400957 0.10454191 0.58700001
0.047600005 0.10472 0.588
0.04880286 0.1048981 0.58900005
0.049924765 0.1048981 0.58900005
0.051046669 0.1048981 0.58900005
0.052168574 0.1048981 0.58900005
-0.023845715 0.11556001 0.64200002
-0.022622859 0.11556001 0.64200002
-0.021366669 0.11538 0.64100003
-0.020145716 0.11538 0.64100003
-0.018895239 0.11520001 0.64000005
-0.017620953 0.11484001 0.63800001
-0.016148573 0.11304001 0.62800002
-0.014880953 0.1125 0.625
-0.013690477 0.1125 0.625
-0.012440001 0.11196001 0.62200004
-0.011200953 0.11142001 0.61900002
-0.0099733341 0.11088001 0.61600006
-0.0088000009 0.11088001 0.61600006
-0.0076266672 0.11088001 0.61600006
-0.0064428574 0.1107 0.61500001
-0.005177143 0.10872 0.60400003
-0.0040133335 0.10836001 0.60200006
-0.0028619049 0.10818001 0.60100001
-0.0017142858 0.10800001 0.60000002
-0.00057047623 0.10782 0.59900004
0.00056952384 0.10764001 0.59800005
0.0017028572 0.10728001 0.59600002
0.0028285717 0.10692 0.59400004
0.0039533335 0.10674001 0.59300005
0.0050657145 0.10638001 0.59100002
0.0061704768 0.10602 0.58900005
0.0072428575 0.10530001 0.58500004
0.0083142864 0.10476001 0.58200002
0.0093904771 0.10440001 0.58000004
0.010477143 0.10422001 0.57900006
0.01156 0.10404 0.57800001
0.012639049 0.10386001 0.57700002
0.013714286 0.10368001 0.57600003
0.014811429 0.10368001 0.57600003
0.015880954 0.10350001 0.57500005
0.016976191 0.10350001 0.57500005
0.01807143 0.10350001 0.57500005
0.019166667 0.10350001 0.57500005
0.020261906 0.10350001 0.57500005
0.021394286 0.10368001 0.57600003
0.022530477 0.10386001 0.57700002
0.023670478 0.10404 0.57800001
0.02477143 0.10404 0.57800001
0.025872383 0.10404 0.57800001
0.026973335 0.10404 0.57800001
0.028074287 0.10404 0.57800001
0.029175241 0.10404 0.57800001
0.030328574 0.10422001 0.57900006
0.031431429 0.10422001 0.57900006
0.032534286 0.10422001 0.57900006
0.033985715 0.10530001 0.58500004
0.035160001 0.10548001 0.58600003
0.036276191 0.10548001 0.58600003
0.037392382 0.10548001 0.58600003
0.038508575 0.10548001 0.58600003
0.039624766 0.10548001 0.58600003
0.040740956 0.10548001 0.58600003
0.041857146 0.10548001 0.58600003
0.042973336 0.10548001 0.58600003
0.044089526 0.10548001 0.58600003
0.045282859 0.10566001 0.58700001
0.046480004 0.10584 0.588
0.047600005 0.10584 0.588
0.04880286 0.10602 0.58900005
0.049924765 0.10602 0.58900005
0.051046669 0.10602 0.58900005
0.052168574 0.10602 0.58900005
-0.023808572 0.11660096 0.64100003
-0.02258762 0.11660096 0.64100003
-0.021366669 0.11660096 0.64100003
-0.020114288 0.11641905 0.64000005
-0.018895239 0.11641905 0.64000005
-0.017620953 0.11605524 0.63800001
-0.016148573 0.1142362 0.62800002
-0.014952382 0.1142362 0.62800002
-0.013646668 0.11332668 0.62300003
-0.012460001 0.11332668 0.62300003
-0.011200953 0.11259905 0.61900002
-0.0099895243 0.11223525 0.61700004
-0.0088000009 0.11205334 0.61600006
-0.0076142862 0.11187144 0.61500001
-0.0064428574 0.11187144 0.61500001
-0.0052028573 0.1104162 0.60700005
-0.0040200003 0.10968858 0.60300004
-0.0028666668 0.10950667 0.60200006
-0.001717143 0.10932477 0.60100001
-0.00057142862 0.10914286 0.60000002
0.00057047623 0.10896096 0.59900004
0.0017057144 0.10859715 0.597
0.0028428573 0.10859715 0.597
0.0039600004 0.10805143 0.59400004
0.0050828573 0.10786953 0.59300005
0.0061809528 0.10732382 0.59000003
0.0072800005 0.10696001 0.588
0.0083142864 0.10586858 0.58200002
0.0094066672 0.10568667 0.58100003
0.010477143 0.10532287 0.57900006
0.01156 0.10514096 0.57800001
0.012660953 0.10514096 0.57800001
0.013738096 0.10495906 0.57700002
0.014811429 0.10477715 0.57600003
0.015880954 0.10459524 0.57500005
0.016976191 0.10459524 0.57500005
0.018040001 0.10441334 0.574
0.019166667 0.10459524 0.57500005
0.020261906 0.10459524 0.57500005
0.021357145 0.10459524 0.57500005
0.022491431 0.10477715 0.57600003
0.023588574 0.10477715 0.57600003
0.024728574 0.10495906 0.57700002
0.025872383 0.10514096 0.57800001
0.026973335 0.10514096 0.57800001
0.028074287 0.10514096 0.57800001
0.029175241 0.10514096 0.57800001
0.030276192 0.10514096 0.57800001
0.031377144 0.10514096 0.57800001
0.032534286 0.10532287 0.57900006
0.033637144 0.10532287 0.57900006
0.035160001 0.10659619 0.58600003
0.036276191 0.10659619 0.58600003
0.037392382 0.10659619 0.58600003
0.038508575 0.10659619 0.58600003
0.039624766 0.10659619 0.58600003
0.040740956 0.10659619 0.58600003
0.041857146 0.10659619 0.58600003
0.042973336 0.10659619 0.58600003
0.044164766 0.1067781 0.58700001
0.045282859 0.1067781 0.58700001
0.046480004 0.10696001 0.588
0.047600005 0.10696001 0.588
0.048720002 0.10696001 0.588
0.049924765 0.10714191 0.58900005
0.051133338 0.10732382 0.59000003
-0.023808572 0.11782191 0.64100003
-0.02258762 0.11782191 0.64100003
-0.021366669 0.11782191 0.64100003
-0.020114288 0.1176381 0.64000005
-0.018895239 0.1176381 0.64000005
-0.017620953 0.11727048 0.63800001
-0.016405715 0.11727048 0.63800001
-0.01509524 0.11653525 0.634
-0.013646668 0.11451334 0.62300003
-0.012460001 0.11451334 0.62300003
-0.011200953 0.1137781 0.61900002
-0.0099895243 0.11341048 0.61700004
-0.0088142864 0.11341048 0.61700004
-0.0076390482 0.11341048 0.61700004
-0.0063695242 0.1117562 0.60800004
-0.0052028573 0.11157238 0.60700005
-0.0040266667 0.11102096 0.60400003
-0.0028714288 0.11083715 0.60300004
-0.0017200001 0.11065334 0.60200006
-0.00057238102 0.11046953 0.60100001
0.00057047623 0.11010191 0.59900004
0.0017085716 0.1099181 0.59800005
0.0028428573 0.10973429 0.597
0.0039600004 0.10918286 0.59400004
0.0050828573 0.10899905 0.59300005
0.0061809528 0.10844763 0.59000003
0.0072923815 0.10826381 0.58900005
0.0083714295 0.10771239 0.58600003
0.0094066672 0.10679334 0.58100003
0.010495239 0.10660953 0.58000004
0.011580001 0.10642572 0.57900006
0.012660953 0.10624191 0.57800001
0.013738096 0.10605811 0.57700002
0.014837144 0.10605811 0.57700002
0.015908573 0.10587429 0.57600003
0.016976191 0.10569049 0.57500005
0.01807143 0.10569049 0.57500005
0.019166667 0.10569049 0.57500005
0.020261906 0.10569049 0.57500005
0.021357145 0.10569049 0.57500005
0.022452382 0.10569049 0.57500005
0.023547621 0.10569049 0.57500005
0.024685716 0.10587429 0.57600003
0.02582762 0.10605811 0.57700002
0.026926668 0.10605811 0.57700002
0.028025717 0.10605811 0.57700002
0.029124765 0.10605811 0.57700002
0.030223811 0.10605811 0.57700002
0.031377144 0.10624191 0.57800001
0.032478098 0.10624191 0.57800001
0.033637144 0.10642572 0.57900006
0.035100002 0.10752858 0.58500004
0.036276191 0.10771239 0.58600003
0.037392382 0.10771239 0.58600003
0.038508575 0.10771239 0.58600003
0.039624766 0.10771239 0.58600003
0.040810481 0.10789619 0.58700001
0.041857146 0.10771239 0.58600003
0.042973336 0.10771239 0.58600003
0.044164766 0.10789619 0.58700001
0.045282859 0.10789619 0.58700001
0.046480004 0.10808001 0.588
0.047600005 0.10808001 0.588
0.048720002 0.10808001 0.588
0.049924765 0.10826381 0.58900005
0.051133338 0.10844763 0.59000003
-0.023808572 0.11904287 0.64100003
-0.02258762 0.11904287 0.64100003
-0.021366669 0.11904287 0.64100003
-0.020114288 0.11885715 0.64000005
-0.018895239 0.11885715 0.64000005
-0.017620953 0.11848572 0.63800001
-0.016354287 0.11811429 0.63600004
-0.01509524 0.11774287 0.634
-0.01388762 0.11774287 0.634
-0.012340001 0.11458572 0.61700004
-0.011146667 0.11440001 0.61600006
-0.0099733341 0.11440001 0.61600006
-0.0087857153 0.11421429 0.61500001
-0.0075771431 0.11365715 0.61200005
-0.0063695242 0.11291429 0.60800004
-0.0052028573 0.11272858 0.60700005
-0.0040266667 0.11217143 0.60400003
-0.0028714288 0.11198572 0.60300004
-0.0017200001 0.11180001 0.60200006
-0.00057238102 0.11161429 0.60100001
0.00057142862 0.11142858 0.60000002
0.0017085716 0.11105715 0.59800005
0.0028428573 0.11087143 0.597
0.0039600004 0.11031429 0.59400004
0.0050742859 0.10994286 0.59200001
0.0061809528 0.10957143 0.59000003
0.0072800005 0.10920001 0.588
0.0083714295 0.10882858 0.58600003
0.0094390484 0.10827143 0.583
0.010495239 0.1077143 0.58000004
0.011580001 0.10752858 0.57900006
0.012660953 0.10734286 0.57800001
0.013738096 0.10715715 0.57700002
0.014811429 0.10697144 0.57600003
0.015908573 0.10697144 0.57600003
0.016946668 0.10660001 0.574
0.018040001 0.10660001 0.574
0.019133335 0.10660001 0.574
0.020226669 0.10660001 0.574
0.021320002 0.10660001 0.574
0.022413334 0.10660001 0.574
0.023506667 0.10660001 0.574
0.024600001 0.10660001 0.574
0.025738098 0.10678572 0.57500005
0.026833335 0.10678572 0.57500005
0.027977144 0.10697144 0.57600003
0.029074287 0.10697144 0.57600003
0.030223811 0.10715715 0.57700002
0.031377144 0.10734286 0.57800001
0.032478098 0.10734286 0.57800001
0.033579051 0.10734286 0.57800001
0.034680001 0.10734286 0.57800001
0.036276191 0.10882858 0.58600003
0.037392382 0.10882858 0.58600003
0.038508575 0.10882858 0.58600003
0.039692383 0.1090143 0.58700001
0.040810481 0.1090143 0.58700001
0.041857146 0.10882858 0.58600003
0.042973336 0.10882858 0.58600003
0.044089526 0.10882858 0.58600003
0.045282859 0.1090143 0.58700001
0.046400957 0.1090143 0.58700001
0.047600005 0.10920001 0.588
0.048720002 0.10920001 0.588
0.050009526 0.10957143 0.59000003
0.051220004 0.10975715 0.59100002
-0.023771429 0.1200762 0.64000005
-0.022552382 0.1200762 0.64000005
-0.021333335 0.1200762 0.64000005
-0.020082859 0.11988858 0.63900006
-0.018865716 0.11988858 0.63900006
-0.017620953 0.11970096 0.63800001
-0.016354287 0.11932572 0.63600004
-0.01509524 0.11895049 0.634
-0.01388762 0.11895049 0.634
-0.012340001 0.11576096 0.61700004
-0.011164763 0.11576096 0.61700004
-0.0099733341 0.11557334 0.61600006
-0.0087857153 0.11538572 0.61500001
-0.0075771431 0.11482286 0.61200005
-0.0063800006 0.11426001 0.60900003
-0.0052028573 0.11388477 0.60700005
-0.0040266667 0.11332192 0.60400003
-0.0028714288 0.11313429 0.60300004
-0.0017200001 0.11294667 0.60200006
-0.00057238102 0.11275905 0.60100001
0.00057142862 0.11257143 0.60000002
0.0017114286 0.11238382 0.59900004
0.0028476191 0.1121962 0.59800005
0.0039666668 0.11163334 0.59500003
0.0050828573 0.1112581 0.59300005
0.0061600003 0.11032001 0.588
0.0072676195 0.11013239 0.58700001
0.0083714295 0.10994477 0.58600003
0.0094390484 0.10938191 0.583
0.010513334 0.10900667 0.58100003
0.011580001 0.10863143 0.57900006
0.012660953 0.10844382 0.57800001
0.013738096 0.1082562 0.57700002
0.014837144 0.1082562 0.57700002
0.015908573 0.10806858 0.57600003
0.016946668 0.10769334 0.574
0.018040001 0.10769334 0.574
0.019133335 0.10769334 0.574
0.020191429 0.10750572 0.57300001
0.021282859 0.10750572 0.57300001
0.022374287 0.10750572 0.57300001
0.023424763 0.1073181 0.57200003
0.024557145 0.10750572 0.57300001
0.025648573 0.10750572 0.57300001
0.026786668 0.10769334 0.574
0.027880002 0.10769334 0.574
0.029023811 0.10788096 0.57500005
0.030223811 0.1082562 0.57700002
0.031377144 0.10844382 0.57800001
0.032478098 0.10844382 0.57800001
0.033579051 0.10844382 0.57800001
0.034740001 0.10863143 0.57900006
0.036214288 0.10975715 0.58500004
0.037392382 0.10994477 0.58600003
0.038508575 0.10994477 0.58600003
0.039692383 0.11013239 0.58700001
0.040810481 0.11013239 0.58700001
0.041857146 0.10994477 0.58600003
0.042973336 0.10994477 0.58600003
0.044164766 0.11013239 0.58700001
0.045282859 0.11013239 0.58700001
0.046480004 0.11032001 0.588
0.047600005 0.11032001 0.588
0.04880286 0.11050763 0.58900005
0.050009526 0.11069524 0.59000003
0.051306669 0.11107048 0.59200001
-0.022552382 0.12129524 0.64000005
-0.021333335 0.12129524 0.64000005
-0.020082859 0.12110572 0.63900006
-0.018865716 0.12110572 0.63900006
-0.017620953 0.1209162 0.63800001
-0.016354287 0.12053715 0.63600004
-0.01509524 0.12015811 0.634
-0.01388762 0.12015811 0.634
-0.012360001 0.11712572 0.61800003
-0.011182858 0.11712572 0.61800003
-0.0099895243 0.1169362 0.61700004
-0.0088142864 0.1169362 0.61700004
-0.0076390482 0.1169362 0.61700004
-0.0063590482 0.11504096 0.60700005
-0.0052028573 0.11504096 0.60700005
-0.0040266667 0.11447239 0.60400003
-0.0028714288 0.11428286 0.60300004
-0.0017200001 0.11409334 0.60200006
-0.00057238102 0.11390382 0.60100001
0.00057142862 0.11371429 0.60000002
0.0017114286 0.11352477 0.59900004
0.0028476191 0.11333524 0.59800005
0.0039666668 0.11276668 0.59500003
0.0050828573 0.11238763 0.59300005
0.0061600003 0.11144001 0.588
0.0072676195 0.11125048 0.58700001
0.0083714295 0.11106096 0.58600003
0.0094552385 0.11068191 0.58400005
0.010531429 0.11030287 0.58200002
0.011600001 0.10992382 0.58000004
0.012682858 0.10973429 0.57900006
0.013761906 0.10954477 0.57800001
0.014837144 0.10935525 0.57700002
0.015908573 0.10916572 0.57600003
0.016946668 0.10878667 0.574
0.018040001 0.10878667 0.574
0.019100001 0.10859715 0.57300001
0.020191429 0.10859715 0.57300001
0.021282859 0.10859715 0.57300001
0.022335239 0.10840762 0.57200003
0.023424763 0.10840762 0.57200003
0.024514288 0.10840762 0.57200003
0.025648573 0.10859715 0.57300001
0.026740002 0.10859715 0.57300001
0.027880002 0.10878667 0.574
0.028973335 0.10878667 0.574
0.03017143 0.10916572 0.57600003
0.031322859 0.10935525 0.57700002
0.032421906 0.10935525 0.57700002
0.033579051 0.10954477 0.57800001
0.034740001 0.10973429 0.57900006
0.036276191 0.11106096 0.58600003
0.037392382 0.11106096 0.58600003
0.038508575 0.11106096 0.58600003
0.039692383 0.11125048 0.58700001
0.040810481 0.11125048 0.58700001
0.041928574 0.11125048 0.58700001
0.042973336 0.11106096 0.58600003
0.044164766 0.11125048 0.58700001
0.045282859 0.11125048 0.58700001
0.046480004 0.11144001 0.588
0.047600005 0.11144001 0.588
0.04880286 0.11162953 0.58900005
0.050094288 0.11200858 0.59100002
0.051306669 0.1121981 0.59200001
-0.021333335 0.12251429 0.64000005
-0.020082859 0.12232286 0.63900006
-0.018865716 0.12232286 0.63900006
-0.017620953 0.12213144 0.63800001
-0.016354287 0.12174858 0.63600004
-0.015119049 0.12155715 0.63500005
-0.01388762 0.12136572 0.634
-0.012340001 0.11811144 0.61700004
-0.011182858 0.11830287 0.61800003
-0.010005715 0.11830287 0.61800003
-0.008828572 0.11830287 0.61800003
-0.0076514292 0.11830287 0.61800003
-0.0040266667 0.11562286 0.60400003
-0.0028761907 0.11562286 0.60400003
-0.0017200001 0.11524001 0.60200006
-0.00057333335 0.11524001 0.60200006
0.00057142862 0.11485715 0.60000002
0.0017114286 0.11466572 0.59900004
0.0028476191 0.1144743 0.59800005
0.0039666668 0.11390001 0.59500003
0.0050914288 0.11370858 0.59400004
0.0061914288 0.11313429 0.59100002
0.0072800005 0.11256 0.588
0.0083857151 0.11236858 0.58700001
0.0094552385 0.11179429 0.58400005
0.010549525 0.11160287 0.583
0.011620001 0.11122001 0.58100003
0.012704763 0.11102858 0.58000004
0.013761906 0.11064572 0.57800001
0.014837144 0.11045429 0.57700002
0.015908573 0.11026286 0.57600003
0.016976191 0.11007144 0.57500005
0.018040001 0.10988001 0.574
0.019100001 0.10968858 0.57300001
0.020156192 0.10949715 0.57200003
0.021245716 0.10949715 0.57200003
0.022296192 0.10930572 0.57100004
0.023383811 0.10930572 0.57100004
0.02447143 0.10930572 0.57100004
0.02560381 0.10949715 0.57200003
0.026693335 0.10949715 0.57200003
0.02783143 0.10968858 0.57300001
0.02892286 0.10968858 0.57300001
0.03011905 0.11007144 0.57500005
0.031322859 0.11045429 0.57700002
0.032421906 0.11045429 0.57700002
0.033579051 0.11064572 0.57800001
0.034680001 0.11064572 0.57800001
0.036338098 0.11236858 0.58700001
0.037392382 0.11217715 0.58600003
0.038508575 0.11217715 0.58600003
0.039692383 0.11236858 0.58700001
0.040810481 0.11236858 0.58700001
0.041928574 0.11236858 0.58700001
0.043046668 0.11236858 0.58700001
0.044164766 0.11236858 0.58700001
0.045282859 0.11236858 0.58700001
0.046480004 0.11256 0.588
