# .PCD v0.7 - Point Cloud Data file format
VERSION 0.7
FIELDS x y z
SIZE 4 4 4
TYPE F F F
COUNT 1 1 1
WIDTH 1373
HEIGHT 1
VIEWPOINT 0 0 0 1 0 0 0
POINTS 1373
DATA ascii
-0.033489525 0.081169531 0.59600002
-0.032354288 0.081169531 0.59600002
-0.03121905 0.081169531 0.59600002
-0.030083811 0.081169531 0.59600002
-0.028948573 0.081169531 0.59600002
-0.027813336 0.081169531 0.59600002
-0.026678097 0.081169531 0.59600002
-0.025542859 0.081169531 0.59600002
-0.024407621 0.081169531 0.59600002
-0.023311431 0.08130572 0.597
-0.022211431 0.081441909 0.59800005
-0.02110762 0.081578098 0.59900004
-0.019933335 0.081441909 0.59800005
-0.018794287 0.081441909 0.59800005
-0.0016685715 0.079535246 0.58400005
-0.0005561905 0.079535246 0.58400005
0.0005561905 0.079535246 0.58400005
0.0016714287 0.079671435 0.58500004
0.0027809525 0.079535246 0.58400005
0.0038933335 0.079535246 0.58400005
0.0050057145 0.079535246 0.58400005
0.0061180955 0.079535246 0.58400005
0.0072304765 0.079535246 0.58400005
0.0083285719 0.079399049 0.583
0.0094390484 0.079399049 0.583
0.010531429 0.07926286 0.58200002
0.011640001 0.07926286 0.58200002
0.012748572 0.07926286 0.58200002
0.013857144 0.07926286 0.58200002
0.014940001 0.079126671 0.58100003
0.016046667 0.079126671 0.58100003
0.017153334 0.079126671 0.58100003
0.01826 0.079126671 0.58100003
0.019366669 0.079126671 0.58100003
0.020473335 0.079126671 0.58100003
0.021580001 0.079126671 0.58100003
0.022686668 0.079126671 0.58100003
0.023834288 0.07926286 0.58200002
0.024942858 0.07926286 0.58200002
0.026096193 0.079399049 0.583
0.027206669 0.079399049 0.583
0.028317144 0.079399049 0.583
0.029427622 0.079399049 0.583
0.030538097 0.079399049 0.583
0.031702857 0.079535246 0.58400005
0.032871429 0.079671435 0.58500004
0.034043811 0.079807624 0.58600003
0.035160001 0.079807624 0.58600003
0.036461908 0.080216199 0.58900005
0.03764762 0.080352388 0.59000003
0.038771432 0.080352388 0.59000003
0.039962858 0.080488577 0.59100002
0.041088574 0.080488577 0.59100002
0.042214289 0.080488577 0.59100002
0.043413337 0.080624767 0.59200001
0.044465717 0.080488577 0.59100002
0.045668576 0.080624767 0.59200001
0.046796195 0.080624767 0.59200001
0.048004765 0.080760956 0.59300005
0.049217146 0.080897145 0.59400004
0.050348576 0.080897145 0.59400004
0.099290483 0.097920962 0.71900004
0.10038 0.097648576 0.71700001
0.10160381 0.097512387 0.71600002
0.10268001 0.097240008 0.71400005
0.10389429 0.097103819 0.71300006
0.10495715 0.096831433 0.71100003
0.10631143 0.096831433 0.71100003
-0.061870482 0.082304768 0.59600002
-0.060735241 0.082304768 0.59600002
-0.059600003 0.082304768 0.59600002
-0.058464766 0.082304768 0.59600002
-0.057233337 0.082166672 0.59500003
-0.056100003 0.082166672 0.59500003
-0.05487429 0.082028575 0.59400004
-0.05374286 0.082028575 0.59400004
-0.052611433 0.082028575 0.59400004
-0.051566672 0.082166672 0.59500003
-0.050433338 0.082166672 0.59500003
-0.049217146 0.082028575 0.59400004
-0.048085716 0.082028575 0.59400004
-0.046954289 0.082028575 0.59400004
-0.045822859 0.082028575 0.59400004
-0.044691432 0.082028575 0.59400004
-0.043560002 0.082028575 0.59400004
-0.042428575 0.082028575 0.59400004
-0.04136667 0.082166672 0.59500003
-0.040300954 0.082304768 0.59600002
-0.039165717 0.082304768 0.59600002
-0.038030479 0.082304768 0.59600002
-0.036895242 0.082304768 0.59600002
-0.035760004 0.082304768 0.59600002
-0.034624763 0.082304768 0.59600002
-0.033489525 0.082304768 0.59600002
-0.032354288 0.082304768 0.59600002
-0.031166669 0.082166672 0.59500003
-0.030033335 0.082166672 0.59500003
-0.028900001 0.082166672 0.59500003
-0.027766669 0.082166672 0.59500003
-0.026633335 0.082166672 0.59500003
-0.025542859 0.082304768 0.59600002
-0.024407621 0.082304768 0.59600002
-0.023272382 0.082304768 0.59600002
-0.022174288 0.082442865 0.597
-0.021072382 0.082580961 0.59800005
-0.019900002 0.082442865 0.597
-0.018794287 0.082580961 0.59800005
-0.0016657144 0.080509529 0.583
-0.0005561905 0.080647625 0.58400005
0.0005561905 0.080647625 0.58400005
0.0016685715 0.080647625 0.58400005
0.0027809525 0.080647625 0.58400005
0.0038933335 0.080647625 0.58400005
0.0049971431 0.080509529 0.583
0.0061076195 0.080509529 0.583
0.0072180959 0.080509529 0.583
0.0083142864 0.080371432 0.58200002
0.0094228573 0.080371432 0.58200002
0.010513334 0.080233335 0.58100003
0.011600001 0.080095246 0.58000004
0.012726667 0.080233335 0.58100003
0.013809524 0.080095246 0.58000004
0.014914286 0.080095246 0.58000004
0.016019048 0.080095246 0.58000004
0.017123811 0.080095246 0.58000004
0.018197143 0.07995715 0.57900006
0.019366669 0.080233335 0.58100003
0.021542858 0.080095246 0.58000004
0.022686668 0.080233335 0.58100003
0.023752382 0.080095246 0.58000004
0.024985716 0.080509529 0.583
0.026096193 0.080509529 0.583
0.027206669 0.080509529 0.583
0.028317144 0.080509529 0.583
0.029427622 0.080509529 0.583
0.030485716 0.080371432 0.58200002
0.031648573 0.080509529 0.583
0.03281524 0.080647625 0.58400005
0.033985715 0.080785722 0.58500004
0.035100002 0.080785722 0.58500004
0.036523812 0.081476197 0.59000003
0.03764762 0.081476197 0.59000003
0.038837146 0.081614293 0.59100002
0.039962858 0.081614293 0.59100002
0.041088574 0.081614293 0.59100002
0.042214289 0.081614293 0.59100002
0.043413337 0.08175239 0.59200001
0.044465717 0.081614293 0.59100002
0.045668576 0.08175239 0.59200001
0.046796195 0.08175239 0.59200001
0.048004765 0.081890479 0.59300005
0.049217146 0.082028575 0.59400004
0.050348576 0.082028575 0.59400004
0.051653337 0.082304768 0.59600002
0.10038 0.09901429 0.71700001
0.10160381 0.098876201 0.71600002
0.10253619 0.098461911 0.71300006
0.10389429 0.098461911 0.71300006
0.10495715 0.098185718 0.71100003
0.10631143 0.098185718 0.71100003
-0.063111432 0.083580002 0.597
-0.061870482 0.083440006 0.59600002
-0.060735241 0.083440006 0.59600002
-0.059500005 0.083300002 0.59500003
-0.058366671 0.083300002 0.59500003
-0.057233337 0.083300002 0.59500003
-0.056005716 0.083160006 0.59400004
-0.05487429 0.083160006 0.59400004
-0.053652383 0.083020009 0.59300005
-0.052611433 0.083160006 0.59400004
-0.051480003 0.083160006 0.59400004
-0.050348576 0.083160006 0.59400004
-0.049134288 0.083020009 0.59300005
-0.048004765 0.083020009 0.59300005
-0.046875242 0.083020009 0.59300005
-0.045745715 0.083020009 0.59300005
-0.044616193 0.083020009 0.59300005
-0.04348667 0.083020009 0.59300005
-0.042428575 0.083160006 0.59400004
-0.041297145 0.083160006 0.59400004
-0.040233336 0.083300002 0.59500003
-0.039165717 0.083440006 0.59600002
-0.038030479 0.083440006 0.59600002
-0.036895242 0.083440006 0.59600002
-0.035760004 0.083440006 0.59600002
-0.034624763 0.083440006 0.59600002
-0.033433337 0.083300002 0.59500003
-0.032300003 0.083300002 0.59500003
-0.031166669 0.083300002 0.59500003
-0.030033335 0.083300002 0.59500003
-0.028900001 0.083300002 0.59500003
-0.027766669 0.083300002 0.59500003
-0.026633335 0.083300002 0.59500003
-0.025542859 0.083440006 0.59600002
-0.024407621 0.083440006 0.59600002
-0.023272382 0.083440006 0.59600002
-0.022174288 0.083580002 0.597
-0.021037145 0.083580002 0.597
-0.019900002 0.083580002 0.597
-0.018762859 0.083580002 0.597
-0.0027809525 0.081760004 0.58400005
-0.0016657144 0.081620008 0.583
-0.0005552381 0.081620008 0.583
0.0005552381 0.081620008 0.583
0.0016657144 0.081620008 0.583
0.0027761906 0.081620008 0.583
0.0038866668 0.081620008 0.583
0.0049885716 0.081480004 0.58200002
0.0060971431 0.081480004 0.58200002
0.0072057149 0.081480004 0.58200002
0.0083000008 0.081340007 0.58100003
0.0094066672 0.081340007 0.58100003
0.010495239 0.081200004 0.58000004
0.011600001 0.081200004 0.58000004
0.012704763 0.081200004 0.58000004
0.013809524 0.081200004 0.58000004
0.014888573 0.081060007 0.57900006
0.015991429 0.081060007 0.57900006
0.017094286 0.081060007 0.57900006
0.018165715 0.080920003 0.57800001
0.020367621 0.080920003 0.57800001
0.021431429 0.080780007 0.57700002
0.022569526 0.080920003 0.57800001
0.023629526 0.080780007 0.57700002
0.024642859 0.080500007 0.57500005
0.025738098 0.080500007 0.57500005
0.026833335 0.080500007 0.57500005
0.027880002 0.080360003 0.574
0.028973335 0.080360003 0.574
0.029909525 0.079940006 0.57100004
0.031051431 0.080080003 0.57200003
0.032140955 0.080080003 0.57200003
0.033172384 0.079940006 0.57100004
0.034320001 0.080080003 0.57200003
0.035285715 0.079800002 0.57000005
0.03656286 0.080220006 0.57300001
0.038837146 0.082740009 0.59100002
0.039962858 0.082740009 0.59100002
0.041088574 0.082740009 0.59100002
0.042214289 0.082740009 0.59100002
0.043413337 0.082880005 0.59200001
0.044540957 0.082880005 0.59200001
0.045668576 0.082880005 0.59200001
0.046875242 0.083020009 0.59300005
0.048085716 0.083160006 0.59400004
0.049217146 0.083160006 0.59400004
0.050433338 0.083300002 0.59500003
0.051653337 0.083440006 0.59600002
0.052877147 0.083580002 0.597
0.10253619 0.099820003 0.71300006
0.10360286 0.09954001 0.71100003
0.10480953 0.099400006 0.71000004
0.10586286 0.099120006 0.708
0.10721143 0.099120006 0.708
-0.062900007 0.08443334 0.59500003
-0.061766669 0.08443334 0.59500003
-0.060633339 0.08443334 0.59500003
-0.059500005 0.08443334 0.59500003
-0.058268577 0.084291436 0.59400004
-0.057137147 0.084291436 0.59400004
-0.055911433 0.084149532 0.59300005
-0.05478191 0.084149532 0.59300005
-0.053652383 0.084149532 0.59300005
-0.05252286 0.084149532 0.59300005
-0.051480003 0.084291436 0.59400004
-0.050263815 0.084149532 0.59300005
-0.049134288 0.084149532 0.59300005
-0.048004765 0.084149532 0.59300005
-0.046875242 0.084149532 0.59300005
-0.045745715 0.084149532 0.59300005
-0.044616193 0.084149532 0.59300005
-0.04348667 0.084149532 0.59300005
-0.042357147 0.084149532 0.59300005
-0.041297145 0.084291436 0.59400004
-0.040233336 0.08443334 0.59500003
-0.039100002 0.08443334 0.59500003
-0.037966669 0.08443334 0.59500003
-0.036833335 0.08443334 0.59500003
-0.035700001 0.08443334 0.59500003
-0.034566671 0.08443334 0.59500003
-0.033433337 0.08443334 0.59500003
-0.032300003 0.08443334 0.59500003
-0.031166669 0.08443334 0.59500003
-0.030033335 0.08443334 0.59500003
-0.028900001 0.08443334 0.59500003
-0.027766669 0.08443334 0.59500003
-0.026633335 0.08443334 0.59500003
-0.025500001 0.08443334 0.59500003
-0.024366667 0.08443334 0.59500003
-0.023233335 0.08443334 0.59500003
-0.022137145 0.084575243 0.59600002
-0.021001907 0.084575243 0.59600002
-0.019866668 0.084575243 0.59600002
-0.018762859 0.084717147 0.597
-0.0038866668 0.08273048 0.583
-0.0027761906 0.08273048 0.583
-0.0016657144 0.08273048 0.583
-0.0005552381 0.08273048 0.583
0.0005552381 0.08273048 0.583
0.0016657144 0.08273048 0.583
0.0027714288 0.082588576 0.58200002
0.0038800002 0.082588576 0.58200002
0.0049885716 0.082588576 0.58200002
0.0060971431 0.082588576 0.58200002
0.0071933339 0.082446672 0.58100003
0.0082857152 0.082304768 0.58000004
0.0093904771 0.082304768 0.58000004
0.010477143 0.082162865 0.57900006
0.011580001 0.082162865 0.57900006
0.012682858 0.082162865 0.57900006
0.013785715 0.082162865 0.57900006
0.014862858 0.082020961 0.57800001
0.015963811 0.082020961 0.57800001
0.016976191 0.081595242 0.57500005
0.018040001 0.081453338 0.574
0.019100001 0.081311435 0.57300001
0.020226669 0.081453338 0.574
0.023547621 0.081595242 0.57500005
0.024557145 0.081311435 0.57300001
0.02560381 0.081169531 0.57200003
0.026740002 0.081311435 0.57300001
0.027782859 0.081169531 0.57200003
0.028872384 0.081169531 0.57200003
0.029909525 0.081027627 0.57100004
0.030997144 0.081027627 0.57100004
0.032084763 0.081027627 0.57100004
0.033172384 0.081027627 0.57100004
0.034320001 0.081169531 0.57200003
0.035285715 0.080885723 0.57000005
0.03656286 0.081311435 0.57300001
0.037654288 0.081311435 0.57300001
0.039962858 0.083865717 0.59100002
0.041088574 0.083865717 0.59100002
0.042214289 0.083865717 0.59100002
0.043413337 0.084007628 0.59200001
0.044540957 0.084007628 0.59200001
0.045668576 0.084007628 0.59200001
0.046875242 0.084149532 0.59300005
0.048085716 0.084291436 0.59400004
0.049217146 0.084291436 0.59400004
0.050433338 0.08443334 0.59500003
0.051566672 0.08443334 0.59500003
0.052788574 0.084575243 0.59600002
0.10253619 0.1011781 0.71300006
0.10360286 0.10089429 0.71100003
0.10480953 0.10075239 0.71000004
0.10586286 0.10046858 0.708
0.10706001 0.10032667 0.70700002
0.1081 0.10004286 0.70500004
0.10882191 0.099475242 0.70100003
-0.064140953 0.085710481 0.59600002
-0.063005716 0.085710481 0.59600002
-0.061870482 0.085710481 0.59600002
-0.060633339 0.08556667 0.59500003
-0.059500005 0.08556667 0.59500003
-0.058268577 0.085422866 0.59400004
-0.057137147 0.085422866 0.59400004
-0.055911433 0.085279055 0.59300005
-0.05478191 0.085279055 0.59300005
-0.053652383 0.085279055 0.59300005
-0.05252286 0.085279055 0.59300005
-0.051393338 0.085279055 0.59300005
-0.050263815 0.085279055 0.59300005
-0.049134288 0.085279055 0.59300005
-0.047923815 0.085135244 0.59200001
-0.046796195 0.085135244 0.59200001
-0.045668576 0.085135244 0.59200001
-0.044540957 0.085135244 0.59200001
-0.043413337 0.085135244 0.59200001
-0.042285718 0.085135244 0.59200001
-0.04122762 0.085279055 0.59300005
-0.040233336 0.08556667 0.59500003
-0.039100002 0.08556667 0.59500003
-0.037966669 0.08556667 0.59500003
-0.036833335 0.08556667 0.59500003
-0.035700001 0.08556667 0.59500003
-0.034566671 0.08556667 0.59500003
-0.033433337 0.08556667 0.59500003
-0.032245718 0.085422866 0.59400004
-0.031114288 0.085422866 0.59400004
-0.029982859 0.085422866 0.59400004
-0.028851431 0.085422866 0.59400004
-0.027720002 0.085422866 0.59400004
-0.026588574 0.085422866 0.59400004
-0.025500001 0.08556667 0.59500003
-0.024366667 0.08556667 0.59500003
-0.023233335 0.08556667 0.59500003
-0.022137145 0.085710481 0.59600002
-0.021001907 0.085710481 0.59600002
-0.019833334 0.08556667 0.59500003
-0.01873143 0.085710481 0.59600002
-0.0060971431 0.083697148 0.58200002
-0.0049885716 0.083697148 0.58200002
-0.0038800002 0.083697148 0.58200002
-0.0027761906 0.083840959 0.583
-0.0016628572 0.083697148 0.58200002
-0.00055428577 0.083697148 0.58200002
0.00055428577 0.083697148 0.58200002
0.0016628572 0.083697148 0.58200002
0.0027714288 0.083697148 0.58200002
0.0038800002 0.083697148 0.58200002
0.0049800002 0.083553337 0.58100003
0.0060866671 0.083553337 0.58100003
0.0071685719 0.083265722 0.57900006
0.0082571432 0.083121911 0.57800001
0.009374286 0.083265722 0.57900006
0.010459049 0.083121911 0.57800001
0.01156 0.083121911 0.57800001
0.012660953 0.083121911 0.57800001
0.013738096 0.0829781 0.57700002
0.014811429 0.082834288 0.57600003
0.015936192 0.0829781 0.57700002
0.016946668 0.082546674 0.574
0.017977145 0.082259052 0.57200003
0.019066667 0.082259052 0.57200003
0.020156192 0.082259052 0.57200003
0.021245716 0.082259052 0.57200003
0.023465715 0.082402863 0.57300001
0.024514288 0.082259052 0.57200003
0.02560381 0.082259052 0.57200003
0.026693335 0.082259052 0.57200003
0.027734287 0.08211524 0.57100004
0.028821906 0.08211524 0.57100004
0.029909525 0.08211524 0.57100004
0.030942859 0.081971437 0.57000005
0.032028574 0.081971437 0.57000005
0.033172384 0.08211524 0.57100004
0.034260001 0.08211524 0.57100004
0.035285715 0.081971437 0.57000005
0.036435239 0.08211524 0.57100004
0.03752286 0.08211524 0.57100004
0.038745716 0.082402863 0.57300001
0.042285718 0.085135244 0.59200001
0.043413337 0.085135244 0.59200001
0.044465717 0.084991433 0.59100002
0.045668576 0.085135244 0.59200001
0.046796195 0.085135244 0.59200001
0.048004765 0.085279055 0.59300005
0.049217146 0.085422866 0.59400004
0.050433338 0.08556667 0.59500003
0.051566672 0.08556667 0.59500003
0.052788574 0.085710481 0.59600002
0.053923812 0.085710481 0.59600002
0.10360286 0.10224858 0.71100003
0.10451429 0.10181715 0.708
0.10586286 0.10181715 0.708
0.10706001 0.10167334 0.70700002
0.1081 0.10138572 0.70500004
0.10913239 0.10109811 0.70300001
-0.064033337 0.086700007 0.59500003
-0.062900007 0.086700007 0.59500003
-0.061766669 0.086700007 0.59500003
-0.060633339 0.086700007 0.59500003
-0.059400003 0.086554289 0.59400004
-0.058268577 0.086554289 0.59400004
-0.057040956 0.086408578 0.59300005
-0.055911433 0.086408578 0.59300005
-0.054689527 0.086262859 0.59200001
-0.053561907 0.086262859 0.59200001
-0.052434288 0.086262859 0.59200001
-0.051393338 0.086408578 0.59300005
-0.050179049 0.086262859 0.59200001
-0.04905143 0.086262859 0.59200001
-0.047923815 0.086262859 0.59200001
-0.046796195 0.086262859 0.59200001
-0.045668576 0.086262859 0.59200001
-0.044540957 0.086262859 0.59200001
-0.043413337 0.086262859 0.59200001
-0.042285718 0.086262859 0.59200001
-0.04122762 0.086408578 0.59300005
-0.040165719 0.086554289 0.59400004
-0.039100002 0.086700007 0.59500003
-0.037966669 0.086700007 0.59500003
-0.036833335 0.086700007 0.59500003
-0.035700001 0.086700007 0.59500003
-0.034566671 0.086700007 0.59500003
-0.033433337 0.086700007 0.59500003
-0.032245718 0.086554289 0.59400004
-0.031114288 0.086554289 0.59400004
-0.029982859 0.086554289 0.59400004
-0.028851431 0.086554289 0.59400004
-0.027720002 0.086554289 0.59400004
-0.026588574 0.086554289 0.59400004
-0.025457144 0.086554289 0.59400004
-0.024366667 0.086700007 0.59500003
-0.023233335 0.086700007 0.59500003
-0.022137145 0.086845718 0.59600002
-0.021001907 0.086845718 0.59600002
-0.019833334 0.086700007 0.59500003
-0.01873143 0.086845718 0.59600002
-0.0094552385 0.085097149 0.58400005
-0.0083428575 0.085097149 0.58400005
-0.0072180959 0.084951431 0.583
-0.0061076195 0.084951431 0.583
-0.0049885716 0.08480572 0.58200002
-0.0038800002 0.08480572 0.58200002
-0.0027714288 0.08480572 0.58200002
-0.0016628572 0.08480572 0.58200002
-0.00055428577 0.08480572 0.58200002
0.00055428577 0.08480572 0.58200002
0.0016600001 0.084660009 0.58100003
0.0027666669 0.084660009 0.58100003
0.0038666669 0.08451429 0.58000004
0.0049714288 0.08451429 0.58000004
0.0060761911 0.08451429 0.58000004
0.0071438099 0.08407715 0.57700002
0.0082428576 0.08407715 0.57700002
0.0093419058 0.08407715 0.57700002
0.010422857 0.083931431 0.57600003
0.011520001 0.083931431 0.57600003
0.012617144 0.083931431 0.57600003
0.013571429 0.08305715 0.57000005
0.01463143 0.082911432 0.56900001
0.01571524 0.082911432 0.56900001
0.01688762 0.08334858 0.57200003
0.017945716 0.083202861 0.57100004
0.019033335 0.083202861 0.57100004
0.020085715 0.08305715 0.57000005
0.021208573 0.083202861 0.57100004
0.022296192 0.083202861 0.57100004
0.023424763 0.08334858 0.57200003
0.02447143 0.083202861 0.57100004
0.025559049 0.083202861 0.57100004
0.026646668 0.083202861 0.57100004
0.027685717 0.08305715 0.57000005
0.028821906 0.083202861 0.57100004
0.029857146 0.08305715 0.57000005
0.030942859 0.08305715 0.57000005
0.032028574 0.08305715 0.57000005
0.033172384 0.083202861 0.57100004
0.034260001 0.083202861 0.57100004
0.035285715 0.08305715 0.57000005
0.036435239 0.083202861 0.57100004
0.037588574 0.08334858 0.57200003
0.038745716 0.083494291 0.57300001
0.039906669 0.083640009 0.574
0.041000001 0.083640009 0.574
0.042093337 0.083640009 0.574
0.043111432 0.083494291 0.57300001
0.044125717 0.08334858 0.57200003
0.048004765 0.086408578 0.59300005
0.049217146 0.086554289 0.59400004
0.050433338 0.086700007 0.59500003
0.051566672 0.086700007 0.59500003
0.052788574 0.086845718 0.59600002
0.054014288 0.086991437 0.597
0.055151433 0.086991437 0.597
0.10451429 0.10316572 0.708
0.10571334 0.10302 0.70700002
0.10706001 0.10302 0.70700002
0.1081 0.10272858 0.70500004
0.10913239 0.10243715 0.70300001
0.11015715 0.10214572 0.70100003
-0.064033337 0.087833337 0.59500003
-0.062900007 0.087833337 0.59500003
-0.061766669 0.087833337 0.59500003
-0.060531434 0.087685719 0.59400004
-0.059400003 0.087685719 0.59400004
-0.058170479 0.087538101 0.59300005
-0.057040956 0.087538101 0.59300005
-0.055817146 0.087390482 0.59200001
-0.054689527 0.087390482 0.59200001
-0.053561907 0.087390482 0.59200001
-0.052434288 0.087390482 0.59200001
-0.051306669 0.087390482 0.59200001
-0.050179049 0.087390482 0.59200001
-0.04905143 0.087390482 0.59200001
-0.047923815 0.087390482 0.59200001
-0.046717145 0.087242864 0.59100002
-0.045591433 0.087242864 0.59100002
-0.044465717 0.087242864 0.59100002
-0.043340001 0.087242864 0.59100002
-0.042285718 0.087390482 0.59200001
-0.041158099 0.087390482 0.59200001
-0.040098097 0.087538101 0.59300005
-0.039034288 0.087685719 0.59400004
-0.037902858 0.087685719 0.59400004
-0.036771432 0.087685719 0.59400004
-0.035640001 0.087685719 0.59400004
-0.034508575 0.087685719 0.59400004
-0.033377144 0.087685719 0.59400004
-0.032191429 0.087538101 0.59300005
-0.031061906 0.087538101 0.59300005
-0.029932383 0.087538101 0.59300005
-0.028802859 0.087538101 0.59300005
-0.027673336 0.087538101 0.59300005
-0.026543811 0.087538101 0.59300005
-0.025457144 0.087685719 0.59400004
-0.024325715 0.087685719 0.59400004
-0.023194287 0.087685719 0.59400004
-0.022100002 0.087833337 0.59500003
-0.020966668 0.087833337 0.59500003
-0.019833334 0.087833337 0.59500003
-0.018700002 0.087833337 0.59500003
-0.011720001 0.086504765 0.58600003
-0.010567619 0.086209528 0.58400005
-0.0094552385 0.086209528 0.58400005
-0.0083285719 0.08606191 0.583
-0.0072180959 0.08606191 0.583
-0.0060971431 0.085914291 0.58200002
-0.0049885716 0.085914291 0.58200002
-0.0038733336 0.085766673 0.58100003
-0.0027666669 0.085766673 0.58100003
-0.0016600001 0.085766673 0.58100003
-0.00055238098 0.085619055 0.58000004
0.00055238098 0.085619055 0.58000004
0.0016542858 0.085471436 0.57900006
0.002757143 0.085471436 0.57900006
0.0038533336 0.085323818 0.57800001
0.0048942859 0.084290482 0.57100004
0.0059819054 0.084290482 0.57100004
0.0070571434 0.084142864 0.57000005
0.0081428578 0.084142864 0.57000005
0.0092285722 0.084142864 0.57000005
0.010296191 0.083995245 0.56900001
0.011400001 0.084142864 0.57000005
0.012441905 0.083847627 0.56800002
0.013523811 0.083847627 0.56800002
0.014605715 0.083847627 0.56800002
0.01568762 0.083847627 0.56800002
0.016740002 0.083700009 0.56700003
0.017851429 0.083847627 0.56800002
0.018933335 0.083847627 0.56800002
0.02001524 0.083847627 0.56800002
0.021097144 0.083847627 0.56800002
0.022140002 0.083700009 0.56700003
0.023260955 0.083847627 0.56800002
0.024385717 0.083995245 0.56900001
0.025469525 0.083995245 0.56900001
0.026553335 0.083995245 0.56900001
0.027588572 0.083847627 0.56800002
0.028720954 0.083995245 0.56900001
0.029804764 0.083995245 0.56900001
0.030888574 0.083995245 0.56900001
0.031972382 0.083995245 0.56900001
0.033056192 0.083995245 0.56900001
0.034200002 0.084142864 0.57000005
0.035223812 0.083995245 0.56900001
0.036371432 0.084142864 0.57000005
0.037588574 0.0844381 0.57200003
0.038745716 0.084585719 0.57300001
0.039906669 0.084733337 0.574
0.041000001 0.084733337 0.574
0.042166669 0.084880956 0.57500005
0.043261908 0.084880956 0.57500005
0.044280004 0.084733337 0.574
0.045373335 0.084733337 0.574
0.046385717 0.084585719 0.57300001
0.050433338 0.087833337 0.59500003
0.051653337 0.087980956 0.59600002
0.052788574 0.087980956 0.59600002
0.054014288 0.088128574 0.597
0.055151433 0.088128574 0.597
0.056477148 0.088423818 0.59900004
0.0576181 0.088423818 0.59900004
0.10436668 0.10436668 0.70700002
0.10541429 0.10407144 0.70500004
0.10675715 0.10407144 0.70500004
0.10794667 0.10392382 0.70400006
0.10882191 0.10348096 0.70100003
0.11000001 0.10333334 0.70000005
-0.064248577 0.089265719 0.597
-0.063005716 0.089116193 0.59600002
-0.061766669 0.088966675 0.59500003
-0.060531434 0.088817149 0.59400004
-0.059300005 0.088667624 0.59300005
-0.058170479 0.088667624 0.59300005
-0.057040956 0.088667624 0.59300005
-0.055817146 0.088518098 0.59200001
-0.054689527 0.088518098 0.59200001
-0.053561907 0.088518098 0.59200001
-0.052434288 0.088518098 0.59200001
-0.051306669 0.088518098 0.59200001
-0.050179049 0.088518098 0.59200001
-0.04905143 0.088518098 0.59200001
-0.04784286 0.08836858 0.59100002
-0.046717145 0.08836858 0.59100002
-0.045591433 0.08836858 0.59100002
-0.044465717 0.08836858 0.59100002
-0.043340001 0.08836858 0.59100002
-0.042214289 0.08836858 0.59100002
-0.041158099 0.088518098 0.59200001
-0.040098097 0.088667624 0.59300005
-0.038968574 0.088667624 0.59300005
-0.037839051 0.088667624 0.59300005
-0.036709525 0.088667624 0.59300005
-0.035580002 0.088667624 0.59300005
-0.034508575 0.088817149 0.59400004
-0.033320956 0.088667624 0.59300005
-0.032137144 0.088518098 0.59200001
-0.031009525 0.088518098 0.59200001
-0.029881908 0.088518098 0.59200001
-0.028754288 0.088518098 0.59200001
-0.027626669 0.088518098 0.59200001
-0.026543811 0.088667624 0.59300005
-0.025414288 0.088667624 0.59300005
-0.024325715 0.088817149 0.59400004
-0.023194287 0.088817149 0.59400004
-0.022100002 0.088966675 0.59500003
-0.020966668 0.088966675 0.59500003
-0.019800002 0.088817149 0.59400004
-0.018668573 0.088817149 0.59400004
-0.011720001 0.087620959 0.58600003
-0.010567619 0.087321907 0.58400005
-0.0094390484 0.087172389 0.583
-0.0083285719 0.087172389 0.583
-0.0072057149 0.087022863 0.58200002
-0.0060971431 0.087022863 0.58200002
-0.0049800002 0.086873338 0.58100003
-0.0038733336 0.086873338 0.58100003
-0.0027619048 0.086723812 0.58000004
-0.001657143 0.086723812 0.58000004
-0.00055142859 0.086574294 0.57900006
0.00055142859 0.086574294 0.57900006
0.0016514286 0.086424768 0.57800001
0.0027523811 0.086424768 0.57800001
0.003846667 0.086275242 0.57700002
0.0048942859 0.085378103 0.57100004
0.0059819054 0.085378103 0.57100004
0.0070571434 0.085228577 0.57000005
0.0081428578 0.085228577 0.57000005
0.0091961911 0.084929526 0.56800002
0.010260001 0.084780008 0.56700003
0.011340001 0.084780008 0.56700003
0.012420001 0.084780008 0.56700003
0.013500001 0.084780008 0.56700003
0.014580001 0.084780008 0.56700003
0.015632382 0.084630482 0.56600004
0.016710477 0.084630482 0.56600004
0.017820001 0.084780008 0.56700003
0.018866668 0.084630482 0.56600004
0.019980002 0.084780008 0.56700003
0.021060001 0.084780008 0.56700003
0.022061907 0.084480956 0.565
0.024300002 0.084780008 0.56700003
0.025380002 0.084780008 0.56700003
0.026506668 0.084929526 0.56800002
0.027540002 0.084780008 0.56700003
0.028670479 0.084929526 0.56800002
0.029752383 0.084929526 0.56800002
0.030834287 0.084929526 0.56800002
0.031916194 0.084929526 0.56800002
0.032998096 0.084929526 0.56800002
0.034080002 0.084929526 0.56800002
0.035223812 0.085079052 0.56900001
0.036307622 0.085079052 0.56900001
0.03752286 0.085378103 0.57100004
0.038678098 0.085527621 0.57200003
0.039837144 0.085677147 0.57300001
0.041000001 0.085826673 0.574
0.042093337 0.085826673 0.574
0.043261908 0.085976198 0.57500005
0.044357147 0.085976198 0.57500005
0.045373335 0.085826673 0.574
0.046466671 0.085826673 0.574
0.047560003 0.085826673 0.574
0.048568573 0.085677147 0.57300001
0.051653337 0.089116193 0.59600002
0.052788574 0.089116193 0.59600002
0.054014288 0.089265719 0.597
0.055243813 0.089415245 0.59800005
0.056477148 0.08956477 0.59900004
0.0576181 0.08956477 0.59900004
0.10407144 0.10541429 0.70500004
0.10541429 0.10541429 0.70500004
0.10660572 0.10526477 0.70400006
0.10779334 0.10511524 0.70300001
0.10866667 0.10466667 0.70000005
0.11000001 0.10466667 0.70000005
-0.064140953 0.090251431 0.59600002
-0.062900007 0.090100005 0.59500003
-0.061766669 0.090100005 0.59500003
-0.060531434 0.08994858 0.59400004
-0.059300005 0.089797147 0.59300005
-0.058170479 0.089797147 0.59300005
-0.056944765 0.089645721 0.59200001
-0.055817146 0.089645721 0.59200001
-0.054689527 0.089645721 0.59200001
-0.053561907 0.089645721 0.59200001
-0.052434288 0.089645721 0.59200001
-0.051306669 0.089645721 0.59200001
-0.050179049 0.089645721 0.59200001
-0.048968576 0.089494288 0.59100002
-0.04784286 0.089494288 0.59100002
-0.046717145 0.089494288 0.59100002
-0.045591433 0.089494288 0.59100002
-0.044465717 0.089494288 0.59100002
-0.043340001 0.089494288 0.59100002
-0.042214289 0.089494288 0.59100002
-0.041158099 0.089645721 0.59200001
-0.040030479 0.089645721 0.59200001
-0.03890286 0.089645721 0.59200001
-0.037839051 0.089797147 0.59300005
-0.036709525 0.089797147 0.59300005
-0.035580002 0.089797147 0.59300005
-0.034450479 0.089797147 0.59300005
-0.033264764 0.089645721 0.59200001
-0.032137144 0.089645721 0.59200001
-0.031009525 0.089645721 0.59200001
-0.029881908 0.089645721 0.59200001
-0.028754288 0.089645721 0.59200001
-0.027626669 0.089645721 0.59200001
-0.02649905 0.089645721 0.59200001
-0.025414288 0.089797147 0.59300005
-0.024284763 0.089797147 0.59300005
-0.023194287 0.08994858 0.59400004
-0.022100002 0.090100005 0.59500003
-0.020966668 0.090100005 0.59500003
-0.019800002 0.08994858 0.59400004
-0.018668573 0.08994858 0.59400004
-0.012836191 0.088737145 0.58600003
-0.011700001 0.088585719 0.58500004
-0.010567619 0.088434294 0.58400005
-0.0094390484 0.088282861 0.583
-0.0083142864 0.088131435 0.58200002
-0.0072057149 0.088131435 0.58200002
-0.0060866671 0.087980002 0.58100003
-0.0049800002 0.087980002 0.58100003
-0.0038666669 0.087828577 0.58000004
-0.0027619048 0.087828577 0.58000004
-0.0016542858 0.087677151 0.57900006
-0.00055142859 0.087677151 0.57900006
0.00055047625 0.087525718 0.57800001
0.0016514286 0.087525718 0.57800001
0.0027142859 0.086314291 0.57000005
0.0038000003 0.086314291 0.57000005
0.0048771431 0.086162865 0.56900001
0.005960953 0.086162865 0.56900001
0.0070323814 0.086011432 0.56800002
0.0081142867 0.086011432 0.56800002
0.009180001 0.085860007 0.56700003
0.010260001 0.085860007 0.56700003
0.011340001 0.085860007 0.56700003
0.012398096 0.085708573 0.56600004
0.013476191 0.085708573 0.56600004
0.014554286 0.085708573 0.56600004
0.015604763 0.085557148 0.565
0.016680954 0.085557148 0.565
0.017757144 0.085557148 0.565
0.018833335 0.085557148 0.565
0.019909525 0.085557148 0.565
0.020985715 0.085557148 0.565
0.022061907 0.085557148 0.565
0.023097144 0.085405722 0.56400001
0.024214288 0.085557148 0.565
0.025290478 0.085557148 0.565
0.026413335 0.085708573 0.56600004
0.027442859 0.085557148 0.565
0.028519049 0.085557148 0.565
0.02964762 0.085708573 0.56600004
0.030725716 0.085708573 0.56600004
0.031860001 0.085860007 0.56700003
0.032940004 0.085860007 0.56700003
0.034020003 0.085860007 0.56700003
0.035161909 0.086011432 0.56800002
0.036243811 0.086011432 0.56800002
0.037391432 0.086162865 0.56900001
0.038542859 0.086314291 0.57000005
0.039767623 0.086617149 0.57200003
0.040928572 0.086768575 0.57300001
0.042020004 0.086768575 0.57300001
0.043186668 0.086920008 0.574
0.044280004 0.086920008 0.574
0.045373335 0.086920008 0.574
0.046385717 0.086768575 0.57300001
0.047477145 0.086768575 0.57300001
0.048568573 0.086768575 0.57300001
0.04974667 0.086920008 0.574
0.05419524 0.090705723 0.59900004
0.055336192 0.090705723 0.59900004
0.056477148 0.090705723 0.59900004
0.10779334 0.10645429 0.70300001
0.10882191 0.10615144 0.70100003
0.11015715 0.10615144 0.70100003
-0.064248577 0.091540009 0.597
-0.063005716 0.091386676 0.59600002
-0.061766669 0.091233343 0.59500003
-0.060531434 0.091080002 0.59400004
-0.059400003 0.091080002 0.59400004
-0.058170479 0.09092667 0.59300005
-0.057040956 0.09092667 0.59300005
-0.055817146 0.090773337 0.59200001
-0.054689527 0.090773337 0.59200001
-0.053561907 0.090773337 0.59200001
-0.052434288 0.090773337 0.59200001
-0.051306669 0.090773337 0.59200001
-0.050179049 0.090773337 0.59200001
-0.048968576 0.090620004 0.59100002
-0.04784286 0.090620004 0.59100002
-0.046717145 0.090620004 0.59100002
-0.045591433 0.090620004 0.59100002
-0.044465717 0.090620004 0.59100002
-0.043340001 0.090620004 0.59100002
-0.042214289 0.090620004 0.59100002
-0.041088574 0.090620004 0.59100002
-0.040030479 0.090773337 0.59200001
-0.03890286 0.090773337 0.59200001
-0.037775241 0.090773337 0.59200001
-0.036647622 0.090773337 0.59200001
-0.035520002 0.090773337 0.59200001
-0.034392383 0.090773337 0.59200001
-0.033264764 0.090773337 0.59200001
-0.032137144 0.090773337 0.59200001
-0.031009525 0.090773337 0.59200001
-0.029881908 0.090773337 0.59200001
-0.028754288 0.090773337 0.59200001
-0.027580002 0.090620004 0.59100002
-0.02649905 0.090773337 0.59200001
-0.02537143 0.090773337 0.59200001
-0.024284763 0.09092667 0.59300005
-0.023194287 0.091080002 0.59400004
-0.022100002 0.091233343 0.59500003
-0.020966668 0.091233343 0.59500003
-0.019800002 0.091080002 0.59400004
-0.018700002 0.091233343 0.59500003
-0.013976191 0.090006672 0.58700001
-0.012814286 0.089700006 0.58500004
-0.01168 0.089546673 0.58400005
-0.010549525 0.08939334 0.583
-0.0094228573 0.089240007 0.58200002
-0.0083142864 0.089240007 0.58200002
-0.0071933339 0.089086674 0.58100003
-0.0060866671 0.089086674 0.58100003
-0.0049714288 0.088933341 0.58000004
-0.0038666669 0.088933341 0.58000004
-0.0027619048 0.088933341 0.58000004
-0.0016542858 0.088780008 0.57900006
-0.00055142859 0.088780008 0.57900006
0.00055142859 0.088780008 0.57900006
0.0016228573 0.087093338 0.56800002
0.002709524 0.087246671 0.56900001
0.0037933337 0.087246671 0.56900001
0.0048685716 0.087093338 0.56800002
0.0059504765 0.087093338 0.56800002
0.0070200004 0.086940005 0.56700003
0.0081000002 0.086940005 0.56700003
0.0091638099 0.086786672 0.56600004
0.010241905 0.086786672 0.56600004
0.0113 0.08663334 0.565
0.012376191 0.08663334 0.565
0.013452382 0.08663334 0.565
0.014528573 0.08663334 0.565
0.015604763 0.08663334 0.565
0.016680954 0.08663334 0.565
0.017757144 0.08663334 0.565
0.018833335 0.08663334 0.565
0.019874288 0.086480007 0.56400001
0.020948572 0.086480007 0.56400001
0.022022858 0.086480007 0.56400001
0.023056192 0.086326674 0.56300002
0.024171431 0.086480007 0.56400001
0.025245717 0.086480007 0.56400001
0.026320001 0.086480007 0.56400001
0.027394287 0.086480007 0.56400001
0.028519049 0.08663334 0.565
0.029595241 0.08663334 0.565
0.030671431 0.08663334 0.565
0.031747621 0.08663334 0.565
0.032823812 0.08663334 0.565
0.033900004 0.08663334 0.565
0.035038099 0.086786672 0.56600004
0.036116194 0.086786672 0.56600004
0.037194289 0.086786672 0.56600004
0.03840762 0.087093338 0.56800002
0.039489526 0.087093338 0.56800002
0.040642861 0.087246671 0.56900001
0.041800003 0.087400004 0.57000005
0.043111432 0.087860003 0.57300001
0.04420286 0.087860003 0.57300001
0.045294289 0.087860003 0.57300001
0.046304766 0.08770667 0.57200003
0.047394291 0.08770667 0.57200003
0.048483811 0.08770667 0.57200003
0.04974667 0.088013336 0.574
0.051017147 0.088320009 0.57600003
0.052114289 0.088320009 0.57600003
0.10866667 0.10733334 0.70000005
-0.064140953 0.092521913 0.59600002
-0.062900007 0.092366673 0.59500003
-0.06166286 0.092211433 0.59400004
-0.060531434 0.092211433 0.59400004
-0.059300005 0.0920562 0.59300005
-0.058170479 0.0920562 0.59300005
-0.056944765 0.09190096 0.59200001
-0.055817146 0.09190096 0.59200001
-0.054689527 0.09190096 0.59200001
-0.053561907 0.09190096 0.59200001
-0.052434288 0.09190096 0.59200001
-0.051306669 0.09190096 0.59200001
-0.050094288 0.091745719 0.59100002
-0.048968576 0.091745719 0.59100002
-0.04784286 0.091745719 0.59100002
-0.046717145 0.091745719 0.59100002
-0.045591433 0.091745719 0.59100002
-0.044465717 0.091745719 0.59100002
-0.043340001 0.091745719 0.59100002
-0.042214289 0.091745719 0.59100002
-0.041088574 0.091745719 0.59100002
-0.040030479 0.09190096 0.59200001
-0.03890286 0.09190096 0.59200001
-0.037775241 0.09190096 0.59200001
-0.036647622 0.09190096 0.59200001
-0.035520002 0.09190096 0.59200001
-0.034392383 0.09190096 0.59200001
-0.033264764 0.09190096 0.59200001
-0.032137144 0.09190096 0.59200001
-0.030957146 0.091745719 0.59100002
-0.02983143 0.091745719 0.59100002
-0.028705716 0.091745719 0.59100002
-0.027580002 0.091745719 0.59100002
-0.02649905 0.09190096 0.59200001
-0.02537143 0.09190096 0.59200001
-0.024284763 0.0920562 0.59300005
-0.023233335 0.092366673 0.59500003
-0.022100002 0.092366673 0.59500003
-0.021001907 0.092521913 0.59600002
-0.019833334 0.092366673 0.59500003
-0.018668573 0.092211433 0.59400004
-0.016212381 0.091124766 0.58700001
-0.015094287 0.091124766 0.58700001
-0.013976191 0.091124766 0.58700001
-0.012814286 0.090814292 0.58500004
-0.01166 0.090503812 0.583
-0.010549525 0.090503812 0.583
-0.0094228573 0.090348579 0.58200002
-0.0083000008 0.090193339 0.58100003
-0.0071933339 0.090193339 0.58100003
-0.0060866671 0.090193339 0.58100003
-0.0049714288 0.090038098 0.58000004
-0.0038666669 0.090038098 0.58000004
-0.0027619048 0.090038098 0.58000004
-0.00054285716 0.088485718 0.57000005
0.00054285716 0.088485718 0.57000005
0.0016228573 0.088175245 0.56800002
0.0027047622 0.088175245 0.56800002
0.003786667 0.088175245 0.56800002
0.0048685716 0.088175245 0.56800002
0.0059400005 0.088020004 0.56700003
0.0070076194 0.087864764 0.56600004
0.0080857147 0.087864764 0.56600004
0.0091476198 0.087709531 0.565
0.010223811 0.087709531 0.565
0.0113 0.087709531 0.565
0.012376191 0.087709531 0.565
0.013452382 0.087709531 0.565
0.014528573 0.087709531 0.565
0.015604763 0.087709531 0.565
0.016651429 0.087554291 0.56400001
0.017725715 0.087554291 0.56400001
0.018800002 0.087554291 0.56400001
0.019874288 0.087554291 0.56400001
0.020911429 0.087399051 0.56300002
0.021983812 0.087399051 0.56300002
0.02301524 0.087243818 0.56200004
0.024128573 0.087399051 0.56300002
0.025200954 0.087399051 0.56300002
0.026320001 0.087554291 0.56400001
0.027394287 0.087554291 0.56400001
0.028468573 0.087554291 0.56400001
0.02954286 0.087554291 0.56400001
0.030617144 0.087554291 0.56400001
0.031747621 0.087709531 0.565
0.032823812 0.087709531 0.565
0.033900004 0.087709531 0.565
0.034976192 0.087709531 0.565
0.036052383 0.087709531 0.565
0.037128575 0.087709531 0.565
0.038272385 0.087864764 0.56600004
0.039420001 0.088020004 0.56700003
0.040571433 0.088175245 0.56800002
0.041653335 0.088175245 0.56800002
0.042810477 0.088330485 0.56900001
0.044048574 0.088640958 0.57100004
0.045215242 0.088796198 0.57200003
0.046223812 0.088640958 0.57100004
0.047311433 0.088640958 0.57100004
0.048483811 0.088796198 0.57200003
0.04974667 0.089106672 0.574
0.050928574 0.089261912 0.57500005
0.052114289 0.089417152 0.57600003
0.053396195 0.089727625 0.57800001
0.054497145 0.089727625 0.57800001
-0.064140953 0.093657151 0.59600002
-0.062900007 0.093500003 0.59500003
-0.061559051 0.093185723 0.59300005
-0.060429528 0.093185723 0.59300005
-0.059300005 0.093185723 0.59300005
-0.058072384 0.093028575 0.59200001
-0.056944765 0.093028575 0.59200001
-0.055817146 0.093028575 0.59200001
-0.054689527 0.093028575 0.59200001
-0.053561907 0.093028575 0.59200001
-0.052434288 0.093028575 0.59200001
-0.051220004 0.092871435 0.59100002
-0.050094288 0.092871435 0.59100002
-0.048968576 0.092871435 0.59100002
-0.04784286 0.092871435 0.59100002
-0.046717145 0.092871435 0.59100002
-0.045591433 0.092871435 0.59100002
-0.044465717 0.092871435 0.59100002
-0.043340001 0.092871435 0.59100002
-0.042214289 0.092871435 0.59100002
-0.041088574 0.092871435 0.59100002
-0.039962858 0.092871435 0.59100002
-0.038837146 0.092871435 0.59100002
-0.037775241 0.093028575 0.59200001
-0.036647622 0.093028575 0.59200001
-0.035520002 0.093028575 0.59200001
-0.034392383 0.093028575 0.59200001
-0.033264764 0.093028575 0.59200001
-0.032082859 0.092871435 0.59100002
-0.030957146 0.092871435 0.59100002
-0.02983143 0.092871435 0.59100002
-0.028705716 0.092871435 0.59100002
-0.027580002 0.092871435 0.59100002
-0.026454287 0.092871435 0.59100002
-0.02537143 0.093028575 0.59200001
-0.024243811 0.093028575 0.59200001
-0.023194287 0.093342863 0.59400004
-0.022100002 0.093500003 0.59500003
-0.021001907 0.093657151 0.59600002
-0.019800002 0.093342863 0.59400004
-0.018668573 0.093342863 0.59400004
-0.017330477 0.092242867 0.58700001
-0.016184762 0.092085719 0.58600003
-0.015068572 0.092085719 0.58600003
-0.013952382 0.092085719 0.58600003
-0.012792381 0.091771431 0.58400005
-0.01166 0.091614291 0.583
-0.010549525 0.091614291 0.583
-0.0094228573 0.091457151 0.58200002
-0.0083000008 0.091300003 0.58100003
-0.0071933339 0.091300003 0.58100003
-0.0060866671 0.091300003 0.58100003
-0.0049714288 0.091142863 0.58000004
-0.0038600003 0.090985723 0.57900006
-0.002757143 0.090985723 0.57900006
-0.0016285715 0.089571431 0.57000005
-0.00054285716 0.089571431 0.57000005
0.00054285716 0.089571431 0.57000005
0.0016228573 0.089257151 0.56800002
0.0027047622 0.089257151 0.56800002
0.003786667 0.089257151 0.56800002
0.0048600002 0.089100003 0.56700003
0.0059295241 0.088942863 0.56600004
0.0069952384 0.088785723 0.565
0.0080714291 0.088785723 0.565
0.0091476198 0.088785723 0.565
0.010223811 0.088785723 0.565
0.011280001 0.088628575 0.56400001
0.012354286 0.088628575 0.56400001
0.013428573 0.088628575 0.56400001
0.014502858 0.088628575 0.56400001
0.015577144 0.088628575 0.56400001
0.016621906 0.088471435 0.56300002
0.017694287 0.088471435 0.56300002
0.018766668 0.088471435 0.56300002
0.019803811 0.088314295 0.56200004
0.020874288 0.088314295 0.56200004
0.021944763 0.088314295 0.56200004
0.02301524 0.088314295 0.56200004
0.024128573 0.088471435 0.56300002
0.025200954 0.088471435 0.56300002
0.026273334 0.088471435 0.56300002
0.027345717 0.088471435 0.56300002
0.028468573 0.088628575 0.56400001
0.02954286 0.088628575 0.56400001
0.030617144 0.088628575 0.56400001
0.031691432 0.088628575 0.56400001
0.032765716 0.088628575 0.56400001
0.033900004 0.088785723 0.565
0.034976192 0.088785723 0.565
0.036052383 0.088785723 0.565
0.037128575 0.088785723 0.565
0.038272385 0.088942863 0.56600004
0.03935048 0.088942863 0.56600004
0.040500004 0.089100003 0.56700003
0.041653335 0.089257151 0.56800002
0.042810477 0.089414291 0.56900001
0.043971431 0.089571431 0.57000005
0.045136195 0.089728579 0.57100004
0.046223812 0.089728579 0.57100004
0.047311433 0.089728579 0.57100004
0.048483811 0.089885719 0.57200003
0.04974667 0.090200007 0.574
0.050928574 0.090357147 0.57500005
0.052114289 0.090514295 0.57600003
0.053396195 0.090828575 0.57800001
0.054497145 0.090828575 0.57800001
0.055501908 0.090671435 0.57700002
0.095700003 0.095700003 0.60900003
0.096860006 0.095700003 0.60900003
0.10034001 0.095700003 0.60900003
0.1015 0.095700003 0.60900003
0.10266001 0.095700003 0.60900003
-0.065495245 0.095110483 0.59800005
-0.064140953 0.094792388 0.59600002
-0.062900007 0.094633341 0.59500003
-0.061559051 0.094315246 0.59300005
-0.060429528 0.094315246 0.59300005
-0.059300005 0.094315246 0.59300005
-0.058072384 0.094156198 0.59200001
-0.056944765 0.094156198 0.59200001
-0.055817146 0.094156198 0.59200001
-0.054689527 0.094156198 0.59200001
-0.053561907 0.094156198 0.59200001
-0.052434288 0.094156198 0.59200001
-0.051220004 0.093997151 0.59100002
-0.050094288 0.093997151 0.59100002
-0.048968576 0.093997151 0.59100002
-0.04784286 0.093997151 0.59100002
-0.046717145 0.093997151 0.59100002
-0.045591433 0.093997151 0.59100002
-0.044465717 0.093997151 0.59100002
-0.043340001 0.093997151 0.59100002
-0.042214289 0.093997151 0.59100002
-0.041088574 0.093997151 0.59100002
-0.039962858 0.093997151 0.59100002
-0.038837146 0.093997151 0.59100002
-0.037775241 0.094156198 0.59200001
-0.036647622 0.094156198 0.59200001
-0.035520002 0.094156198 0.59200001
-0.034392383 0.094156198 0.59200001
-0.033264764 0.094156198 0.59200001
-0.032082859 0.093997151 0.59100002
-0.030957146 0.093997151 0.59100002
-0.02983143 0.093997151 0.59100002
-0.028705716 0.093997151 0.59100002
-0.027580002 0.093997151 0.59100002
-0.026454287 0.093997151 0.59100002
-0.02537143 0.094156198 0.59200001
-0.024243811 0.094156198 0.59200001
-0.023194287 0.094474293 0.59400004
-0.022100002 0.094633341 0.59500003
-0.020896193 0.094315246 0.59300005
-0.019800002 0.094474293 0.59400004
-0.018668573 0.094474293 0.59400004
-0.017330477 0.09336096 0.58700001
-0.016212381 0.09336096 0.58700001
-0.015068572 0.093201913 0.58600003
-0.013952382 0.093201913 0.58600003
-0.012770477 0.09272477 0.583
-0.01166 0.09272477 0.583
-0.010531429 0.092565723 0.58200002
-0.0094066672 0.092406675 0.58100003
-0.0082857152 0.092247628 0.58000004
-0.0071809529 0.092247628 0.58000004
-0.0060761911 0.092247628 0.58000004
-0.0049628573 0.09208858 0.57900006
-0.0038600003 0.09208858 0.57900006
-0.0016285715 0.090657152 0.57000005
-0.00054285716 0.090657152 0.57000005
0.00054190482 0.090498105 0.56900001
0.0016200001 0.09018001 0.56700003
0.0027000001 0.09018001 0.56700003
0.0037800001 0.09018001 0.56700003
0.0048514288 0.090020955 0.56600004
0.0059190481 0.089861907 0.565
0.0069952384 0.089861907 0.565
0.0080714291 0.089861907 0.565
0.0091314288 0.08970286 0.56400001
0.010205715 0.08970286 0.56400001
0.011260001 0.089543812 0.56300002
0.012332382 0.089543812 0.56300002
0.013404762 0.089543812 0.56300002
0.014477144 0.089543812 0.56300002
0.015549525 0.089543812 0.56300002
0.016621906 0.089543812 0.56300002
0.017694287 0.089543812 0.56300002
0.018733334 0.089384764 0.56200004
0.019803811 0.089384764 0.56200004
0.020837145 0.089225717 0.56100005
0.021905717 0.089225717 0.56100005
0.022974288 0.089225717 0.56100005
0.024085715 0.089384764 0.56200004
0.025156192 0.089384764 0.56200004
0.026226668 0.089384764 0.56200004
0.027345717 0.089543812 0.56300002
0.028418098 0.089543812 0.56300002
0.029490478 0.089543812 0.56300002
0.030562859 0.089543812 0.56300002
0.031691432 0.08970286 0.56400001
0.032765716 0.08970286 0.56400001
0.033840001 0.08970286 0.56400001
0.034914289 0.08970286 0.56400001
0.036052383 0.089861907 0.565
0.037128575 0.089861907 0.565
0.038204763 0.089861907 0.565
0.039280955 0.089861907 0.565
0.040428575 0.090020955 0.56600004
0.041580003 0.09018001 0.56700003
0.042660002 0.09018001 0.56700003
0.043894287 0.090498105 0.56900001
0.045057144 0.090657152 0.57000005
0.046223812 0.0908162 0.57100004
0.047311433 0.0908162 0.57100004
0.04839905 0.0908162 0.57100004
0.049660005 0.091134295 0.57300001
0.050928574 0.09145239 0.57500005
0.052023813 0.09145239 0.57500005
0.053303812 0.091770485 0.57700002
0.054402862 0.091770485 0.57700002
0.055501908 0.091770485 0.57700002
0.090910479 0.096700959 0.60800004
0.093226671 0.096700959 0.60800004
0.094384767 0.096700959 0.60800004
0.095542863 0.096700959 0.60800004
0.096860006 0.096860006 0.60900003
0.09802001 0.096860006 0.60900003
0.099180005 0.096860006 0.60900003
0.10034001 0.096860006 0.60900003
0.1015 0.096860006 0.60900003
0.10266001 0.096860006 0.60900003
0.10382 0.096860006 0.60900003
-0.065604769 0.096410483 0.59900004
-0.064248577 0.096088581 0.597
-0.063005716 0.095927626 0.59600002
-0.06166286 0.095605724 0.59400004
-0.060429528 0.095444769 0.59300005
-0.059300005 0.095444769 0.59300005
-0.058072384 0.095283814 0.59200001
-0.056944765 0.095283814 0.59200001
-0.055817146 0.095283814 0.59200001
-0.054597147 0.095122866 0.59100002
-0.053471431 0.095122866 0.59100002
-0.052345719 0.095122866 0.59100002
-0.051220004 0.095122866 0.59100002
-0.050094288 0.095122866 0.59100002
-0.048968576 0.095122866 0.59100002
-0.04784286 0.095122866 0.59100002
-0.046717145 0.095122866 0.59100002
-0.045591433 0.095122866 0.59100002
-0.044465717 0.095122866 0.59100002
-0.043340001 0.095122866 0.59100002
-0.042214289 0.095122866 0.59100002
-0.041088574 0.095122866 0.59100002
-0.039962858 0.095122866 0.59100002
-0.03890286 0.095283814 0.59200001
-0.037775241 0.095283814 0.59200001
-0.036647622 0.095283814 0.59200001
-0.035520002 0.095283814 0.59200001
-0.034392383 0.095283814 0.59200001
-0.033264764 0.095283814 0.59200001
-0.032082859 0.095122866 0.59100002
-0.030957146 0.095122866 0.59100002
-0.02983143 0.095122866 0.59100002
-0.028657144 0.094961911 0.59000003
-0.027533336 0.094961911 0.59000003
-0.026454287 0.095122866 0.59100002
-0.025328573 0.095122866 0.59100002
-0.024202859 0.095122866 0.59100002
-0.023116192 0.095283814 0.59200001
-0.022100002 0.095766671 0.59500003
-0.020896193 0.095444769 0.59300005
-0.019800002 0.095605724 0.59400004
-0.018417144 0.094318099 0.58600003
-0.017300954 0.094318099 0.58600003
-0.016184762 0.094318099 0.58600003
-0.015042858 0.094157152 0.58500004
-0.013928573 0.094157152 0.58500004
-0.012770477 0.093835242 0.583
-0.01166 0.093835242 0.583
-0.010531429 0.093674295 0.58200002
-0.0094066672 0.09351334 0.58100003
-0.0082857152 0.093352385 0.58000004
-0.0071685719 0.093191437 0.57900006
-0.0060657146 0.093191437 0.57900006
-0.0037933337 0.091581911 0.56900001
-0.002709524 0.091581911 0.56900001
-0.0016257144 0.091581911 0.56900001
-0.00054190482 0.091581911 0.56900001
0.00054095243 0.091420956 0.56800002
0.0016200001 0.091260009 0.56700003
