# .PCD v0.7 - Point Cloud Data file format
VERSION 0.7
FIELDS x y z
SIZE 4 4 4
TYPE F F F
COUNT 1 1 1
WIDTH 1349
HEIGHT 1
VIEWPOINT 0 0 0 1 0 0 0
POINTS 1349
DATA ascii
0.011608572 0.0034142858 0.71700001
0.18073525 0.0043238099 0.90800005
-0.011592382 0.0047733337 0.71600002
-0.0102 0.0047600004 0.71400005
-0.0088276193 0.0047533335 0.71300006
-0.0060685719 0.0047200001 0.708
-0.0047133337 0.0047133337 0.70700002
-0.0033666668 0.0047133337 0.70700002
-0.0020228573 0.0047200001 0.708
-0.00067333336 0.0047133337 0.70700002
0.00067333336 0.0047133337 0.70700002
0.0020200002 0.0047133337 0.70700002
0.0033809526 0.0047333338 0.71000004
0.0047400002 0.0047400002 0.71100003
0.0060942862 0.0047400002 0.71100003
0.0074485717 0.0047400002 0.71100003
0.0088276193 0.0047533335 0.71300006
0.0102 0.0047600004 0.71400005
0.01156 0.0047600004 0.71400005
0.012956192 0.0047733337 0.71600002
0.014320001 0.0047733337 0.71600002
0.18013811 0.0060333339 0.90500003
-0.022502858 0.0061371434 0.71600002
-0.02113905 0.0061371434 0.71600002
-0.01977524 0.0061371434 0.71600002
-0.018334286 0.0061114291 0.71300006
-0.016976191 0.0061114291 0.71300006
-0.015640002 0.0061200005 0.71400005
-0.014260001 0.0061114291 0.71300006
-0.012901906 0.0061114291 0.71300006
-0.01154381 0.0061114291 0.71300006
-0.010185715 0.0061114291 0.71300006
-0.0088276193 0.0061114291 0.71300006
-0.0074380958 0.0060857148 0.71000004
-0.0060685719 0.0060685719 0.708
-0.0047133337 0.0060600005 0.70700002
-0.0033666668 0.0060600005 0.70700002
-0.0020200002 0.0060600005 0.70700002
-0.00067333336 0.0060600005 0.70700002
0.00067333336 0.0060600005 0.70700002
0.0020200002 0.0060600005 0.70700002
0.0033714287 0.0060685719 0.708
0.0047333338 0.0060857148 0.71000004
0.0060942862 0.0060942862 0.71100003
0.0074485717 0.0060942862 0.71100003
0.0088028582 0.0060942862 0.71100003
0.010185715 0.0061114291 0.71300006
0.01154381 0.0061114291 0.71300006
0.012901906 0.0061114291 0.71300006
0.014260001 0.0061114291 0.71300006
0.015618096 0.0061114291 0.71300006
0.016976191 0.0061114291 0.71300006
0.018282859 0.0060942862 0.71100003
0.019637143 0.0060942862 0.71100003
0.02099143 0.0060942862 0.71100003
0.16904478 0.0077228579 0.90100002
0.17076096 0.0077228579 0.90100002
0.17247716 0.0077228579 0.90100002
0.17590953 0.0077228579 0.90100002
0.17762573 0.0077228579 0.90100002
0.17934191 0.0077228579 0.90100002
-0.022502858 0.007500953 0.71600002
-0.02113905 0.007500953 0.71600002
-0.01977524 0.007500953 0.71600002
-0.018360002 0.0074800006 0.71400005
-0.016976191 0.0074695242 0.71300006
-0.015618096 0.0074695242 0.71300006
-0.014220001 0.0074485717 0.71100003
-0.01284762 0.0074380958 0.71000004
-0.011495239 0.0074380958 0.71000004
-0.010114286 0.0074171433 0.708
-0.0087657152 0.0074171433 0.708
-0.0074066673 0.0074066673 0.70700002
-0.0060600005 0.0074066673 0.70700002
-0.0047133337 0.0074066673 0.70700002
-0.0033666668 0.0074066673 0.70700002
-0.0020200002 0.0074066673 0.70700002
-0.00067333336 0.0074066673 0.70700002
0.00067333336 0.0074066673 0.70700002
0.0020200002 0.0074066673 0.70700002
0.0033666668 0.0074066673 0.70700002
0.0047200001 0.0074171433 0.708
0.0060685719 0.0074171433 0.708
0.0074171433 0.0074171433 0.708
0.0087657152 0.0074171433 0.708
0.010142858 0.0074380958 0.71000004
0.011495239 0.0074380958 0.71000004
0.01284762 0.0074380958 0.71000004
0.014220001 0.0074485717 0.71100003
0.015574287 0.0074485717 0.71100003
0.016928572 0.0074485717 0.71100003
0.018282859 0.0074485717 0.71100003
0.019637143 0.0074485717 0.71100003
0.02099143 0.0074485717 0.71100003
0.022345716 0.0074485717 0.71100003
0.023700001 0.0074485717 0.71100003
-0.023800002 0.0088400003 0.71400005
-0.022440001 0.0088400003 0.71400005
-0.021080002 0.0088400003 0.71400005
-0.019720001 0.0088400003 0.71400005
-0.018334286 0.0088276193 0.71300006
-0.016928572 0.0088028582 0.71100003
-0.015574287 0.0088028582 0.71100003
-0.014200001 0.0087904772 0.71000004
-0.01284762 0.0087904772 0.71000004
-0.011462858 0.0087657152 0.708
-0.010100001 0.0087533342 0.70700002
-0.0087533342 0.0087533342 0.70700002
-0.0074066673 0.0087533342 0.70700002
-0.0060600005 0.0087533342 0.70700002
-0.0047133337 0.0087533342 0.70700002
-0.0033571431 0.0087285722 0.70500004
-0.0020142859 0.0087285722 0.70500004
-0.00067142863 0.0087285722 0.70500004
0.00067142863 0.0087285722 0.70500004
0.0020142859 0.0087285722 0.70500004
0.0033571431 0.0087285722 0.70500004
0.0047133337 0.0087533342 0.70700002
0.0060600005 0.0087533342 0.70700002
0.0074066673 0.0087533342 0.70700002
0.0087533342 0.0087533342 0.70700002
0.010114286 0.0087657152 0.708
0.011462858 0.0087657152 0.708
0.01281143 0.0087657152 0.708
0.014200001 0.0087904772 0.71000004
0.015508573 0.0087657152 0.708
0.016904764 0.0087904772 0.71000004
0.018257145 0.0087904772 0.71000004
0.019609526 0.0087904772 0.71000004
0.020961907 0.0087904772 0.71000004
0.022314288 0.0087904772 0.71000004
0.023666669 0.0087904772 0.71000004
0.025124764 0.0088276193 0.71300006
-0.025230478 0.010228572 0.71600002
-0.023800002 0.0102 0.71400005
-0.022440001 0.0102 0.71400005
-0.021080002 0.0102 0.71400005
-0.019692382 0.010185715 0.71300006
-0.018282859 0.010157144 0.71100003
-0.016904764 0.010142858 0.71000004
-0.015508573 0.010114286 0.708
-0.014140001 0.010100001 0.70700002
-0.012793334 0.010100001 0.70700002
-0.011446668 0.010100001 0.70700002
-0.010100001 0.010100001 0.70700002
-0.0087533342 0.010100001 0.70700002
-0.0074066673 0.010100001 0.70700002
-0.0060428577 0.010071429 0.70500004
-0.0047000004 0.010071429 0.70500004
-0.0033571431 0.010071429 0.70500004
-0.0020114286 0.010057144 0.70400006
-0.00067047623 0.010057144 0.70400006
0.00067142863 0.010071429 0.70500004
0.0020114286 0.010057144 0.70400006
0.0033523813 0.010057144 0.70400006
0.0047000004 0.010071429 0.70500004
0.0060428577 0.010071429 0.70500004
0.0074066673 0.010100001 0.70700002
0.0087533342 0.010100001 0.70700002
0.010071429 0.010071429 0.70500004
0.011446668 0.010100001 0.70700002
0.012793334 0.010100001 0.70700002
0.014140001 0.010100001 0.70700002
0.015486668 0.010100001 0.70700002
0.016857143 0.010114286 0.708
0.018205715 0.010114286 0.708
0.019554287 0.010114286 0.708
0.020902859 0.010114286 0.708
0.022314288 0.010142858 0.71000004
0.023600001 0.010114286 0.708
0.024948573 0.010114286 0.708
0.026408574 0.010157144 0.71100003
0.027762858 0.010157144 0.71100003
-0.027997145 0.011608572 0.71700001
-0.026594287 0.011592382 0.71600002
-0.025230478 0.011592382 0.71600002
-0.023800002 0.01156 0.71400005
-0.022440001 0.01156 0.71400005
-0.021050477 0.01154381 0.71300006
-0.019637143 0.011511429 0.71100003
-0.018257145 0.011495239 0.71000004
-0.016857143 0.011462858 0.708
-0.015486668 0.011446668 0.70700002
-0.014140001 0.011446668 0.70700002
-0.012793334 0.011446668 0.70700002
-0.011446668 0.011446668 0.70700002
-0.010071429 0.011414287 0.70500004
-0.0087285722 0.011414287 0.70500004
-0.0073857149 0.011414287 0.70500004
-0.0060428577 0.011414287 0.70500004
-0.0047000004 0.011414287 0.70500004
-0.0033523813 0.011398096 0.70400006
-0.0020085715 0.011381906 0.70300001
-0.00066952384 0.011381906 0.70300001
0.00066952384 0.011381906 0.70300001
0.0020085715 0.011381906 0.70300001
0.0033380955 0.011349524 0.70100003
0.0046866671 0.011381906 0.70300001
0.0060342862 0.011398096 0.70400006
0.0073857149 0.011414287 0.70500004
0.0087161912 0.011398096 0.70400006
0.010057144 0.011398096 0.70400006
0.011414287 0.011414287 0.70500004
0.012757144 0.011414287 0.70500004
0.014140001 0.011446668 0.70700002
0.015486668 0.011446668 0.70700002
0.016833335 0.011446668 0.70700002
0.018180002 0.011446668 0.70700002
0.019526668 0.011446668 0.70700002
0.020902859 0.011462858 0.708
0.022251431 0.011462858 0.708
0.023600001 0.011462858 0.708
0.024948573 0.011462858 0.708
0.026297145 0.011462858 0.708
0.027645716 0.011462858 0.708
-0.029362859 0.012974286 0.71700001
-0.027958097 0.012956192 0.71600002
-0.026594287 0.012956192 0.71600002
-0.025160002 0.012920001 0.71400005
-0.023800002 0.012920001 0.71400005
-0.022408573 0.012901906 0.71300006
-0.021050477 0.012901906 0.71300006
-0.019637143 0.012865715 0.71100003
-0.018257145 0.01284762 0.71000004
-0.016833335 0.012793334 0.70700002
-0.015486668 0.012793334 0.70700002
-0.014100001 0.012757144 0.70500004
-0.012757144 0.012757144 0.70500004
-0.011414287 0.012757144 0.70500004
-0.010071429 0.012757144 0.70500004
-0.0087161912 0.012739048 0.70400006
-0.0073857149 0.012757144 0.70500004
-0.0060342862 0.012739048 0.70400006
-0.0046866671 0.012720954 0.70300001
-0.0033476192 0.012720954 0.70300001
-0.0020028572 0.012684762 0.70100003
-0.00066761911 0.012684762 0.70100003
0.00066761911 0.012684762 0.70100003
0.0020028572 0.012684762 0.70100003
0.0033380955 0.012684762 0.70100003
0.0046733338 0.012684762 0.70100003
0.0060085719 0.012684762 0.70100003
0.0073752385 0.012739048 0.70400006
0.0087161912 0.012739048 0.70400006
0.010057144 0.012739048 0.70400006
0.011398096 0.012739048 0.70400006
0.012739048 0.012739048 0.70400006
0.014100001 0.012757144 0.70500004
0.015442858 0.012757144 0.70500004
0.016785715 0.012757144 0.70500004
0.018180002 0.012793334 0.70700002
0.019526668 0.012793334 0.70700002
0.020873334 0.012793334 0.70700002
0.022220001 0.012793334 0.70700002
0.023566669 0.012793334 0.70700002
0.024948573 0.01281143 0.708
0.026371431 0.01284762 0.71000004
0.027723812 0.01284762 0.71000004
-0.030728573 0.014340001 0.71700001
-0.029321907 0.014320001 0.71600002
-0.027958097 0.014320001 0.71600002
-0.026520003 0.014280001 0.71400005
-0.025160002 0.014280001 0.71400005
-0.023800002 0.014280001 0.71400005
-0.022408573 0.014260001 0.71300006
-0.02099143 0.014220001 0.71100003
-0.019609526 0.014200001 0.71000004
-0.018205715 0.014160001 0.708
-0.016785715 0.014100001 0.70500004
-0.015442858 0.014100001 0.70500004
-0.014080001 0.014080001 0.70400006
-0.012739048 0.014080001 0.70400006
-0.011398096 0.014080001 0.70400006
-0.010000001 0.014000001 0.70000005
-0.0086666672 0.014000001 0.70000005
-0.0073333336 0.014000001 0.70000005
-0.0060257148 0.014060001 0.70300001
-0.0046733338 0.014020001 0.70100003
-0.0033380955 0.014020001 0.70100003
-0.0020000001 0.014000001 0.70000005
-0.00066666672 0.014000001 0.70000005
0.00066666672 0.014000001 0.70000005
0.0020000001 0.014000001 0.70000005
0.0033333336 0.014000001 0.70000005
0.004666667 0.014000001 0.70000005
0.0060000005 0.014000001 0.70000005
0.0073438101 0.014020001 0.70100003
0.0086790482 0.014020001 0.70100003
0.010014286 0.014020001 0.70100003
0.011349524 0.014020001 0.70100003
0.012720954 0.014060001 0.70300001
0.014080001 0.014080001 0.70400006
0.015420954 0.014080001 0.70400006
0.016761906 0.014080001 0.70400006
0.018128572 0.014100001 0.70500004
0.019471429 0.014100001 0.70500004
0.020814287 0.014100001 0.70500004
0.022157144 0.014100001 0.70500004
0.023500001 0.014100001 0.70500004
0.024913335 0.014140001 0.70700002
0.026371431 0.014200001 0.71000004
0.027723812 0.014200001 0.71000004
-0.030685715 0.015683811 0.71600002
-0.029321907 0.015683811 0.71600002
-0.027880002 0.015640002 0.71400005
-0.026520003 0.015640002 0.71400005
-0.025160002 0.015640002 0.71400005
-0.023766669 0.015618096 0.71300006
-0.022345716 0.015574287 0.71100003
-0.020961907 0.015552382 0.71000004
-0.019554287 0.015508573 0.708
-0.018180002 0.015486668 0.70700002
-0.016761906 0.015420954 0.70400006
-0.015420954 0.015420954 0.70400006
-0.014060001 0.015399049 0.70300001
-0.012720954 0.015399049 0.70300001
-0.011381906 0.015399049 0.70300001
-0.010000001 0.015333334 0.70000005
-0.0086419052 0.015289525 0.69800001
-0.0073123816 0.015289525 0.69800001
-0.0060085719 0.015355239 0.70100003
-0.0046533337 0.015289525 0.69800001
-0.0033238097 0.015289525 0.69800001
-0.0019914287 0.01526762 0.69700003
-0.00066380959 0.01526762 0.69700003
0.00066380959 0.01526762 0.69700003
0.0019914287 0.01526762 0.69700003
0.0033095239 0.01522381 0.69500005
0.0046333335 0.01522381 0.69500005
0.0059571434 0.01522381 0.69500005
0.0072809528 0.01522381 0.69500005
0.0086295241 0.01526762 0.69700003
0.009928572 0.01522381 0.69500005
0.011252382 0.01522381 0.69500005
0.012630477 0.015289525 0.69800001
0.014020001 0.015355239 0.70100003
0.015355239 0.015355239 0.70100003
0.016690478 0.015355239 0.70100003
0.018102858 0.015420954 0.70400006
0.01944381 0.015420954 0.70400006
0.020784764 0.015420954 0.70400006
0.022157144 0.015442858 0.70500004
0.023500001 0.015442858 0.70500004
0.024842858 0.015442858 0.70500004
0.026260002 0.015486668 0.70700002
0.027606668 0.015486668 0.70700002
0.029362859 0.015705716 0.71700001
0.030728573 0.015705716 0.71700001
-0.032094289 0.01707143 0.71700001
-0.030685715 0.017047619 0.71600002
-0.029240001 0.017000001 0.71400005
-0.027880002 0.017000001 0.71400005
-0.026520003 0.017000001 0.71400005
-0.025124764 0.016976191 0.71300006
-0.023766669 0.016976191 0.71300006
-0.022314288 0.016904764 0.71000004
-0.020873334 0.016833335 0.70700002
-0.019471429 0.016785715 0.70500004
-0.018128572 0.016785715 0.70500004
-0.016690478 0.016690478 0.70100003
-0.015355239 0.016690478 0.70100003
-0.014020001 0.016690478 0.70100003
-0.012666668 0.016666668 0.70000005
-0.011300953 0.016619049 0.69800001
-0.0099571431 0.016595239 0.69700003
-0.0086047621 0.01654762 0.69500005
-0.0072704768 0.01652381 0.69400001
-0.0059571434 0.01654762 0.69500005
-0.0046333335 0.01654762 0.69500005
-0.0033095239 0.01654762 0.69500005
-0.0019857143 0.01654762 0.69500005
-0.00066095241 0.01652381 0.69400001
0.00066190481 0.01654762 0.69500005
0.0019828572 0.01652381 0.69400001
0.0033047621 0.01652381 0.69400001
0.0046266671 0.01652381 0.69400001
0.005948572 0.01652381 0.69400001
0.0072704768 0.01652381 0.69400001
0.0086047621 0.01654762 0.69500005
0.0099142864 0.01652381 0.69400001
0.011252382 0.01654762 0.69500005
0.012576192 0.01654762 0.69500005
0.013940001 0.016595239 0.69700003
0.01526762 0.016595239 0.69700003
0.016619049 0.016619049 0.69800001
0.017948573 0.016619049 0.69800001
0.019360954 0.016690478 0.70100003
0.020696191 0.016690478 0.70100003
0.022094287 0.016738096 0.70300001
0.023466669 0.016761906 0.70400006
0.024807621 0.016761906 0.70400006
0.026185716 0.016785715 0.70500004
0.027606668 0.016833335 0.70700002
0.028953334 0.016833335 0.70700002
0.030685715 0.017047619 0.71600002
0.032094289 0.01707143 0.71700001
0.033460002 0.01707143 0.71700001
-0.031960003 0.018360002 0.71400005
-0.030600002 0.018360002 0.71400005
-0.029240001 0.018360002 0.71400005
-0.027840953 0.018334286 0.71300006
-0.02648286 0.018334286 0.71300006
-0.025054287 0.018282859 0.71100003
-0.023700001 0.018282859 0.71100003
-0.022251431 0.018205715 0.708
-0.020814287 0.018128572 0.70500004
-0.019360954 0.018025715 0.70100003
-0.018025715 0.018025715 0.70100003
-0.016666668 0.018000001 0.70000005
-0.015289525 0.017948573 0.69800001
-0.013940001 0.017922858 0.69700003
-0.012576192 0.01787143 0.69500005
-0.011236191 0.017845716 0.69400001
-0.0099142864 0.017845716 0.69400001
-0.0085800001 0.017820001 0.69300002
-0.0072600003 0.017820001 0.69300002
-0.0059400005 0.017820001 0.69300002
-0.0046266671 0.017845716 0.69400001
-0.0033047621 0.017845716 0.69400001
-0.0019800002 0.017820001 0.69300002
-0.00066000002 0.017820001 0.69300002
0.00066095241 0.017845716 0.69400001
0.0019800002 0.017820001 0.69300002
0.0033000002 0.017820001 0.69300002
0.0046200003 0.017820001 0.69300002
0.0059228577 0.017768573 0.69100004
0.0072600003 0.017820001 0.69300002
0.0085552391 0.017768573 0.69100004
0.0098714288 0.017768573 0.69100004
0.01118762 0.017768573 0.69100004
0.012558096 0.017845716 0.69400001
0.01388 0.017845716 0.69400001
0.01522381 0.01787143 0.69500005
0.01654762 0.01787143 0.69500005
0.01787143 0.01787143 0.69500005
0.019250477 0.017922858 0.69700003
0.020666668 0.018000001 0.70000005
0.022000002 0.018000001 0.70000005
0.023366667 0.018025715 0.70100003
0.024772383 0.018077144 0.70300001
0.026148573 0.018102858 0.70400006
0.027606668 0.018180002 0.70700002
0.028953334 0.018180002 0.70700002
0.030300003 0.018180002 0.70700002
0.032049526 0.01841143 0.71600002
0.033460002 0.018437143 0.71700001
0.034825716 0.018437143 0.71700001
-0.033320002 0.019720001 0.71400005
-0.031960003 0.019720001 0.71400005
-0.030600002 0.019720001 0.71400005
-0.029199049 0.019692382 0.71300006
-0.027840953 0.019692382 0.71300006
-0.02648286 0.019692382 0.71300006
-0.024913335 0.019526668 0.70700002
-0.023566669 0.019526668 0.70700002
-0.022157144 0.019471429 0.70500004
-0.020666668 0.019333335 0.70000005
-0.019278096 0.019278096 0.69800001
-0.017948573 0.019278096 0.69800001
-0.01654762 0.01919524 0.69500005
-0.01522381 0.01919524 0.69500005
-0.01388 0.019167621 0.69400001
-0.012558096 0.019167621 0.69400001
-0.011220001 0.019140001 0.69300002
-0.0098714288 0.019084763 0.69100004
-0.0085428581 0.019057143 0.69000006
-0.0072390479 0.019084763 0.69100004
-0.0059228577 0.019084763 0.69100004
-0.0046200003 0.019140001 0.69300002
-0.0032904765 0.019084763 0.69100004
-0.0019742858 0.019084763 0.69100004
-0.00065809529 0.019084763 0.69100004
0.00066000002 0.019140001 0.69300002
0.0019742858 0.019084763 0.69100004
0.0032904765 0.019084763 0.69100004
0.004606667 0.019084763 0.69100004
0.0059228577 0.019084763 0.69100004
0.0072390479 0.019084763 0.69100004
0.0085552391 0.019084763 0.69100004
0.0098714288 0.019084763 0.69100004
0.01118762 0.019084763 0.69100004
0.01254 0.019140001 0.69300002
0.013860001 0.019140001 0.69300002
0.015180001 0.019140001 0.69300002
0.01652381 0.019167621 0.69400001
0.017845716 0.019167621 0.69400001
0.01919524 0.01919524 0.69500005
0.02051905 0.01919524 0.69500005
0.021905717 0.019250477 0.69700003
0.023333335 0.019333335 0.70000005
0.024701906 0.019360954 0.70100003
0.02611143 0.019416193 0.70300001
0.027606668 0.019526668 0.70700002
0.028994288 0.019554287 0.708
0.030428573 0.019609526 0.71000004
0.031960003 0.019720001 0.71400005
0.033413336 0.01977524 0.71600002
0.034825716 0.019802859 0.71700001
0.036292382 0.019858096 0.71900004
-0.03191524 0.021050477 0.71300006
-0.030557144 0.021050477 0.71300006
-0.029076193 0.020961907 0.71000004
-0.027645716 0.020902859 0.708
-0.02611143 0.020755239 0.70300001
-0.024666669 0.020666668 0.70000005
-0.023266668 0.02060762 0.69800001
-0.021905717 0.020578096 0.69700003
-0.020578096 0.020578096 0.69700003
-0.019250477 0.020578096 0.69700003
-0.01787143 0.02051905 0.69500005
-0.01652381 0.020489525 0.69400001
-0.015180001 0.020460002 0.69300002
-0.013860001 0.020460002 0.69300002
-0.01254 0.020460002 0.69300002
-0.01118762 0.020400954 0.69100004
-0.0098571433 0.02037143 0.69000006
-0.0085428581 0.02037143 0.69000006
-0.0072285719 0.02037143 0.69000006
-0.0059142862 0.02037143 0.69000006
-0.0046000001 0.02037143 0.69000006
-0.0032857144 0.02037143 0.69000006
-0.0019714287 0.02037143 0.69000006
-0.0006571429 0.02037143 0.69000006
0.0006571429 0.02037143 0.69000006
0.0019714287 0.02037143 0.69000006
0.0032857144 0.02037143 0.69000006
0.0046000001 0.02037143 0.69000006
0.0059142862 0.02037143 0.69000006
0.0072285719 0.02037143 0.69000006
0.0085428581 0.02037143 0.69000006
0.0098571433 0.02037143 0.69000006
0.011171429 0.02037143 0.69000006
0.012485716 0.02037143 0.69000006
0.013800001 0.02037143 0.69000006
0.015136192 0.020400954 0.69100004
0.016452381 0.020400954 0.69100004
0.017820001 0.020460002 0.69300002
0.019140001 0.020460002 0.69300002
0.020489525 0.020489525 0.69400001
0.021811429 0.020489525 0.69400001
0.023166668 0.02051905 0.69500005
0.024490478 0.02051905 0.69500005
0.025888573 0.020578096 0.69700003
0.027372383 0.020696191 0.70100003
0.028830478 0.020784764 0.70400006
0.030300003 0.020873334 0.70700002
0.03191524 0.021050477 0.71300006
0.033273336 0.021050477 0.71300006
0.034777146 0.02113905 0.71600002
0.03619143 0.021168573 0.71700001
0.037661906 0.021227621 0.71900004
0.038922861 0.021168573 0.71700001
0.040625717 0.021345716 0.72300005
0.04200286 0.021345716 0.72300005
0.043380003 0.021345716 0.72300005
-0.02887143 0.022157144 0.70500004
-0.027450478 0.022094287 0.70300001
-0.026037145 0.02203143 0.70100003
-0.024596192 0.021937145 0.69800001
-0.023266668 0.021937145 0.69800001
-0.021905717 0.021905717 0.69700003
-0.020578096 0.021905717 0.69700003
-0.019250477 0.021905717 0.69700003
-0.01787143 0.021842858 0.69500005
-0.01652381 0.021811429 0.69400001
-0.015180001 0.021780001 0.69300002
-0.013860001 0.021780001 0.69300002
-0.01254 0.021780001 0.69300002
-0.01118762 0.021717144 0.69100004
-0.0098571433 0.021685716 0.69000006
-0.0085428581 0.021685716 0.69000006
-0.0072285719 0.021685716 0.69000006
-0.0059142862 0.021685716 0.69000006
-0.0046000001 0.021685716 0.69000006
-0.0032809526 0.021654287 0.68900001
-0.0019685715 0.021654287 0.68900001
-0.0006571429 0.021685716 0.69000006
0.0006571429 0.021685716 0.69000006
0.0019714287 0.021685716 0.69000006
0.0032809526 0.021654287 0.68900001
0.0045933337 0.021654287 0.68900001
0.0059057148 0.021654287 0.68900001
0.0072285719 0.021685716 0.69000006
0.0085304771 0.021654287 0.68900001
0.0098428577 0.021654287 0.68900001
0.011171429 0.021685716 0.69000006
0.012485716 0.021685716 0.69000006
0.013800001 0.021685716 0.69000006
0.015136192 0.021717144 0.69100004
0.016452381 0.021717144 0.69100004
0.017820001 0.021780001 0.69300002
0.019140001 0.021780001 0.69300002
0.020489525 0.021811429 0.69400001
0.021811429 0.021811429 0.69400001
0.023166668 0.021842858 0.69500005
0.024490478 0.021842858 0.69500005
0.025888573 0.021905717 0.69700003
0.027138097 0.021842858 0.69500005
0.028461907 0.021842858 0.69500005
0.02987143 0.021905717 0.69700003
0.031199049 0.021905717 0.69700003
0.034825716 0.022534287 0.71700001
0.03619143 0.022534287 0.71700001
0.037661906 0.022597143 0.71900004
0.039031431 0.022597143 0.71900004
0.040457144 0.022628574 0.72000003
0.04200286 0.022722859 0.72300005
0.043380003 0.022722859 0.72300005
0.044571433 0.022628574 0.72000003
-0.03017143 0.023466669 0.70400006
-0.028789526 0.023433335 0.70300001
-0.027372383 0.023366667 0.70100003
-0.026000002 0.023333335 0.70000005
-0.024596192 0.023266668 0.69800001
-0.023233335 0.023233335 0.69700003
-0.021905717 0.023233335 0.69700003
-0.020578096 0.023233335 0.69700003
-0.01919524 0.023166668 0.69500005
-0.01787143 0.023166668 0.69500005
-0.01652381 0.023133336 0.69400001
-0.015180001 0.023100002 0.69300002
-0.013860001 0.023100002 0.69300002
-0.01250381 0.023033334 0.69100004
-0.01118762 0.023033334 0.69100004
-0.0098571433 0.023000002 0.69000006
-0.0085428581 0.023000002 0.69000006
-0.0072285719 0.023000002 0.69000006
-0.0059057148 0.022966668 0.68900001
-0.0046000001 0.023000002 0.69000006
-0.0032809526 0.022966668 0.68900001
-0.0019685715 0.022966668 0.68900001
-0.0006561905 0.022966668 0.68900001
0.0006561905 0.022966668 0.68900001
0.0019685715 0.022966668 0.68900001
0.0032809526 0.022966668 0.68900001
0.0045933337 0.022966668 0.68900001
0.0059057148 0.022966668 0.68900001
0.0072180959 0.022966668 0.68900001
0.0085304771 0.022966668 0.68900001
0.0098428577 0.022966668 0.68900001
0.011155238 0.022966668 0.68900001
0.01246762 0.022966668 0.68900001
0.013800001 0.023000002 0.69000006
0.015114287 0.023000002 0.69000006
0.016452381 0.023033334 0.69100004
0.017768573 0.023033334 0.69100004
0.019140001 0.023100002 0.69300002
0.020460002 0.023100002 0.69300002
0.021811429 0.023133336 0.69400001
0.023133336 0.023133336 0.69400001
0.024490478 0.023166668 0.69500005
0.025814287 0.023166668 0.69500005
0.027216192 0.023233335 0.69700003
0.028543811 0.023233335 0.69700003
0.02987143 0.023233335 0.69700003
0.031199049 0.023233335 0.69700003
0.034825716 0.023900002 0.71700001
0.036140956 0.023866668 0.71600002
0.037557144 0.023900002 0.71700001
0.039031431 0.023966668 0.71900004
0.040400956 0.023966668 0.71900004
0.041944765 0.024066668 0.72200006
0.043380003 0.024100002 0.72300005
0.044571433 0.024000002 0.72000003
-0.03146762 0.024772383 0.70300001
-0.030128574 0.024772383 0.70300001
-0.028707622 0.024701906 0.70100003
-0.027333336 0.024666669 0.70000005
-0.026000002 0.024666669 0.70000005
-0.024596192 0.024596192 0.69800001
-0.023233335 0.024560954 0.69700003
-0.021905717 0.024560954 0.69700003
-0.020578096 0.024560954 0.69700003
-0.01919524 0.024490478 0.69500005
-0.01787143 0.024490478 0.69500005
-0.01652381 0.02445524 0.69400001
-0.015180001 0.024420002 0.69300002
-0.013860001 0.024420002 0.69300002
-0.01254 0.024420002 0.69300002
-0.01118762 0.024349526 0.69100004
-0.0098571433 0.024314288 0.69000006
-0.0085428581 0.024314288 0.69000006
-0.0072285719 0.024314288 0.69000006
-0.0059057148 0.024279049 0.68900001
-0.0046000001 0.024314288 0.69000006
-0.0032809526 0.024279049 0.68900001
-0.0019685715 0.024279049 0.68900001
-0.0006561905 0.024279049 0.68900001
0.0006561905 0.024279049 0.68900001
0.0019685715 0.024279049 0.68900001
0.0032809526 0.024279049 0.68900001
0.0045933337 0.024279049 0.68900001
0.0059057148 0.024279049 0.68900001
0.0072180959 0.024279049 0.68900001
0.0085304771 0.024279049 0.68900001
0.0098428577 0.024279049 0.68900001
0.011155238 0.024279049 0.68900001
0.01246762 0.024279049 0.68900001
0.013800001 0.024314288 0.69000006
0.015114287 0.024314288 0.69000006
0.016428573 0.024314288 0.69000006
0.017742859 0.024314288 0.69000006
0.019084763 0.024349526 0.69100004
0.020460002 0.024420002 0.69300002
0.021780001 0.024420002 0.69300002
0.023133336 0.02445524 0.69400001
0.02445524 0.02445524 0.69400001
0.025814287 0.024490478 0.69500005
0.027138097 0.024490478 0.69500005
0.028461907 0.024490478 0.69500005
0.02987143 0.024560954 0.69700003
0.031199049 0.024560954 0.69700003
0.032526668 0.024560954 0.69700003
0.034777146 0.025230478 0.71600002
0.036140956 0.025230478 0.71600002
0.037557144 0.025265716 0.71700001
0.038922861 0.025265716 0.71700001
0.040400956 0.025336193 0.71900004
0.041770481 0.025336193 0.71900004
0.043200001 0.02537143 0.72000003
0.044509526 0.025336193 0.71900004
-0.032853335 0.026148573 0.70400006
-0.03146762 0.02611143 0.70300001
-0.030128574 0.02611143 0.70300001
-0.028707622 0.026037145 0.70100003
-0.027333336 0.026000002 0.70000005
-0.025925716 0.025925716 0.69800001
-0.024596192 0.025925716 0.69800001
-0.023233335 0.025888573 0.69700003
-0.021905717 0.025888573 0.69700003
-0.02051905 0.025814287 0.69500005
-0.01919524 0.025814287 0.69500005
-0.01787143 0.025814287 0.69500005
-0.01652381 0.025777144 0.69400001
-0.015180001 0.025740001 0.69300002
-0.013860001 0.025740001 0.69300002
-0.01254 0.025740001 0.69300002
-0.01118762 0.025665715 0.69100004
-0.0098714288 0.025665715 0.69100004
-0.0085428581 0.025628572 0.69000006
-0.0072285719 0.025628572 0.69000006
-0.0059142862 0.025628572 0.69000006
-0.0046000001 0.025628572 0.69000006
-0.0032809526 0.025591429 0.68900001
-0.0019685715 0.025591429 0.68900001
-0.0006561905 0.025591429 0.68900001
0.0006561905 0.025591429 0.68900001
0.0019685715 0.025591429 0.68900001
0.0032809526 0.025591429 0.68900001
0.0045933337 0.025591429 0.68900001
0.0059057148 0.025591429 0.68900001
0.0072180959 0.025591429 0.68900001
0.0085057151 0.025517145 0.68700004
0.0098428577 0.025591429 0.68900001
0.011155238 0.025591429 0.68900001
0.01246762 0.025591429 0.68900001
0.013780001 0.025591429 0.68900001
0.015114287 0.025628572 0.69000006
0.016428573 0.025628572 0.69000006
0.017742859 0.025628572 0.69000006
0.019084763 0.025665715 0.69100004
0.020400954 0.025665715 0.69100004
0.021780001 0.025740001 0.69300002
0.023100002 0.025740001 0.69300002
0.02445524 0.025777144 0.69400001
0.025777144 0.025777144 0.69400001
0.027138097 0.025814287 0.69500005
0.028461907 0.025814287 0.69500005
0.029785717 0.025814287 0.69500005
0.031199049 0.025888573 0.69700003
0.032526668 0.025888573 0.69700003
0.034680001 0.026520003 0.71400005
0.036040001 0.026520003 0.71400005
0.037504766 0.026594287 0.71600002
0.038922861 0.02663143 0.71700001
0.040288575 0.02663143 0.71700001
0.041770481 0.026705716 0.71900004
0.043140002 0.026705716 0.71900004
0.044509526 0.026705716 0.71900004
0.045942862 0.026742859 0.72000003
0.047445718 0.026817145 0.72200006
0.048888575 0.026854288 0.72300005
0.050404765 0.026928574 0.72500002
-0.034194287 0.027489526 0.70400006
-0.032806668 0.027450478 0.70300001
-0.03146762 0.027450478 0.70300001
-0.030128574 0.027450478 0.70300001
-0.028666668 0.027333336 0.70000005
-0.027333336 0.027333336 0.70000005
-0.025925716 0.027255239 0.69800001
-0.024560954 0.027216192 0.69700003
-0.023233335 0.027216192 0.69700003
-0.021905717 0.027216192 0.69700003
-0.02051905 0.027138097 0.69500005
-0.01919524 0.027138097 0.69500005
-0.01787143 0.027138097 0.69500005
-0.01652381 0.027099049 0.69400001
-0.015180001 0.027060002 0.69300002
-0.013860001 0.027060002 0.69300002
-0.01250381 0.026981907 0.69100004
-0.01118762 0.026981907 0.69100004
-0.0098714288 0.026981907 0.69100004
-0.0085428581 0.026942858 0.69000006
-0.0072285719 0.026942858 0.69000006
-0.0059142862 0.026942858 0.69000006
-0.0046000001 0.026942858 0.69000006
-0.0032809526 0.026903812 0.68900001
-0.0019685715 0.026903812 0.68900001
-0.0006561905 0.026903812 0.68900001
0.0006561905 0.026903812 0.68900001
0.0019685715 0.026903812 0.68900001
0.0032809526 0.026903812 0.68900001
0.0045933337 0.026903812 0.68900001
0.0059057148 0.026903812 0.68900001
0.0072180959 0.026903812 0.68900001
0.0085057151 0.026825717 0.68700004
0.0098428577 0.026903812 0.68900001
0.011155238 0.026903812 0.68900001
0.01246762 0.026903812 0.68900001
0.013780001 0.026903812 0.68900001
0.015114287 0.026942858 0.69000006
0.016428573 0.026942858 0.69000006
0.017742859 0.026942858 0.69000006
0.019084763 0.026981907 0.69100004
0.020400954 0.026981907 0.69100004
0.021780001 0.027060002 0.69300002
0.023100002 0.027060002 0.69300002
0.02445524 0.027099049 0.69400001
0.025777144 0.027099049 0.69400001
0.027099049 0.027099049 0.69400001
0.028461907 0.027138097 0.69500005
0.029785717 0.027138097 0.69500005
0.031109527 0.027138097 0.69500005
0.032433335 0.027138097 0.69500005
0.033854287 0.027216192 0.69700003
0.035181906 0.027216192 0.69700003
0.037504766 0.027958097 0.71600002
0.038868573 0.027958097 0.71600002
0.040288575 0.027997145 0.71700001
0.041770481 0.028075241 0.71900004
0.043140002 0.028075241 0.71900004
0.044509526 0.028075241 0.71900004
0.045942862 0.028114287 0.72000003
0.047445718 0.028192382 0.72200006
0.049023814 0.028309526 0.72500002
0.050404765 0.028309526 0.72500002
0.051785719 0.028309526 0.72500002
0.053020004 0.028231431 0.72300005
-0.035535239 0.028830478 0.70400006
-0.034145717 0.028789526 0.70300001
-0.032806668 0.028789526 0.70300001
-0.03146762 0.028789526 0.70300001
-0.030042859 0.028707622 0.70100003
-0.028666668 0.028666668 0.70000005
-0.027255239 0.028584763 0.69800001
-0.025925716 0.028584763 0.69800001
-0.024560954 0.028543811 0.69700003
-0.023233335 0.028543811 0.69700003
-0.021842858 0.028461907 0.69500005
-0.02051905 0.028461907 0.69500005
-0.01919524 0.028461907 0.69500005
-0.01787143 0.028461907 0.69500005
-0.016500002 0.028380001 0.69300002
-0.015180001 0.028380001 0.69300002
-0.013860001 0.028380001 0.69300002
-0.01250381 0.028298097 0.69100004
-0.01118762 0.028298097 0.69100004
-0.0098714288 0.028298097 0.69100004
-0.0085428581 0.028257145 0.69000006
-0.0072285719 0.028257145 0.69000006
-0.0059142862 0.028257145 0.69000006
-0.0046000001 0.028257145 0.69000006
-0.0032809526 0.028216192 0.68900001
-0.0019685715 0.028216192 0.68900001
-0.0006561905 0.028216192 0.68900001
0.0006561905 0.028216192 0.68900001
0.0019685715 0.028216192 0.68900001
0.0032809526 0.028216192 0.68900001
0.0045933337 0.028216192 0.68900001
0.0059057148 0.028216192 0.68900001
0.0072180959 0.028216192 0.68900001
0.0085304771 0.028216192 0.68900001
0.0098428577 0.028216192 0.68900001
0.011155238 0.028216192 0.68900001
0.01246762 0.028216192 0.68900001
0.013780001 0.028216192 0.68900001
0.015092382 0.028216192 0.68900001
0.016428573 0.028257145 0.69000006
0.017742859 0.028257145 0.69000006
0.019084763 0.028298097 0.69100004
0.020400954 0.028298097 0.69100004
0.021780001 0.028380001 0.69300002
0.023100002 0.028380001 0.69300002
0.02445524 0.028420955 0.69400001
0.025777144 0.028420955 0.69400001
0.027099049 0.028420955 0.69400001
0.028420955 0.028420955 0.69400001
0.029785717 0.028461907 0.69500005
0.031109527 0.028461907 0.69500005
0.032433335 0.028461907 0.69500005
0.033854287 0.028543811 0.69700003
0.035232384 0.028584763 0.69800001
0.036561906 0.028584763 0.69800001
0.038868573 0.029321907 0.71600002
0.040232383 0.029321907 0.71600002
0.041654289 0.029362859 0.71700001
0.043140002 0.029444763 0.71900004
0.044509526 0.029444763 0.71900004
0.045879051 0.029444763 0.71900004
0.04731429 0.029485716 0.72000003
0.048820954 0.029567622 0.72200006
0.050265718 0.029608574 0.72300005
0.051785719 0.029690478 0.72500002
0.053020004 0.029608574 0.72300005
0.054321907 0.029567622 0.72200006
0.05554286 0.029485716 0.72000003
0.056914289 0.029485716 0.72000003
-0.036928575 0.030214287 0.70500004
-0.035535239 0.03017143 0.70400006
-0.034145717 0.030128574 0.70300001
-0.032806668 0.030128574 0.70300001
-0.03146762 0.030128574 0.70300001
-0.030042859 0.030042859 0.70100003
-0.028666668 0.030000001 0.70000005
-0.027255239 0.029914288 0.69800001
-0.025925716 0.029914288 0.69800001
-0.024560954 0.02987143 0.69700003
-0.023233335 0.02987143 0.69700003
-0.021905717 0.02987143 0.69700003
-0.02051905 0.029785717 0.69500005
-0.01919524 0.029785717 0.69500005
-0.01787143 0.029785717 0.69500005
-0.016500002 0.029700002 0.69300002
-0.015180001 0.029700002 0.69300002
-0.013860001 0.029700002 0.69300002
-0.01250381 0.029614288 0.69100004
-0.01118762 0.029614288 0.69100004
-0.0098714288 0.029614288 0.69100004
-0.0085428581 0.029571431 0.69000006
-0.0072285719 0.029571431 0.69000006
-0.0059142862 0.029571431 0.69000006
-0.0046000001 0.029571431 0.69000006
-0.0032809526 0.029528573 0.68900001
-0.0019685715 0.029528573 0.68900001
-0.0006561905 0.029528573 0.68900001
0.0006561905 0.029528573 0.68900001
0.0019685715 0.029528573 0.68900001
0.0032809526 0.029528573 0.68900001
0.0045933337 0.029528573 0.68900001
0.0059057148 0.029528573 0.68900001
0.0072180959 0.029528573 0.68900001
0.0085304771 0.029528573 0.68900001
0.0098428577 0.029528573 0.68900001
0.011155238 0.029528573 0.68900001
0.01246762 0.029528573 0.68900001
0.013780001 0.029528573 0.68900001
0.015092382 0.029528573 0.68900001
0.016404763 0.029528573 0.68900001
0.017742859 0.029571431 0.69000006
0.019084763 0.029614288 0.69100004
0.020400954 0.029614288 0.69100004
0.021780001 0.029700002 0.69300002
0.023100002 0.029700002 0.69300002
0.02445524 0.029742859 0.69400001
0.025777144 0.029742859 0.69400001
0.027099049 0.029742859 0.69400001
0.028420955 0.029742859 0.69400001
0.029785717 0.029785717 0.69500005
0.031109527 0.029785717 0.69500005
0.032433335 0.029785717 0.69500005
0.033854287 0.02987143 0.69700003
0.035232384 0.029914288 0.69800001
0.036561906 0.029914288 0.69800001
0.037891433 0.029914288 0.69800001
0.040232383 0.030685715 0.71600002
0.041596193 0.030685715 0.71600002
0.043020003 0.030728573 0.71700001
0.044385716 0.030728573 0.71700001
0.045879051 0.030814288 0.71900004
0.047248576 0.030814288 0.71900004
0.048685718 0.030857146 0.72000003
0.050265718 0.030985717 0.72300005
0.051642861 0.030985717 0.72300005
0.053020004 0.030985717 0.72300005
0.054397147 0.030985717 0.72300005
0.05577429 0.030985717 0.72300005
0.057151433 0.030985717 0.72300005
0.058528576 0.030985717 0.72300005
0.059905719 0.030985717 0.72300005
-0.035535239 0.031512383 0.70400006
-0.034145717 0.03146762 0.70300001
-0.032806668 0.03146762 0.70300001
-0.031378098 0.031378098 0.70100003
-0.030042859 0.031378098 0.70100003
-0.028666668 0.031333335 0.70000005
-0.027255239 0.031243812 0.69800001
-0.025925716 0.031243812 0.69800001
-0.024560954 0.031199049 0.69700003
-0.023233335 0.031199049 0.69700003
-0.021905717 0.031199049 0.69700003
-0.02051905 0.031109527 0.69500005
-0.01919524 0.031109527 0.69500005
-0.01787143 0.031109527 0.69500005
-0.016500002 0.031020002 0.69300002
-0.015180001 0.031020002 0.69300002
-0.013860001 0.031020002 0.69300002
-0.01250381 0.030930478 0.69100004
-0.01118762 0.030930478 0.69100004
-0.0098714288 0.030930478 0.69100004
-0.0085428581 0.030885717 0.69000006
-0.0072285719 0.030885717 0.69000006
-0.0059142862 0.030885717 0.69000006
-0.0046000001 0.030885717 0.69000006
-0.0032857144 0.030885717 0.69000006
-0.0019685715 0.030840954 0.68900001
-0.0006561905 0.030840954 0.68900001
0.0006561905 0.030840954 0.68900001
0.0019685715 0.030840954 0.68900001
0.0032809526 0.030840954 0.68900001
0.0045933337 0.030840954 0.68900001
0.0059057148 0.030840954 0.68900001
0.0072180959 0.030840954 0.68900001
0.0085304771 0.030840954 0.68900001
0.0098428577 0.030840954 0.68900001
0.011155238 0.030840954 0.68900001
0.01246762 0.030840954 0.68900001
0.013780001 0.030840954 0.68900001
0.015092382 0.030840954 0.68900001
0.016428573 0.030885717 0.69000006
0.017742859 0.030885717 0.69000006
0.019084763 0.030930478 0.69100004
0.020400954 0.030930478 0.69100004
0.021780001 0.031020002 0.69300002
0.023100002 0.031020002 0.69300002
0.02445524 0.031064764 0.69400001
0.025777144 0.031064764 0.69400001
0.027099049 0.031064764 0.69400001
0.028420955 0.031064764 0.69400001
0.029785717 0.031109527 0.69500005
0.031109527 0.031109527 0.69500005
0.032526668 0.031199049 0.69700003
0.033854287 0.031199049 0.69700003
0.035232384 0.031243812 0.69800001
0.036561906 0.031243812 0.69800001
0.038000003 0.031333335 0.70000005
0.040232383 0.032049526 0.71600002
0.041596193 0.032049526 0.71600002
0.043020003 0.032094289 0.71700001
0.044385716 0.032094289 0.71700001
0.04575143 0.032094289 0.71700001
0.047248576 0.032183811 0.71900004
0.048685718 0.032228574 0.72000003
0.050196193 0.032318097 0.72200006
0.051642861 0.03236286 0.72300005
0.053020004 0.03236286 0.72300005
0.054397147 0.03236286 0.72300005
0.05577429 0.03236286 0.72300005
0.057151433 0.03236286 0.72300005
0.058528576 0.03236286 0.72300005
0.059905719 0.03236286 0.72300005
0.061282862 0.03236286 0.72300005
0.062660001 0.03236286 0.72300005
0.064037144 0.03236286 0.72300005
0.065414287 0.03236286 0.72300005
-0.036928575 0.032900002 0.70500004
-0.035585716 0.032900002 0.70500004
-0.034194287 0.032853335 0.70400006
-0.032806668 0.032806668 0.70300001
-0.03146762 0.032806668 0.70300001
-0.030042859 0.032713335 0.70100003
-0.028666668 0.032666668 0.70000005
-0.027255239 0.032573335 0.69800001
-0.025925716 0.032573335 0.69800001
-0.024596192 0.032573335 0.69800001
-0.023233335 0.032526668 0.69700003
-0.021905717 0.032526668 0.69700003
-0.020578096 0.032526668 0.69700003
-0.01919524 0.032433335 0.69500005
-0.017820001 0.032340001 0.69300002
-0.016500002 0.032340001 0.69300002
-0.015180001 0.032340001 0.69300002
-0.013860001 0.032340001 0.69300002
-0.01250381 0.032246668 0.69100004
-0.01118762 0.032246668 0.69100004
-0.0098714288 0.032246668 0.69100004
-0.0085552391 0.032246668 0.69100004
-0.0072285719 0.032200001 0.69000006
-0.0059142862 0.032200001 0.69000006
-0.0046000001 0.032200001 0.69000006
-0.0032857144 0.032200001 0.69000006
-0.0019714287 0.032200001 0.69000006
-0.0006571429 0.032200001 0.69000006
0.0006571429 0.032200001 0.69000006
0.0019685715 0.032153334 0.68900001
0.0032809526 0.032153334 0.68900001
0.0045933337 0.032153334 0.68900001
0.0059057148 0.032153334 0.68900001
0.0072180959 0.032153334 0.68900001
0.0085304771 0.032153334 0.68900001
0.0098428577 0.032153334 0.68900001
0.011155238 0.032153334 0.68900001
0.01246762 0.032153334 0.68900001
0.013800001 0.032200001 0.69000006
0.015114287 0.032200001 0.69000006
0.016428573 0.032200001 0.69000006
0.017742859 0.032200001 0.69000006
0.019084763 0.032246668 0.69100004
0.020460002 0.032340001 0.69300002
0.021780001 0.032340001 0.69300002
0.023100002 0.032340001 0.69300002
0.02445524 0.032386668 0.69400001
0.025777144 0.032386668 0.69400001
0.027099049 0.032386668 0.69400001
0.028420955 0.032386668 0.69400001
0.029785717 0.032433335 0.69500005
0.031109527 0.032433335 0.69500005
0.032526668 0.032526668 0.69700003
0.033902861 0.032573335 0.69800001
0.035232384 0.032573335 0.69800001
0.036666669 0.032666668 0.70000005
0.038000003 0.032666668 0.70000005
0.039389525 0.032713335 0.70100003
0.041654289 0.033460002 0.71700001
0.043020003 0.033460002 0.71700001
0.044385716 0.033460002 0.71700001
0.04575143 0.033460002 0.71700001
0.047248576 0.033553336 0.71900004
0.048685718 0.033600003 0.72000003
0.050196193 0.033693336 0.72200006
0.051642861 0.033740003 0.72300005
0.053020004 0.033740003 0.72300005
0.054397147 0.033740003 0.72300005
0.05577429 0.033740003 0.72300005
0.057151433 0.033740003 0.72300005
0.058528576 0.033740003 0.72300005
0.059905719 0.033740003 0.72300005
0.061282862 0.033740003 0.72300005
0.062660001 0.033740003 0.72300005
0.064037144 0.033740003 0.72300005
0.065414287 0.033740003 0.72300005
0.06679143 0.033740003 0.72300005
0.068168573 0.033740003 0.72300005
-0.066900007 0.032494288 0.66900003
-0.06562572 0.032494288 0.66900003
-0.056027621 0.032105718 0.66100001
-0.041166671 0.032300003 0.66500002
-0.039900001 0.032300003 0.66500002
-0.038633335 0.032300003 0.66500002
-0.037254289 0.032202858 0.66300005
-0.037033334 0.034340002 0.70700002
-0.035585716 0.034242861 0.70500004
-0.034194287 0.034194287 0.70400006
-0.032806668 0.034145717 0.70300001
-0.03146762 0.034145717 0.70300001
-0.030042859 0.034048572 0.70100003
-0.028666668 0.034000002 0.70000005
-0.027333336 0.034000002 0.70000005
-0.025925716 0.033902861 0.69800001
-0.024596192 0.033902861 0.69800001
-0.023233335 0.033854287 0.69700003
-0.021905717 0.033854287 0.69700003
-0.020578096 0.033854287 0.69700003
-0.019250477 0.033854287 0.69700003
-0.01787143 0.033757146 0.69500005
-0.016500002 0.033660002 0.69300002
-0.015180001 0.033660002 0.69300002
-0.013860001 0.033660002 0.69300002
-0.01254 0.033660002 0.69300002
-0.01118762 0.033562858 0.69100004
-0.0098714288 0.033562858 0.69100004
-0.0085552391 0.033562858 0.69100004
-0.0072390479 0.033562858 0.69100004
-0.0059228577 0.033562858 0.69100004
-0.004606667 0.033562858 0.69100004
-0.0032904765 0.033562858 0.69100004
-0.0019714287 0.033514287 0.69000006
-0.0006571429 0.033514287 0.69000006
0.0006571429 0.033514287 0.69000006
0.0019714287 0.033514287 0.69000006
0.0032857144 0.033514287 0.69000006
0.0046000001 0.033514287 0.69000006
0.0059142862 0.033514287 0.69000006
0.0072285719 0.033514287 0.69000006
0.0085304771 0.033465717 0.68900001
0.0098428577 0.033465717 0.68900001
0.011171429 0.033514287 0.69000006
0.01246762 0.033465717 0.68900001
0.013800001 0.033514287 0.69000006
0.015114287 0.033514287 0.69000006
0.016428573 0.033514287 0.69000006
0.017742859 0.033514287 0.69000006
0.019084763 0.033562858 0.69100004
0.020400954 0.033562858 0.69100004
0.021780001 0.033660002 0.69300002
0.023100002 0.033660002 0.69300002
0.02445524 0.033708572 0.69400001
0.025777144 0.033708572 0.69400001
0.027099049 0.033708572 0.69400001
0.028420955 0.033708572 0.69400001
0.029785717 0.033757146 0.69500005
0.031109527 0.033757146 0.69500005
0.032526668 0.033854287 0.69700003
0.033902861 0.033902861 0.69800001
0.035232384 0.033902861 0.69800001
0.036666669 0.034000002 0.70000005
0.038000003 0.034000002 0.70000005
0.039389525 0.034048572 0.70100003
0.040724766 0.034048572 0.70100003
0.043020003 0.034825716 0.71700001
0.044385716 0.034825716 0.71700001
0.04575143 0.034825716 0.71700001
0.047117148 0.034825716 0.71700001
0.048618097 0.034922861 0.71900004
0.050057147 0.034971431 0.72000003
0.051571433 0.035068575 0.72200006
0.053020004 0.035117146 0.72300005
0.054397147 0.035117146 0.72300005
0.05577429 0.035117146 0.72300005
0.057151433 0.035117146 0.72300005
0.058528576 0.035117146 0.72300005
0.059905719 0.035117146 0.72300005
0.061282862 0.035117146 0.72300005
0.062660001 0.035117146 0.72300005
0.064037144 0.035117146 0.72300005
0.065414287 0.035117146 0.72300005
0.06679143 0.035117146 0.72300005
0.068168573 0.035117146 0.72300005
0.069449529 0.035068575 0.72200006
0.070628576 0.034971431 0.72000003
0.071900003 0.034922861 0.71900004
0.073269531 0.034922861 0.71900004
0.074431434 0.034825716 0.71700001
0.075480007 0.034680001 0.71400005
0.07673239 0.034631431 0.71300006
0.078090481 0.034631431 0.71300006
0.079225719 0.034534287 0.71100003
0.080580004 0.034534287 0.71100003
0.08181905 0.034485716 0.71000004
0.083171435 0.034485716 0.71000004
0.084523812 0.034485716 0.71000004
-0.069552384 0.03381905 0.67000002
-0.068276197 0.03381905 0.67000002
-0.066900007 0.033768572 0.66900003
-0.065429531 0.03366762 0.66700006
-0.064062864 0.033617146 0.66600001
-0.062700003 0.033566669 0.66500002
-0.061433338 0.033566669 0.66500002
-0.05998572 0.033465717 0.66300005
-0.058634289 0.033415239 0.66200006
-0.057373337 0.033415239 0.66200006
-0.056027621 0.033364765 0.66100001
-0.054768573 0.033364765 0.66100001
-0.053509526 0.033364765 0.66100001
-0.045885716 0.033314288 0.66000003
-0.043437146 0.033364765 0.66100001
-0.042178098 0.033364765 0.66100001
-0.040980954 0.033415239 0.66200006
-0.039720003 0.033415239 0.66200006
-0.038459051 0.033415239 0.66200006
-0.037198097 0.033415239 0.66200006
-0.035937145 0.033415239 0.66200006
-0.034466669 0.033213336 0.65800005
-0.033213336 0.033213336 0.65800005
-0.031960003 0.033213336 0.65800005
-0.03146762 0.035484765 0.70300001
-0.030128574 0.035484765 0.70300001
-0.028666668 0.035333335 0.70000005
-0.027333336 0.035333335 0.70000005
-0.026000002 0.035333335 0.70000005
-0.024666669 0.035333335 0.70000005
-0.023266668 0.035232384 0.69800001
-0.021937145 0.035232384 0.69800001
-0.02060762 0.035232384 0.69800001
-0.019278096 0.035232384 0.69800001
-0.017922858 0.035181906 0.69700003
-0.01652381 0.035030477 0.69400001
-0.015201906 0.035030477 0.69400001
-0.01388 0.035030477 0.69400001
-0.01254 0.034980003 0.69300002
-0.011220001 0.034980003 0.69300002
-0.0099000009 0.034980003 0.69300002
-0.0085800001 0.034980003 0.69300002
-0.0072600003 0.034980003 0.69300002
-0.0059400005 0.034980003 0.69300002
-0.0046200003 0.034980003 0.69300002
-0.0033000002 0.034980003 0.69300002
-0.0019742858 0.034879051 0.69100004
-0.00065809529 0.034879051 0.69100004
0.00065809529 0.034879051 0.69100004
0.0019742858 0.034879051 0.69100004
0.0032857144 0.034828573 0.69000006
0.0046000001 0.034828573 0.69000006
0.0059142862 0.034828573 0.69000006
0.0072285719 0.034828573 0.69000006
0.0085428581 0.034828573 0.69000006
0.0098571433 0.034828573 0.69000006
0.011171429 0.034828573 0.69000006
0.012485716 0.034828573 0.69000006
0.013800001 0.034828573 0.69000006
0.015114287 0.034828573 0.69000006
0.016452381 0.034879051 0.69100004
0.017820001 0.034980003 0.69300002
0.019140001 0.034980003 0.69300002
0.020460002 0.034980003 0.69300002
0.021811429 0.035030477 0.69400001
0.023133336 0.035030477 0.69400001
0.02445524 0.035030477 0.69400001
0.025777144 0.035030477 0.69400001
0.027099049 0.035030477 0.69400001
0.028420955 0.035030477 0.69400001
0.029785717 0.035080954 0.69500005
0.031199049 0.035181906 0.69700003
0.032573335 0.035232384 0.69800001
0.033902861 0.035232384 0.69800001
0.035333335 0.035333335 0.70000005
0.036666669 0.035333335 0.70000005
0.038000003 0.035333335 0.70000005
0.039389525 0.035383813 0.70100003
0.040724766 0.035383813 0.70100003
0.044323813 0.036140956 0.71600002
0.045687623 0.036140956 0.71600002
0.047117148 0.03619143 0.71700001
0.048482861 0.03619143 0.71700001
0.050057147 0.036342859 0.72000003
0.051571433 0.036443811 0.72200006
0.053020004 0.036494289 0.72300005
0.054397147 0.036494289 0.72300005
0.05577429 0.036494289 0.72300005
0.057151433 0.036494289 0.72300005
0.058528576 0.036494289 0.72300005
0.059905719 0.036494289 0.72300005
0.061282862 0.036494289 0.72300005
0.062660001 0.036494289 0.72300005
0.064037144 0.036494289 0.72300005
0.065414287 0.036494289 0.72300005
0.06669905 0.036443811 0.72200006
0.068074293 0.036443811 0.72200006
0.069449529 0.036443811 0.72200006
0.070628576 0.036342859 0.72000003
0.071900003 0.036292382 0.71900004
0.07306572 0.03619143 0.71700001
0.074431434 0.03619143 0.71700001
0.075691432 0.036140956 0.71600002
0.077055246 0.036140956 0.71600002
0.078200005 0.036040001 0.71400005
0.079448573 0.035989527 0.71300006
0.080806673 0.035989527 0.71300006
0.081934288 0.035888575 0.71100003
0.08328858 0.035888575 0.71100003
