# .PCD v0.7 - Point Cloud Data file format
VERSION 0.7
FIELDS x y z
SIZE 4 4 4
TYPE F F F
COUNT 1 1 1
WIDTH 1359
HEIGHT 1
VIEWPOINT 0 0 0 1 0 0 0
POINTS 1359
DATA ascii
-0.041311432 0.028265717 0.76100004
-0.039861906 0.028265717 0.76100004
-0.038412385 0.028265717 0.76100004
-0.036962859 0.028265717 0.76100004
-0.035513334 0.028265717 0.76100004
-0.034063812 0.028265717 0.76100004
-0.032614287 0.028265717 0.76100004
-0.031164763 0.028265717 0.76100004
-0.02971524 0.028265717 0.76100004
-0.028340003 0.028340003 0.76300001
-0.026886668 0.028340003 0.76300001
-0.025433335 0.028340003 0.76300001
-0.023980001 0.028340003 0.76300001
-0.022526668 0.028340003 0.76300001
-0.021073334 0.028340003 0.76300001
-0.019620001 0.028340003 0.76300001
-0.018119048 0.028265717 0.76100004
-0.01664762 0.028228574 0.76000005
-0.015220001 0.028265717 0.76100004
-0.013770477 0.028265717 0.76100004
-0.012320953 0.028265717 0.76100004
-0.010871429 0.028265717 0.76100004
-0.0094219055 0.028265717 0.76100004
-0.0079723811 0.028265717 0.76100004
-0.0065228576 0.028265717 0.76100004
-0.0050733336 0.028265717 0.76100004
-0.0036190478 0.028228574 0.76000005
-0.0021657145 0.028154287 0.75800002
-0.0007219048 0.028154287 0.75800002
0.007500953 0.026594287 0.71600002
0.0088400003 0.026520003 0.71400005
0.0102 0.026520003 0.71400005
0.01154381 0.02648286 0.71300006
0.012901906 0.02648286 0.71300006
0.014220001 0.026408574 0.71100003
0.015552382 0.026371431 0.71000004
0.016833335 0.026260002 0.70700002
0.018128572 0.026185716 0.70500004
0.01944381 0.026148573 0.70400006
0.020784764 0.026148573 0.70400006
0.022094287 0.02611143 0.70300001
0.023366667 0.026037145 0.70100003
0.024666669 0.026000002 0.70000005
0.025888573 0.025888573 0.69700003
0.027138097 0.025814287 0.69500005
0.028461907 0.025814287 0.69500005
0.029785717 0.025814287 0.69500005
0.031064764 0.025777144 0.69400001
0.032386668 0.025777144 0.69400001
0.033708572 0.025777144 0.69400001
0.035030477 0.025777144 0.69400001
0.036300004 0.025740001 0.69300002
0.037511431 0.025665715 0.69100004
0.03882762 0.025665715 0.69100004
0.040143814 0.025665715 0.69100004
0.041400004 0.025628572 0.69000006
0.04271429 0.025628572 0.69000006
0.044028573 0.025628572 0.69000006
0.045342859 0.025628572 0.69000006
0.046657145 0.025628572 0.69000006
0.047901906 0.025591429 0.68900001
0.049214289 0.025591429 0.68900001
0.050526671 0.025591429 0.68900001
0.05183905 0.025591429 0.68900001
0.053151432 0.025591429 0.68900001
0.054463815 0.025591429 0.68900001
0.055776194 0.025591429 0.68900001
0.057088576 0.025591429 0.68900001
0.058400955 0.025591429 0.68900001
0.059800003 0.025628572 0.69000006
0.061114289 0.025628572 0.69000006
0.062519051 0.025665715 0.69100004
0.064020008 0.025740001 0.69300002
0.065434292 0.025777144 0.69400001
0.066756196 0.025777144 0.69400001
0.068078101 0.025777144 0.69400001
0.069400005 0.025777144 0.69400001
0.070823811 0.025814287 0.69500005
0.072043814 0.025777144 0.69400001
0.073471434 0.025814287 0.69500005
0.074795246 0.025814287 0.69500005
0.07611905 0.025814287 0.69500005
0.077665716 0.025888573 0.69700003
0.078993335 0.025888573 0.69700003
0.080666669 0.026000002 0.70000005
0.082000002 0.026000002 0.70000005
0.083809532 0.026148573 0.70400006
0.085271433 0.026185716 0.70500004
0.086614288 0.026185716 0.70500004
0.087957151 0.026185716 0.70500004
0.089553341 0.026260002 0.70700002
0.090900004 0.026260002 0.70700002
-0.061361909 0.029598096 0.75800002
-0.059918098 0.029598096 0.75800002
-0.058474291 0.029598096 0.75800002
-0.056880005 0.029520001 0.75600004
-0.05558667 0.029598096 0.75800002
-0.054142863 0.029598096 0.75800002
-0.052699052 0.029598096 0.75800002
-0.051255241 0.029598096 0.75800002
-0.04981143 0.029598096 0.75800002
-0.048495241 0.029676192 0.76000005
-0.047047623 0.029676192 0.76000005
-0.045600004 0.029676192 0.76000005
-0.044152383 0.029676192 0.76000005
-0.042760957 0.02971524 0.76100004
-0.041311432 0.02971524 0.76100004
-0.039861906 0.02971524 0.76100004
-0.038412385 0.02971524 0.76100004
-0.036962859 0.02971524 0.76100004
-0.035513334 0.02971524 0.76100004
-0.034063812 0.02971524 0.76100004
-0.032614287 0.02971524 0.76100004
-0.031164763 0.02971524 0.76100004
-0.02971524 0.02971524 0.76100004
-0.028265717 0.02971524 0.76100004
-0.026816193 0.02971524 0.76100004
-0.025366668 0.02971524 0.76100004
-0.023917144 0.02971524 0.76100004
-0.022467621 0.02971524 0.76100004
-0.021018097 0.02971524 0.76100004
-0.019568572 0.02971524 0.76100004
-0.018166669 0.029793335 0.76300001
-0.016669525 0.02971524 0.76100004
-0.015220001 0.02971524 0.76100004
-0.013770477 0.02971524 0.76100004
-0.012353335 0.029793335 0.76300001
-0.010871429 0.02971524 0.76100004
-0.0094219055 0.02971524 0.76100004
-0.0079723811 0.02971524 0.76100004
-0.0065400004 0.029793335 0.76300001
-0.0050733336 0.02971524 0.76100004
-0.0036238097 0.02971524 0.76100004
-0.0021657145 0.029598096 0.75800002
0.0061457148 0.027997145 0.71700001
0.007500953 0.027958097 0.71600002
0.0088647623 0.027958097 0.71600002
0.0102 0.027880002 0.71400005
0.01154381 0.027840953 0.71300006
0.012901906 0.027840953 0.71300006
0.014220001 0.027762858 0.71100003
0.015552382 0.027723812 0.71000004
0.016833335 0.027606668 0.70700002
0.018180002 0.027606668 0.70700002
0.019471429 0.027528573 0.70500004
0.020784764 0.027489526 0.70400006
0.022094287 0.027450478 0.70300001
0.023366667 0.027372383 0.70100003
0.024701906 0.027372383 0.70100003
0.025925716 0.027255239 0.69800001
0.027216192 0.027216192 0.69700003
0.028461907 0.027138097 0.69500005
0.029785717 0.027138097 0.69500005
0.031064764 0.027099049 0.69400001
0.032386668 0.027099049 0.69400001
0.033708572 0.027099049 0.69400001
0.035030477 0.027099049 0.69400001
0.036352385 0.027099049 0.69400001
0.037620004 0.027060002 0.69300002
0.03882762 0.026981907 0.69100004
0.040143814 0.026981907 0.69100004
0.041400004 0.026942858 0.69000006
0.04271429 0.026942858 0.69000006
0.044028573 0.026942858 0.69000006
0.045342859 0.026942858 0.69000006
0.046589527 0.026903812 0.68900001
0.047901906 0.026903812 0.68900001
0.049214289 0.026903812 0.68900001
0.050526671 0.026903812 0.68900001
0.05183905 0.026903812 0.68900001
0.053151432 0.026903812 0.68900001
0.054463815 0.026903812 0.68900001
0.055776194 0.026903812 0.68900001
0.057088576 0.026903812 0.68900001
0.058231432 0.026825717 0.68700004
0.059713338 0.026903812 0.68900001
0.06102572 0.026903812 0.68900001
0.062428575 0.026942858 0.69000006
0.063835241 0.026981907 0.69100004
0.065340005 0.027060002 0.69300002
0.06646762 0.026981907 0.69100004
0.067980006 0.027060002 0.69300002
0.069400005 0.027099049 0.69400001
0.070721909 0.027099049 0.69400001
0.072043814 0.027099049 0.69400001
0.073365718 0.027099049 0.69400001
0.074795246 0.027138097 0.69500005
0.07611905 0.027138097 0.69500005
0.077442862 0.027138097 0.69500005
0.078993335 0.027216192 0.69700003
0.080436192 0.027255239 0.69800001
0.082000002 0.027333336 0.70000005
0.083690479 0.027450478 0.70300001
0.085271433 0.027528573 0.70500004
0.086614288 0.027528573 0.70500004
0.087957151 0.027528573 0.70500004
0.089553341 0.027606668 0.70700002
0.090900004 0.027606668 0.70700002
0.092246674 0.027606668 0.70700002
-0.06424953 0.031041907 0.75800002
-0.06280572 0.031041907 0.75800002
-0.061361909 0.031041907 0.75800002
-0.059918098 0.031041907 0.75800002
-0.058474291 0.031041907 0.75800002
-0.056880005 0.030960003 0.75600004
-0.05558667 0.031041907 0.75800002
-0.054142863 0.031041907 0.75800002
-0.052699052 0.031041907 0.75800002
-0.051255241 0.031041907 0.75800002
-0.04981143 0.031041907 0.75800002
-0.048495241 0.031123811 0.76000005
-0.047047623 0.031123811 0.76000005
-0.045660004 0.031164763 0.76100004
-0.044152383 0.031123811 0.76000005
-0.042760957 0.031164763 0.76100004
-0.041311432 0.031164763 0.76100004
-0.039966669 0.03124667 0.76300001
-0.038513336 0.03124667 0.76300001
-0.037060004 0.03124667 0.76300001
-0.035606667 0.03124667 0.76300001
-0.021073334 0.03124667 0.76300001
-0.018166669 0.03124667 0.76300001
-0.016669525 0.031164763 0.76100004
-0.015260001 0.03124667 0.76300001
-0.013806667 0.03124667 0.76300001
-0.012353335 0.03124667 0.76300001
-0.010900001 0.03124667 0.76300001
-0.0094466675 0.03124667 0.76300001
-0.007993334 0.03124667 0.76300001
-0.0065400004 0.03124667 0.76300001
-0.0050733336 0.031164763 0.76100004
-0.0036238097 0.031164763 0.76100004
0.0061628576 0.029444763 0.71900004
0.007511429 0.029362859 0.71700001
0.0088647623 0.029321907 0.71600002
0.010228572 0.029321907 0.71600002
0.01156 0.029240001 0.71400005
0.012901906 0.029199049 0.71300006
0.014220001 0.029117145 0.71100003
0.015552382 0.029076193 0.71000004
0.016833335 0.028953334 0.70700002
0.018180002 0.028953334 0.70700002
0.019471429 0.02887143 0.70500004
0.020784764 0.028830478 0.70400006
0.022125715 0.028830478 0.70400006
0.023433335 0.028789526 0.70300001
0.024701906 0.028707622 0.70100003
0.025925716 0.028584763 0.69800001
0.027216192 0.028543811 0.69700003
0.028461907 0.028461907 0.69500005
0.029785717 0.028461907 0.69500005
0.031109527 0.028461907 0.69500005
0.032433335 0.028461907 0.69500005
0.033708572 0.028420955 0.69400001
0.035030477 0.028420955 0.69400001
0.036352385 0.028420955 0.69400001
0.037620004 0.028380001 0.69300002
0.038940001 0.028380001 0.69300002
0.040143814 0.028298097 0.69100004
0.041460004 0.028298097 0.69100004
0.04271429 0.028257145 0.69000006
0.044028573 0.028257145 0.69000006
0.045342859 0.028257145 0.69000006
0.046589527 0.028216192 0.68900001
0.047901906 0.028216192 0.68900001
0.049214289 0.028216192 0.68900001
0.050526671 0.028216192 0.68900001
0.05183905 0.028216192 0.68900001
0.053151432 0.028216192 0.68900001
0.054463815 0.028216192 0.68900001
0.055614289 0.028134288 0.68700004
0.05692286 0.028134288 0.68700004
0.058231432 0.028134288 0.68700004
0.059540004 0.028134288 0.68700004
0.060848575 0.028134288 0.68700004
0.062338099 0.028216192 0.68900001
0.063650481 0.028216192 0.68900001
0.065057144 0.028257145 0.69000006
0.066371433 0.028257145 0.69000006
0.067980006 0.028380001 0.69300002
0.069300003 0.028380001 0.69300002
0.070620008 0.028380001 0.69300002
0.071940005 0.028380001 0.69300002
0.073365718 0.028420955 0.69400001
0.074687622 0.028420955 0.69400001
0.07611905 0.028461907 0.69500005
0.077442862 0.028461907 0.69500005
0.078766674 0.028461907 0.69500005
0.080320954 0.028543811 0.69700003
0.082117148 0.028707622 0.70100003
0.083809532 0.028830478 0.70400006
0.085271433 0.02887143 0.70500004
0.086614288 0.02887143 0.70500004
0.087957151 0.02887143 0.70500004
0.089553341 0.028953334 0.70700002
0.090900004 0.028953334 0.70700002
0.092246674 0.028953334 0.70700002
-0.065520003 0.032400001 0.75600004
-0.064080007 0.032400001 0.75600004
-0.06280572 0.032485716 0.75800002
-0.061361909 0.032485716 0.75800002
-0.059918098 0.032485716 0.75800002
-0.058320004 0.032400001 0.75600004
-0.056880005 0.032400001 0.75600004
-0.05558667 0.032485716 0.75800002
-0.054142863 0.032485716 0.75800002
-0.052699052 0.032485716 0.75800002
-0.051255241 0.032485716 0.75800002
-0.04981143 0.032485716 0.75800002
-0.048367623 0.032485716 0.75800002
-0.047047623 0.032571431 0.76000005
-0.045600004 0.032571431 0.76000005
-0.044152383 0.032571431 0.76000005
-0.045328576 0.035785716 0.83500004
-0.04384286 0.035871431 0.83700001
-0.019671429 0.032785717 0.76500005
-0.018214287 0.032785717 0.76500005
-0.016713334 0.032700002 0.76300001
-0.015260001 0.032700002 0.76300001
-0.013806667 0.032700002 0.76300001
-0.012353335 0.032700002 0.76300001
-0.010900001 0.032700002 0.76300001
-0.0094466675 0.032700002 0.76300001
-0.007993334 0.032700002 0.76300001
-0.0065400004 0.032700002 0.76300001
-0.0050733336 0.032614287 0.76100004
-0.0036238097 0.032614287 0.76100004
0.0061628576 0.030814288 0.71900004
0.007511429 0.030728573 0.71700001
0.0088771433 0.030728573 0.71700001
0.010228572 0.030685715 0.71600002
0.01156 0.030600002 0.71400005
0.012901906 0.030557144 0.71300006
0.014260001 0.030557144 0.71300006
0.015574287 0.030471431 0.71100003
0.016857143 0.030342858 0.708
0.018180002 0.030300003 0.70700002
0.019471429 0.030214287 0.70500004
0.020814287 0.030214287 0.70500004
0.022125715 0.03017143 0.70400006
0.023466669 0.03017143 0.70400006
0.024772383 0.030128574 0.70300001
0.026000002 0.030000001 0.70000005
0.027255239 0.029914288 0.69800001
0.028543811 0.02987143 0.69700003
0.02987143 0.02987143 0.69700003
0.031109527 0.029785717 0.69500005
0.032433335 0.029785717 0.69500005
0.033757146 0.029785717 0.69500005
0.035080954 0.029785717 0.69500005
0.036404766 0.029785717 0.69500005
0.037674289 0.029742859 0.69400001
0.038940001 0.029700002 0.69300002
0.040260002 0.029700002 0.69300002
0.041460004 0.029614288 0.69100004
0.04271429 0.029571431 0.69000006
0.044028573 0.029571431 0.69000006
0.045342859 0.029571431 0.69000006
0.046589527 0.029528573 0.68900001
0.047901906 0.029528573 0.68900001
0.049071431 0.02944286 0.68700004
0.050380003 0.02944286 0.68700004
0.05183905 0.029528573 0.68900001
0.052997146 0.02944286 0.68700004
0.054305717 0.02944286 0.68700004
0.055614289 0.02944286 0.68700004
0.05692286 0.02944286 0.68700004
0.05814667 0.029400002 0.68600005
0.059540004 0.02944286 0.68700004
0.060848575 0.02944286 0.68700004
0.062157147 0.02944286 0.68700004
0.063465722 0.02944286 0.68700004
0.064962864 0.029528573 0.68900001
0.066275239 0.029528573 0.68900001
0.067783818 0.029614288 0.69100004
0.069100007 0.029614288 0.69100004
0.070416197 0.029614288 0.69100004
0.071940005 0.029700002 0.69300002
0.073365718 0.029742859 0.69400001
0.074795246 0.029785717 0.69500005
0.07611905 0.029785717 0.69500005
0.077442862 0.029785717 0.69500005
0.078766674 0.029785717 0.69500005
0.080320954 0.02987143 0.69700003
0.082000002 0.030000001 0.70000005
0.083809532 0.03017143 0.70400006
0.085271433 0.030214287 0.70500004
0.086614288 0.030214287 0.70500004
0.087957151 0.030214287 0.70500004
0.089300007 0.030214287 0.70500004
0.090642862 0.030214287 0.70500004
0.091985717 0.030214287 0.70500004
0.09332858 0.030214287 0.70500004
-0.066960007 0.033840001 0.75600004
-0.065520003 0.033840001 0.75600004
-0.064080007 0.033840001 0.75600004
-0.062640004 0.033840001 0.75600004
-0.061200004 0.033840001 0.75600004
-0.059918098 0.033929527 0.75800002
-0.058320004 0.033840001 0.75600004
-0.05703048 0.033929527 0.75800002
-0.05558667 0.033929527 0.75800002
-0.054142863 0.033929527 0.75800002
-0.052699052 0.033929527 0.75800002
-0.051255241 0.033929527 0.75800002
-0.04981143 0.033929527 0.75800002
-0.048367623 0.033929527 0.75800002
-0.047047623 0.034019049 0.76000005
-0.045328576 0.037376191 0.83500004
-0.018214287 0.034242861 0.76500005
-0.016713334 0.034153335 0.76300001
-0.015260001 0.034153335 0.76300001
-0.013806667 0.034153335 0.76300001
-0.012385715 0.034242861 0.76500005
-0.010900001 0.034153335 0.76300001
-0.0094466675 0.034153335 0.76300001
-0.007993334 0.034153335 0.76300001
-0.0065400004 0.034153335 0.76300001
-0.0050866669 0.034153335 0.76300001
-0.0036333336 0.034153335 0.76300001
0.0075323815 0.032183811 0.71900004
0.0089019053 0.032183811 0.71900004
0.010242858 0.032094289 0.71700001
0.011592382 0.032049526 0.71600002
0.012920001 0.031960003 0.71400005
0.014260001 0.03191524 0.71300006
0.015618096 0.03191524 0.71300006
0.016904764 0.031780954 0.71000004
0.018205715 0.031691432 0.708
0.019526668 0.031646669 0.70700002
0.020814287 0.031557146 0.70500004
0.022157144 0.031557146 0.70500004
0.023466669 0.031512383 0.70400006
0.024807621 0.031512383 0.70400006
0.026037145 0.031378098 0.70100003
0.027333336 0.031333335 0.70000005
0.028584763 0.031243812 0.69800001
0.02987143 0.031199049 0.69700003
0.031199049 0.031199049 0.69700003
0.032526668 0.031199049 0.69700003
0.033757146 0.031109527 0.69500005
0.035080954 0.031109527 0.69500005
0.036404766 0.031109527 0.69500005
0.037674289 0.031064764 0.69400001
0.038940001 0.031020002 0.69300002
0.040260002 0.031020002 0.69300002
0.041460004 0.030930478 0.69100004
0.04271429 0.030885717 0.69000006
0.044028573 0.030885717 0.69000006
0.045342859 0.030885717 0.69000006
0.046589527 0.030840954 0.68900001
0.047901906 0.030840954 0.68900001
0.049071431 0.030751431 0.68700004
0.050380003 0.030751431 0.68700004
0.051688574 0.030751431 0.68700004
0.052997146 0.030751431 0.68700004
0.054305717 0.030751431 0.68700004
0.055614289 0.030751431 0.68700004
0.056840003 0.030706668 0.68600005
0.05814667 0.030706668 0.68600005
0.059453338 0.030706668 0.68600005
0.060760003 0.030706668 0.68600005
0.062157147 0.030751431 0.68700004
0.063465722 0.030751431 0.68700004
0.06477429 0.030751431 0.68700004
0.066275239 0.030840954 0.68900001
0.067587622 0.030840954 0.68900001
0.069000006 0.030885717 0.69000006
0.070314288 0.030885717 0.69000006
0.071732387 0.030930478 0.69100004
0.073260002 0.031020002 0.69300002
0.074687622 0.031064764 0.69400001
0.076009527 0.031064764 0.69400001
0.077442862 0.031109527 0.69500005
0.078766674 0.031109527 0.69500005
0.080320954 0.031199049 0.69700003
0.082000002 0.031333335 0.70000005
0.083452389 0.031378098 0.70100003
0.08515048 0.031512383 0.70400006
0.086614288 0.031557146 0.70500004
0.087957151 0.031557146 0.70500004
0.089300007 0.031557146 0.70500004
0.090642862 0.031557146 0.70500004
0.091985717 0.031557146 0.70500004
0.09332858 0.031557146 0.70500004
-0.073571436 0.035000004 0.75000006
-0.072142862 0.035000004 0.75000006
-0.070902862 0.035093337 0.75200003
-0.06947048 0.035093337 0.75200003
-0.068038099 0.035093337 0.75200003
-0.066960007 0.035280004 0.75600004
-0.065520003 0.035280004 0.75600004
-0.064080007 0.035280004 0.75600004
-0.062640004 0.035280004 0.75600004
-0.061200004 0.035280004 0.75600004
-0.059760004 0.035280004 0.75600004
-0.058320004 0.035280004 0.75600004
-0.056880005 0.035280004 0.75600004
-0.055440005 0.035280004 0.75600004
-0.054142863 0.035373334 0.75800002
-0.052699052 0.035373334 0.75800002
-0.051255241 0.035373334 0.75800002
-0.04981143 0.035373334 0.75800002
-0.048367623 0.035373334 0.75800002
-0.016757144 0.035700001 0.76500005
-0.015300001 0.035700001 0.76500005
-0.013842858 0.035700001 0.76500005
-0.012385715 0.035700001 0.76500005
-0.010928572 0.035700001 0.76500005
-0.0094466675 0.035606667 0.76300001
-0.007993334 0.035606667 0.76300001
-0.0065400004 0.035606667 0.76300001
-0.0051000002 0.035700001 0.76500005
-0.0036333336 0.035606667 0.76300001
0.0075638099 0.033693336 0.72200006
0.0089142863 0.033600003 0.72000003
0.010242858 0.033460002 0.71700001
0.011608572 0.033460002 0.71700001
0.012956192 0.033413336 0.71600002
0.014280001 0.033320002 0.71400005
0.015640002 0.033320002 0.71400005
0.016928572 0.033180002 0.71100003
0.018257145 0.033133335 0.71000004
0.019554287 0.033040002 0.708
0.020873334 0.032993335 0.70700002
0.022157144 0.032900002 0.70500004
0.023466669 0.032853335 0.70400006
0.024807621 0.032853335 0.70400006
0.026037145 0.032713335 0.70100003
0.027333336 0.032666668 0.70000005
0.028584763 0.032573335 0.69800001
0.02987143 0.032526668 0.69700003
0.031199049 0.032526668 0.69700003
0.032526668 0.032526668 0.69700003
0.033757146 0.032433335 0.69500005
0.035080954 0.032433335 0.69500005
0.036404766 0.032433335 0.69500005
0.037674289 0.032386668 0.69400001
0.038940001 0.032340001 0.69300002
0.040260002 0.032340001 0.69300002
0.041460004 0.032246668 0.69100004
0.04271429 0.032200001 0.69000006
0.044028573 0.032200001 0.69000006
0.045277145 0.032153334 0.68900001
0.046589527 0.032153334 0.68900001
0.047901906 0.032153334 0.68900001
0.049071431 0.032060001 0.68700004
0.050380003 0.032060001 0.68700004
0.051688574 0.032060001 0.68700004
0.052997146 0.032060001 0.68700004
0.054305717 0.032060001 0.68700004
0.055614289 0.032060001 0.68700004
0.056840003 0.032013334 0.68600005
0.05814667 0.032013334 0.68600005
0.059453338 0.032013334 0.68600005
0.060760003 0.032013334 0.68600005
0.062066671 0.032013334 0.68600005
0.063373335 0.032013334 0.68600005
0.064680003 0.032013334 0.68600005
0.065986671 0.032013334 0.68600005
0.067391433 0.032060001 0.68700004
0.068900004 0.032153334 0.68900001
0.070314288 0.032200001 0.69000006
0.071628578 0.032200001 0.69000006
0.073260002 0.032340001 0.69300002
0.074687622 0.032386668 0.69400001
0.076009527 0.032386668 0.69400001
0.077442862 0.032433335 0.69500005
0.078766674 0.032433335 0.69500005
0.080320954 0.032526668 0.69700003
0.082000002 0.032666668 0.70000005
0.083333336 0.032666668 0.70000005
0.08515048 0.032853335 0.70400006
0.086614288 0.032900002 0.70500004
0.087957151 0.032900002 0.70500004
0.089300007 0.032900002 0.70500004
0.090642862 0.032900002 0.70500004
0.091985717 0.032900002 0.70500004
0.093196198 0.032853335 0.70400006
-0.076428577 0.036428574 0.75000006
-0.075200006 0.036525715 0.75200003
-0.073767625 0.036525715 0.75200003
-0.072335243 0.036525715 0.75200003
-0.070902862 0.036525715 0.75200003
-0.06956286 0.036574289 0.75300002
-0.068128578 0.036574289 0.75300002
-0.066871434 0.03667143 0.75500005
-0.065433338 0.03667143 0.75500005
-0.064080007 0.036720004 0.75600004
-0.062640004 0.036720004 0.75600004
-0.061200004 0.036720004 0.75600004
-0.059760004 0.036720004 0.75600004
-0.058320004 0.036720004 0.75600004
-0.056880005 0.036720004 0.75600004
-0.055440005 0.036720004 0.75600004
-0.054000005 0.036720004 0.75600004
-0.052560002 0.036720004 0.75600004
-0.051255241 0.036817145 0.75800002
-0.019800002 0.037400004 0.77000004
-0.018285716 0.037302859 0.76800001
-0.016800953 0.037254289 0.76700002
-0.015340001 0.037254289 0.76700002
-0.013879049 0.037254289 0.76700002
-0.012418096 0.037254289 0.76700002
-0.010928572 0.037157144 0.76500005
-0.0094714295 0.037157144 0.76500005
-0.007993334 0.037060004 0.76300001
-0.0065571433 0.037157144 0.76500005
-0.0051000002 0.037157144 0.76500005
-0.0036333336 0.037060004 0.76300001
-0.0021742859 0.036962859 0.76100004
0.0048333337 0.035214286 0.72500002
0.0062142862 0.035214286 0.72500002
0.0075742863 0.035117146 0.72300005
0.0089390483 0.035068575 0.72200006
0.010271429 0.034922861 0.71900004
0.011608572 0.034825716 0.71700001
0.012974286 0.034825716 0.71700001
0.014320001 0.034777146 0.71600002
0.015683811 0.034777146 0.71600002
0.017000001 0.034680001 0.71400005
0.018334286 0.034631431 0.71300006
0.019609526 0.034485716 0.71000004
0.020902859 0.034388572 0.708
0.022220001 0.034340002 0.70700002
0.023500001 0.034242861 0.70500004
0.024807621 0.034194287 0.70400006
0.026037145 0.034048572 0.70100003
0.027333336 0.034000002 0.70000005
0.028584763 0.033902861 0.69800001
0.02987143 0.033854287 0.69700003
0.031199049 0.033854287 0.69700003
0.032433335 0.033757146 0.69500005
0.033757146 0.033757146 0.69500005
0.035080954 0.033757146 0.69500005
0.036404766 0.033757146 0.69500005
0.037674289 0.033708572 0.69400001
0.038996194 0.033708572 0.69400001
0.040260002 0.033660002 0.69300002
0.041460004 0.033562858 0.69100004
0.04271429 0.033514287 0.69000006
0.044028573 0.033514287 0.69000006
0.045277145 0.033465717 0.68900001
0.046589527 0.033465717 0.68900001
0.047901906 0.033465717 0.68900001
0.049071431 0.033368573 0.68700004
0.050380003 0.033368573 0.68700004
0.051688574 0.033368573 0.68700004
0.052997146 0.033368573 0.68700004
0.05422667 0.033320002 0.68600005
0.055533338 0.033320002 0.68600005
0.056840003 0.033320002 0.68600005
0.05814667 0.033320002 0.68600005
0.059453338 0.033320002 0.68600005
0.060760003 0.033320002 0.68600005
0.062066671 0.033320002 0.68600005
0.063373335 0.033320002 0.68600005
0.064680003 0.033320002 0.68600005
0.065986671 0.033320002 0.68600005
0.067293338 0.033320002 0.68600005
0.068700008 0.033368573 0.68700004
0.070212387 0.033465717 0.68900001
0.071524769 0.033465717 0.68900001
0.072837144 0.033465717 0.68900001
0.074364766 0.033562858 0.69100004
0.076009527 0.033708572 0.69400001
0.077331431 0.033708572 0.69400001
0.078653336 0.033708572 0.69400001
0.080090478 0.033757146 0.69500005
0.081765719 0.033902861 0.69800001
0.083333336 0.034000002 0.70000005
0.084787622 0.034048572 0.70100003
0.086491436 0.034194287 0.70400006
0.087957151 0.034242861 0.70500004
0.089300007 0.034242861 0.70500004
0.090642862 0.034242861 0.70500004
0.091985717 0.034242861 0.70500004
-0.078757145 0.037604764 0.74500006
-0.077545717 0.037705716 0.74700004
-0.076224767 0.037756193 0.74800003
-0.075000003 0.037857145 0.75000006
-0.073571436 0.037857145 0.75000006
-0.072142862 0.037857145 0.75000006
-0.070902862 0.037958097 0.75200003
-0.06956286 0.038008574 0.75300002
-0.068128578 0.038008574 0.75300002
-0.066871434 0.038109526 0.75500005
-0.065433338 0.038109526 0.75500005
-0.064080007 0.038160004 0.75600004
-0.062640004 0.038160004 0.75600004
-0.061200004 0.038160004 0.75600004
-0.059760004 0.038160004 0.75600004
-0.058320004 0.038160004 0.75600004
-0.056880005 0.038160004 0.75600004
-0.055440005 0.038160004 0.75600004
-0.019748572 0.038765717 0.76800001
-0.018285716 0.038765717 0.76800001
-0.016800953 0.03871524 0.76700002
-0.015340001 0.03871524 0.76700002
-0.013879049 0.03871524 0.76700002
-0.012418096 0.03871524 0.76700002
-0.010957143 0.03871524 0.76700002
-0.0094961915 0.03871524 0.76700002
-0.0080352388 0.03871524 0.76700002
-0.0065742861 0.03871524 0.76700002
-0.0051133335 0.03871524 0.76700002
-0.0036523812 0.03871524 0.76700002
-0.0021800001 0.038513336 0.76300001
0.0062142862 0.03659524 0.72500002
0.0075952387 0.03659524 0.72500002
0.0089514293 0.036494289 0.72300005
0.010314287 0.036443811 0.72200006
0.011657144 0.036342859 0.72000003
0.013010477 0.036292382 0.71900004
0.014380001 0.036292382 0.71900004
0.015749525 0.036292382 0.71900004
0.017119048 0.036292382 0.71900004
0.018360002 0.036040001 0.71400005
0.019720001 0.036040001 0.71400005
0.023225715 0.037301905 0.73900002
0.024633335 0.037301905 0.73900002
0.026040955 0.037301905 0.73900002
0.027485715 0.037352383 0.74000001
0.027333336 0.035333335 0.70000005
0.028584763 0.035232384 0.69800001
0.029914288 0.035232384 0.69800001
0.031199049 0.035181906 0.69700003
0.032433335 0.035080954 0.69500005
0.033757146 0.035080954 0.69500005
0.035080954 0.035080954 0.69500005
0.036404766 0.035080954 0.69500005
0.037728574 0.035080954 0.69500005
0.038996194 0.035030477 0.69400001
0.040260002 0.034980003 0.69300002
0.041580003 0.034980003 0.69300002
0.042776193 0.034879051 0.69100004
0.044028573 0.034828573 0.69000006
0.045342859 0.034828573 0.69000006
0.046589527 0.034778096 0.68900001
0.047901906 0.034778096 0.68900001
0.049071431 0.034677144 0.68700004
0.050380003 0.034677144 0.68700004
0.051688574 0.034677144 0.68700004
0.052997146 0.034677144 0.68700004
0.054305717 0.034677144 0.68700004
0.055533338 0.03462667 0.68600005
0.056840003 0.03462667 0.68600005
0.05814667 0.03462667 0.68600005
0.059453338 0.03462667 0.68600005
0.060760003 0.03462667 0.68600005
0.062066671 0.03462667 0.68600005
0.063373335 0.03462667 0.68600005
0.064680003 0.03462667 0.68600005
0.065986671 0.03462667 0.68600005
0.067391433 0.034677144 0.68700004
0.068700008 0.034677144 0.68700004
0.070008576 0.034677144 0.68700004
0.071524769 0.034778096 0.68900001
0.072837144 0.034778096 0.68900001
0.07425715 0.034828573 0.69000006
0.075680956 0.034879051 0.69100004
0.077220008 0.034980003 0.69300002
0.078540005 0.034980003 0.69300002
0.080090478 0.035080954 0.69500005
0.081648573 0.035181906 0.69700003
0.083095245 0.035232384 0.69800001
0.084666669 0.035333335 0.70000005
0.086122863 0.035383813 0.70100003
0.087832384 0.035535239 0.70400006
0.089173339 0.035535239 0.70400006
0.090642862 0.035585716 0.70500004
0.092246674 0.035686668 0.70700002
-0.084206671 0.03891905 0.74300003
-0.083014295 0.039023813 0.74500006
-0.081595242 0.039023813 0.74500006
-0.080176197 0.039023813 0.74500006
-0.078757145 0.039023813 0.74500006
-0.077545717 0.039128575 0.74700004
-0.076122865 0.039128575 0.74700004
-0.075000003 0.039285716 0.75000006
-0.073571436 0.039285716 0.75000006
-0.072142862 0.039285716 0.75000006
-0.070902862 0.039390478 0.75200003
-0.06947048 0.039390478 0.75200003
-0.068038099 0.039390478 0.75200003
-0.066694289 0.03944286 0.75300002
-0.065433338 0.039547622 0.75500005
-0.064080007 0.039600004 0.75600004
-0.062640004 0.039600004 0.75600004
-0.061200004 0.039600004 0.75600004
-0.059760004 0.039600004 0.75600004
-0.058320004 0.039600004 0.75600004
-0.023980001 0.039966669 0.76300001
-0.02121143 0.040228575 0.76800001
-0.019748572 0.040228575 0.76800001
-0.018285716 0.040228575 0.76800001
-0.016800953 0.040176194 0.76700002
-0.015340001 0.040176194 0.76700002
-0.013879049 0.040176194 0.76700002
-0.012434287 0.040228575 0.76800001
-0.010957143 0.040176194 0.76700002
-0.0094961915 0.040176194 0.76700002
-0.0080352388 0.040176194 0.76700002
-0.0065742861 0.040176194 0.76700002
-0.0051133335 0.040176194 0.76700002
-0.0036523812 0.040176194 0.76700002
0.0062228576 0.038028575 0.72600001
0.0076057147 0.038028575 0.72600001
0.0089514293 0.037871432 0.72300005
0.010314287 0.03781905 0.72200006
0.011689524 0.03781905 0.72200006
0.013028572 0.037714288 0.72000003
0.014400001 0.037714288 0.72000003
0.01577143 0.037714288 0.72000003
0.017142858 0.037714288 0.72000003
0.018488573 0.037661906 0.71900004
0.020189526 0.038290478 0.73100001
0.021670477 0.038447622 0.73400003
0.023162859 0.038604766 0.73700005
0.024566669 0.038604766 0.73700005
0.025970478 0.038604766 0.73700005
0.027448574 0.038709525 0.73900002
0.028778097 0.038604766 0.73700005
0.030140955 0.038552385 0.73600006
0.031242859 0.038185716 0.72900003
0.032631431 0.038185716 0.72900003
0.034113336 0.038290478 0.73100001
0.035505716 0.038290478 0.73100001
0.035080954 0.036404766 0.69500005
0.036404766 0.036404766 0.69500005
0.037728574 0.036404766 0.69500005
0.038996194 0.036352385 0.69400001
0.040260002 0.036300004 0.69300002
0.041580003 0.036300004 0.69300002
0.042776193 0.036195241 0.69100004
0.044028573 0.03614286 0.69000006
0.045342859 0.03614286 0.69000006
0.046589527 0.036090478 0.68900001
0.047901906 0.036090478 0.68900001
0.049071431 0.035985716 0.68700004
0.050380003 0.035985716 0.68700004
0.051688574 0.035985716 0.68700004
0.052997146 0.035985716 0.68700004
0.05422667 0.035933334 0.68600005
0.055533338 0.035933334 0.68600005
0.056840003 0.035933334 0.68600005
0.05814667 0.035933334 0.68600005
0.059453338 0.035933334 0.68600005
0.060760003 0.035933334 0.68600005
0.062066671 0.035933334 0.68600005
0.063373335 0.035933334 0.68600005
0.064680003 0.035933334 0.68600005
0.065986671 0.035933334 0.68600005
0.067293338 0.035933334 0.68600005
0.068600006 0.035933334 0.68600005
0.070008576 0.035985716 0.68700004
0.071524769 0.036090478 0.68900001
0.072837144 0.036090478 0.68900001
0.074149527 0.036090478 0.68900001
0.075680956 0.036195241 0.69100004
0.077220008 0.036300004 0.69300002
0.078540005 0.036300004 0.69300002
0.080090478 0.036404766 0.69500005
0.081648573 0.036509525 0.69700003
0.083095245 0.036561906 0.69800001
0.084666669 0.036666669 0.70000005
0.086000003 0.036666669 0.70000005
0.087458104 0.03671905 0.70100003
0.089173339 0.036876194 0.70400006
0.090642862 0.036928575 0.70500004
0.091985717 0.036928575 0.70500004
0.093593337 0.037033334 0.70700002
0.095074289 0.037085716 0.708
-0.085621908 0.040334288 0.74300003
-0.084206671 0.040334288 0.74300003
-0.082791433 0.040334288 0.74300003
-0.081376195 0.040334288 0.74300003
-0.080176197 0.040442862 0.74500006
-0.078757145 0.040442862 0.74500006
-0.077338099 0.040442862 0.74500006
-0.076122865 0.040551431 0.74700004
-0.074800007 0.040605716 0.74800003
-0.07337524 0.040605716 0.74800003
-0.072142862 0.04071429 0.75000006
-0.070714287 0.04071429 0.75000006
-0.06947048 0.04082286 0.75200003
-0.068038099 0.04082286 0.75200003
-0.066694289 0.040877145 0.75300002
-0.065433338 0.040985718 0.75500005
-0.064080007 0.041040003 0.75600004
-0.023980001 0.041420002 0.76300001
-0.022526668 0.041420002 0.76300001
-0.021128573 0.041528575 0.76500005
-0.019722858 0.041637145 0.76700002
-0.018285716 0.04169143 0.76800001
-0.016800953 0.041637145 0.76700002
-0.015340001 0.041637145 0.76700002
-0.013897143 0.04169143 0.76800001
-0.012434287 0.04169143 0.76800001
-0.010971429 0.04169143 0.76800001
-0.0095085725 0.04169143 0.76800001
-0.0080352388 0.041637145 0.76700002
-0.0065828576 0.04169143 0.76800001
-0.0051200003 0.04169143 0.76800001
-0.0036571431 0.04169143 0.76800001
0.00069904764 0.039845716 0.73400003
0.0048533338 0.039520003 0.72800004
0.0062400005 0.039520003 0.72800004
0.0076266672 0.039520003 0.72800004
0.0089761913 0.039357144 0.72500002
0.010328572 0.039248575 0.72300005
0.011705715 0.039248575 0.72300005
0.013064763 0.03919429 0.72200006
0.014440001 0.03919429 0.72200006
0.01577143 0.039085716 0.72000003
0.017142858 0.039085716 0.72000003
0.018514287 0.039085716 0.72000003
0.020189526 0.039682861 0.73100001
0.021581907 0.039682861 0.73100001
0.02313143 0.03995429 0.73600006
0.024533335 0.03995429 0.73600006
0.025970478 0.040008575 0.73700005
0.027374288 0.040008575 0.73700005
0.02873905 0.03995429 0.73600006
0.030140955 0.03995429 0.73600006
0.031457145 0.039845716 0.73400003
0.032765716 0.039737146 0.73200005
0.034113336 0.039682861 0.73100001
0.035505716 0.039682861 0.73100001
0.036797144 0.039574288 0.72900003
0.038185716 0.039574288 0.72900003
0.039520003 0.039520003 0.72800004
0.040906668 0.039520003 0.72800004
0.042177144 0.039411429 0.72600001
0.043500002 0.039357144 0.72500002
0.044757146 0.039248575 0.72300005
0.043964766 0.037402861 0.68900001
0.045277145 0.037402861 0.68900001
0.046589527 0.037402861 0.68900001
0.047901906 0.037402861 0.68900001
0.049214289 0.037402861 0.68900001
0.050526671 0.037402861 0.68900001
0.05183905 0.037402861 0.68900001
0.052997146 0.037294287 0.68700004
0.05422667 0.037240002 0.68600005
0.055533338 0.037240002 0.68600005
0.056840003 0.037240002 0.68600005
0.05814667 0.037240002 0.68600005
0.059453338 0.037240002 0.68600005
0.060760003 0.037240002 0.68600005
0.062066671 0.037240002 0.68600005
0.063373335 0.037240002 0.68600005
0.064680003 0.037240002 0.68600005
0.065986671 0.037240002 0.68600005
0.067391433 0.037294287 0.68700004
0.068700008 0.037294287 0.68700004
0.070008576 0.037294287 0.68700004
0.071524769 0.037402861 0.68900001
0.072837144 0.037402861 0.68900001
0.07425715 0.037457146 0.69000006
0.075680956 0.037511431 0.69100004
0.077331431 0.037674289 0.69400001
0.078653336 0.037674289 0.69400001
0.080090478 0.037728574 0.69500005
0.081765719 0.037891433 0.69800001
0.083095245 0.037891433 0.69800001
0.084666669 0.038000003 0.70000005
0.086000003 0.038000003 0.70000005
0.087458104 0.038054287 0.70100003
0.089046672 0.038162861 0.70300001
0.090514295 0.038217146 0.70400006
0.091855243 0.038217146 0.70400006
0.09332858 0.038271431 0.70500004
0.094940007 0.038380001 0.70700002
-0.08550667 0.041693337 0.74200004
-0.084206671 0.041749526 0.74300003
-0.082791433 0.041749526 0.74300003
-0.081376195 0.041749526 0.74300003
-0.080176197 0.041861907 0.74500006
-0.078757145 0.041861907 0.74500006
-0.077338099 0.041861907 0.74500006
-0.076122865 0.041974287 0.74700004
-0.074800007 0.04203048 0.74800003
-0.07337524 0.04203048 0.74800003
-0.072142862 0.042142861 0.75000006
-0.070714287 0.042142861 0.75000006
-0.06947048 0.042255241 0.75200003
-0.068038099 0.042255241 0.75200003
-0.064080007 0.042480003 0.75600004
-0.025333336 0.042704765 0.76000005
-0.023980001 0.042873338 0.76300001
-0.022526668 0.042873338 0.76300001
-0.021073334 0.042873338 0.76300001
-0.019671429 0.042985719 0.76500005
-0.018285716 0.043154288 0.76800001
-0.016822858 0.043154288 0.76800001
-0.015360001 0.043154288 0.76800001
-0.013897143 0.043154288 0.76800001
-0.012434287 0.043154288 0.76800001
-0.010971429 0.043154288 0.76800001
-0.0095085725 0.043154288 0.76800001
-0.0080457143 0.043154288 0.76800001
-0.0065828576 0.043154288 0.76800001
-0.0051200003 0.043154288 0.76800001
-0.0036571431 0.043154288 0.76800001
-0.0021942859 0.043154288 0.76800001
0.00069904764 0.041243814 0.73400003
0.0020971431 0.041243814 0.73400003
0.0034857146 0.041131433 0.73200005
0.0048733335 0.041075241 0.73100001
0.0062485719 0.04096286 0.72900003
0.0076371431 0.04096286 0.72900003
0.0089761913 0.040738098 0.72500002
0.010357143 0.040738098 0.72500002
0.011738096 0.040738098 0.72500002
0.013119048 0.040738098 0.72500002
0.014500001 0.040738098 0.72500002
0.015837144 0.040625717 0.72300005
0.017261906 0.040738098 0.72500002
0.018797144 0.041075241 0.73100001
0.020189526 0.041075241 0.73100001
0.02161143 0.041131433 0.73200005
0.02313143 0.041356195 0.73600006
0.024566669 0.041412383 0.73700005
0.025970478 0.041412383 0.73700005
0.027374288 0.041412383 0.73700005
0.02873905 0.041356195 0.73600006
0.030140955 0.041356195 0.73600006
0.031457145 0.041243814 0.73400003
0.032765716 0.041131433 0.73200005
0.034113336 0.041075241 0.73100001
0.035505716 0.041075241 0.73100001
0.036797144 0.04096286 0.72900003
0.038185716 0.04096286 0.72900003
0.039520003 0.040906668 0.72800004
0.040794287 0.040794287 0.72600001
0.042177144 0.040794287 0.72600001
0.043500002 0.040738098 0.72500002
0.044880956 0.040738098 0.72500002
0.046134289 0.040625717 0.72300005
0.047511432 0.040625717 0.72300005
0.046589527 0.03871524 0.68900001
0.047901906 0.03871524 0.68900001
0.049214289 0.03871524 0.68900001
0.050526671 0.03871524 0.68900001
0.05183905 0.03871524 0.68900001
0.053151432 0.03871524 0.68900001
0.054305717 0.038602859 0.68700004
0.055614289 0.038602859 0.68700004
0.056840003 0.03854667 0.68600005
0.05814667 0.03854667 0.68600005
0.059453338 0.03854667 0.68600005
0.060760003 0.03854667 0.68600005
0.062066671 0.03854667 0.68600005
0.063465722 0.038602859 0.68700004
0.064680003 0.03854667 0.68600005
0.065986671 0.03854667 0.68600005
0.067391433 0.038602859 0.68700004
0.068600006 0.03854667 0.68600005
0.070008576 0.038602859 0.68700004
0.071317151 0.038602859 0.68700004
0.072625719 0.038602859 0.68700004
0.074149527 0.03871524 0.68900001
0.075680956 0.03882762 0.69100004
0.077331431 0.038996194 0.69400001
0.078653336 0.038996194 0.69400001
0.080320954 0.039164763 0.69700003
0.081765719 0.039220955 0.69800001
0.083095245 0.039220955 0.69800001
0.084666669 0.039333336 0.70000005
0.086000003 0.039333336 0.70000005
0.087458104 0.039389525 0.70100003
0.089046672 0.039501909 0.70300001
0.090514295 0.039558098 0.70400006
0.091855243 0.039558098 0.70400006
0.09332858 0.03961429 0.70500004
0.094940007 0.039726671 0.70700002
-0.087037146 0.043164764 0.74300003
-0.08550667 0.043106668 0.74200004
-0.084206671 0.043164764 0.74300003
-0.082791433 0.043164764 0.74300003
-0.081376195 0.043164764 0.74300003
-0.080176197 0.043280955 0.74500006
-0.078757145 0.043280955 0.74500006
-0.077338099 0.043280955 0.74500006
-0.076122865 0.043397147 0.74700004
-0.074700005 0.043397147 0.74700004
-0.07337524 0.043455239 0.74800003
-0.072142862 0.043571431 0.75000006
-0.070714287 0.043571431 0.75000006
-0.06947048 0.043687623 0.75200003
-0.026780954 0.044152383 0.76000005
-0.025333336 0.044152383 0.76000005
-0.023917144 0.044210479 0.76100004
-0.022467621 0.044210479 0.76100004
-0.021073334 0.04432667 0.76300001
-0.019671429 0.044442859 0.76500005
-0.018285716 0.044617146 0.76800001
-0.016822858 0.044617146 0.76800001
-0.015360001 0.044617146 0.76800001
-0.013897143 0.044617146 0.76800001
-0.012434287 0.044617146 0.76800001
-0.010971429 0.044617146 0.76800001
-0.0095085725 0.044617146 0.76800001
-0.0080457143 0.044617146 0.76800001
-0.0065828576 0.044617146 0.76800001
-0.0051200003 0.044617146 0.76800001
-0.0036571431 0.044617146 0.76800001
-0.0022000002 0.044733338 0.77000004
-0.00070095243 0.0427581 0.73600006
0.00069904764 0.042641908 0.73400003
0.0020971431 0.042641908 0.73400003
0.0034952383 0.042641908 0.73400003
0.0048800004 0.042525716 0.73200005
0.0062657148 0.04246762 0.73100001
0.0076580956 0.04246762 0.73100001
0.0089885723 0.042177144 0.72600001
0.010371429 0.042177144 0.72600001
0.011754286 0.042177144 0.72600001
0.013137144 0.042177144 0.72600001
0.014520001 0.042177144 0.72600001
0.015946668 0.042293336 0.72800004
0.017333334 0.042293336 0.72800004
0.018745715 0.042351432 0.72900003
0.020189526 0.04246762 0.73100001
0.02161143 0.042525716 0.73200005
0.02313143 0.0427581 0.73600006
0.024566669 0.042816192 0.73700005
0.025970478 0.042816192 0.73700005
0.027374288 0.042816192 0.73700005
0.02873905 0.0427581 0.73600006
0.030140955 0.0427581 0.73600006
0.031457145 0.042641908 0.73400003
0.032765716 0.042525716 0.73200005
0.034113336 0.04246762 0.73100001
0.035505716 0.04246762 0.73100001
0.036797144 0.042351432 0.72900003
0.038185716 0.042351432 0.72900003
0.039411429 0.042177144 0.72600001
0.040794287 0.042177144 0.72600001
0.042119049 0.042119049 0.72500002
0.043500002 0.042119049 0.72500002
0.044880956 0.042119049 0.72500002
0.046261907 0.042119049 0.72500002
0.047511432 0.04200286 0.72300005
0.048888575 0.04200286 0.72300005
0.047901906 0.040027622 0.68900001
0.049214289 0.040027622 0.68900001
0.050526671 0.040027622 0.68900001
0.05183905 0.040027622 0.68900001
0.053151432 0.040027622 0.68900001
0.05422667 0.039853334 0.68600005
0.055533338 0.039853334 0.68600005
0.056840003 0.039853334 0.68600005
0.055264767 0.037878096 0.65200001
0.060582861 0.039737146 0.68400002
0.061885718 0.039737146 0.68400002
0.063373335 0.039853334 0.68600005
0.064680003 0.039853334 0.68600005
0.065986671 0.039853334 0.68600005
0.067293338 0.039853334 0.68600005
0.068600006 0.039853334 0.68600005
0.069906674 0.039853334 0.68600005
0.071317151 0.03991143 0.68700004
0.072837144 0.040027622 0.68900001
0.074149527 0.040027622 0.68900001
0.075680956 0.040143814 0.69100004
0.077331431 0.040318098 0.69400001
0.078766674 0.040376194 0.69500005
0.080320954 0.040492382 0.69700003
0.081765719 0.040550478 0.69800001
0.083095245 0.040550478 0.69800001
0.084666669 0.04066667 0.70000005
0.086000003 0.04066667 0.70000005
0.087458104 0.040724766 0.70100003
0.089046672 0.040840954 0.70300001
0.090514295 0.040899049 0.70400006
0.091855243 0.040899049 0.70400006
0.09332858 0.040957145 0.70500004
0.094940007 0.041073337 0.70700002
0.096286669 0.041073337 0.70700002
0.097633339 0.041073337 0.70700002
-0.08550667 0.044520002 0.74200004
-0.084206671 0.044580001 0.74300003
-0.082791433 0.044580001 0.74300003
-0.081376195 0.044580001 0.74300003
-0.079960957 0.044580001 0.74300003
-0.078545719 0.044580001 0.74300003
-0.077338099 0.044700004 0.74500006
-0.075919054 0.044700004 0.74500006
-0.074700005 0.044820003 0.74700004
-0.073277146 0.044820003 0.74700004
-0.072142862 0.045000002 0.75000006
-0.070714287 0.045000002 0.75000006
-0.026816193 0.045660004 0.76100004
-0.025366668 0.045660004 0.76100004
-0.023917144 0.045660004 0.76100004
-0.022467621 0.045660004 0.76100004
-0.021018097 0.045660004 0.76100004
-0.019620001 0.045780003 0.76300001
-0.018214287 0.045900002 0.76500005
-0.016800953 0.046020001 0.76700002
-0.015340001 0.046020001 0.76700002
-0.013897143 0.046080004 0.76800001
-0.012434287 0.046080004 0.76800001
-0.010971429 0.046080004 0.76800001
-0.0095333336 0.046200003 0.77000004
-0.0080457143 0.046080004 0.76800001
-0.0065828576 0.046080004 0.76800001
-0.0051200003 0.046080004 0.76800001
-0.0036666668 0.046200003 0.77000004
-0.0022000002 0.046200003 0.77000004
-0.00070095243 0.044160005 0.73600006
0.00070095243 0.044160005 0.73600006
0.0021028572 0.044160005 0.73600006
0.0034952383 0.044040002 0.73400003
0.0048933337 0.044040002 0.73400003
0.0062742862 0.043920003 0.73200005
0.0076580956 0.043860003 0.73100001
0.0090257153 0.043740004 0.72900003
0.010400001 0.043680001 0.72800004
0.011786668 0.043680001 0.72800004
0.013173334 0.043680001 0.72800004
0.014560001 0.043680001 0.72800004
0.015968572 0.043740004 0.72900003
0.017357145 0.043740004 0.72900003
0.018797144 0.043860003 0.73100001
0.020217145 0.043920003 0.73200005
0.02161143 0.043920003 0.73200005
0.023162859 0.044220004 0.73700005
0.024566669 0.044220004 0.73700005
0.025970478 0.044220004 0.73700005
0.027374288 0.044220004 0.73700005
0.028778097 0.044220004 0.73700005
0.030140955 0.044160005 0.73600006
0.031457145 0.044040002 0.73400003
0.032765716 0.043920003 0.73200005
0.034113336 0.043860003 0.73100001
0.035505716 0.043860003 0.73100001
0.036797144 0.043740004 0.72900003
0.038185716 0.043740004 0.72900003
0.039411429 0.043560002 0.72600001
0.040794287 0.043560002 0.72600001
0.042119049 0.043500002 0.72500002
0.043500002 0.043500002 0.72500002
0.044880956 0.043500002 0.72500002
0.046261907 0.043500002 0.72500002
0.047642861 0.043500002 0.72500002
0.049023814 0.043500002 0.72500002
0.047971431 0.041400004 0.69000006
0.049285717 0.041400004 0.69000006
0.050526671 0.041340001 0.68900001
0.04875429 0.038880002 0.648
0.049988575 0.038880002 0.648
0.051222861 0.038880002 0.648
0.052619051 0.039000001 0.65000004
0.053857148 0.039000001 0.65000004
0.05509524 0.039000001 0.65000004
0.056420002 0.039060004 0.65100002
0.061885718 0.041040003 0.68400002
0.063373335 0.041160002 0.68600005
0.064680003 0.041160002 0.68600005
0.065986671 0.041160002 0.68600005
0.067391433 0.041220002 0.68700004
0.068700008 0.041220002 0.68700004
0.070008576 0.041220002 0.68700004
0.071524769 0.041340001 0.68900001
0.072837144 0.041340001 0.68900001
0.074149527 0.041340001 0.68900001
0.075571433 0.041400004 0.69000006
0.077220008 0.041580003 0.69300002
0.078766674 0.041700002 0.69500005
0.080090478 0.041700002 0.69500005
0.081765719 0.041880004 0.69800001
0.083095245 0.041880004 0.69800001
0.084666669 0.042000003 0.70000005
0.086000003 0.042000003 0.70000005
0.087458104 0.042060003 0.70100003
0.089046672 0.042180002 0.70300001
0.090514295 0.042240001 0.70400006
0.091985717 0.042300005 0.70500004
0.093593337 0.042420004 0.70700002
0.094940007 0.042420004 0.70700002
0.096286669 0.042420004 0.70700002
0.097633339 0.042420004 0.70700002
-0.089504771 0.045809526 0.74000001
-0.08809524 0.045809526 0.74000001
-0.086920008 0.045933336 0.74200004
-0.08550667 0.045933336 0.74200004
-0.084206671 0.045995243 0.74300003
-0.082791433 0.045995243 0.74300003
-0.081376195 0.045995243 0.74300003
-0.079960957 0.045995243 0.74300003
-0.078545719 0.045995243 0.74300003
-0.077338099 0.046119049 0.74500006
-0.075919054 0.046119049 0.74500006
-0.074700005 0.046242859 0.74700004
-0.073080957 0.046119049 0.74500006
-0.028265717 0.047109526 0.76100004
-0.026816193 0.047109526 0.76100004
-0.025366668 0.047109526 0.76100004
-0.023917144 0.047109526 0.76100004
-0.022467621 0.047109526 0.76100004
-0.021018097 0.047109526 0.76100004
-0.019568572 0.047109526 0.76100004
-0.018166669 0.047233336 0.76300001
-0.016757144 0.047357146 0.76500005
-0.015360001 0.047542859 0.76800001
-0.013933334 0.047666669 0.77000004
-0.012466667 0.047666669 0.77000004
-0.011000001 0.047666669 0.77000004
-0.0095333336 0.047666669 0.77000004
-0.0080666672 0.047666669 0.77000004
-0.0066000004 0.047666669 0.77000004
-0.0051333336 0.047666669 0.77000004
-0.0036666668 0.047666669 0.77000004
-0.0022000002 0.047666669 0.77000004
-0.00073523814 0.047790479 0.77200001
0.00070095243 0.045561906 0.73600006
0.0021028572 0.045561906 0.73600006
0.0035047622 0.045561906 0.73600006
0.0049066669 0.045561906 0.73600006
0.006291429 0.0454381 0.73400003
0.0076895244 0.0454381 0.73400003
0.0090628574 0.04531429 0.73200005
0.010442858 0.045252383 0.73100001
0.011802858 0.045128573 0.72900003
0.01319143 0.045128573 0.72900003
0.014580001 0.045128573 0.72900003
0.016012382 0.045252383 0.73100001
0.017404763 0.045252383 0.73100001
0.018822858 0.04531429 0.73200005
0.020217145 0.04531429 0.73200005
0.021670477 0.0454381 0.73400003
0.023225715 0.045747623 0.73900002
0.024633335 0.045747623 0.73900002
0.026040955 0.045747623 0.73900002
0.027448574 0.045747623 0.73900002
0.028778097 0.045623813 0.73700005
0.030140955 0.045561906 0.73600006
0.031457145 0.0454381 0.73400003
0.032765716 0.04531429 0.73200005
0.034113336 0.045252383 0.73100001
0.035505716 0.045252383 0.73100001
0.036797144 0.045128573 0.72900003
0.038028575 0.04494286 0.72600001
0.039411429 0.04494286 0.72600001
0.040738098 0.044880956 0.72500002
0.042119049 0.044880956 0.72500002
0.043500002 0.044880956 0.72500002
0.044757146 0.044757146 0.72300005
0.046134289 0.044757146 0.72300005
0.047511432 0.044757146 0.72300005
0.044842862 0.039928574 0.64500004
0.04621429 0.040052384 0.64700001
0.047446668 0.040052384 0.64700001
0.04867905 0.040052384 0.64700001
0.049911432 0.040052384 0.64700001
0.051222861 0.040114287 0.648
