# .PCD v0.7 - Point Cloud Data file format
VERSION 0.7
FIELDS x y z
SIZE 4 4 4
TYPE F F F
COUNT 1 1 1
WIDTH 1309
HEIGHT 1
VIEWPOINT 0 0 0 1 0 0 0
POINTS 1309
DATA ascii
-0.074358098 -0.028948573 0.59600002
-0.073100008 -0.028900001 0.59500003
-0.07196667 -0.028900001 0.59500003
-0.070714287 -0.028851431 0.59400004
-0.069582865 -0.028851431 0.59400004
-0.068451434 -0.028851431 0.59400004
-0.067206673 -0.028802859 0.59300005
-0.066188574 -0.028851431 0.59400004
-0.065057144 -0.028851431 0.59400004
-0.064033337 -0.028900001 0.59500003
-0.062900007 -0.028900001 0.59500003
-0.061766669 -0.028900001 0.59500003
-0.060735241 -0.028948573 0.59600002
-0.059600003 -0.028948573 0.59600002
-0.058464766 -0.028948573 0.59600002
-0.057329528 -0.028948573 0.59600002
-0.038948573 -0.027977144 0.57600003
-0.03785143 -0.027977144 0.57600003
-0.036754288 -0.027977144 0.57600003
-0.035657145 -0.027977144 0.57600003
-0.034560002 -0.027977144 0.57600003
-0.03346286 -0.027977144 0.57600003
-0.032421906 -0.028025717 0.57700002
-0.031322859 -0.028025717 0.57700002
-0.030538097 -0.028317144 0.583
-0.029427622 -0.028317144 0.583
-0.028317144 -0.028317144 0.583
-0.027160002 -0.028268574 0.58200002
-0.026006669 -0.028220002 0.58100003
-0.024942858 -0.028268574 0.58200002
-0.023834288 -0.028268574 0.58200002
-0.022686668 -0.028220002 0.58100003
-0.021617144 -0.028268574 0.58200002
-0.020508572 -0.028268574 0.58200002
-0.019400001 -0.028268574 0.58200002
-0.018322859 -0.028317144 0.583
-0.017212382 -0.028317144 0.583
-0.016101906 -0.028317144 0.583
-0.01499143 -0.028317144 0.583
-0.013904762 -0.028365716 0.58400005
-0.012814286 -0.028414287 0.58500004
-0.011740001 -0.028511431 0.58700001
-0.010621905 -0.028511431 0.58700001
-0.0095038097 -0.028511431 0.58700001
-0.0084142862 -0.028608574 0.58900005
-0.0073047625 -0.028657144 0.59000003
-0.0061809528 -0.028657144 0.59000003
-0.0050657145 -0.028705716 0.59100002
-0.0039400002 -0.028705716 0.59100002
-0.0028238096 -0.028802859 0.59300005
-0.0017000001 -0.028900001 0.59500003
-0.00056666671 -0.028900001 0.59500003
0.00056666671 -0.028900001 0.59500003
0.0017028572 -0.028948573 0.59600002
0.0028380954 -0.028948573 0.59600002
0.00398 -0.028997146 0.597
0.005117143 -0.028997146 0.597
-0.075493336 -0.027813336 0.59600002
-0.074358098 -0.027813336 0.59600002
-0.073100008 -0.027766669 0.59500003
-0.071845718 -0.027720002 0.59400004
-0.070714287 -0.027720002 0.59400004
-0.069582865 -0.027720002 0.59400004
-0.068451434 -0.027720002 0.59400004
-0.067206673 -0.027673336 0.59300005
-0.06607715 -0.027673336 0.59300005
-0.065057144 -0.027720002 0.59400004
-0.038948573 -0.026880002 0.57600003
-0.03785143 -0.026880002 0.57600003
-0.036690477 -0.026833335 0.57500005
-0.035657145 -0.026880002 0.57600003
-0.034560002 -0.026880002 0.57600003
-0.03346286 -0.026880002 0.57600003
-0.032365717 -0.026880002 0.57600003
-0.031322859 -0.026926668 0.57700002
-0.030433334 -0.027113335 0.58100003
-0.029377146 -0.027160002 0.58200002
-0.028268574 -0.027160002 0.58200002
-0.027160002 -0.027160002 0.58200002
-0.026006669 -0.027113335 0.58100003
-0.024942858 -0.027160002 0.58200002
-0.023834288 -0.027160002 0.58200002
-0.022686668 -0.027113335 0.58100003
-0.021617144 -0.027160002 0.58200002
-0.020438097 -0.027066668 0.58000004
-0.019366669 -0.027113335 0.58100003
-0.018291431 -0.027160002 0.58200002
-0.017182859 -0.027160002 0.58200002
-0.016074287 -0.027160002 0.58200002
-0.01499143 -0.027206669 0.583
-0.011720001 -0.027346669 0.58600003
-0.010603811 -0.027346669 0.58600003
-0.0095038097 -0.027393335 0.58700001
-0.0083857151 -0.027393335 0.58700001
-0.0072800005 -0.027440002 0.588
-0.0061600003 -0.027440002 0.588
-0.003009524 -0.029493336 0.63200003
-0.0017000001 -0.027766669 0.59500003
-0.00056761911 -0.027813336 0.59600002
0.00056666671 -0.027766669 0.59500003
0.0029952384 -0.029353335 0.62900001
0.00398 -0.027860003 0.597
0.005117143 -0.027860003 0.597
-0.077894293 -0.02672286 0.597
-0.076628573 -0.026678097 0.59600002
-0.075493336 -0.026678097 0.59600002
-0.074233338 -0.026633335 0.59500003
-0.073100008 -0.026633335 0.59500003
-0.071845718 -0.026588574 0.59400004
-0.070714287 -0.026588574 0.59400004
-0.069465719 -0.026543811 0.59300005
-0.068336196 -0.026543811 0.59300005
-0.067093335 -0.02649905 0.59200001
-0.06596572 -0.02649905 0.59200001
-0.039016195 -0.02582762 0.57700002
-0.03785143 -0.025782859 0.57600003
-0.036754288 -0.025782859 0.57600003
-0.035719048 -0.02582762 0.57700002
-0.034560002 -0.025782859 0.57600003
-0.03346286 -0.025782859 0.57600003
-0.032421906 -0.02582762 0.57700002
-0.031268574 -0.025782859 0.57600003
-0.03017143 -0.025782859 0.57600003
-0.029175241 -0.025872383 0.57800001
-0.028220002 -0.026006669 0.58100003
-0.027113335 -0.026006669 0.58100003
-0.026006669 -0.026006669 0.58100003
-0.024900002 -0.026006669 0.58100003
-0.023793334 -0.026006669 0.58100003
-0.022686668 -0.026006669 0.58100003
-0.021580001 -0.026006669 0.58100003
-0.020438097 -0.025961906 0.58000004
-0.019333335 -0.025961906 0.58000004
-0.018228572 -0.025961906 0.58000004
-0.017153334 -0.026006669 0.58100003
-0.010603811 -0.026230479 0.58600003
-0.0095038097 -0.02627524 0.58700001
-0.0083857151 -0.02627524 0.58700001
-0.0072676195 -0.02627524 0.58700001
-0.0061495244 -0.02627524 0.58700001
-0.0030142858 -0.028334288 0.63300002
-0.0018085715 -0.028334288 0.63300002
-0.00060285721 -0.028334288 0.63300002
0.00060190482 -0.028289525 0.63200003
0.0018028573 -0.028244764 0.63100004
0.0029952384 -0.028155239 0.62900001
0.0041933334 -0.028155239 0.62900001
0.0053828573 -0.028110478 0.62800002
0.006568572 -0.028065717 0.62700003
-0.078899056 -0.025542859 0.59600002
-0.077763818 -0.025542859 0.59600002
-0.076500006 -0.025500001 0.59500003
-0.075366668 -0.025500001 0.59500003
-0.074233338 -0.025500001 0.59500003
-0.072977148 -0.025457144 0.59400004
-0.071845718 -0.025457144 0.59400004
-0.070595242 -0.025414288 0.59300005
-0.069465719 -0.025414288 0.59300005
-0.068220958 -0.02537143 0.59200001
-0.067093335 -0.02537143 0.59200001
-0.073733337 -0.042000003 0.98000002
-0.071866669 -0.042000003 0.98000002
-0.040045716 -0.024685716 0.57600003
-0.039016195 -0.024728574 0.57700002
-0.03785143 -0.024685716 0.57600003
-0.036690477 -0.024642859 0.57500005
-0.035657145 -0.024685716 0.57600003
-0.034560002 -0.024685716 0.57600003
-0.033520956 -0.024728574 0.57700002
-0.032365717 -0.024685716 0.57600003
-0.031268574 -0.024685716 0.57600003
-0.03017143 -0.024685716 0.57600003
-0.029124765 -0.024728574 0.57700002
-0.028171431 -0.024857145 0.58000004
-0.027066668 -0.024857145 0.58000004
-0.025961906 -0.024857145 0.58000004
-0.024857145 -0.024857145 0.58000004
-0.023793334 -0.024900002 0.58100003
-0.022686668 -0.024900002 0.58100003
-0.021580001 -0.024900002 0.58100003
-0.020402858 -0.024814287 0.57900006
-0.019300001 -0.024814287 0.57900006
-0.018228572 -0.024857145 0.58000004
-0.0030142858 -0.027128574 0.63300002
-0.0018085715 -0.027128574 0.63300002
-0.00060285721 -0.027128574 0.63300002
0.00060285721 -0.027128574 0.63300002
0.0018057144 -0.027085716 0.63200003
0.003009524 -0.027085716 0.63200003
0.0042066667 -0.027042858 0.63100004
0.0053914287 -0.026957145 0.62900001
0.006579048 -0.026914287 0.62800002
0.0077628577 -0.02687143 0.62700003
0.087671436 -0.041528575 0.96900004
-0.081169531 -0.024407621 0.59600002
-0.079900004 -0.024366667 0.59500003
-0.078766674 -0.024366667 0.59500003
-0.077633336 -0.024366667 0.59500003
-0.076371431 -0.024325715 0.59400004
-0.075240009 -0.024325715 0.59400004
-0.074108578 -0.024325715 0.59400004
-0.072854288 -0.024284763 0.59300005
-0.071724765 -0.024284763 0.59300005
-0.070595242 -0.024284763 0.59300005
-0.069348574 -0.024243811 0.59200001
-0.068220958 -0.024243811 0.59200001
-0.066980004 -0.024202859 0.59100002
-0.041142859 -0.023588574 0.57600003
-0.040045716 -0.023588574 0.57600003
-0.038948573 -0.023588574 0.57600003
-0.03785143 -0.023588574 0.57600003
-0.036690477 -0.023547621 0.57500005
-0.035657145 -0.023588574 0.57600003
-0.034560002 -0.023588574 0.57600003
-0.033520956 -0.023629526 0.57700002
-0.032365717 -0.023588574 0.57600003
-0.031268574 -0.023588574 0.57600003
-0.03017143 -0.023588574 0.57600003
-0.029124765 -0.023629526 0.57700002
-0.028171431 -0.023752382 0.58000004
-0.027066668 -0.023752382 0.58000004
-0.025961906 -0.023752382 0.58000004
-0.024857145 -0.023752382 0.58000004
-0.023752382 -0.023752382 0.58000004
-0.022647621 -0.023752382 0.58000004
-0.021542858 -0.023752382 0.58000004
-0.020402858 -0.02371143 0.57900006
-0.019300001 -0.02371143 0.57900006
-0.0042200005 -0.025922859 0.63300002
-0.0030142858 -0.025922859 0.63300002
-0.0018085715 -0.025922859 0.63300002
-0.00060285721 -0.025922859 0.63300002
0.00060285721 -0.025922859 0.63300002
0.0018085715 -0.025922859 0.63300002
0.003009524 -0.025881907 0.63200003
0.0042133336 -0.025881907 0.63200003
0.0054085716 -0.025840955 0.63100004
0.006579048 -0.025718097 0.62800002
0.0077752387 -0.025718097 0.62800002
0.082134292 -0.039682861 0.96900004
0.083980009 -0.039682861 0.96900004
0.085825719 -0.039682861 0.96900004
-0.082166672 -0.023233335 0.59500003
-0.081033342 -0.023233335 0.59500003
-0.079900004 -0.023233335 0.59500003
-0.078634292 -0.023194287 0.59400004
-0.077502862 -0.023194287 0.59400004
-0.076371431 -0.023194287 0.59400004
-0.075113341 -0.02315524 0.59300005
-0.073983811 -0.02315524 0.59300005
-0.072854288 -0.02315524 0.59300005
-0.071724765 -0.02315524 0.59300005
-0.070595242 -0.02315524 0.59300005
-0.069348574 -0.023116192 0.59200001
-0.068220958 -0.023116192 0.59200001
-0.043186668 -0.022413334 0.574
-0.042093337 -0.022413334 0.574
-0.04107143 -0.022452382 0.57500005
-0.039976195 -0.022452382 0.57500005
-0.038880955 -0.022452382 0.57500005
-0.037720002 -0.022413334 0.574
-0.036690477 -0.022452382 0.57500005
-0.035657145 -0.022491431 0.57600003
-0.034560002 -0.022491431 0.57600003
-0.03346286 -0.022491431 0.57600003
-0.032365717 -0.022491431 0.57600003
-0.031268574 -0.022491431 0.57600003
-0.03017143 -0.022491431 0.57600003
-0.029074287 -0.022491431 0.57600003
-0.027977144 -0.022491431 0.57600003
-0.027066668 -0.022647621 0.58000004
-0.025961906 -0.022647621 0.58000004
-0.024857145 -0.022647621 0.58000004
-0.023752382 -0.022647621 0.58000004
-0.022647621 -0.022647621 0.58000004
-0.021542858 -0.022647621 0.58000004
-0.020402858 -0.022608573 0.57900006
-0.0042266669 -0.024756191 0.634
-0.0030142858 -0.024717145 0.63300002
-0.0018114287 -0.024756191 0.634
-0.00060380955 -0.024756191 0.634
0.00060285721 -0.024717145 0.63300002
0.0018085715 -0.024717145 0.63300002
0.003009524 -0.024678096 0.63200003
0.0042133336 -0.024678096 0.63200003
0.0054085716 -0.02463905 0.63100004
0.0065895244 -0.024560954 0.62900001
0.0077752387 -0.024521906 0.62800002
0.0089714294 -0.024521906 0.62800002
0.079791434 -0.03760286 0.96300006
0.087400004 -0.037720002 0.96600002
0.10547143 -0.03760286 0.96300006
0.12891048 -0.03857905 0.98800004
-0.082028575 -0.022062859 0.59400004
-0.080897145 -0.022062859 0.59400004
-0.079631433 -0.022025716 0.59300005
-0.07850191 -0.022025716 0.59300005
-0.077372387 -0.022025716 0.59300005
-0.076242864 -0.022025716 0.59300005
-0.075113341 -0.022025716 0.59300005
-0.073859051 -0.021988573 0.59200001
-0.072731435 -0.021988573 0.59200001
-0.071603812 -0.021988573 0.59200001
-0.070476197 -0.021988573 0.59200001
-0.069348574 -0.021988573 0.59200001
-0.068220958 -0.021988573 0.59200001
-0.047642861 -0.021357145 0.57500005
-0.046547621 -0.021357145 0.57500005
-0.045373335 -0.021320002 0.574
-0.044280004 -0.021320002 0.574
-0.043186668 -0.021320002 0.574
-0.042093337 -0.021320002 0.574
-0.041000001 -0.021320002 0.574
-0.039906669 -0.021320002 0.574
-0.038813338 -0.021320002 0.574
-0.037720002 -0.021320002 0.574
-0.036626671 -0.021320002 0.574
-0.035533335 -0.021320002 0.574
-0.034500003 -0.021357145 0.57500005
-0.033404764 -0.021357145 0.57500005
-0.032309525 -0.021357145 0.57500005
-0.031214288 -0.021357145 0.57500005
-0.030066669 -0.021320002 0.574
-0.0042266669 -0.023548573 0.634
-0.0030142858 -0.02351143 0.63300002
-0.0018114287 -0.023548573 0.634
-0.00060380955 -0.023548573 0.634
0.00060285721 -0.02351143 0.63300002
0.0018085715 -0.02351143 0.63300002
0.003009524 -0.023474287 0.63200003
0.0042133336 -0.023474287 0.63200003
0.005417143 -0.023474287 0.63200003
0.0066104764 -0.023437144 0.63100004
0.0077876197 -0.023362858 0.62900001
0.008985715 -0.023362858 0.62900001
0.077957146 -0.035768572 0.96300006
0.079791434 -0.035768572 0.96300006
-0.081890479 -0.020896193 0.59300005
-0.080760956 -0.020896193 0.59300005
-0.079497151 -0.020860953 0.59200001
-0.07850191 -0.020896193 0.59300005
-0.077241912 -0.020860953 0.59200001
-0.076114289 -0.020860953 0.59200001
-0.074986674 -0.020860953 0.59200001
-0.073859051 -0.020860953 0.59200001
-0.072731435 -0.020860953 0.59200001
-0.071603812 -0.020860953 0.59200001
-0.070476197 -0.020860953 0.59200001
-0.069348574 -0.020860953 0.59200001
-0.047642861 -0.020261906 0.57500005
-0.046466671 -0.020226669 0.574
-0.045373335 -0.020226669 0.574
-0.04420286 -0.020191429 0.57300001
-0.043186668 -0.020226669 0.574
-0.042020004 -0.020191429 0.57300001
-0.040928572 -0.020191429 0.57300001
-0.039837144 -0.020191429 0.57300001
-0.038745716 -0.020191429 0.57300001
-0.037654288 -0.020191429 0.57300001
-0.03656286 -0.020191429 0.57300001
-0.035471432 -0.020191429 0.57300001
-0.034440003 -0.020226669 0.574
-0.033346668 -0.020226669 0.574
-0.032253336 -0.020226669 0.574
-0.031160003 -0.020226669 0.574
-0.0042266669 -0.022340953 0.634
-0.0030142858 -0.022305716 0.63300002
-0.0018085715 -0.022305716 0.63300002
-0.00060285721 -0.022305716 0.63300002
0.00060285721 -0.022305716 0.63300002
0.0018085715 -0.022305716 0.63300002
0.003009524 -0.022270478 0.63200003
0.0042066667 -0.022235239 0.63100004
0.0054085716 -0.022235239 0.63100004
0.0065895244 -0.022164764 0.62900001
0.0077752387 -0.022129524 0.62800002
0.0089714294 -0.022129524 0.62800002
0.072078101 -0.033758096 0.95800006
0.075727627 -0.033758096 0.95800006
0.077309527 -0.033652384 0.95500004
0.079128578 -0.033652384 0.95500004
0.10823334 -0.033652384 0.95500004
0.1103981 -0.033758096 0.95800006
-0.082880005 -0.019733334 0.59200001
-0.08175239 -0.019733334 0.59200001
-0.080624767 -0.019733334 0.59200001
-0.079497151 -0.019733334 0.59200001
-0.078369528 -0.019733334 0.59200001
-0.077241912 -0.019733334 0.59200001
-0.076114289 -0.019733334 0.59200001
-0.074986674 -0.019733334 0.59200001
-0.073734291 -0.019700002 0.59100002
-0.072731435 -0.019733334 0.59200001
-0.071603812 -0.019733334 0.59200001
-0.070476197 -0.019733334 0.59200001
-0.098134294 -0.032100003 0.96300006
-0.096300006 -0.032100003 0.96300006
-0.092631437 -0.032100003 0.96300006
-0.090797149 -0.032100003 0.96300006
-0.0487381 -0.019166667 0.57500005
-0.047642861 -0.019166667 0.57500005
-0.046466671 -0.019133335 0.574
-0.045373335 -0.019133335 0.574
-0.044280004 -0.019133335 0.574
-0.043186668 -0.019133335 0.574
-0.042020004 -0.019100001 0.57300001
-0.040928572 -0.019100001 0.57300001
-0.039767623 -0.019066667 0.57200003
-0.038678098 -0.019066667 0.57200003
-0.037588574 -0.019066667 0.57200003
-0.03649905 -0.019066667 0.57200003
-0.035409525 -0.019066667 0.57200003
-0.0042266669 -0.021133335 0.634
-0.0030142858 -0.021100001 0.63300002
-0.0018114287 -0.021133335 0.634
-0.00060380955 -0.021133335 0.634
0.00060285721 -0.021100001 0.63300002
0.0018085715 -0.021100001 0.63300002
0.0030142858 -0.021100001 0.63300002
0.0042133336 -0.021066668 0.63200003
0.005417143 -0.021066668 0.63200003
0.0066104764 -0.021033335 0.63100004
0.0077876197 -0.020966668 0.62900001
0.008985715 -0.020966668 0.62900001
0.01016762 -0.020933334 0.62800002
0.068071432 -0.031766668 0.95300007
0.06988667 -0.031766668 0.95300007
0.071701907 -0.031766668 0.95300007
0.07367143 -0.031833336 0.95500004
0.075490482 -0.031833336 0.95500004
0.077147625 -0.031766668 0.95300007
0.078962862 -0.031766668 0.95300007
0.082766674 -0.031833336 0.95500004
0.1064143 -0.031833336 0.95500004
0.10800667 -0.031766668 0.95300007
-0.085135244 -0.018605715 0.59200001
-0.084007628 -0.018605715 0.59200001
-0.082880005 -0.018605715 0.59200001
-0.081614293 -0.018574286 0.59100002
-0.080488577 -0.018574286 0.59100002
-0.079362862 -0.018574286 0.59100002
-0.078237146 -0.018574286 0.59100002
-0.077241912 -0.018605715 0.59200001
-0.075985722 -0.018574286 0.59100002
-0.074860007 -0.018574286 0.59100002
-0.073734291 -0.018574286 0.59100002
-0.072608575 -0.018574286 0.59100002
-0.07148286 -0.018574286 0.59100002
-0.049313337 -0.017882857 0.56900001
-0.048314288 -0.017914288 0.57000005
-0.047228575 -0.017914288 0.57000005
-0.046304766 -0.017977145 0.57200003
-0.045215242 -0.017977145 0.57200003
-0.04420286 -0.018008573 0.57300001
-0.043111432 -0.018008573 0.57300001
-0.042020004 -0.018008573 0.57300001
-0.040857144 -0.017977145 0.57200003
-0.039767623 -0.017977145 0.57200003
-0.038678098 -0.017977145 0.57200003
-0.037588574 -0.017977145 0.57200003
-0.03649905 -0.017977145 0.57200003
-0.0042266669 -0.019925715 0.634
-0.0030142858 -0.019894287 0.63300002
-0.0018114287 -0.019925715 0.634
-0.00060380955 -0.019925715 0.634
0.00060380955 -0.019925715 0.634
0.0018085715 -0.019894287 0.63300002
0.0030142858 -0.019894287 0.63300002
0.0042133336 -0.019862859 0.63200003
0.005417143 -0.019862859 0.63200003
0.0066209529 -0.019862859 0.63200003
0.0078123813 -0.01983143 0.63100004
0.0090142861 -0.01983143 0.63100004
0.01018381 -0.019768573 0.62900001
-0.088518098 -0.017478097 0.59200001
-0.087390482 -0.017478097 0.59200001
-0.086262859 -0.017478097 0.59200001
-0.085135244 -0.017478097 0.59200001
-0.084007628 -0.017478097 0.59200001
-0.082880005 -0.017478097 0.59200001
-0.08175239 -0.017478097 0.59200001
-0.080624767 -0.017478097 0.59200001
-0.079362862 -0.017448572 0.59100002
-0.078237146 -0.017448572 0.59100002
-0.07711143 -0.017448572 0.59100002
-0.075728573 -0.017389525 0.58900005
-0.074480005 -0.017360002 0.588
-0.073360004 -0.017360002 0.588
-0.072485723 -0.01741905 0.59000003
-0.052564766 -0.016799049 0.56900001
-0.05139048 -0.016769525 0.56800002
-0.050397146 -0.016799049 0.56900001
-0.049313337 -0.016799049 0.56900001
-0.048314288 -0.016828572 0.57000005
-0.047228575 -0.016828572 0.57000005
-0.046223812 -0.016858097 0.57100004
-0.045057144 -0.016828572 0.57000005
-0.043971431 -0.016828572 0.57000005
-0.042960957 -0.016858097 0.57100004
-0.041946668 -0.01688762 0.57200003
-0.040785719 -0.016858097 0.57100004
-0.039698098 -0.016858097 0.57100004
-0.038610477 -0.016858097 0.57100004
-0.03752286 -0.016858097 0.57100004
-0.0042333337 -0.01874762 0.63500005
-0.0030190479 -0.018718097 0.634
-0.0018114287 -0.018718097 0.634
-0.00060380955 -0.018718097 0.634
0.00060380955 -0.018718097 0.634
0.0018114287 -0.018718097 0.634
0.0030142858 -0.018688573 0.63300002
0.0042200005 -0.018688573 0.63300002
0.0054257144 -0.018688573 0.63300002
0.0066209529 -0.01865905 0.63200003
0.0078123813 -0.018629525 0.63100004
0.0090285717 -0.01865905 0.63200003
0.019574286 -0.019574286 0.66300005
0.020900002 -0.019633334 0.66500002
0.022200001 -0.019662859 0.66600001
-0.088518098 -0.016350478 0.59200001
-0.087242864 -0.016322859 0.59100002
-0.086262859 -0.016350478 0.59200001
-0.085135244 -0.016350478 0.59200001
-0.084007628 -0.016350478 0.59200001
-0.082880005 -0.016350478 0.59200001
-0.081614293 -0.016322859 0.59100002
-0.080488577 -0.016322859 0.59100002
-0.07922858 -0.016295239 0.59000003
-0.078104764 -0.016295239 0.59000003
-0.076980956 -0.016295239 0.59000003
-0.075857148 -0.016295239 0.59000003
-0.053648576 -0.01571524 0.56900001
-0.052564766 -0.01571524 0.56900001
-0.05139048 -0.01568762 0.56800002
-0.050308574 -0.01568762 0.56800002
-0.049313337 -0.01571524 0.56900001
-0.048229527 -0.01571524 0.56900001
-0.047145717 -0.01571524 0.56900001
-0.046061907 -0.01571524 0.56900001
-0.04489905 -0.01568762 0.56800002
-0.043894287 -0.01571524 0.56900001
-0.042885717 -0.015742859 0.57000005
-0.041873336 -0.015770476 0.57100004
-0.0042400002 -0.017565716 0.63600004
-0.0030190479 -0.017510477 0.634
-0.0018114287 -0.017510477 0.634
-0.00060380955 -0.017510477 0.634
0.00060380955 -0.017510477 0.634
0.0018114287 -0.017510477 0.634
0.0030190479 -0.017510477 0.634
0.0042200005 -0.017482858 0.63300002
0.0054342858 -0.017510477 0.634
0.0066314288 -0.017482858 0.63300002
0.0078371437 -0.017482858 0.63300002
0.0090285717 -0.017455239 0.63200003
0.018421905 -0.018421905 0.66700006
0.019692382 -0.018421905 0.66700006
0.020962859 -0.018421905 0.66700006
0.022233335 -0.018421905 0.66700006
0.023574287 -0.018477144 0.66900003
0.024774287 -0.018421905 0.66700006
0.026122859 -0.018477144 0.66900003
-0.089645721 -0.015222858 0.59200001
-0.08836858 -0.015197144 0.59100002
-0.087242864 -0.015197144 0.59100002
-0.086117148 -0.015197144 0.59100002
-0.084991433 -0.015197144 0.59100002
-0.083865717 -0.015197144 0.59100002
-0.082740009 -0.015197144 0.59100002
-0.081476197 -0.015171429 0.59000003
-0.080352388 -0.015171429 0.59000003
-0.07922858 -0.015171429 0.59000003
-0.078104764 -0.015171429 0.59000003
-0.076980956 -0.015171429 0.59000003
-0.056012385 -0.014682858 0.57100004
-0.054924764 -0.014682858 0.57100004
-0.05374286 -0.014657144 0.57000005
-0.052564766 -0.01463143 0.56900001
-0.051480956 -0.01463143 0.56900001
-0.050397146 -0.01463143 0.56900001
-0.049313337 -0.01463143 0.56900001
-0.048229527 -0.01463143 0.56900001
-0.047145717 -0.01463143 0.56900001
-0.046061907 -0.01463143 0.56900001
-0.044978097 -0.01463143 0.56900001
-0.043894287 -0.01463143 0.56900001
-0.0054514287 -0.016354287 0.63600004
-0.0042400002 -0.016354287 0.63600004
-0.0030238098 -0.016328573 0.63500005
-0.0018142859 -0.016328573 0.63500005
-0.00060380955 -0.016302858 0.634
0.00060380955 -0.016302858 0.634
0.0018114287 -0.016302858 0.634
0.0030190479 -0.016302858 0.634
0.0042266669 -0.016302858 0.634
0.0054342858 -0.016302858 0.634
0.0066419053 -0.016302858 0.634
0.0078371437 -0.016277144 0.63300002
0.0090428581 -0.016277144 0.63300002
0.017202858 -0.017202858 0.66900003
0.018421905 -0.01715143 0.66700006
0.019692382 -0.01715143 0.66700006
0.020962859 -0.01715143 0.66700006
0.022233335 -0.01715143 0.66700006
0.02350381 -0.01715143 0.66700006
0.024774287 -0.01715143 0.66700006
0.026044764 -0.01715143 0.66700006
-0.091745719 -0.014071429 0.59100002
-0.090620004 -0.014071429 0.59100002
-0.089494288 -0.014071429 0.59100002
-0.08836858 -0.014071429 0.59100002
-0.087095246 -0.01404762 0.59000003
-0.085971437 -0.01404762 0.59000003
-0.084991433 -0.014071429 0.59100002
-0.083723813 -0.01404762 0.59000003
-0.082600005 -0.01404762 0.59000003
-0.081476197 -0.01404762 0.59000003
-0.080216199 -0.014023811 0.58900005
-0.079094291 -0.014023811 0.58900005
-0.1085543 -0.022428572 0.94200003
-0.057100005 -0.013595239 0.57100004
-0.056012385 -0.013595239 0.57100004
-0.054924764 -0.013595239 0.57100004
-0.05374286 -0.013571429 0.57000005
-0.052564766 -0.01354762 0.56900001
-0.051480956 -0.01354762 0.56900001
-0.050397146 -0.01354762 0.56900001
-0.049313337 -0.01354762 0.56900001
-0.048229527 -0.01354762 0.56900001
-0.047145717 -0.01354762 0.56900001
-0.045980956 -0.013523811 0.56800002
-0.04489905 -0.013523811 0.56800002
-0.0054685716 -0.015190477 0.63800001
-0.0042533334 -0.015190477 0.63800001
-0.0030285716 -0.015142858 0.63600004
-0.0018142859 -0.015119049 0.63500005
-0.00060476194 -0.015119049 0.63500005
0.00060476194 -0.015119049 0.63500005
0.0018142859 -0.015119049 0.63500005
0.0030190479 -0.01509524 0.634
0.0042266669 -0.01509524 0.634
0.0054342858 -0.01509524 0.634
0.0066419053 -0.01509524 0.634
0.0078371437 -0.015071429 0.63300002
0.0090571437 -0.01509524 0.634
0.010264763 -0.01509524 0.634
0.017202858 -0.015928572 0.66900003
0.018421905 -0.015880954 0.66700006
0.019692382 -0.015880954 0.66700006
0.020962859 -0.015880954 0.66700006
0.022233335 -0.015880954 0.66700006
0.02350381 -0.015880954 0.66700006
0.024774287 -0.015880954 0.66700006
0.026005715 -0.015857143 0.66600001
0.02731524 -0.015880954 0.66700006
0.028585717 -0.015880954 0.66700006
-0.091745719 -0.012945715 0.59100002
-0.090620004 -0.012945715 0.59100002
-0.089494288 -0.012945715 0.59100002
-0.08836858 -0.012945715 0.59100002
-0.087095246 -0.012923811 0.59000003
-0.085971437 -0.012923811 0.59000003
-0.084991433 -0.012945715 0.59100002
-0.083723813 -0.012923811 0.59000003
-0.082600005 -0.012923811 0.59000003
-0.081476197 -0.012923811 0.59000003
-0.11393715 -0.020634288 0.94200003
-0.11214286 -0.020634288 0.94200003
-0.11034858 -0.020634288 0.94200003
-0.1085543 -0.020634288 0.94200003
-0.058187623 -0.01250762 0.57100004
-0.057100005 -0.01250762 0.57100004
-0.056012385 -0.01250762 0.57100004
-0.054828577 -0.012485716 0.57000005
-0.053648576 -0.01246381 0.56900001
-0.052564766 -0.01246381 0.56900001
-0.051480956 -0.01246381 0.56900001
-0.050397146 -0.01246381 0.56900001
-0.049313337 -0.01246381 0.56900001
-0.048229527 -0.01246381 0.56900001
-0.047145717 -0.01246381 0.56900001
-0.045980956 -0.012441905 0.56800002
-0.0054685716 -0.013975239 0.63800001
-0.0042533334 -0.013975239 0.63800001
-0.0030285716 -0.01393143 0.63600004
-0.0018171429 -0.01393143 0.63600004
-0.00060571433 -0.01393143 0.63600004
0.00060476194 -0.013909524 0.63500005
0.0018142859 -0.013909524 0.63500005
0.0030238098 -0.013909524 0.63500005
0.0042266669 -0.01388762 0.634
0.0054342858 -0.01388762 0.634
0.0066419053 -0.01388762 0.634
0.0078371437 -0.013865715 0.63300002
0.0090428581 -0.013865715 0.63300002
0.014654287 -0.014654287 0.66900003
0.015928572 -0.014654287 0.66900003
0.01715143 -0.014610477 0.66700006
0.018421905 -0.014610477 0.66700006
0.019692382 -0.014610477 0.66700006
0.020962859 -0.014610477 0.66700006
0.022233335 -0.014610477 0.66700006
0.02350381 -0.014610477 0.66700006
0.024737144 -0.014588572 0.66600001
0.026005715 -0.014588572 0.66600001
0.027233334 -0.014566667 0.66500002
0.028542859 -0.014588572 0.66600001
0.029811431 -0.014588572 0.66600001
-0.093028575 -0.011840001 0.59200001
-0.091745719 -0.011820001 0.59100002
-0.090620004 -0.011820001 0.59100002
-0.089494288 -0.011820001 0.59100002
-0.088219054 -0.0118 0.59000003
-0.087095246 -0.0118 0.59000003
-0.085971437 -0.0118 0.59000003
-0.084847622 -0.0118 0.59000003
-0.083723813 -0.0118 0.59000003
-0.082600005 -0.0118 0.59000003
-0.059275243 -0.01142 0.57100004
-0.058187623 -0.01142 0.57100004
-0.057100005 -0.01142 0.57100004
-0.056012385 -0.01142 0.57100004
-0.054828577 -0.011400001 0.57000005
-0.053648576 -0.011380001 0.56900001
-0.052472383 -0.011360001 0.56800002
-0.05139048 -0.011360001 0.56800002
-0.050308574 -0.011360001 0.56800002
-0.049226671 -0.011360001 0.56800002
-0.048144765 -0.011360001 0.56800002
-0.047062859 -0.011360001 0.56800002
-0.045980956 -0.011360001 0.56800002
-0.0066942861 -0.01278 0.63900006
-0.005477143 -0.01278 0.63900006
-0.0042533334 -0.012760001 0.63800001
-0.0030380955 -0.012760001 0.63800001
-0.0018228573 -0.012760001 0.63800001
-0.00060571433 -0.012720001 0.63600004
0.00060571433 -0.012720001 0.63600004
0.0018171429 -0.012720001 0.63600004
0.0030238098 -0.012700001 0.63500005
0.0042266669 -0.012680001 0.634
0.0054342858 -0.012680001 0.634
0.0066419053 -0.012680001 0.634
0.0078371437 -0.01266 0.63300002
0.0090428581 -0.01266 0.63300002
0.010248573 -0.01266 0.63300002
0.013320001 -0.013320001 0.66600001
0.014588572 -0.013320001 0.66600001
0.015880954 -0.013340001 0.66700006
0.017125715 -0.013320001 0.66600001
0.018394288 -0.013320001 0.66600001
0.019633334 -0.013300001 0.66500002
0.02093143 -0.013320001 0.66600001
0.022166668 -0.013300001 0.66500002
0.023468573 -0.013320001 0.66600001
0.024700001 -0.013300001 0.66500002
0.025966669 -0.013300001 0.66500002
0.027233334 -0.013300001 0.66500002
0.028500002 -0.013300001 0.66500002
0.029766669 -0.013300001 0.66500002
0.031033335 -0.013300001 0.66500002
-0.093028575 -0.010712381 0.59200001
-0.091745719 -0.010694287 0.59100002
-0.090466671 -0.010676191 0.59000003
-0.089342862 -0.010676191 0.59000003
-0.088219054 -0.010676191 0.59000003
-0.087095246 -0.010676191 0.59000003
-0.085825719 -0.010658096 0.58900005
-0.084703818 -0.010658096 0.58900005
-0.08358191 -0.010658096 0.58900005
-0.061558098 -0.010350477 0.57200003
-0.060468577 -0.010350477 0.57200003
-0.059275243 -0.010332381 0.57100004
-0.058187623 -0.010332381 0.57100004
-0.057000004 -0.010314287 0.57000005
-0.05591429 -0.010314287 0.57000005
-0.054732386 -0.010296191 0.56900001
-0.053554289 -0.010278095 0.56800002
-0.052472383 -0.010278095 0.56800002
-0.05139048 -0.010278095 0.56800002
-0.050308574 -0.010278095 0.56800002
-0.049226671 -0.010278095 0.56800002
-0.048144765 -0.010278095 0.56800002
-0.047062859 -0.010278095 0.56800002
-0.045980956 -0.010278095 0.56800002
-0.0079238098 -0.011580953 0.64000005
-0.0066942861 -0.011562858 0.63900006
-0.005477143 -0.011562858 0.63900006
-0.0042533334 -0.011544763 0.63800001
-0.0030380955 -0.011544763 0.63800001
-0.0018228573 -0.011544763 0.63800001
-0.00060571433 -0.011508572 0.63600004
0.00060571433 -0.011508572 0.63600004
0.0018142859 -0.011490477 0.63500005
0.0030238098 -0.011490477 0.63500005
0.0042200005 -0.011454286 0.63300002
0.0054257144 -0.011454286 0.63300002
0.0066419053 -0.011472382 0.634
0.0078371437 -0.011454286 0.63300002
0.0090428581 -0.011454286 0.63300002
0.010734286 -0.011997144 0.66300005
0.012033334 -0.012033334 0.66500002
0.013300001 -0.012033334 0.66500002
0.014566667 -0.012033334 0.66500002
0.015857143 -0.01205143 0.66600001
0.017100001 -0.012033334 0.66500002
0.018366668 -0.012033334 0.66500002
0.019544763 -0.011979048 0.66200006
0.020837145 -0.011997144 0.66300005
0.022100002 -0.011997144 0.66300005
0.023433335 -0.012033334 0.66500002
0.024700001 -0.012033334 0.66500002
0.025888573 -0.011997144 0.66300005
0.02715143 -0.011997144 0.66300005
0.028414287 -0.011997144 0.66300005
0.029677145 -0.011997144 0.66300005
0.030940002 -0.011997144 0.66300005
-0.093997151 -0.009568572 0.59100002
-0.092871435 -0.009568572 0.59100002
-0.091745719 -0.009568572 0.59100002
-0.090466671 -0.0095523819 0.59000003
-0.089191437 -0.0095361909 0.58900005
-0.088069528 -0.0095361909 0.58900005
-0.086947627 -0.0095361909 0.58900005
-0.085825719 -0.0095361909 0.58900005
-0.084703818 -0.0095361909 0.58900005
-0.11805334 -0.015089525 0.93200004
-0.1162781 -0.015089525 0.93200004
-0.062647626 -0.0092609534 0.57200003
-0.061558098 -0.0092609534 0.57200003
-0.060362861 -0.0092447624 0.57100004
-0.059275243 -0.0092447624 0.57100004
-0.058085717 -0.0092285722 0.57000005
-0.056900002 -0.0092123812 0.56900001
-0.055816196 -0.0092123812 0.56900001
-0.054636195 -0.0091961911 0.56800002
-0.053554289 -0.0091961911 0.56800002
-0.052472383 -0.0091961911 0.56800002
-0.05139048 -0.0091961911 0.56800002
-0.050308574 -0.0091961911 0.56800002
-0.049313337 -0.0092123812 0.56900001
-0.048229527 -0.0092123812 0.56900001
-0.047062859 -0.0091961911 0.56800002
-0.009142858 -0.010361905 0.64000005
-0.0079238098 -0.010361905 0.64000005
-0.0067047626 -0.010361905 0.64000005
-0.005477143 -0.010345715 0.63900006
-0.0042600003 -0.010345715 0.63900006
-0.0030428574 -0.010345715 0.63900006
-0.0018257144 -0.010345715 0.63900006
-0.00060761906 -0.010329524 0.63800001
0.00060761906 -0.010329524 0.63800001
0.0018171429 -0.010297144 0.63600004
0.0030238098 -0.010280953 0.63500005
0.0042333337 -0.010280953 0.63500005
0.0054428573 -0.010280953 0.63500005
0.0068723815 -0.010620954 0.65600002
0.0081095239 -0.010604762 0.65500003
0.010734286 -0.010734286 0.66300005
0.011997144 -0.010734286 0.66300005
0.013260001 -0.010734286 0.66300005
0.014522858 -0.010734286 0.66300005
0.015833335 -0.010766667 0.66500002
0.017048573 -0.010734286 0.66300005
0.01831143 -0.010734286 0.66300005
0.019544763 -0.010718096 0.66200006
0.020805717 -0.010718096 0.66200006
0.022066668 -0.010718096 0.66200006
0.023362858 -0.010734286 0.66300005
0.024625717 -0.010734286 0.66300005
0.025849525 -0.010718096 0.66200006
0.027110478 -0.010718096 0.66200006
0.028371431 -0.010718096 0.66200006
0.029632382 -0.010718096 0.66200006
0.030893335 -0.010718096 0.66200006
-0.095122866 -0.0084428573 0.59100002
-0.093997151 -0.0084428573 0.59100002
-0.092871435 -0.0084428573 0.59100002
-0.091590479 -0.0084285717 0.59000003
-0.090313338 -0.0084142862 0.58900005
-0.089191437 -0.0084142862 0.58900005
-0.088069528 -0.0084142862 0.58900005
-0.086800009 -0.0084000006 0.588
-0.085680008 -0.0084000006 0.588
-0.084560007 -0.0084000006 0.588
-0.062538102 -0.0081571434 0.57100004
-0.061450481 -0.0081571434 0.57100004
-0.060362861 -0.0081571434 0.57100004
-0.059171431 -0.0081428578 0.57000005
-0.057983812 -0.0081285723 0.56900001
-0.056800004 -0.0081142867 0.56800002
-0.055718098 -0.0081142867 0.56800002
-0.054636195 -0.0081142867 0.56800002
-0.053554289 -0.0081142867 0.56800002
-0.052472383 -0.0081142867 0.56800002
-0.051480956 -0.0081285723 0.56900001
-0.050397146 -0.0081285723 0.56900001
-0.049313337 -0.0081285723 0.56900001
-0.009142858 -0.009142858 0.64000005
-0.0079238098 -0.009142858 0.64000005
-0.0067152386 -0.0091571435 0.64100003
-0.0054857144 -0.009142858 0.64000005
-0.0042600003 -0.0091285724 0.63900006
-0.0030428574 -0.0091285724 0.63900006
-0.0018285715 -0.009142858 0.64000005
-0.00060857146 -0.0091285724 0.63900006
0.00060857146 -0.0091285724 0.63900006
0.0018257144 -0.0091285724 0.63900006
0.0043466669 -0.0093142865 0.65200001
0.0056142863 -0.0093571432 0.65500003
0.0068619051 -0.0093571432 0.65500003
0.0081095239 -0.0093571432 0.65500003
0.0093714288 -0.0093714288 0.65600002
0.010620954 -0.0093714288 0.65600002
0.011997144 -0.0094714295 0.66300005
0.013260001 -0.0094714295 0.66300005
0.014500953 -0.009457143 0.66200006
0.015761906 -0.009457143 0.66200006
0.017048573 -0.0094714295 0.66300005
0.01828381 -0.009457143 0.66200006
0.019485716 -0.0094285719 0.66000003
0.020742858 -0.0094285719 0.66000003
0.022000002 -0.0094285719 0.66000003
0.023327621 -0.009457143 0.66200006
0.024588574 -0.009457143 0.66200006
0.025810478 -0.0094428575 0.66100001
0.027069526 -0.0094428575 0.66100001
0.028328573 -0.0094428575 0.66100001
0.029587621 -0.0094428575 0.66100001
0.030800002 -0.0094285719 0.66000003
0.031960003 -0.0094000008 0.65800005
0.033162858 -0.0093857152 0.65700001
-0.097539052 -0.0073295245 0.59200001
-0.096248575 -0.0073171435 0.59100002
-0.095122866 -0.0073171435 0.59100002
-0.093838103 -0.0073047625 0.59000003
-0.092714295 -0.0073047625 0.59000003
-0.091590479 -0.0073047625 0.59000003
-0.090313338 -0.0072923815 0.58900005
-0.089191437 -0.0072923815 0.58900005
-0.088069528 -0.0072923815 0.58900005
-0.086800009 -0.0072800005 0.588
-0.085680008 -0.0072800005 0.588
-0.063402861 -0.0070447624 0.56900001
-0.062319051 -0.0070447624 0.56900001
-0.061235242 -0.0070447624 0.56900001
-0.060257148 -0.0070571434 0.57000005
-0.059067622 -0.0070447624 0.56900001
-0.05788191 -0.0070323814 0.56800002
-0.056800004 -0.0070323814 0.56800002
-0.055718098 -0.0070323814 0.56800002
-0.054636195 -0.0070323814 0.56800002
-0.053460002 -0.0070200004 0.56700003
-0.052472383 -0.0070323814 0.56800002
-0.05139048 -0.0070323814 0.56800002
-0.0092000002 -0.0079733338 0.64400005
-0.0079485718 -0.0079485718 0.64200002
-0.0067257145 -0.0079485718 0.64200002
-0.0055028577 -0.0079485718 0.64200002
-0.0042733336 -0.0079361908 0.64100003
-0.0030476192 -0.0079238098 0.64000005
-0.0018342858 -0.0079485718 0.64200002
-0.00061142864 -0.0079485718 0.64200002
0.00061142864 -0.0079485718 0.64200002
0.0030952382 -0.0080476198 0.65000004
0.0043466669 -0.0080723818 0.65200001
0.0056142863 -0.0081095239 0.65500003
0.0068619051 -0.0081095239 0.65500003
0.0081095239 -0.0081095239 0.65500003
0.0093714288 -0.0081219049 0.65600002
0.010620954 -0.0081219049 0.65600002
0.011942858 -0.0081714289 0.66000003
0.013200001 -0.0081714289 0.66000003
0.014479049 -0.0081838099 0.66100001
0.015738096 -0.0081838099 0.66100001
0.017022857 -0.0081961909 0.66200006
0.018256191 -0.0081838099 0.66100001
0.019485716 -0.0081714289 0.66000003
0.020680001 -0.0081466669 0.65800005
0.022000002 -0.0081714289 0.66000003
0.023257144 -0.0081714289 0.66000003
0.024514288 -0.0081714289 0.66000003
0.025693335 -0.0081466669 0.65800005
0.026946668 -0.0081466669 0.65800005
0.028200002 -0.0081466669 0.65800005
0.029453335 -0.0081466669 0.65800005
0.030706668 -0.0081466669 0.65800005
0.031911429 -0.0081342859 0.65700001
0.033112384 -0.0081219049 0.65600002
-0.10075144 -0.0061914288 0.59100002
-0.099625722 -0.0061914288 0.59100002
-0.098666675 -0.0062019052 0.59200001
-0.09737429 -0.0061914288 0.59100002
-0.09608572 -0.0061809528 0.59000003
-0.094961911 -0.0061809528 0.59000003
-0.093679056 -0.0061704768 0.58900005
-0.092557147 -0.0061704768 0.58900005
-0.091435246 -0.0061704768 0.58900005
-0.090313338 -0.0061704768 0.58900005
-0.089040004 -0.0061600003 0.588
-0.088069528 -0.0061704768 0.58900005
-0.086947627 -0.0061704768 0.58900005
-0.067619056 -0.0059504765 0.56800002
-0.066537149 -0.0059504765 0.56800002
-0.065455243 -0.0059504765 0.56800002
-0.064373337 -0.0059504765 0.56800002
-0.06329143 -0.0059504765 0.56800002
-0.062209528 -0.0059504765 0.56800002
-0.061127622 -0.0059504765 0.56800002
-0.060045719 -0.0059504765 0.56800002
-0.058860004 -0.0059400005 0.56700003
-0.057780005 -0.0059400005 0.56700003
-0.056600004 -0.0059295241 0.56600004
-0.055521909 -0.0059295241 0.56600004
-0.054443814 -0.0059295241 0.56600004
-0.010442858 -0.0067571434 0.64500004
-0.0092142867 -0.0067571434 0.64500004
-0.0079733338 -0.006746667 0.64400005
-0.006746667 -0.006746667 0.64400005
-0.0055200006 -0.006746667 0.64400005
-0.0042800005 -0.0067257145 0.64200002
-0.003057143 -0.0067257145 0.64200002
-0.0018400002 -0.006746667 0.64400005
-0.00061333337 -0.006746667 0.64400005
0.00061333337 -0.006746667 0.64400005
0.0018485716 -0.0067780958 0.64700001
0.0030952382 -0.0068095243 0.65000004
0.0043466669 -0.0068304767 0.65200001
0.005588572 -0.0068304767 0.65200001
0.0068409527 -0.0068409527 0.65300006
0.0080847628 -0.0068409527 0.65300006
0.0093142865 -0.0068304767 0.65200001
0.010556191 -0.0068304767 0.65200001
0.011780001 -0.0068200002 0.65100002
0.01302 -0.0068200002 0.65100002
0.014260001 -0.0068200002 0.65100002
0.015523811 -0.0068304767 0.65200001
0.016765716 -0.0068304767 0.65200001
0.017980002 -0.0068200002 0.65100002
0.01927905 -0.0068409527 0.65300006
0.020491431 -0.0068304767 0.65200001
0.021900002 -0.0068828575 0.65700001
0.023116192 -0.0068723815 0.65600002
0.024328573 -0.0068619051 0.65500003
0.025576193 -0.0068619051 0.65500003
0.026864763 -0.0068723815 0.65600002
0.02807143 -0.0068619051 0.65500003
0.02931905 -0.0068619051 0.65500003
0.030473335 -0.0068409527 0.65300006
0.031717144 -0.0068409527 0.65300006
0.032960955 -0.0068409527 0.65300006
0.034152385 -0.0068304767 0.65200001
0.035340004 -0.0068200002 0.65100002
-0.10075144 -0.0050657145 0.59100002
-0.099625722 -0.0050657145 0.59100002
-0.098500006 -0.0050657145 0.59100002
-0.09737429 -0.0050657145 0.59100002
-0.09608572 -0.005057143 0.59000003
-0.094800957 -0.0050485716 0.58900005
-0.093679056 -0.0050485716 0.58900005
-0.092557147 -0.0050485716 0.58900005
-0.091435246 -0.0050485716 0.58900005
-0.090160005 -0.0050400002 0.588
-0.089040004 -0.0050400002 0.588
-0.069905721 -0.0048771431 0.56900001
-0.068700954 -0.0048685716 0.56800002
-0.067619056 -0.0048685716 0.56800002
-0.066420004 -0.0048600002 0.56700003
-0.065340005 -0.0048600002 0.56700003
-0.064260006 -0.0048600002 0.56700003
-0.063180007 -0.0048600002 0.56700003
-0.062100004 -0.0048600002 0.56700003
-0.061020005 -0.0048600002 0.56700003
-0.059940003 -0.0048600002 0.56700003
-0.058756195 -0.0048514288 0.56600004
-0.0576781 -0.0048514288 0.56600004
-0.056600004 -0.0048514288 0.56600004
-0.0092285722 -0.0055371434 0.64600003
-0.0079980958 -0.0055371434 0.64600003
-0.0067571434 -0.005528572 0.64500004
-0.0055371434 -0.0055371434 0.64600003
-0.004306667 -0.0055371434 0.64600003
-0.0030809527 -0.0055457149 0.64700001
-0.0018485716 -0.0055457149 0.64700001
-0.00061619049 -0.0055457149 0.64700001
0.00061714288 -0.0055542863 0.648
0.001857143 -0.0055714292 0.65000004
0.0031000001 -0.0055800006 0.65100002
0.0043466669 -0.005588572 0.65200001
0.0055800006 -0.0055800006 0.65100002
0.0068304767 -0.005588572 0.65200001
0.0080723818 -0.005588572 0.65200001
0.0093142865 -0.005588572 0.65200001
0.010540001 -0.0055800006 0.65100002
0.011761906 -0.0055714292 0.65000004
0.013000001 -0.0055714292 0.65000004
0.014238096 -0.0055714292 0.65000004
0.015476191 -0.0055714292 0.65000004
0.016662858 -0.0055542863 0.648
0.017952383 -0.0055714292 0.65000004
0.019220002 -0.0055800006 0.65100002
0.020522859 -0.0055971434 0.65300006
0.021833334 -0.0056142863 0.65500003
0.022940002 -0.0055800006 0.65100002
0.024254287 -0.0055971434 0.65300006
0.025459049 -0.005588572 0.65200001
0.026741907 -0.0055971434 0.65300006
0.027985716 -0.0055971434 0.65300006
0.029229525 -0.0055971434 0.65300006
0.030473335 -0.0055971434 0.65300006
0.031717144 -0.0055971434 0.65300006
0.032960955 -0.0055971434 0.65300006
0.034204762 -0.0055971434 0.65300006
0.035394289 -0.005588572 0.65200001
-0.10204953 -0.0039466671 0.59200001
-0.10075144 -0.0039400002 0.59100002
-0.099625722 -0.0039400002 0.59100002
-0.098500006 -0.0039400002 0.59100002
-0.09737429 -0.0039400002 0.59100002
-0.09608572 -0.0039333338 0.59000003
-0.094800957 -0.0039266669 0.58900005
-0.093679056 -0.0039266669 0.58900005
-0.092557147 -0.0039266669 0.58900005
-0.091435246 -0.0039266669 0.58900005
-0.090160005 -0.00392 0.588
-0.089040004 -0.00392 0.588
-0.12622859 -0.006266667 0.94000006
-0.069782861 -0.003786667 0.56800002
-0.068700954 -0.003786667 0.56800002
-0.067500003 -0.0037800001 0.56700003
-0.066420004 -0.0037800001 0.56700003
-0.065340005 -0.0037800001 0.56700003
-0.064260006 -0.0037800001 0.56700003
-0.063180007 -0.0037800001 0.56700003
-0.062100004 -0.0037800001 0.56700003
-0.060912386 -0.0037733335 0.56600004
-0.05983429 -0.0037733335 0.56600004
-0.010459049 -0.004306667 0.64600003
-0.0092428578 -0.0043133334 0.64700001
-0.0080104768 -0.0043133334 0.64700001
-0.0067780958 -0.0043133334 0.64700001
-0.0055457149 -0.0043133334 0.64700001
-0.0043133334 -0.0043133334 0.64700001
-0.0030857145 -0.0043200003 0.648
-0.0018514286 -0.0043200003 0.648
-0.00061904767 -0.0043333336 0.65000004
0.00061904767 -0.0043333336 0.65000004
0.0018600001 -0.0043400005 0.65100002
0.0031000001 -0.0043400005 0.65100002
0.0043400005 -0.0043400005 0.65100002
0.0055800006 -0.0043400005 0.65100002
0.0068200002 -0.0043400005 0.65100002
0.0080600008 -0.0043400005 0.65100002
0.0092857145 -0.0043333336 0.65000004
0.01052381 -0.0043333336 0.65000004
0.011761906 -0.0043333336 0.65000004
0.012960001 -0.0043200003 0.648
0.014194286 -0.0043200003 0.648
0.015428573 -0.0043200003 0.648
0.016637145 -0.0043133334 0.64700001
0.017897144 -0.0043200003 0.648
0.019131429 -0.0043200003 0.648
0.020428572 -0.0043333336 0.65000004
0.021600001 -0.0043200003 0.648
0.022940002 -0.0043400005 0.65100002
0.024180003 -0.0043400005 0.65100002
0.025459049 -0.0043466669 0.65200001
0.026700955 -0.0043466669 0.65200001
0.027942859 -0.0043466669 0.65200001
0.029184764 -0.0043466669 0.65200001
0.030426668 -0.0043466669 0.65200001
0.031717144 -0.0043533337 0.65300006
0.032960955 -0.0043533337 0.65300006
0.034204762 -0.0043533337 0.65300006
0.035394289 -0.0043466669 0.65200001
0.036636192 -0.0043466669 0.65200001
0.047446668 -0.0043133334 0.64700001
-0.10204953 -0.0028190478 0.59200001
-0.10092191 -0.0028190478 0.59200001
-0.099794291 -0.0028190478 0.59200001
-0.098500006 -0.0028142859 0.59100002
-0.09737429 -0.0028142859 0.59100002
-0.09608572 -0.0028095241 0.59000003
-0.094800957 -0.002804762 0.58900005
-0.093679056 -0.002804762 0.58900005
-0.092557147 -0.002804762 0.58900005
-0.091435246 -0.002804762 0.58900005
-0.090160005 -0.0028000001 0.588
-0.089040004 -0.0028000001 0.588
-0.069782861 -0.0027047622 0.56800002
-0.068700954 -0.0027047622 0.56800002
-0.067500003 -0.0027000001 0.56700003
-0.066420004 -0.0027000001 0.56700003
-0.065340005 -0.0027000001 0.56700003
-0.064260006 -0.0027000001 0.56700003
-0.063180007 -0.0027000001 0.56700003
-0.062100004 -0.0027000001 0.56700003
-0.060912386 -0.0026952382 0.56600004
-0.010475239 -0.0030809527 0.64700001
-0.0092428578 -0.0030809527 0.64700001
-0.0080228578 -0.0030857145 0.648
-0.0067885718 -0.0030857145 0.648
-0.0055542863 -0.0030857145 0.648
-0.0043333336 -0.0030952382 0.65000004
-0.0031000001 -0.0031000001 0.65100002
-0.0018600001 -0.0031000001 0.65100002
-0.00062000006 -0.0031000001 0.65100002
0.00061904767 -0.0030952382 0.65000004
0.0018600001 -0.0031000001 0.65100002
0.0031000001 -0.0031000001 0.65100002
0.0043333336 -0.0030952382 0.65000004
0.0055714292 -0.0030952382 0.65000004
0.0068095243 -0.0030952382 0.65000004
0.0080476198 -0.0030952382 0.65000004
0.0092857145 -0.0030952382 0.65000004
0.010491429 -0.0030857145 0.648
0.011725715 -0.0030857145 0.648
0.012960001 -0.0030857145 0.648
0.014194286 -0.0030857145 0.648
0.015404763 -0.0030809527 0.64700001
0.016637145 -0.0030809527 0.64700001
0.017869525 -0.0030809527 0.64700001
0.019101907 -0.0030809527 0.64700001
0.020365715 -0.0030857145 0.648
0.021600001 -0.0030857145 0.648
0.022904763 -0.0030952382 0.65000004
0.02414286 -0.0030952382 0.65000004
0.025420001 -0.0031000001 0.65100002
0.026700955 -0.0031047622 0.65200001
0.027900001 -0.0031000001 0.65100002
0.029140001 -0.0031000001 0.65100002
0.030426668 -0.0031047622 0.65200001
0.031668574 -0.0031047622 0.65200001
0.032960955 -0.003109524 0.65300006
0.034204762 -0.003109524 0.65300006
0.035448574 -0.003109524 0.65300006
0.036692385 -0.003109524 0.65300006
0.043681908 -0.0030761906 0.64600003
0.044981908 -0.0030809527 0.64700001
0.04621429 -0.0030809527 0.64700001
0.047446668 -0.0030809527 0.64700001
-0.1882924 -0.0026771431 0.93700004
-0.10222191 -0.0016942858 0.59300005
-0.10092191 -0.0016914287 0.59200001
-0.099794291 -0.0016914287 0.59200001
-0.098500006 -0.0016885715 0.59100002
-0.09737429 -0.0016885715 0.59100002
-0.09608572 -0.0016857143 0.59000003
-0.094800957 -0.0016828573 0.58900005
-0.093679056 -0.0016828573 0.58900005
-0.092557147 -0.0016828573 0.58900005
-0.091435246 -0.0016828573 0.58900005
-0.090313338 -0.0016828573 0.58900005
-0.070864767 -0.0016228573 0.56800002
-0.069660008 -0.0016200001 0.56700003
-0.068580002 -0.0016200001 0.56700003
-0.067500003 -0.0016200001 0.56700003
-0.066420004 -0.0016200001 0.56700003
-0.065340005 -0.0016200001 0.56700003
-0.064260006 -0.0016200001 0.56700003
-0.063180007 -0.0016200001 0.56700003
-0.062100004 -0.0016200001 0.56700003
-0.035338096 -0.0025857145 0.90500003
-0.0080476198 -0.001857143 0.65000004
-0.0068095243 -0.001857143 0.65000004
-0.0055800006 -0.0018600001 0.65100002
-0.0043400005 -0.0018600001 0.65100002
-0.0031047622 -0.0018628573 0.65200001
-0.0018628573 -0.0018628573 0.65200001
-0.0006209524 -0.0018628573 0.65200001
0.00062000006 -0.0018600001 0.65100002
0.0018600001 -0.0018600001 0.65100002
0.0031000001 -0.0018600001 0.65100002
0.0043333336 -0.001857143 0.65000004
0.0055714292 -0.001857143 0.65000004
0.0068095243 -0.001857143 0.65000004
0.0080228578 -0.0018514286 0.648
0.0092571434 -0.0018514286 0.648
0.010491429 -0.0018514286 0.648
0.011725715 -0.0018514286 0.648
0.012960001 -0.0018514286 0.648
0.014172382 -0.0018485716 0.64700001
0.015404763 -0.0018485716 0.64700001
0.016637145 -0.0018485716 0.64700001
0.017841905 -0.0018457144 0.64600003
0.019101907 -0.0018485716 0.64700001
0.020334287 -0.0018485716 0.64700001
0.021566669 -0.0018485716 0.64700001
0.022834288 -0.0018514286 0.648
0.024068573 -0.0018514286 0.648
0.025380954 -0.001857143 0.65000004
0.026660001 -0.0018600001 0.65100002
0.027857145 -0.001857143 0.65000004
0.02909524 -0.001857143 0.65000004
0.030333335 -0.001857143 0.65000004
0.031620003 -0.0018600001 0.65100002
0.032910477 -0.0018628573 0.65200001
0.034100004 -0.0018600001 0.65100002
0.035394289 -0.0018628573 0.65200001
0.036580004 -0.0018600001 0.65100002
0.043681908 -0.0018457144 0.64600003
0.044912383 -0.0018457144 0.64600003
0.046142861 -0.0018457144 0.64600003
0.047446668 -0.0018485716 0.64700001
0.04867905 -0.0018485716 0.64700001
-0.10483334 -0.00056666671 0.59500003
-0.1037 -0.00056666671 0.59500003
-0.10204953 -0.00056380953 0.59200001
-0.10092191 -0.00056380953 0.59200001
