# .PCD v0.7 - Point Cloud Data file format
VERSION 0.7
FIELDS x y z
SIZE 4 4 4
TYPE F F F
COUNT 1 1 1
WIDTH 1350
HEIGHT 1
VIEWPOINT 0 0 0 1 0 0 0
POINTS 1350
DATA ascii
-0.022166668 0.044966668 0.66500002
-0.020837145 0.044831432 0.66300005
-0.019544763 0.044763811 0.66200006
-0.018256191 0.044696193 0.66100001
-0.01692 0.044493336 0.65800005
-0.015666667 0.044493336 0.65800005
-0.01439143 0.044425718 0.65700001
-0.013120001 0.044358097 0.65600002
-0.011852382 0.044290479 0.65500003
-0.010572381 0.04415524 0.65300006
-0.0093285721 0.04415524 0.65300006
-0.0080847628 0.04415524 0.65300006
-0.0068409527 0.04415524 0.65300006
-0.0056142863 0.044290479 0.65500003
-0.0043733334 0.044358097 0.65600002
-0.0031238098 0.044358097 0.65600002
-0.0018771429 0.044425718 0.65700001
-0.00062476192 0.044358097 0.65600002
0.00062571431 0.044425718 0.65700001
0.0018771429 0.044425718 0.65700001
0.0031238098 0.044358097 0.65600002
0.0043733334 0.044358097 0.65600002
0.0056228577 0.044358097 0.65600002
0.0068723815 0.044358097 0.65600002
0.0081219049 0.044358097 0.65600002
0.0093714288 0.044358097 0.65600002
0.010620954 0.044358097 0.65600002
0.011870477 0.044358097 0.65600002
0.013120001 0.044358097 0.65600002
0.01439143 0.044425718 0.65700001
0.015642859 0.044425718 0.65700001
0.016894286 0.044425718 0.65700001
0.018145716 0.044425718 0.65700001
0.019397143 0.044425718 0.65700001
0.020585716 0.044290479 0.65500003
0.021766668 0.04415524 0.65300006
0.023010477 0.04415524 0.65300006
-0.16707239 0.051030479 0.73400003
-0.16499716 0.050821908 0.73100001
-0.16472381 0.051169526 0.73600006
-0.16332191 0.051169526 0.73600006
-0.16192001 0.051169526 0.73600006
-0.1607362 0.051239051 0.73700005
-0.15933239 0.051239051 0.73700005
-0.1592143 0.051656194 0.74300003
-0.1366981 0.055132385 0.79300004
-0.13552858 0.055271432 0.79500002
-0.13401429 0.055271432 0.79500002
-0.13250001 0.055271432 0.79500002
-0.13148001 0.055480003 0.79800004
-0.12996002 0.055480003 0.79800004
-0.12876192 0.05561905 0.80000001
-0.12723811 0.05561905 0.80000001
-0.12602858 0.0557581 0.80200005
-0.12450096 0.0557581 0.80200005
-0.12328001 0.055897146 0.80400002
-0.12174858 0.055897146 0.80400002
-0.12021715 0.055897146 0.80400002
-0.11868572 0.055897146 0.80400002
-0.11715429 0.055897146 0.80400002
-0.088360004 0.045746669 0.65800005
-0.087106675 0.045746669 0.65800005
-0.085853338 0.045746669 0.65800005
-0.083828576 0.045329526 0.65200001
-0.073213339 0.044912383 0.64600003
-0.071982861 0.044912383 0.64600003
-0.070642859 0.044842862 0.64500004
-0.069414288 0.044842862 0.64500004
-0.068185717 0.044842862 0.64500004
-0.067060955 0.044912383 0.64600003
-0.065830484 0.044912383 0.64600003
-0.064600006 0.044912383 0.64600003
-0.063271433 0.044842862 0.64500004
-0.062042862 0.044842862 0.64500004
-0.060908575 0.044912383 0.64600003
-0.0596781 0.044912383 0.64600003
-0.058357146 0.044842862 0.64500004
-0.057128575 0.044842862 0.64500004
-0.055986669 0.044912383 0.64600003
-0.054671433 0.044842862 0.64500004
-0.053442862 0.044842862 0.64500004
-0.052214291 0.044842862 0.64500004
-0.050985716 0.044842862 0.64500004
-0.049757145 0.044842862 0.64500004
-0.048528574 0.044842862 0.64500004
-0.047300003 0.044842862 0.64500004
-0.046071433 0.044842862 0.64500004
-0.044842862 0.044842862 0.64500004
-0.043614287 0.044842862 0.64500004
-0.038857147 0.05561905 0.80000001
-0.026122859 0.04651143 0.66900003
-0.024774287 0.046372384 0.66700006
-0.023433335 0.046233337 0.66500002
-0.022066668 0.046024766 0.66200006
-0.020774286 0.045955241 0.66100001
-0.019485716 0.045885716 0.66000003
-0.018173335 0.045746669 0.65800005
-0.016894286 0.045677144 0.65700001
-0.015642859 0.045677144 0.65700001
-0.014369525 0.045607623 0.65600002
-0.013100001 0.045538098 0.65500003
-0.011816191 0.045399051 0.65300006
-0.010572381 0.045399051 0.65300006
-0.0093285721 0.045399051 0.65300006
-0.0080847628 0.045399051 0.65300006
-0.0068409527 0.045399051 0.65300006
-0.0055971434 0.045399051 0.65300006
-0.004366667 0.045538098 0.65500003
-0.0031190477 0.045538098 0.65500003
-0.0018742859 0.045607623 0.65600002
-0.00062476192 0.045607623 0.65600002
0.00062476192 0.045607623 0.65600002
0.0018742859 0.045607623 0.65600002
0.0031190477 0.045538098 0.65500003
0.0043733334 0.045607623 0.65600002
0.0056142863 0.045538098 0.65500003
0.0068619051 0.045538098 0.65500003
0.0081219049 0.045607623 0.65600002
0.0093714288 0.045607623 0.65600002
0.010604762 0.045538098 0.65500003
0.011870477 0.045607623 0.65600002
0.013100001 0.045538098 0.65500003
0.01434762 0.045538098 0.65500003
0.015595239 0.045538098 0.65500003
0.016868573 0.045607623 0.65600002
0.018118097 0.045607623 0.65600002
0.019338097 0.045538098 0.65500003
0.020522859 0.045399051 0.65300006
0.021766668 0.045399051 0.65300006
-0.16315715 0.052071434 0.72900003
-0.16243429 0.052285716 0.73200005
-0.16104001 0.052285716 0.73200005
-0.13820858 0.05664286 0.79300004
-0.1366981 0.05664286 0.79300004
-0.13518763 0.05664286 0.79300004
-0.13401429 0.056785718 0.79500002
-0.13250001 0.056785718 0.79500002
-0.13148001 0.057000004 0.79800004
-0.12996002 0.057000004 0.79800004
-0.12876192 0.057142861 0.80000001
-0.12723811 0.057142861 0.80000001
-0.12571429 0.057142861 0.80000001
-0.12450096 0.057285719 0.80200005
-0.12297334 0.057285719 0.80200005
-0.12144572 0.057285719 0.80200005
-0.089613341 0.047000002 0.65800005
-0.088360004 0.047000002 0.65800005
-0.087106675 0.047000002 0.65800005
-0.083828576 0.04657143 0.65200001
-0.082586668 0.04657143 0.65200001
-0.081095241 0.046428576 0.65000004
-0.079857148 0.046428576 0.65000004
-0.07837715 0.046285719 0.648
-0.077142864 0.046285719 0.648
-0.075791433 0.04621429 0.64700001
-0.074559055 0.04621429 0.64700001
-0.073213339 0.046142861 0.64600003
-0.071982861 0.046142861 0.64600003
-0.070642859 0.046071433 0.64500004
-0.069414288 0.046071433 0.64500004
-0.068185717 0.046071433 0.64500004
-0.066957146 0.046071433 0.64500004
-0.065728575 0.046071433 0.64500004
-0.064500004 0.046071433 0.64500004
-0.063271433 0.046071433 0.64500004
-0.062042862 0.046071433 0.64500004
-0.060814291 0.046071433 0.64500004
-0.059585717 0.046071433 0.64500004
-0.058357146 0.046071433 0.64500004
-0.057128575 0.046071433 0.64500004
-0.055900004 0.046071433 0.64500004
-0.054671433 0.046071433 0.64500004
-0.053442862 0.046071433 0.64500004
-0.052133337 0.046000004 0.64400005
-0.050985716 0.046071433 0.64500004
-0.049757145 0.046071433 0.64500004
-0.048453335 0.046000004 0.64400005
-0.047226671 0.046000004 0.64400005
-0.046000004 0.046000004 0.64400005
-0.044773336 0.046000004 0.64400005
-0.043546669 0.046000004 0.64400005
-0.042320002 0.046000004 0.64400005
-0.040965717 0.045857146 0.64200002
-0.039742861 0.045857146 0.64200002
-0.038520001 0.045857146 0.64200002
-0.023362858 0.047357146 0.66300005
-0.022033336 0.047214288 0.66100001
-0.020742858 0.04714286 0.66000003
-0.019485716 0.04714286 0.66000003
-0.018173335 0.047000002 0.65800005
-0.016894286 0.046928573 0.65700001
-0.015619049 0.046857145 0.65600002
-0.014369525 0.046857145 0.65600002
-0.013100001 0.046785716 0.65500003
-0.011816191 0.046642859 0.65300006
-0.010572381 0.046642859 0.65300006
-0.0093142865 0.04657143 0.65200001
-0.0080847628 0.046642859 0.65300006
-0.0068409527 0.046642859 0.65300006
-0.0055971434 0.046642859 0.65300006
-0.004366667 0.046785716 0.65500003
-0.0031190477 0.046785716 0.65500003
-0.0018714287 0.046785716 0.65500003
-0.00062380958 0.046785716 0.65500003
0.00062380958 0.046785716 0.65500003
0.0018742859 0.046857145 0.65600002
0.0031190477 0.046785716 0.65500003
0.004366667 0.046785716 0.65500003
0.0056142863 0.046785716 0.65500003
0.0068619051 0.046785716 0.65500003
0.0081095239 0.046785716 0.65500003
0.0093571432 0.046785716 0.65500003
0.010604762 0.046785716 0.65500003
0.011852382 0.046785716 0.65500003
0.013100001 0.046785716 0.65500003
0.01434762 0.046785716 0.65500003
0.015595239 0.046785716 0.65500003
0.016842859 0.046785716 0.65500003
0.018090477 0.046785716 0.65500003
0.01927905 0.046642859 0.65300006
0.020522859 0.046642859 0.65300006
0.021766668 0.046642859 0.65300006
0.038760003 0.057000004 0.79800004
0.043320004 0.057000004 0.79800004
-0.13971905 0.058153339 0.79300004
-0.13820858 0.058153339 0.79300004
-0.1366981 0.058153339 0.79300004
-0.13518763 0.058153339 0.79300004
-0.13401429 0.058300003 0.79500002
-0.13283335 0.058446672 0.79700005
-0.13148001 0.058520004 0.79800004
-0.12996002 0.058520004 0.79800004
-0.12844001 0.058520004 0.79800004
-0.12723811 0.058666669 0.80000001
-0.12571429 0.058666669 0.80000001
-0.089613341 0.048253335 0.65800005
-0.088360004 0.048253335 0.65800005
-0.087106675 0.048253335 0.65800005
-0.085461907 0.048033338 0.65500003
-0.083828576 0.047813337 0.65200001
-0.082586668 0.047813337 0.65200001
-0.081220008 0.047740005 0.65100002
-0.079857148 0.047666669 0.65000004
-0.07837715 0.047520004 0.648
-0.077142864 0.047520004 0.648
-0.075791433 0.047446668 0.64700001
-0.074559055 0.047446668 0.64700001
-0.073213339 0.047373336 0.64600003
-0.071982861 0.047373336 0.64600003
-0.070642859 0.047300003 0.64500004
-0.069414288 0.047300003 0.64500004
-0.068185717 0.047300003 0.64500004
-0.066957146 0.047300003 0.64500004
-0.065728575 0.047300003 0.64500004
-0.064500004 0.047300003 0.64500004
-0.063173339 0.047226671 0.64400005
-0.061946671 0.047226671 0.64400005
-0.060720004 0.047226671 0.64400005
-0.059493337 0.047226671 0.64400005
-0.05826667 0.047226671 0.64400005
-0.057040002 0.047226671 0.64400005
-0.055813339 0.047226671 0.64400005
-0.054586671 0.047226671 0.64400005
-0.053360004 0.047226671 0.64400005
-0.052133337 0.047226671 0.64400005
-0.050906669 0.047226671 0.64400005
-0.049680002 0.047226671 0.64400005
-0.048453335 0.047226671 0.64400005
-0.047226671 0.047226671 0.64400005
-0.046000004 0.047226671 0.64400005
-0.044773336 0.047226671 0.64400005
-0.043546669 0.047226671 0.64400005
-0.042320002 0.047226671 0.64400005
-0.040901907 0.04700667 0.64100003
-0.039742861 0.047080003 0.64200002
-0.023327621 0.048546668 0.66200006
-0.022000002 0.048400003 0.66000003
-0.020680001 0.048253335 0.65800005
-0.019426668 0.048253335 0.65800005
-0.018145716 0.048180003 0.65700001
-0.016894286 0.048180003 0.65700001
-0.015619049 0.04810667 0.65600002
-0.01434762 0.048033338 0.65500003
-0.013100001 0.048033338 0.65500003
-0.011816191 0.04788667 0.65300006
-0.010556191 0.047813337 0.65200001
-0.0093142865 0.047813337 0.65200001
-0.0080723818 0.047813337 0.65200001
-0.0068304767 0.047813337 0.65200001
-0.0055971434 0.04788667 0.65300006
-0.004366667 0.048033338 0.65500003
-0.0031190477 0.048033338 0.65500003
-0.0018714287 0.048033338 0.65500003
-0.00062380958 0.048033338 0.65500003
0.00062380958 0.048033338 0.65500003
0.0018714287 0.048033338 0.65500003
0.0031190477 0.048033338 0.65500003
0.004366667 0.048033338 0.65500003
0.0056142863 0.048033338 0.65500003
0.0068619051 0.048033338 0.65500003
0.0081095239 0.048033338 0.65500003
0.0093571432 0.048033338 0.65500003
0.010604762 0.048033338 0.65500003
0.011852382 0.048033338 0.65500003
0.013100001 0.048033338 0.65500003
0.01434762 0.048033338 0.65500003
0.015595239 0.048033338 0.65500003
0.016842859 0.048033338 0.65500003
0.018118097 0.04810667 0.65600002
0.01927905 0.04788667 0.65300006
0.020522859 0.04788667 0.65300006
0.021766668 0.04788667 0.65300006
0.023010477 0.04788667 0.65300006
-0.14087334 0.059513338 0.79100001
-0.13936667 0.059513338 0.79100001
-0.13820858 0.059663814 0.79300004
-0.1366981 0.059663814 0.79300004
-0.13518763 0.059663814 0.79300004
-0.13401429 0.059814289 0.79500002
-0.13283335 0.059964765 0.79700005
-0.13148001 0.060040005 0.79800004
-0.12996002 0.060040005 0.79800004
-0.12844001 0.060040005 0.79800004
-0.089613341 0.049506672 0.65800005
-0.088360004 0.049506672 0.65800005
-0.087106675 0.049506672 0.65800005
-0.085461907 0.049280956 0.65500003
-0.083828576 0.049055241 0.65200001
-0.082460009 0.048980001 0.65100002
-0.081095241 0.048904765 0.65000004
-0.079857148 0.048904765 0.65000004
-0.07837715 0.04875429 0.648
-0.077142864 0.04875429 0.648
-0.075791433 0.04867905 0.64700001
-0.074559055 0.04867905 0.64700001
-0.073213339 0.048603814 0.64600003
-0.07187143 0.048528574 0.64500004
-0.070642859 0.048528574 0.64500004
-0.069414288 0.048528574 0.64500004
-0.068185717 0.048528574 0.64500004
-0.066957146 0.048528574 0.64500004
-0.065626673 0.048453335 0.64400005
-0.064400002 0.048453335 0.64400005
-0.063173339 0.048453335 0.64400005
-0.06175429 0.048302859 0.64200002
-0.060531434 0.048302859 0.64200002
-0.059308574 0.048302859 0.64200002
-0.058085717 0.048302859 0.64200002
-0.056862861 0.048302859 0.64200002
-0.055640005 0.048302859 0.64200002
-0.054417148 0.048302859 0.64200002
-0.053194288 0.048302859 0.64200002
-0.051971432 0.048302859 0.64200002
-0.050748575 0.048302859 0.64200002
-0.049680002 0.048453335 0.64400005
-0.048302859 0.048302859 0.64200002
-0.047080003 0.048302859 0.64200002
-0.045857146 0.048302859 0.64200002
-0.04463429 0.048302859 0.64200002
-0.04341143 0.048302859 0.64200002
-0.042320002 0.048453335 0.64400005
-0.040965717 0.048302859 0.64200002
-0.039742861 0.048302859 0.64200002
-0.038640004 0.048453335 0.64400005
-0.022000002 0.049657147 0.66000003
-0.020680001 0.049506672 0.65800005
-0.019426668 0.049506672 0.65800005
-0.018145716 0.049431432 0.65700001
-0.016868573 0.049356192 0.65600002
-0.015619049 0.049356192 0.65600002
-0.01434762 0.049280956 0.65500003
-0.013100001 0.049280956 0.65500003
-0.011798096 0.049055241 0.65200001
-0.010556191 0.049055241 0.65200001
-0.0093142865 0.049055241 0.65200001
-0.0080723818 0.049055241 0.65200001
-0.0068304767 0.049055241 0.65200001
-0.0055971434 0.049130481 0.65300006
-0.0043533337 0.049130481 0.65300006
-0.003109524 0.049130481 0.65300006
-0.0018714287 0.049280956 0.65500003
-0.00062380958 0.049280956 0.65500003
0.00062380958 0.049280956 0.65500003
0.0018714287 0.049280956 0.65500003
0.003109524 0.049130481 0.65300006
0.004366667 0.049280956 0.65500003
0.0055971434 0.049130481 0.65300006
0.0068619051 0.049280956 0.65500003
0.0080847628 0.049130481 0.65300006
0.0093571432 0.049280956 0.65500003
0.010604762 0.049280956 0.65500003
0.011852382 0.049280956 0.65500003
0.013060001 0.049130481 0.65300006
0.014303811 0.049130481 0.65300006
0.01554762 0.049130481 0.65300006
0.016842859 0.049280956 0.65500003
0.018090477 0.049280956 0.65500003
0.01927905 0.049130481 0.65300006
0.020522859 0.049130481 0.65300006
0.021766668 0.049130481 0.65300006
0.023010477 0.049130481 0.65300006
-0.15135716 0.062871434 0.81500006
-0.14980477 0.062871434 0.81500006
-0.14388667 0.061020005 0.79100001
-0.14238001 0.061020005 0.79100001
-0.14087334 0.061020005 0.79100001
-0.13936667 0.061020005 0.79100001
-0.13820858 0.061174288 0.79300004
-0.1366981 0.061174288 0.79300004
-0.13518763 0.061174288 0.79300004
-0.13401429 0.061328575 0.79500002
-0.089477152 0.050682861 0.65700001
-0.088225722 0.050682861 0.65700001
-0.086709529 0.050528575 0.65500003
-0.085200958 0.050374288 0.65300006
-0.083828576 0.050297145 0.65200001
-0.082460009 0.050220001 0.65100002
-0.081095241 0.050142862 0.65000004
-0.079857148 0.050142862 0.65000004
-0.07837715 0.049988575 0.648
-0.077142864 0.049988575 0.648
-0.075908579 0.049988575 0.648
-0.074559055 0.049911432 0.64700001
-0.073100008 0.049757145 0.64500004
-0.07187143 0.049757145 0.64500004
-0.070533335 0.049680002 0.64400005
-0.069306672 0.049680002 0.64400005
-0.068080008 0.049680002 0.64400005
-0.066853337 0.049680002 0.64400005
-0.065422863 0.049525719 0.64200002
-0.064200006 0.049525719 0.64200002
-0.06297715 0.049525719 0.64200002
-0.061658099 0.049448576 0.64100003
-0.060342859 0.049371433 0.64000005
-0.059216194 0.049448576 0.64100003
-0.057995241 0.049448576 0.64100003
-0.056774288 0.049448576 0.64100003
-0.055553336 0.049448576 0.64100003
-0.054332383 0.049448576 0.64100003
-0.053028576 0.049371433 0.64000005
-0.051809527 0.049371433 0.64000005
-0.050669529 0.049448576 0.64100003
-0.049525719 0.049525719 0.64200002
-0.048227623 0.049448576 0.64100003
-0.04700667 0.049448576 0.64100003
-0.045785718 0.049448576 0.64100003
-0.04463429 0.049525719 0.64200002
-0.04341143 0.049525719 0.64200002
-0.042188574 0.049525719 0.64200002
-0.040901907 0.049448576 0.64100003
-0.039742861 0.049525719 0.64200002
-0.038520001 0.049525719 0.64200002
-0.037413336 0.049680002 0.64400005
-0.023257144 0.050914288 0.66000003
-0.022000002 0.050914288 0.66000003
-0.020680001 0.050760005 0.65800005
-0.019426668 0.050760005 0.65800005
-0.018145716 0.050682861 0.65700001
-0.016868573 0.050605718 0.65600002
-0.015595239 0.050528575 0.65500003
-0.01434762 0.050528575 0.65500003
-0.013060001 0.050374288 0.65300006
-0.011798096 0.050297145 0.65200001
-0.010556191 0.050297145 0.65200001
-0.0093142865 0.050297145 0.65200001
-0.0080723818 0.050297145 0.65200001
-0.0068304767 0.050297145 0.65200001
-0.005588572 0.050297145 0.65200001
-0.0043533337 0.050374288 0.65300006
-0.003109524 0.050374288 0.65300006
-0.0018714287 0.050528575 0.65500003
-0.00062380958 0.050528575 0.65500003
0.00062380958 0.050528575 0.65500003
0.0018714287 0.050528575 0.65500003
0.003109524 0.050374288 0.65300006
0.0043533337 0.050374288 0.65300006
0.0055971434 0.050374288 0.65300006
0.0068409527 0.050374288 0.65300006
0.0080847628 0.050374288 0.65300006
0.0093285721 0.050374288 0.65300006
0.010572381 0.050374288 0.65300006
0.011816191 0.050374288 0.65300006
0.013060001 0.050374288 0.65300006
0.014303811 0.050374288 0.65300006
0.01554762 0.050374288 0.65300006
0.016842859 0.050528575 0.65500003
0.018090477 0.050528575 0.65500003
0.01927905 0.050374288 0.65300006
0.020522859 0.050374288 0.65300006
0.021766668 0.050374288 0.65300006
0.023010477 0.050374288 0.65300006
0.024254287 0.050374288 0.65300006
-0.15008001 0.061973337 0.78400004
-0.14896573 0.062131431 0.78600001
-0.14746858 0.062131431 0.78600001
-0.14560001 0.061973337 0.78400004
-0.1444743 0.062131431 0.78600001
-0.14297715 0.062131431 0.78600001
-0.14202 0.062368575 0.78900003
-0.14087334 0.062526673 0.79100001
-0.13936667 0.062526673 0.79100001
-0.13786002 0.062526673 0.79100001
-0.1366981 0.062684767 0.79300004
-0.13518763 0.062684767 0.79300004
-0.089477152 0.051934291 0.65700001
-0.088091433 0.05185524 0.65600002
-0.086709529 0.051776193 0.65500003
-0.085200958 0.051618099 0.65300006
-0.083828576 0.051539052 0.65200001
-0.082460009 0.051460002 0.65100002
-0.081220008 0.051460002 0.65100002
-0.079857148 0.051380955 0.65000004
-0.07837715 0.051222861 0.648
-0.077142864 0.051222861 0.648
-0.075908579 0.051222861 0.648
-0.074559055 0.051143814 0.64700001
-0.073100008 0.050985716 0.64500004
-0.07187143 0.050985716 0.64500004
-0.070533335 0.050906669 0.64400005
-0.069306672 0.050906669 0.64400005
-0.068080008 0.050906669 0.64400005
-0.066645719 0.050748575 0.64200002
-0.065320954 0.050669529 0.64100003
-0.064000003 0.050590478 0.64000005
-0.062780954 0.050590478 0.64000005
-0.061561909 0.050590478 0.64000005
-0.060248576 0.050511431 0.63900006
-0.059031431 0.050511431 0.63900006
-0.057904765 0.050590478 0.64000005
-0.05668572 0.050590478 0.64000005
-0.055466671 0.050590478 0.64000005
-0.054247621 0.050590478 0.64000005
-0.053028576 0.050590478 0.64000005
-0.051728576 0.050511431 0.63900006
-0.050590478 0.050590478 0.64000005
-0.049448576 0.050669529 0.64100003
-0.048152383 0.050590478 0.64000005
-0.04700667 0.050669529 0.64100003
-0.045785718 0.050669529 0.64100003
-0.044564765 0.050669529 0.64100003
-0.04341143 0.050748575 0.64200002
-0.042188574 0.050748575 0.64200002
-0.040965717 0.050748575 0.64200002
-0.039742861 0.050748575 0.64200002
-0.038520001 0.050748575 0.64200002
-0.037297145 0.050748575 0.64200002
-0.036074288 0.050748575 0.64200002
-0.034960002 0.050906669 0.64400005
-0.021933334 0.052013338 0.65800005
-0.020680001 0.052013338 0.65800005
-0.019397143 0.051934291 0.65700001
-0.018118097 0.05185524 0.65600002
-0.016842859 0.051776193 0.65500003
-0.015595239 0.051776193 0.65500003
-0.01434762 0.051776193 0.65500003
-0.013060001 0.051618099 0.65300006
-0.011798096 0.051539052 0.65200001
-0.010540001 0.051460002 0.65100002
-0.009300001 0.051460002 0.65100002
-0.0080600008 0.051460002 0.65100002
-0.0068304767 0.051539052 0.65200001
-0.005588572 0.051539052 0.65200001
-0.0043533337 0.051618099 0.65300006
-0.003109524 0.051618099 0.65300006
-0.0018657144 0.051618099 0.65300006
-0.00062190479 0.051618099 0.65300006
0.00062380958 0.051776193 0.65500003
0.0018657144 0.051618099 0.65300006
0.003109524 0.051618099 0.65300006
0.0043533337 0.051618099 0.65300006
0.0055971434 0.051618099 0.65300006
0.0068409527 0.051618099 0.65300006
0.0080847628 0.051618099 0.65300006
0.0093285721 0.051618099 0.65300006
0.010572381 0.051618099 0.65300006
0.011816191 0.051618099 0.65300006
0.013060001 0.051618099 0.65300006
0.014303811 0.051618099 0.65300006
0.01554762 0.051618099 0.65300006
0.016791429 0.051618099 0.65300006
0.018090477 0.051776193 0.65500003
0.01927905 0.051618099 0.65300006
0.020522859 0.051618099 0.65300006
0.021766668 0.051618099 0.65300006
0.023010477 0.051618099 0.65300006
0.024254287 0.051618099 0.65300006
-0.15157335 0.063466668 0.78400004
-0.15008001 0.063466668 0.78400004
-0.14858668 0.063466668 0.78400004
-0.14709334 0.063466668 0.78400004
-0.14560001 0.063466668 0.78400004
-0.1444743 0.063628577 0.78600001
-0.14297715 0.063628577 0.78600001
-0.14202 0.063871436 0.78900003
-0.14087334 0.064033337 0.79100001
-0.13936667 0.064033337 0.79100001
-0.089340955 0.053104766 0.65600002
-0.088091433 0.053104766 0.65600002
-0.086709529 0.053023811 0.65500003
-0.085200958 0.052861907 0.65300006
-0.083828576 0.052780956 0.65200001
-0.082460009 0.052700002 0.65100002
-0.081095241 0.052619051 0.65000004
-0.079857148 0.052619051 0.65000004
-0.07837715 0.052457146 0.648
-0.077142864 0.052457146 0.648
-0.075908579 0.052457146 0.648
-0.074328579 0.052214291 0.64500004
-0.07298667 0.052133337 0.64400005
-0.071760006 0.052133337 0.64400005
-0.070314288 0.051971432 0.64200002
-0.069091432 0.051971432 0.64200002
-0.067868575 0.051971432 0.64200002
-0.06654191 0.051890481 0.64100003
-0.065219052 0.051809527 0.64000005
-0.063900001 0.051728576 0.63900006
-0.06268286 0.051728576 0.63900006
-0.061465718 0.051728576 0.63900006
-0.060154289 0.051647622 0.63800001
-0.058754291 0.051485717 0.63600004
-0.057542861 0.051485717 0.63600004
-0.056508575 0.051647622 0.63800001
-0.054860003 0.051242862 0.63300002
-0.053823814 0.051404767 0.63500005
-0.052697148 0.051485717 0.63600004
-0.051647622 0.051647622 0.63800001
-0.050511431 0.051728576 0.63900006
-0.049371433 0.051809527 0.64000005
-0.048152383 0.051809527 0.64000005
-0.046933338 0.051809527 0.64000005
-0.045714289 0.051809527 0.64000005
-0.044564765 0.051890481 0.64100003
-0.04341143 0.051971432 0.64200002
-0.042188574 0.051971432 0.64200002
-0.040901907 0.051890481 0.64100003
-0.039680954 0.051890481 0.64100003
-0.038460001 0.051890481 0.64100003
-0.037239049 0.051890481 0.64100003
-0.036018096 0.051890481 0.64100003
-0.034851432 0.051971432 0.64200002
-0.033576194 0.051890481 0.64100003
-0.032405715 0.051971432 0.64200002
-0.031280003 0.052133337 0.64400005
-0.021933334 0.053266671 0.65800005
-0.020680001 0.053266671 0.65800005
-0.019397143 0.053185716 0.65700001
-0.018118097 0.053104766 0.65600002
-0.016842859 0.053023811 0.65500003
-0.015595239 0.053023811 0.65500003
-0.014303811 0.052861907 0.65300006
-0.013060001 0.052861907 0.65300006
-0.011780001 0.052700002 0.65100002
-0.010540001 0.052700002 0.65100002
-0.009300001 0.052700002 0.65100002
-0.0080600008 0.052700002 0.65100002
-0.0068304767 0.052780956 0.65200001
-0.005588572 0.052780956 0.65200001
-0.0043533337 0.052861907 0.65300006
-0.003109524 0.052861907 0.65300006
-0.0018657144 0.052861907 0.65300006
-0.00062190479 0.052861907 0.65300006
0.00062190479 0.052861907 0.65300006
0.0018657144 0.052861907 0.65300006
0.003109524 0.052861907 0.65300006
0.0043533337 0.052861907 0.65300006
0.0055971434 0.052861907 0.65300006
0.0068304767 0.052780956 0.65200001
0.0080723818 0.052780956 0.65200001
0.0093285721 0.052861907 0.65300006
0.010572381 0.052861907 0.65300006
0.011816191 0.052861907 0.65300006
0.013060001 0.052861907 0.65300006
0.014303811 0.052861907 0.65300006
0.01554762 0.052861907 0.65300006
0.016791429 0.052861907 0.65300006
0.018035239 0.052861907 0.65300006
0.01927905 0.052861907 0.65300006
0.020522859 0.052861907 0.65300006
0.021766668 0.052861907 0.65300006
0.023010477 0.052861907 0.65300006
-0.1517 0.064380005 0.77700001
-0.15157335 0.064960003 0.78400004
-0.15008001 0.064960003 0.78400004
-0.14858668 0.064960003 0.78400004
-0.14746858 0.065125719 0.78600001
-0.14597143 0.065125719 0.78600001
-0.1444743 0.065125719 0.78600001
-0.14334096 0.065291435 0.78800005
-0.090590484 0.054354288 0.65600002
-0.089204766 0.054271434 0.65500003
-0.087957151 0.054271434 0.65500003
-0.086444765 0.054105718 0.65300006
-0.084940009 0.053940002 0.65100002
-0.083700009 0.053940002 0.65100002
-0.082460009 0.053940002 0.65100002
-0.081095241 0.053857148 0.65000004
-0.079857148 0.053857148 0.65000004
-0.07837715 0.053691432 0.648
-0.077142864 0.053691432 0.648
-0.075908579 0.053691432 0.648
-0.074328579 0.053442862 0.64500004
-0.072760008 0.053194288 0.64200002
-0.071537144 0.053194288 0.64200002
-0.070314288 0.053194288 0.64200002
-0.069091432 0.053194288 0.64200002
-0.066388577 0.052034289 0.62800002
-0.065711431 0.052448574 0.63300002
-0.064505719 0.052448574 0.63300002
-0.063200004 0.052365717 0.63200003
-0.061996195 0.052365717 0.63200003
-0.060215242 0.051868577 0.62600005
-0.059117146 0.051951431 0.62700003
-0.058384765 0.052365717 0.63200003
-0.05709048 0.052282862 0.63100004
-0.055888575 0.052282862 0.63100004
-0.054513335 0.052117147 0.62900001
-0.053484764 0.052282862 0.63100004
-0.052282862 0.052282862 0.63100004
-0.051080957 0.052282862 0.63100004
-0.049879052 0.052282862 0.63100004
-0.049294289 0.052945718 0.63900006
-0.048077147 0.052945718 0.63900006
-0.046933338 0.053028576 0.64000005
-0.045714289 0.053028576 0.64000005
-0.04449524 0.053028576 0.64000005
-0.043343812 0.05311143 0.64100003
-0.04212286 0.05311143 0.64100003
-0.040901907 0.05311143 0.64100003
-0.039680954 0.05311143 0.64100003
-0.038460001 0.05311143 0.64100003
-0.037239049 0.05311143 0.64100003
-0.036018096 0.05311143 0.64100003
-0.034797147 0.05311143 0.64100003
-0.033576194 0.05311143 0.64100003
-0.032405715 0.053194288 0.64200002
-0.031280003 0.053360004 0.64400005
-0.030053336 0.053360004 0.64400005
-0.028826669 0.053360004 0.64400005
-0.020680001 0.054520003 0.65800005
-0.019397143 0.054437146 0.65700001
-0.018090477 0.054271434 0.65500003
-0.016842859 0.054271434 0.65500003
-0.01554762 0.054105718 0.65300006
-0.014303811 0.054105718 0.65300006
-0.013040001 0.05402286 0.65200001
-0.011780001 0.053940002 0.65100002
-0.01052381 0.053857148 0.65000004
-0.0092857145 0.053857148 0.65000004
-0.0080600008 0.053940002 0.65100002
-0.0068200002 0.053940002 0.65100002
-0.0055800006 0.053940002 0.65100002
-0.0043466669 0.05402286 0.65200001
-0.0031047622 0.05402286 0.65200001
-0.0018628573 0.05402286 0.65200001
-0.00062190479 0.054105718 0.65300006
0.00062190479 0.054105718 0.65300006
0.0018657144 0.054105718 0.65300006
0.003109524 0.054105718 0.65300006
0.0043533337 0.054105718 0.65300006
0.005588572 0.05402286 0.65200001
0.0068304767 0.05402286 0.65200001
0.0080723818 0.05402286 0.65200001
0.0093142865 0.05402286 0.65200001
0.010572381 0.054105718 0.65300006
0.011798096 0.05402286 0.65200001
0.013060001 0.054105718 0.65300006
0.014303811 0.054105718 0.65300006
0.01554762 0.054105718 0.65300006
0.016791429 0.054105718 0.65300006
0.018035239 0.054105718 0.65300006
0.01927905 0.054105718 0.65300006
0.020522859 0.054105718 0.65300006
0.021766668 0.054105718 0.65300006
0.023010477 0.054105718 0.65300006
-0.15426192 0.06569048 0.77500004
-0.15318 0.065860003 0.77700001
-0.1517 0.065860003 0.77700001
-0.15022001 0.065860003 0.77700001
-0.15008001 0.066453338 0.78400004
-0.14858668 0.066453338 0.78400004
-0.14746858 0.066622861 0.78600001
-0.14597143 0.066622861 0.78600001
-0.1444743 0.066622861 0.78600001
-0.091700003 0.055519052 0.65500003
-0.090452388 0.055519052 0.65500003
-0.088932388 0.055349529 0.65300006
-0.08768858 0.055349529 0.65300006
-0.086312383 0.055264767 0.65200001
-0.084940009 0.055180002 0.65100002
-0.083700009 0.055180002 0.65100002
-0.082460009 0.055180002 0.65100002
-0.081220008 0.055180002 0.65100002
-0.079857148 0.05509524 0.65000004
-0.078619055 0.05509524 0.65000004
-0.074880958 0.053315241 0.62900001
-0.07391715 0.053484764 0.63100004
-0.072830483 0.053569525 0.63200003
-0.071626671 0.053569525 0.63200003
-0.070311435 0.053484764 0.63100004
-0.069109529 0.053484764 0.63100004
-0.067907624 0.053484764 0.63100004
-0.066388577 0.053230479 0.62800002
-0.065088578 0.053145718 0.62700003
-0.063894287 0.053145718 0.62700003
-0.062600002 0.053060956 0.62600005
-0.061407622 0.053060956 0.62600005
-0.060215242 0.053060956 0.62600005
-0.059022862 0.053060956 0.62600005
-0.057922862 0.053145718 0.62700003
-0.056728575 0.053145718 0.62700003
-0.055622861 0.053230479 0.62800002
-0.054340005 0.053145718 0.62700003
-0.053230479 0.053230479 0.62800002
-0.052034289 0.053230479 0.62800002
-0.050838098 0.053230479 0.62800002
-0.04956286 0.053145718 0.62700003
-0.048368573 0.053145718 0.62700003
-0.04709905 0.053060956 0.62600005
-0.04590667 0.053060956 0.62600005
-0.044714287 0.053060956 0.62600005
-0.043521907 0.053060956 0.62600005
-0.043343812 0.054332383 0.64100003
-0.04212286 0.054332383 0.64100003
-0.040901907 0.054332383 0.64100003
-0.039680954 0.054332383 0.64100003
-0.038400002 0.054247621 0.64000005
-0.037239049 0.054332383 0.64100003
-0.036018096 0.054332383 0.64100003
-0.034797147 0.054332383 0.64100003
-0.033576194 0.054332383 0.64100003
-0.032355241 0.054332383 0.64100003
-0.031182859 0.054417148 0.64200002
-0.030053336 0.054586671 0.64400005
-0.028826669 0.054586671 0.64400005
-0.027600002 0.054586671 0.64400005
-0.026414288 0.054671433 0.64500004
-0.01936762 0.055603813 0.65600002
-0.018090477 0.055519052 0.65500003
-0.016842859 0.055519052 0.65500003
-0.01554762 0.055349529 0.65300006
-0.014303811 0.055349529 0.65300006
-0.013040001 0.055264767 0.65200001
-0.011780001 0.055180002 0.65100002
-0.01052381 0.05509524 0.65000004
-0.0092857145 0.05509524 0.65000004
-0.0080600008 0.055180002 0.65100002
-0.0068200002 0.055180002 0.65100002
-0.0055800006 0.055180002 0.65100002
-0.0043466669 0.055264767 0.65200001
-0.0031047622 0.055264767 0.65200001
-0.0018628573 0.055264767 0.65200001
-0.00062190479 0.055349529 0.65300006
0.00062190479 0.055349529 0.65300006
0.0018628573 0.055264767 0.65200001
0.0031047622 0.055264767 0.65200001
0.0043466669 0.055264767 0.65200001
0.005588572 0.055264767 0.65200001
0.0068304767 0.055264767 0.65200001
0.0080723818 0.055264767 0.65200001
0.0093142865 0.055264767 0.65200001
0.010556191 0.055264767 0.65200001
0.011798096 0.055264767 0.65200001
0.013040001 0.055264767 0.65200001
0.014281905 0.055264767 0.65200001
0.01554762 0.055349529 0.65300006
0.016791429 0.055349529 0.65300006
0.018035239 0.055349529 0.65300006
0.01927905 0.055349529 0.65300006
0.020522859 0.055349529 0.65300006
0.021766668 0.055349529 0.65300006
-0.15426192 0.067166671 0.77500004
-0.15278572 0.067166671 0.77500004
-0.1517 0.067340001 0.77700001
-0.15022001 0.067340001 0.77700001
-0.15008001 0.067946672 0.78400004
-0.091420002 0.056593336 0.65300006
-0.090176195 0.056593336 0.65300006
-0.088932388 0.056593336 0.65300006
-0.087554291 0.056506671 0.65200001
-0.086312383 0.056506671 0.65200001
-0.084940009 0.056420002 0.65100002
-0.083828576 0.056506671 0.65200001
-0.082460009 0.056420002 0.65100002
-0.081220008 0.056420002 0.65100002
-0.079980008 0.056420002 0.65100002
-0.076320961 0.054686669 0.63100004
-0.075119056 0.054686669 0.63100004
-0.07391715 0.054686669 0.63100004
-0.072715245 0.054686669 0.63100004
-0.07151334 0.054686669 0.63100004
-0.070311435 0.054686669 0.63100004
-0.068890482 0.054513335 0.62900001
-0.067584768 0.05442667 0.62800002
-0.066388577 0.05442667 0.62800002
-0.064984769 0.054253336 0.62600005
-0.063792385 0.054253336 0.62600005
-0.062600002 0.054253336 0.62600005
-0.061309528 0.054166671 0.625
-0.060215242 0.054253336 0.62600005
-0.059022862 0.054253336 0.62600005
-0.057830479 0.054253336 0.62600005
-0.056638099 0.054253336 0.62600005
-0.05544572 0.054253336 0.62600005
-0.054253336 0.054253336 0.62600005
-0.053060956 0.054253336 0.62600005
-0.051868577 0.054253336 0.62600005
-0.050676193 0.054253336 0.62600005
-0.049483813 0.054253336 0.62600005
-0.048291434 0.054253336 0.62600005
-0.04709905 0.054253336 0.62600005
-0.04590667 0.054253336 0.62600005
-0.044714287 0.054253336 0.62600005
-0.043521907 0.054253336 0.62600005
-0.042397145 0.054340005 0.62700003
-0.04077429 0.055380005 0.63900006
-0.039557144 0.055380005 0.63900006
-0.038340002 0.055380005 0.63900006
-0.037180956 0.055466671 0.64000005
-0.035961907 0.055466671 0.64000005
-0.034742858 0.055466671 0.64000005
-0.033523813 0.055466671 0.64000005
-0.032355241 0.055553336 0.64100003
-0.031182859 0.055640005 0.64200002
-0.030053336 0.055813339 0.64400005
-0.028826669 0.055813339 0.64400005
-0.027600002 0.055813339 0.64400005
-0.026414288 0.055900004 0.64500004
-0.025146669 0.055813339 0.64400005
-0.023920001 0.055813339 0.64400005
-0.020617144 0.056853335 0.65600002
-0.01936762 0.056853335 0.65600002
-0.018090477 0.05676667 0.65500003
-0.016791429 0.056593336 0.65300006
-0.01554762 0.056593336 0.65300006
-0.014303811 0.056593336 0.65300006
-0.013040001 0.056506671 0.65200001
-0.011761906 0.056333337 0.65000004
-0.01052381 0.056333337 0.65000004
-0.0092857145 0.056333337 0.65000004
-0.0080476198 0.056333337 0.65000004
-0.0068095243 0.056333337 0.65000004
-0.0055800006 0.056420002 0.65100002
-0.0043400005 0.056420002 0.65100002
-0.0031047622 0.056506671 0.65200001
-0.0018628573 0.056506671 0.65200001
-0.0006209524 0.056506671 0.65200001
0.00062190479 0.056593336 0.65300006
0.0018628573 0.056506671 0.65200001
0.0031047622 0.056506671 0.65200001
0.0043466669 0.056506671 0.65200001
0.005588572 0.056506671 0.65200001
0.0068304767 0.056506671 0.65200001
0.0080723818 0.056506671 0.65200001
0.0093142865 0.056506671 0.65200001
0.010556191 0.056506671 0.65200001
0.011798096 0.056506671 0.65200001
0.013040001 0.056506671 0.65200001
0.014281905 0.056506671 0.65200001
0.01554762 0.056593336 0.65300006
0.016791429 0.056593336 0.65300006
0.018035239 0.056593336 0.65300006
0.01927905 0.056593336 0.65300006
0.020522859 0.056593336 0.65300006
0.021733334 0.056506671 0.65200001
-0.15620001 0.068200007 0.77000004
-0.15473334 0.068200007 0.77000004
-0.15426192 0.068642862 0.77500004
-0.15278572 0.068642862 0.77500004
-0.1517 0.068820007 0.77700001
-0.15060668 0.068997145 0.77900004
-0.094195247 0.058014289 0.65500003
-0.092521913 0.057748575 0.65200001
-0.091420002 0.057837147 0.65300006
-0.090176195 0.057837147 0.65300006
-0.088796198 0.057748575 0.65200001
-0.087554291 0.057748575 0.65200001
-0.086180009 0.057660002 0.65100002
-0.084940009 0.057660002 0.65100002
-0.083828576 0.057748575 0.65200001
-0.082586668 0.057748575 0.65200001
-0.078475244 0.055711433 0.62900001
-0.077277146 0.055711433 0.62900001
-0.075958103 0.055622861 0.62800002
-0.074761912 0.055622861 0.62800002
-0.073565722 0.055622861 0.62800002
-0.072369531 0.055622861 0.62800002
-0.07117334 0.055622861 0.62800002
-0.069865718 0.055534288 0.62700003
-0.068671435 0.055534288 0.62700003
-0.067369528 0.05544572 0.62600005
-0.066177145 0.05544572 0.62600005
-0.06488096 0.055357147 0.625
-0.063690484 0.055357147 0.625
-0.062400006 0.055268575 0.62400001
-0.061211433 0.055268575 0.62400001
-0.060022861 0.055268575 0.62400001
-0.058834288 0.055268575 0.62400001
-0.057645719 0.055268575 0.62400001
-0.056366671 0.055180002 0.62300003
-0.055268575 0.055268575 0.62400001
-0.054166671 0.055357147 0.625
-0.052976195 0.055357147 0.625
-0.051702861 0.055268575 0.62400001
-0.050595243 0.055357147 0.625
-0.049404766 0.055357147 0.625
-0.04821429 0.055357147 0.625
-0.047023814 0.055357147 0.625
-0.045833338 0.055357147 0.625
-0.044642862 0.055357147 0.625
-0.043452382 0.055357147 0.625
-0.042329527 0.05544572 0.62600005
-0.041137144 0.05544572 0.62600005
-0.040008575 0.055534288 0.62700003
-0.038814288 0.055534288 0.62700003
-0.037620004 0.055534288 0.62700003
-0.037122861 0.056597147 0.63900006
-0.035961907 0.05668572 0.64000005
-0.034742858 0.05668572 0.64000005
-0.033523813 0.05668572 0.64000005
-0.032355241 0.056774288 0.64100003
-0.031182859 0.056862861 0.64200002
-0.029960003 0.056862861 0.64200002
-0.028826669 0.057040002 0.64400005
-0.027600002 0.057040002 0.64400005
-0.026373334 0.057040002 0.64400005
-0.025146669 0.057040002 0.64400005
-0.023920001 0.057040002 0.64400005
-0.022693334 0.057040002 0.64400005
-0.020585716 0.058014289 0.65500003
-0.019338097 0.058014289 0.65500003
-0.018035239 0.057837147 0.65300006
-0.016791429 0.057837147 0.65300006
-0.01554762 0.057837147 0.65300006
-0.014281905 0.057748575 0.65200001
-0.013040001 0.057748575 0.65200001
-0.011761906 0.057571433 0.65000004
-0.010491429 0.057394288 0.648
-0.0092571434 0.057394288 0.648
-0.0080476198 0.057571433 0.65000004
-0.0068095243 0.057571433 0.65000004
-0.0055714292 0.057571433 0.65000004
-0.0043400005 0.057660002 0.65100002
-0.0031047622 0.057748575 0.65200001
-0.0018628573 0.057748575 0.65200001
-0.00062190479 0.057837147 0.65300006
0.00062190479 0.057837147 0.65300006
0.0018628573 0.057748575 0.65200001
0.003109524 0.057837147 0.65300006
0.0043533337 0.057837147 0.65300006
0.005588572 0.057748575 0.65200001
0.0068304767 0.057748575 0.65200001
0.0080723818 0.057748575 0.65200001
0.0093142865 0.057748575 0.65200001
0.010556191 0.057748575 0.65200001
0.011798096 0.057748575 0.65200001
0.013040001 0.057748575 0.65200001
0.014281905 0.057748575 0.65200001
0.015523811 0.057748575 0.65200001
0.016765716 0.057748575 0.65200001
0.018035239 0.057837147 0.65300006
0.01927905 0.057837147 0.65300006
0.020522859 0.057837147 0.65300006
0.021733334 0.057748575 0.65200001
-0.15620001 0.069666669 0.77000004
-0.15473334 0.069666669 0.77000004
-0.15366477 0.069847621 0.77200001
-0.15318 0.070300005 0.77700001
-0.15209049 0.070480958 0.77900004
-0.15060668 0.070480958 0.77900004
-0.092947625 0.059261907 0.65500003
-0.091700003 0.059261907 0.65500003
-0.090176195 0.059080955 0.65300006
-0.088932388 0.059080955 0.65300006
-0.08768858 0.059080955 0.65300006
-0.086312383 0.058990479 0.65200001
-0.085070483 0.058990479 0.65200001
-0.084214292 0.059261907 0.65500003
-0.07992667 0.05709048 0.63100004
-0.078724764 0.05709048 0.63100004
-0.077277146 0.056909528 0.62900001
-0.075958103 0.056819052 0.62800002
-0.074761912 0.056819052 0.62800002
-0.073565722 0.056819052 0.62800002
-0.072254293 0.056728575 0.62700003
-0.071060002 0.056728575 0.62700003
-0.069754288 0.056638099 0.62600005
-0.068561912 0.056638099 0.62600005
-0.067261912 0.056547623 0.625
-0.066071436 0.056547623 0.625
-0.064777151 0.056457147 0.62400001
-0.063588575 0.056457147 0.62400001
-0.062300004 0.056366671 0.62300003
-0.061113339 0.056366671 0.62300003
-0.05992667 0.056366671 0.62300003
-0.058740005 0.056366671 0.62300003
-0.057553336 0.056366671 0.62300003
-0.056366671 0.056366671 0.62300003
-0.055180002 0.056366671 0.62300003
-0.054080002 0.056457147 0.62400001
-0.052891433 0.056457147 0.62400001
-0.051620003 0.056366671 0.62300003
-0.050514288 0.056457147 0.62400001
-0.049325716 0.056457147 0.62400001
-0.048137147 0.056457147 0.62400001
-0.047023814 0.056547623 0.625
-0.045833338 0.056547623 0.625
-0.044642862 0.056547623 0.625
-0.043452382 0.056547623 0.625
-0.042261906 0.056547623 0.625
-0.041137144 0.056638099 0.62600005
-0.039944764 0.056638099 0.62600005
-0.038752384 0.056638099 0.62600005
-0.037620004 0.056728575 0.62700003
-0.036425717 0.056728575 0.62700003
-0.035905715 0.057814289 0.63900006
-0.034742858 0.057904765 0.64000005
-0.033523813 0.057904765 0.64000005
-0.032355241 0.057995241 0.64100003
-0.031182859 0.058085717 0.64200002
-0.029960003 0.058085717 0.64200002
-0.028826669 0.05826667 0.64400005
-0.027600002 0.05826667 0.64400005
-0.026414288 0.058357146 0.64500004
-0.025185715 0.058357146 0.64500004
-0.023957144 0.058357146 0.64500004
-0.022728574 0.058357146 0.64500004
-0.020585716 0.059261907 0.65500003
-0.019338097 0.059261907 0.65500003
-0.018090477 0.059261907 0.65500003
-0.016791429 0.059080955 0.65300006
-0.01554762 0.059080955 0.65300006
-0.014281905 0.058990479 0.65200001
-0.013040001 0.058990479 0.65200001
-0.011761906 0.058809526 0.65000004
-0.010491429 0.058628574 0.648
-0.0092571434 0.058628574 0.648
-0.0080476198 0.058809526 0.65000004
-0.0068095243 0.058809526 0.65000004
-0.0055714292 0.058809526 0.65000004
-0.0043400005 0.058900002 0.65100002
-0.0031047622 0.058990479 0.65200001
-0.0018628573 0.058990479 0.65200001
-0.00062190479 0.059080955 0.65300006
0.00062190479 0.059080955 0.65300006
0.0018628573 0.058990479 0.65200001
0.003109524 0.059080955 0.65300006
0.0043533337 0.059080955 0.65300006
0.005588572 0.058990479 0.65200001
0.0068304767 0.058990479 0.65200001
0.0080723818 0.058990479 0.65200001
0.0093142865 0.058990479 0.65200001
0.010556191 0.058990479 0.65200001
0.011798096 0.058990479 0.65200001
0.013040001 0.058990479 0.65200001
0.014281905 0.058990479 0.65200001
0.015523811 0.058990479 0.65200001
0.016765716 0.058990479 0.65200001
0.018007619 0.058990479 0.65200001
0.01927905 0.059080955 0.65300006
0.020522859 0.059080955 0.65300006
0.021733334 0.058990479 0.65200001
-0.15872286 0.070301913 0.76100004
-0.15851334 0.070856199 0.76700002
-0.1570524 0.070856199 0.76700002
-0.15620001 0.071133338 0.77000004
-0.15473334 0.071133338 0.77000004
-0.15386382 0.071410477 0.77300006
-0.15318 0.071780004 0.77700001
-0.088620007 0.058477148 0.63300002
-0.087414294 0.058477148 0.63300002
-0.086208574 0.058477148 0.63300002
-0.084734291 0.058292385 0.63100004
-0.083532386 0.058292385 0.63100004
-0.08233048 0.058292385 0.63100004
-0.081128575 0.058292385 0.63100004
-0.079673335 0.058107622 0.62900001
-0.078475244 0.058107622 0.62900001
-0.077154294 0.058015242 0.62800002
-0.075958103 0.058015242 0.62800002
-0.074642859 0.057922862 0.62700003
-0.073331431 0.057830479 0.62600005
-0.072023816 0.057738099 0.625
-0.07083334 0.057738099 0.625
-0.069642864 0.057738099 0.625
-0.068342865 0.057645719 0.62400001
-0.067154288 0.057645719 0.62400001
-0.06596572 0.057645719 0.62400001
-0.064673334 0.057553336 0.62300003
-0.063486673 0.057553336 0.62300003
-0.062200002 0.057460956 0.62200004
-0.061015241 0.057460956 0.62200004
-0.059830479 0.057460956 0.62200004
-0.058645718 0.057460956 0.62200004
-0.057460956 0.057460956 0.62200004
-0.056276195 0.057460956 0.62200004
-0.055091433 0.057460956 0.62200004
-0.053906672 0.057460956 0.62200004
-0.052721906 0.057460956 0.62200004
-0.051537145 0.057460956 0.62200004
-0.050433338 0.057553336 0.62300003
-0.049246669 0.057553336 0.62300003
-0.048137147 0.057645719 0.62400001
-0.046948574 0.057645719 0.62400001
-0.045833338 0.057738099 0.625
-0.044642862 0.057738099 0.625
-0.043452382 0.057738099 0.625
-0.042261906 0.057738099 0.625
-0.04107143 0.057738099 0.625
-0.039944764 0.057830479 0.62600005
-0.038752384 0.057830479 0.62600005
-0.037560001 0.057830479 0.62600005
-0.036425717 0.057922862 0.62700003
-0.03523143 0.057922862 0.62700003
-0.034091432 0.058015242 0.62800002
-0.033576194 0.059216194 0.64100003
-0.032355241 0.059216194 0.64100003
-0.031182859 0.059308574 0.64200002
-0.029960003 0.059308574 0.64200002
-0.028737145 0.059308574 0.64200002
-0.027600002 0.059493337 0.64400005
-0.026373334 0.059493337 0.64400005
-0.025146669 0.059493337 0.64400005
-0.023957144 0.059585717 0.64500004
-0.022728574 0.059585717 0.64500004
-0.021533335 0.0596781 0.64600003
-0.01927905 0.060324766 0.65300006
-0.018035239 0.060324766 0.65300006
-0.016791429 0.060324766 0.65300006
-0.01554762 0.060324766 0.65300006
-0.014281905 0.060232386 0.65200001
-0.013040001 0.060232386 0.65200001
-0.011761906 0.060047623 0.65000004
-0.010491429 0.05986286 0.648
-0.0092571434 0.05986286 0.648
-0.0080228578 0.05986286 0.648
-0.0068095243 0.060047623 0.65000004
-0.0055714292 0.060047623 0.65000004
-0.0043400005 0.060140003 0.65100002
-0.0031047622 0.060232386 0.65200001
-0.0018628573 0.060232386 0.65200001
-0.00062190479 0.060324766 0.65300006
0.00062190479 0.060324766 0.65300006
0.0018628573 0.060232386 0.65200001
0.003109524 0.060324766 0.65300006
0.0043533337 0.060324766 0.65300006
0.005588572 0.060232386 0.65200001
0.0068304767 0.060232386 0.65200001
0.0080723818 0.060232386 0.65200001
0.0093142865 0.060232386 0.65200001
0.010556191 0.060232386 0.65200001
0.011798096 0.060232386 0.65200001
0.013040001 0.060232386 0.65200001
0.014281905 0.060232386 0.65200001
0.015523811 0.060232386 0.65200001
0.016765716 0.060232386 0.65200001
0.018007619 0.060232386 0.65200001
0.01927905 0.060324766 0.65300006
0.020491431 0.060232386 0.65200001
0.021733334 0.060232386 0.65200001
0.02297524 0.060232386 0.65200001
-0.15872286 0.071751431 0.76100004
-0.1570524 0.072317146 0.76700002
-0.15660572 0.072788574 0.77200001
-0.15513524 0.072788574 0.77200001
-0.086208574 0.059682861 0.63300002
-0.084734291 0.059494291 0.63100004
-0.083532386 0.059494291 0.63100004
-0.08233048 0.059494291 0.63100004
-0.081128575 0.059494291 0.63100004
-0.079673335 0.05930572 0.62900001
-0.078475244 0.05930572 0.62900001
-0.077031434 0.059117146 0.62700003
-0.07583715 0.059117146 0.62700003
-0.074523814 0.059022862 0.62600005
-0.073214293 0.058928575 0.625
-0.07179334 0.058740005 0.62300003
-0.070606671 0.058740005 0.62300003
-0.069420002 0.058740005 0.62300003
-0.068233341 0.058740005 0.62300003
-0.067046672 0.058740005 0.62300003
-0.065754287 0.058645718 0.62200004
-0.064569525 0.058645718 0.62200004
-0.063180953 0.058457147 0.62
-0.062000003 0.058457147 0.62
-0.060819052 0.058457147 0.62
-0.059638098 0.058457147 0.62
-0.058457147 0.058457147 0.62
-0.057276193 0.058457147 0.62
-0.056095243 0.058457147 0.62
-0.054914288 0.058457147 0.62
-0.053733338 0.058457147 0.62
-0.052552383 0.058457147 0.62
-0.051371433 0.058457147 0.62
-0.050352383 0.058645718 0.62200004
-0.049167622 0.058645718 0.62200004
-0.048060004 0.058740005 0.62300003
-0.046873335 0.058740005 0.62300003
-0.045760002 0.058834288 0.62400001
-0.044571433 0.058834288 0.62400001
-0.043382861 0.058834288 0.62400001
-0.042261906 0.058928575 0.625
-0.04107143 0.058928575 0.625
-0.039880954 0.058928575 0.625
-0.038690478 0.058928575 0.625
-0.037560001 0.059022862 0.62600005
-0.036367621 0.059022862 0.62600005
-0.035287622 0.059211433 0.62800002
-0.034091432 0.059211433 0.62800002
-0.032947622 0.05930572 0.62900001
-0.031749524 0.05930572 0.62900001
-0.031182859 0.060531434 0.64200002
-0.029960003 0.060531434 0.64200002
-0.028826669 0.060720004 0.64400005
-0.027600002 0.060720004 0.64400005
-0.026373334 0.060720004 0.64400005
-0.025146669 0.060720004 0.64400005
-0.023957144 0.060814291 0.64500004
-0.022728574 0.060814291 0.64500004
-0.021533335 0.060908575 0.64600003
-0.01927905 0.061568577 0.65300006
-0.018035239 0.061568577 0.65300006
-0.016791429 0.061568577 0.65300006
-0.01554762 0.061568577 0.65300006
-0.014281905 0.06147429 0.65200001
-0.013040001 0.06147429 0.65200001
-0.011761906 0.061285719 0.65000004
-0.010491429 0.061097145 0.648
-0.0092571434 0.061097145 0.648
-0.0080228578 0.061097145 0.648
-0.0068095243 0.061285719 0.65000004
-0.0055714292 0.061285719 0.65000004
-0.0043400005 0.061380003 0.65100002
-0.0031047622 0.06147429 0.65200001
-0.0018657144 0.061568577 0.65300006
-0.00062190479 0.061568577 0.65300006
0.00062190479 0.061568577 0.65300006
0.0018628573 0.06147429 0.65200001
0.003109524 0.061568577 0.65300006
0.0043533337 0.061568577 0.65300006
0.005588572 0.06147429 0.65200001
0.0068304767 0.06147429 0.65200001
0.0080723818 0.06147429 0.65200001
0.0093142865 0.06147429 0.65200001
0.010556191 0.06147429 0.65200001
0.011798096 0.06147429 0.65200001
0.013040001 0.06147429 0.65200001
0.014281905 0.06147429 0.65200001
0.015523811 0.06147429 0.65200001
0.016765716 0.06147429 0.65200001
0.018007619 0.06147429 0.65200001
