# .PCD v0.7 - Point Cloud Data file format
VERSION 0.7
FIELDS x y z
SIZE 4 4 4
TYPE F F F
COUNT 1 1 1
WIDTH 1302
HEIGHT 1
VIEWPOINT 0 0 0 1 0 0 0
POINTS 1302
DATA ascii
0.022928573 -0.032100003 0.96300006
0.02476286 -0.032100003 0.96300006
0.026597144 -0.032100003 0.96300006
0.02843143 -0.032100003 0.96300006
0.030265717 -0.032100003 0.96300006
0.032100003 -0.032100003 0.96300006
0.033934288 -0.032100003 0.96300006
0.035768572 -0.032100003 0.96300006
0.03760286 -0.032100003 0.96300006
0.039437145 -0.032100003 0.96300006
0.04127143 -0.032100003 0.96300006
-0.0045761908 -0.03020286 0.96100003
-0.0027457145 -0.03020286 0.96100003
-0.00091523817 -0.03020286 0.96100003
0.00091523817 -0.03020286 0.96100003
0.0027371431 -0.030108573 0.95800006
0.0045761908 -0.03020286 0.96100003
0.0064066672 -0.03020286 0.96100003
0.033758096 -0.030108573 0.95800006
0.037407622 -0.030108573 0.95800006
0.039232384 -0.030108573 0.95800006
0.041057147 -0.030108573 0.95800006
-0.022809526 -0.028283812 0.95800006
-0.0027285716 -0.02819524 0.95500004
-0.00090952386 -0.02819524 0.95500004
0.00090952386 -0.02819524 0.95500004
0.0027285716 -0.02819524 0.95500004
0.0045476193 -0.02819524 0.95500004
0.0063666669 -0.02819524 0.95500004
0.0081857145 -0.02819524 0.95500004
0.010004763 -0.02819524 0.95500004
0.02819524 -0.02819524 0.95500004
0.030014288 -0.02819524 0.95500004
0.031833336 -0.02819524 0.95500004
0.033652384 -0.02819524 0.95500004
0.035471432 -0.02819524 0.95500004
0.03729048 -0.02819524 0.95500004
0.039109528 -0.02819524 0.95500004
0.040842861 -0.028136192 0.95300007
0.042658098 -0.028136192 0.95300007
0.044566669 -0.02819524 0.95500004
0.046385717 -0.02819524 0.95500004
0.048204765 -0.02819524 0.95500004
0.050023813 -0.02819524 0.95500004
0.051842861 -0.02819524 0.95500004
0.053661909 -0.02819524 0.95500004
0.055480957 -0.02819524 0.95500004
0.057180002 -0.028136192 0.95300007
0.058995243 -0.028136192 0.95300007
0.06081048 -0.028136192 0.95300007
0.062428575 -0.028047621 0.95000005
0.064238101 -0.028047621 0.95000005
0.066256195 -0.028136192 0.95300007
0.068071432 -0.028136192 0.95300007
0.06988667 -0.028136192 0.95300007
0.071701907 -0.028136192 0.95300007
0.073285721 -0.028047621 0.95000005
0.075095244 -0.028047621 0.95000005
0.077147625 -0.028136192 0.95300007
0.079128578 -0.02819524 0.95500004
0.080947623 -0.02819524 0.95500004
0.082766674 -0.02819524 0.95500004
0.084585719 -0.02819524 0.95500004
-0.00090761913 -0.026320955 0.95300007
0.0063533336 -0.026320955 0.95300007
0.0081685716 -0.026320955 0.95300007
0.0099838106 -0.026320955 0.95300007
0.011799049 -0.026320955 0.95300007
0.029951431 -0.026320955 0.95300007
0.031766668 -0.026320955 0.95300007
0.033581909 -0.026320955 0.95300007
0.035397146 -0.026320955 0.95300007
0.038904764 -0.026238097 0.95000005
0.040628575 -0.026182858 0.94800007
0.04243429 -0.026182858 0.94800007
0.044333335 -0.026238097 0.95000005
0.046142861 -0.026238097 0.95000005
0.047952384 -0.026238097 0.95000005
0.049761906 -0.026238097 0.95000005
0.051571433 -0.026238097 0.95000005
0.053380955 -0.026238097 0.95000005
0.055190481 -0.026238097 0.95000005
0.057000004 -0.026238097 0.95000005
0.058809526 -0.026238097 0.95000005
0.060619052 -0.026238097 0.95000005
0.062428575 -0.026238097 0.95000005
0.064238101 -0.026238097 0.95000005
0.066047624 -0.026238097 0.95000005
0.067857146 -0.026238097 0.95000005
0.069666669 -0.026238097 0.95000005
0.071476199 -0.026238097 0.95000005
0.073285721 -0.026238097 0.95000005
0.07493715 -0.026182858 0.94800007
0.076904766 -0.026238097 0.95000005
0.078714289 -0.026238097 0.95000005
0.080523811 -0.026238097 0.95000005
0.082160003 -0.026182858 0.94800007
0.084142864 -0.026238097 0.95000005
0.085952386 -0.026238097 0.95000005
0.087761909 -0.026238097 0.95000005
-0.048099052 -0.022011431 0.85600007
-0.046468575 -0.022011431 0.85600007
-0.044838097 -0.022011431 0.85600007
-0.043207623 -0.022011431 0.85600007
0.00090476195 -0.024428573 0.95000005
0.0027142859 -0.024428573 0.95000005
0.0063333339 -0.024428573 0.95000005
0.0081428578 -0.024428573 0.95000005
0.0099523813 -0.024428573 0.95000005
0.011761906 -0.024428573 0.95000005
0.013571429 -0.024428573 0.95000005
0.033405717 -0.024377145 0.94800007
0.035211433 -0.024377145 0.94800007
0.037017144 -0.024377145 0.94800007
0.03882286 -0.024377145 0.94800007
0.040500004 -0.024300002 0.94500005
0.042300005 -0.024300002 0.94500005
0.044240002 -0.024377145 0.94800007
0.046045717 -0.024377145 0.94800007
0.047851432 -0.024377145 0.94800007
0.049657147 -0.024377145 0.94800007
0.051462859 -0.024377145 0.94800007
0.053268574 -0.024377145 0.94800007
0.055074289 -0.024377145 0.94800007
0.056880005 -0.024377145 0.94800007
0.05868572 -0.024377145 0.94800007
0.060491432 -0.024377145 0.94800007
0.062297147 -0.024377145 0.94800007
0.064102858 -0.024377145 0.94800007
0.065908574 -0.024377145 0.94800007
0.067714289 -0.024377145 0.94800007
0.069520004 -0.024377145 0.94800007
0.071325719 -0.024377145 0.94800007
0.073131435 -0.024377145 0.94800007
0.07493715 -0.024377145 0.94800007
0.076742865 -0.024377145 0.94800007
0.078548573 -0.024377145 0.94800007
0.080354288 -0.024377145 0.94800007
0.082160003 -0.024377145 0.94800007
0.083965719 -0.024377145 0.94800007
-0.075108573 -0.020190477 0.84800005
-0.061000004 -0.020333335 0.85400003
-0.059512384 -0.020380953 0.85600007
-0.057746671 -0.020333335 0.85400003
-0.052990481 -0.020380953 0.85600007
-0.051360004 -0.020380953 0.85600007
-0.049729526 -0.020380953 0.85600007
-0.048099052 -0.020380953 0.85600007
-0.046468575 -0.020380953 0.85600007
-0.044838097 -0.020380953 0.85600007
-0.043207623 -0.020380953 0.85600007
-0.041480001 -0.020333335 0.85400003
-0.039853334 -0.020333335 0.85400003
-0.038226668 -0.020333335 0.85400003
0.033300001 -0.022500001 0.94500005
0.035100002 -0.022500001 0.94500005
0.036900003 -0.022500001 0.94500005
0.038700003 -0.022500001 0.94500005
0.040500004 -0.022500001 0.94500005
0.042300005 -0.022500001 0.94500005
0.044100001 -0.022500001 0.94500005
0.045900002 -0.022500001 0.94500005
0.047700003 -0.022500001 0.94500005
0.049500003 -0.022500001 0.94500005
0.051300004 -0.022500001 0.94500005
0.053100005 -0.022500001 0.94500005
0.054900005 -0.022500001 0.94500005
0.056700002 -0.022500001 0.94500005
0.05831429 -0.022428572 0.94200003
0.060300004 -0.022500001 0.94500005
0.061902862 -0.022428572 0.94200003
0.063900001 -0.022500001 0.94500005
0.065700002 -0.022500001 0.94500005
0.067500003 -0.022500001 0.94500005
0.10496572 -0.022428572 0.94200003
0.10676001 -0.022428572 0.94200003
-0.076904766 -0.018619049 0.85000002
-0.075108573 -0.01857524 0.84800005
-0.073493339 -0.01857524 0.84800005
-0.072047621 -0.018619049 0.85000002
-0.070428573 -0.018619049 0.85000002
-0.068809532 -0.018619049 0.85000002
-0.067348577 -0.018662859 0.85200006
-0.065725721 -0.018662859 0.85200006
-0.064253338 -0.018706668 0.85400003
-0.062626667 -0.018706668 0.85400003
-0.061000004 -0.018706668 0.85400003
-0.059512384 -0.018750478 0.85600007
-0.05788191 -0.018750478 0.85600007
-0.056120005 -0.018706668 0.85400003
-0.054620955 -0.018750478 0.85600007
-0.052990481 -0.018750478 0.85600007
-0.051360004 -0.018750478 0.85600007
-0.049729526 -0.018750478 0.85600007
-0.048099052 -0.018750478 0.85600007
-0.046468575 -0.018750478 0.85600007
-0.044838097 -0.018750478 0.85600007
-0.043207623 -0.018750478 0.85600007
-0.041577145 -0.018750478 0.85600007
-0.039946668 -0.018750478 0.85600007
-0.038316194 -0.018750478 0.85600007
-0.031720001 -0.018706668 0.85400003
-0.028466668 -0.018706668 0.85400003
-0.026840001 -0.018706668 0.85400003
-0.023697145 -0.018794287 0.85800004
-0.022011431 -0.018750478 0.85600007
-0.020380953 -0.018750478 0.85600007
-0.018706668 -0.018706668 0.85400003
-0.017040001 -0.018662859 0.85200006
0.036782861 -0.020634288 0.94200003
0.040371433 -0.020634288 0.94200003
0.042165715 -0.020634288 0.94200003
0.043960001 -0.020634288 0.94200003
0.045754287 -0.020634288 0.94200003
0.047447622 -0.020590477 0.94000006
0.04934286 -0.020634288 0.94200003
0.051137146 -0.020634288 0.94200003
0.052819051 -0.020590477 0.94000006
0.054609526 -0.020590477 0.94000006
0.05819048 -0.020590477 0.94000006
0.085047625 -0.020590477 0.94000006
0.086838104 -0.020590477 0.94000006
0.088628575 -0.020590477 0.94000006
0.095484771 -0.020524763 0.93700004
0.099371433 -0.020590477 0.94000006
0.10295239 -0.020590477 0.94000006
0.10440858 -0.020524763 0.93700004
0.10653334 -0.020590477 0.94000006
0.10832382 -0.020590477 0.94000006
0.11190477 -0.020590477 0.94000006
-0.08108858 -0.016860001 0.84300005
-0.079671435 -0.016900001 0.84500003
-0.078339055 -0.016960001 0.84800005
-0.076904766 -0.017000001 0.85000002
-0.075108573 -0.016960001 0.84800005
-0.073493339 -0.016960001 0.84800005
-0.072047621 -0.017000001 0.85000002
-0.070428573 -0.017000001 0.85000002
-0.068809532 -0.017000001 0.85000002
-0.067190483 -0.017000001 0.85000002
-0.065725721 -0.017040001 0.85200006
-0.064253338 -0.017080002 0.85400003
-0.062626667 -0.017080002 0.85400003
-0.061000004 -0.017080002 0.85400003
-0.059512384 -0.017120002 0.85600007
-0.05788191 -0.017120002 0.85600007
-0.056120005 -0.017080002 0.85400003
-0.054620955 -0.017120002 0.85600007
-0.052990481 -0.017120002 0.85600007
-0.051360004 -0.017120002 0.85600007
-0.049729526 -0.017120002 0.85600007
-0.048099052 -0.017120002 0.85600007
-0.046468575 -0.017120002 0.85600007
-0.044838097 -0.017120002 0.85600007
-0.043207623 -0.017120002 0.85600007
-0.041577145 -0.017120002 0.85600007
-0.039946668 -0.017120002 0.85600007
-0.038316194 -0.017120002 0.85600007
-0.036685716 -0.017120002 0.85600007
-0.035055239 -0.017120002 0.85600007
-0.033346668 -0.017080002 0.85400003
-0.031720001 -0.017080002 0.85400003
-0.030093335 -0.017080002 0.85400003
-0.028533336 -0.017120002 0.85600007
-0.026840001 -0.017080002 0.85400003
-0.025272382 -0.017120002 0.85600007
-0.023697145 -0.01716 0.85800004
-0.022011431 -0.017120002 0.85600007
-0.020333335 -0.017080002 0.85400003
-0.018706668 -0.017080002 0.85400003
-0.017040001 -0.017040001 0.85200006
-0.015417144 -0.017040001 0.85200006
-0.013794286 -0.017040001 0.85200006
-0.012142858 -0.017000001 0.85000002
-0.01052381 -0.017000001 0.85000002
-0.0088838097 -0.016960001 0.84800005
-0.0072685718 -0.016960001 0.84800005
-0.0056200004 -0.016860001 0.84300005
-0.0040142857 -0.016860001 0.84300005
-0.0024085715 -0.016860001 0.84300005
-0.00080285722 -0.016860001 0.84300005
0.00080095243 -0.01682 0.84100002
0.045511432 -0.018740002 0.93700004
0.082991436 -0.018740002 0.93700004
0.084595241 -0.018700002 0.93500006
0.086376198 -0.018700002 0.93500006
0.088157147 -0.018700002 0.93500006
0.089649528 -0.01864 0.93200004
0.091719054 -0.018700002 0.93500006
0.093500003 -0.018700002 0.93500006
0.09528096 -0.018700002 0.93500006
0.09706191 -0.018700002 0.93500006
0.098842867 -0.018700002 0.93500006
0.10083906 -0.018740002 0.93700004
0.10262381 -0.018740002 0.93700004
0.10418572 -0.018700002 0.93500006
-0.084100008 -0.015218096 0.84100002
-0.082498103 -0.015218096 0.84100002
-0.08108858 -0.015254287 0.84300005
-0.079671435 -0.015290477 0.84500003
-0.078339055 -0.015344763 0.84800005
-0.076723814 -0.015344763 0.84800005
-0.075108573 -0.015344763 0.84800005
-0.073493339 -0.015344763 0.84800005
-0.072047621 -0.015380953 0.85000002
-0.070428573 -0.015380953 0.85000002
-0.068809532 -0.015380953 0.85000002
-0.067190483 -0.015380953 0.85000002
-0.065571435 -0.015380953 0.85000002
-0.064102858 -0.015417144 0.85200006
-0.062626667 -0.015453334 0.85400003
-0.061000004 -0.015453334 0.85400003
-0.059373338 -0.015453334 0.85400003
-0.057746671 -0.015453334 0.85400003
-0.056120005 -0.015453334 0.85400003
-0.054493338 -0.015453334 0.85400003
-0.052866671 -0.015453334 0.85400003
-0.051360004 -0.015489525 0.85600007
-0.049729526 -0.015489525 0.85600007
-0.047986671 -0.015453334 0.85400003
-0.046468575 -0.015489525 0.85600007
-0.044838097 -0.015489525 0.85600007
-0.043207623 -0.015489525 0.85600007
-0.041577145 -0.015489525 0.85600007
-0.039946668 -0.015489525 0.85600007
-0.038316194 -0.015489525 0.85600007
-0.036685716 -0.015489525 0.85600007
-0.035055239 -0.015489525 0.85600007
-0.033424765 -0.015489525 0.85600007
-0.031794287 -0.015489525 0.85600007
-0.030163812 -0.015489525 0.85600007
-0.028533336 -0.015489525 0.85600007
-0.026902858 -0.015489525 0.85600007
-0.025272382 -0.015489525 0.85600007
-0.023697145 -0.015525715 0.85800004
-0.022011431 -0.015489525 0.85600007
-0.020333335 -0.015453334 0.85400003
-0.018706668 -0.015453334 0.85400003
-0.017080002 -0.015453334 0.85400003
-0.015417144 -0.015417144 0.85200006
-0.013794286 -0.015417144 0.85200006
-0.012142858 -0.015380953 0.85000002
-0.01052381 -0.015380953 0.85000002
-0.0089047626 -0.015380953 0.85000002
-0.0072685718 -0.015344763 0.84800005
-0.0056333337 -0.015290477 0.84500003
-0.0040238099 -0.015290477 0.84500003
-0.0024142859 -0.015290477 0.84500003
-0.00080285722 -0.015254287 0.84300005
0.00080095243 -0.015218096 0.84100002
0.0024028574 -0.015218096 0.84100002
0.004004762 -0.015218096 0.84100002
0.0055933339 -0.015181906 0.83900005
0.0071914289 -0.015181906 0.83900005
0.0087685715 -0.015145715 0.83700001
0.01355143 -0.015145715 0.83700001
0.050757147 -0.016919049 0.93500006
0.084323816 -0.016864764 0.93200004
0.086099051 -0.016864764 0.93200004
0.087685719 -0.016828572 0.93000007
0.089457147 -0.016828572 0.93000007
0.091228575 -0.016828572 0.93000007
0.093200006 -0.016864764 0.93200004
0.094975248 -0.016864764 0.93200004
-0.097345717 -0.013454286 0.83100003
-0.09599334 -0.013486668 0.83300006
-0.094633341 -0.013519049 0.83500004
-0.09326572 -0.01355143 0.83700001
-0.091671437 -0.01355143 0.83700001
-0.090077147 -0.01355143 0.83700001
-0.088482864 -0.01355143 0.83700001
-0.087096199 -0.01358381 0.83900005
-0.085498102 -0.01358381 0.83900005
-0.084100008 -0.013616191 0.84100002
-0.082498103 -0.013616191 0.84100002
-0.08108858 -0.013648572 0.84300005
-0.079671435 -0.013680954 0.84500003
-0.078339055 -0.013729525 0.84800005
-0.076723814 -0.013729525 0.84800005
-0.075108573 -0.013729525 0.84800005
-0.073493339 -0.013729525 0.84800005
-0.072047621 -0.013761906 0.85000002
-0.070428573 -0.013761906 0.85000002
-0.068809532 -0.013761906 0.85000002
-0.067190483 -0.013761906 0.85000002
-0.065725721 -0.013794286 0.85200006
-0.064253338 -0.013826667 0.85400003
-0.062626667 -0.013826667 0.85400003
-0.061000004 -0.013826667 0.85400003
-0.059373338 -0.013826667 0.85400003
-0.05788191 -0.013859048 0.85600007
-0.056120005 -0.013826667 0.85400003
-0.054493338 -0.013826667 0.85400003
-0.052866671 -0.013826667 0.85400003
-0.051240005 -0.013826667 0.85400003
-0.049613338 -0.013826667 0.85400003
-0.047986671 -0.013826667 0.85400003
-0.046360005 -0.013826667 0.85400003
-0.044733338 -0.013826667 0.85400003
-0.043207623 -0.013859048 0.85600007
-0.041577145 -0.013859048 0.85600007
-0.039946668 -0.013859048 0.85600007
-0.038316194 -0.013859048 0.85600007
-0.036685716 -0.013859048 0.85600007
-0.035055239 -0.013859048 0.85600007
-0.033424765 -0.013859048 0.85600007
-0.031794287 -0.013859048 0.85600007
-0.030163812 -0.013859048 0.85600007
-0.028533336 -0.013859048 0.85600007
-0.026902858 -0.013859048 0.85600007
-0.025272382 -0.013859048 0.85600007
-0.023586668 -0.013826667 0.85400003
-0.021960001 -0.013826667 0.85400003
-0.020333335 -0.013826667 0.85400003
-0.018662859 -0.013794286 0.85200006
-0.017040001 -0.013794286 0.85200006
-0.015417144 -0.013794286 0.85200006
-0.013794286 -0.013794286 0.85200006
-0.01217143 -0.013794286 0.85200006
-0.01052381 -0.013761906 0.85000002
-0.0089047626 -0.013761906 0.85000002
-0.0072857146 -0.013761906 0.85000002
-0.0056533339 -0.013729525 0.84800005
-0.0040380955 -0.013729525 0.84800005
-0.0024142859 -0.013680954 0.84500003
-0.00080476195 -0.013680954 0.84500003
0.00080285722 -0.013648572 0.84300005
0.0024085715 -0.013648572 0.84300005
0.0040142857 -0.013648572 0.84300005
0.0055933339 -0.01358381 0.83900005
0.0071914289 -0.01358381 0.83900005
0.0087895244 -0.01358381 0.83900005
0.010412382 -0.013616191 0.84100002
0.011985715 -0.01358381 0.83900005
0.01358381 -0.01358381 0.83900005
0.015145715 -0.01355143 0.83700001
0.016740002 -0.01355143 0.83700001
0.085914291 -0.015057144 0.93000007
0.087402865 -0.015008572 0.92700005
0.088976197 -0.014976191 0.92500007
0.090934291 -0.015008572 0.92700005
0.092700005 -0.015008572 0.92700005
0.094771437 -0.015057144 0.93000007
0.096542865 -0.015057144 0.93000007
0.098314293 -0.015057144 0.93000007
-0.10051143 -0.011871429 0.83100003
-0.098928578 -0.011871429 0.83100003
-0.097345717 -0.011871429 0.83100003
-0.09599334 -0.011900001 0.83300006
-0.094406672 -0.011900001 0.83300006
-0.09326572 -0.011957143 0.83700001
-0.091671437 -0.011957143 0.83700001
-0.090077147 -0.011957143 0.83700001
-0.088482864 -0.011957143 0.83700001
-0.087096199 -0.011985715 0.83900005
-0.085498102 -0.011985715 0.83900005
-0.084100008 -0.012014287 0.84100002
-0.082498103 -0.012014287 0.84100002
-0.08108858 -0.012042858 0.84300005
-0.079671435 -0.01207143 0.84500003
-0.078061908 -0.01207143 0.84500003
-0.076723814 -0.012114286 0.84800005
-0.075108573 -0.012114286 0.84800005
-0.073493339 -0.012114286 0.84800005
-0.072047621 -0.012142858 0.85000002
-0.070594288 -0.01217143 0.85200006
-0.068971433 -0.01217143 0.85200006
-0.067348577 -0.01217143 0.85200006
-0.065880008 -0.012200001 0.85400003
-0.064253338 -0.012200001 0.85400003
-0.062773339 -0.012228572 0.85600007
-0.061142862 -0.012228572 0.85600007
-0.059512384 -0.012228572 0.85600007
-0.05788191 -0.012228572 0.85600007
-0.056120005 -0.012200001 0.85400003
-0.054620955 -0.012228572 0.85600007
-0.052990481 -0.012228572 0.85600007
-0.051240005 -0.012200001 0.85400003
-0.049613338 -0.012200001 0.85400003
-0.047986671 -0.012200001 0.85400003
-0.046360005 -0.012200001 0.85400003
-0.044838097 -0.012228572 0.85600007
-0.043207623 -0.012228572 0.85600007
-0.041577145 -0.012228572 0.85600007
-0.039946668 -0.012228572 0.85600007
-0.038316194 -0.012228572 0.85600007
-0.036685716 -0.012228572 0.85600007
-0.035055239 -0.012228572 0.85600007
-0.033424765 -0.012228572 0.85600007
-0.031794287 -0.012228572 0.85600007
-0.030163812 -0.012228572 0.85600007
-0.028533336 -0.012228572 0.85600007
-0.026902858 -0.012228572 0.85600007
-0.025272382 -0.012228572 0.85600007
-0.023586668 -0.012200001 0.85400003
-0.021960001 -0.012200001 0.85400003
-0.020333335 -0.012200001 0.85400003
-0.018662859 -0.01217143 0.85200006
-0.017040001 -0.01217143 0.85200006
-0.015417144 -0.01217143 0.85200006
-0.013794286 -0.01217143 0.85200006
-0.01217143 -0.01217143 0.85200006
-0.010548572 -0.01217143 0.85200006
-0.0089047626 -0.012142858 0.85000002
-0.0072857146 -0.012142858 0.85000002
-0.0056666671 -0.012142858 0.85000002
-0.0040380955 -0.012114286 0.84800005
-0.0024228573 -0.012114286 0.84800005
-0.00080476195 -0.01207143 0.84500003
0.00080476195 -0.01207143 0.84500003
0.0024142859 -0.01207143 0.84500003
0.0040142857 -0.012042858 0.84300005
0.0056066671 -0.012014287 0.84100002
0.0072085718 -0.012014287 0.84100002
0.0087895244 -0.011985715 0.83900005
0.01038762 -0.011985715 0.83900005
0.011985715 -0.011985715 0.83900005
0.01355143 -0.011957143 0.83700001
0.015145715 -0.011957143 0.83700001
0.016700001 -0.011928572 0.83500004
0.018290477 -0.011928572 0.83500004
0.019880954 -0.011928572 0.83500004
0.02295143 -0.011871429 0.83100003
0.024534287 -0.011871429 0.83100003
0.085452385 -0.013214286 0.92500007
0.087214291 -0.013214286 0.92500007
0.088687629 -0.01317143 0.92200005
0.090738103 -0.013214286 0.92500007
0.092500009 -0.013214286 0.92500007
0.094465718 -0.013242858 0.92700005
0.096231438 -0.013242858 0.92700005
-0.10374001 -0.010140001 0.81900007
-0.1031781 -0.010239048 0.82700002
-0.10184858 -0.01026381 0.82900006
-0.10051143 -0.010288572 0.83100003
-0.098928578 -0.010288572 0.83100003
-0.097580008 -0.010313334 0.83300006
-0.096223816 -0.010338096 0.83500004
-0.094633341 -0.010338096 0.83500004
-0.09326572 -0.010362858 0.83700001
-0.091671437 -0.010362858 0.83700001
-0.090077147 -0.010362858 0.83700001
-0.088482864 -0.010362858 0.83700001
-0.087096199 -0.01038762 0.83900005
-0.085498102 -0.01038762 0.83900005
-0.083900005 -0.01038762 0.83900005
-0.082498103 -0.010412382 0.84100002
-0.08108858 -0.010437144 0.84300005
-0.079671435 -0.010461905 0.84500003
-0.078061908 -0.010461905 0.84500003
-0.076723814 -0.010499048 0.84800005
-0.075108573 -0.010499048 0.84800005
-0.073666669 -0.01052381 0.85000002
-0.072217144 -0.010548572 0.85200006
-0.070594288 -0.010548572 0.85200006
-0.068971433 -0.010548572 0.85200006
-0.067348577 -0.010548572 0.85200006
-0.065880008 -0.010573334 0.85400003
-0.067833334 -0.011452381 0.92500007
-0.061142862 -0.010598096 0.85600007
-0.05788191 -0.010598096 0.85600007
-0.056251433 -0.010598096 0.85600007
-0.052990481 -0.010598096 0.85600007
-0.051360004 -0.010598096 0.85600007
-0.049729526 -0.010598096 0.85600007
-0.047986671 -0.010573334 0.85400003
-0.046468575 -0.010598096 0.85600007
-0.044733338 -0.010573334 0.85400003
-0.043207623 -0.010598096 0.85600007
-0.041577145 -0.010598096 0.85600007
-0.039946668 -0.010598096 0.85600007
-0.038316194 -0.010598096 0.85600007
-0.036685716 -0.010598096 0.85600007
-0.035055239 -0.010598096 0.85600007
-0.033424765 -0.010598096 0.85600007
-0.031794287 -0.010598096 0.85600007
-0.030163812 -0.010598096 0.85600007
-0.028600002 -0.010622858 0.85800004
-0.026902858 -0.010598096 0.85600007
-0.025272382 -0.010598096 0.85600007
-0.023697145 -0.010622858 0.85800004
-0.021960001 -0.010573334 0.85400003
-0.020333335 -0.010573334 0.85400003
-0.018706668 -0.010573334 0.85400003
-0.017040001 -0.010548572 0.85200006
-0.015417144 -0.010548572 0.85200006
-0.013794286 -0.010548572 0.85200006
-0.01217143 -0.010548572 0.85200006
-0.010548572 -0.010548572 0.85200006
-0.0089257145 -0.010548572 0.85200006
-0.0073028575 -0.010548572 0.85200006
-0.0056666671 -0.01052381 0.85000002
-0.0040476192 -0.01052381 0.85000002
-0.0024228573 -0.010499048 0.84800005
-0.00080761907 -0.010499048 0.84800005
0.00080476195 -0.010461905 0.84500003
0.0024142859 -0.010461905 0.84500003
0.0040142857 -0.010437144 0.84300005
0.0056066671 -0.010412382 0.84100002
0.0072085718 -0.010412382 0.84100002
0.0087895244 -0.01038762 0.83900005
0.01038762 -0.01038762 0.83900005
0.011957143 -0.010362858 0.83700001
0.01355143 -0.010362858 0.83700001
0.015145715 -0.010362858 0.83700001
0.016740002 -0.010362858 0.83700001
0.018290477 -0.010338096 0.83500004
0.019880954 -0.010338096 0.83500004
0.021420002 -0.010313334 0.83300006
0.02295143 -0.010288572 0.83100003
0.024534287 -0.010288572 0.83100003
0.026054287 -0.01026381 0.82900006
0.027633335 -0.01026381 0.82900006
0.029212384 -0.01026381 0.82900006
0.03079143 -0.01026381 0.82900006
0.068466671 -0.011266667 0.91000003
0.070200004 -0.011266667 0.91000003
0.084990479 -0.011390476 0.92000002
0.086742863 -0.011390476 0.92000002
0.088495247 -0.011390476 0.92000002
0.090443812 -0.011415238 0.92200005
0.092200004 -0.011415238 0.92200005
0.093956195 -0.011415238 0.92200005
0.095712386 -0.011415238 0.92200005
-0.11185715 -0.0084857149 0.81000006
-0.11031429 -0.0084857149 0.81000006
-0.10944287 -0.0085380962 0.81500006
-0.10789049 -0.0085380962 0.81500006
-0.10659906 -0.0085590482 0.81700003
-0.10530001 -0.0085800001 0.81900007
-0.10374001 -0.0085800001 0.81900007
-0.1031781 -0.0086638099 0.82700002
-0.10160287 -0.0086638099 0.82700002
-0.10026953 -0.0086847628 0.82900006
-0.098928578 -0.0087057147 0.83100003
-0.097580008 -0.0087266676 0.83300006
-0.09599334 -0.0087266676 0.83300006
-0.094633341 -0.0087476196 0.83500004
-0.09326572 -0.0087685715 0.83700001
-0.091671437 -0.0087685715 0.83700001
-0.090292387 -0.0087895244 0.83900005
-0.088694289 -0.0087895244 0.83900005
-0.087096199 -0.0087895244 0.83900005
-0.085498102 -0.0087895244 0.83900005
-0.083900005 -0.0087895244 0.83900005
-0.082498103 -0.0088104764 0.84100002
-0.080896199 -0.0088104764 0.84100002
-0.079671435 -0.0088523813 0.84500003
-0.078339055 -0.0088838097 0.84800005
-0.076723814 -0.0088838097 0.84800005
-0.075285718 -0.0089047626 0.85000002
-0.073666669 -0.0089047626 0.85000002
-0.072386675 -0.0089466674 0.85400003
-0.070760004 -0.0089466674 0.85400003
-0.073119052 -0.0096904766 0.92500007
-0.071357146 -0.0096904766 0.92500007
-0.067833334 -0.0096904766 0.92500007
-0.06430953 -0.0096904766 0.92500007
-0.060785718 -0.0096904766 0.92500007
-0.058832385 -0.0096590482 0.92200005
-0.057076193 -0.0096590482 0.92200005
-0.055320002 -0.0096590482 0.92200005
-0.046468575 -0.0089676194 0.85600007
-0.039946668 -0.0089676194 0.85600007
-0.037758097 -0.0096590482 0.92200005
-0.036001906 -0.0096590482 0.92200005
-0.034171432 -0.0096380962 0.92000002
-0.032419048 -0.0096380962 0.92000002
-0.030566668 -0.0096066669 0.91700006
-0.028914288 -0.0096380962 0.92000002
-0.027161907 -0.0096380962 0.92000002
-0.025409525 -0.0096380962 0.92000002
-0.023657145 -0.0096380962 0.92000002
-0.020333335 -0.0089466674 0.85400003
-0.018706668 -0.0089466674 0.85400003
-0.017080002 -0.0089466674 0.85400003
-0.015453334 -0.0089466674 0.85400003
-0.013826667 -0.0089466674 0.85400003
-0.01217143 -0.0089257145 0.85200006
-0.010548572 -0.0089257145 0.85200006
-0.0089257145 -0.0089257145 0.85200006
-0.0073028575 -0.0089257145 0.85200006
-0.0056800004 -0.0089257145 0.85200006
-0.0040476192 -0.0089047626 0.85000002
-0.0024285717 -0.0089047626 0.85000002
-0.00080761907 -0.0088838097 0.84800005
0.00080761907 -0.0088838097 0.84800005
0.0024142859 -0.0088523813 0.84500003
0.0040238099 -0.0088523813 0.84500003
0.0056066671 -0.0088104764 0.84100002
0.0072085718 -0.0088104764 0.84100002
0.0087895244 -0.0087895244 0.83900005
0.01038762 -0.0087895244 0.83900005
0.011957143 -0.0087685715 0.83700001
0.01355143 -0.0087685715 0.83700001
0.015145715 -0.0087685715 0.83700001
0.016740002 -0.0087685715 0.83700001
0.018290477 -0.0087476196 0.83500004
0.019880954 -0.0087476196 0.83500004
0.021420002 -0.0087266676 0.83300006
0.02295143 -0.0087057147 0.83100003
0.024475239 -0.0086847628 0.82900006
0.026054287 -0.0086847628 0.82900006
0.027633335 -0.0086847628 0.82900006
0.029212384 -0.0086847628 0.82900006
0.030717146 -0.0086638099 0.82700002
0.032292385 -0.0086638099 0.82700002
0.033785716 -0.0086428579 0.82500005
0.051526669 -0.0096066669 0.91700006
0.058513336 -0.0096066669 0.91700006
0.060260005 -0.0096066669 0.91700006
0.061871432 -0.0095857149 0.91500002
0.063614286 -0.0095857149 0.91500002
0.065357149 -0.0095857149 0.91500002
0.066953339 -0.0095647629 0.91300005
0.068466671 -0.0095333336 0.91000003
0.070200004 -0.0095333336 0.91000003
0.071933337 -0.0095333336 0.91000003
0.073666669 -0.0095333336 0.91000003
0.075400002 -0.0095333336 0.91000003
0.077557147 -0.0095857149 0.91500002
0.079473339 -0.0096066669 0.91700006
0.081485718 -0.0096380962 0.92000002
0.083238102 -0.0096380962 0.92000002
0.084990479 -0.0096380962 0.92000002
0.086742863 -0.0096380962 0.92000002
0.088495247 -0.0096380962 0.92000002
0.090247624 -0.0096380962 0.92000002
0.092000008 -0.0096380962 0.92000002
0.093752384 -0.0096380962 0.92000002
0.095504768 -0.0096380962 0.92000002
0.097257152 -0.0096380962 0.92000002
0.099009529 -0.0096380962 0.92000002
0.10076191 -0.0096380962 0.92000002
0.10251429 -0.0096380962 0.92000002
0.10426667 -0.0096380962 0.92000002
0.10601906 -0.0096380962 0.92000002
-0.11396001 -0.0069771432 0.81400001
-0.11254763 -0.0069857147 0.81500006
-0.11099525 -0.0069857147 0.81500006
-0.10971144 -0.0070028575 0.81700003
-0.10868477 -0.0070371432 0.82100004
-0.10738191 -0.0070542861 0.82300001
-0.10607143 -0.0070714289 0.82500005
-0.10475334 -0.0070885718 0.82700002
-0.1031781 -0.0070885718 0.82700002
-0.10160287 -0.0070885718 0.82700002
-0.10026953 -0.0071057146 0.82900006
-0.098928578 -0.0071228575 0.83100003
-0.097345717 -0.0071228575 0.83100003
-0.095762864 -0.0071228575 0.83100003
-0.094406672 -0.0071400004 0.83300006
-0.09326572 -0.0071742861 0.83700001
-0.091890484 -0.0071914289 0.83900005
-0.090292387 -0.0071914289 0.83900005
-0.088694289 -0.0071914289 0.83900005
-0.087096199 -0.0071914289 0.83900005
-0.085498102 -0.0071914289 0.83900005
-0.083900005 -0.0071914289 0.83900005
-0.082301907 -0.0071914289 0.83900005
-0.080896199 -0.0072085718 0.84100002
-0.079482861 -0.0072257146 0.84300005
-0.078339055 -0.0072685718 0.84800005
-0.037676193 -0.007885715 0.92000002
-0.035923813 -0.007885715 0.92000002
-0.034060001 -0.0078600002 0.91700006
-0.032313336 -0.0078600002 0.91700006
-0.030566668 -0.0078600002 0.91700006
-0.028914288 -0.007885715 0.92000002
-0.027161907 -0.007885715 0.92000002
-0.025409525 -0.007885715 0.92000002
-0.023657145 -0.007885715 0.92000002
-0.021833334 -0.0078600002 0.91700006
-0.020086668 -0.0078600002 0.91700006
-0.018340001 -0.0078600002 0.91700006
-0.016557144 -0.0078428574 0.91500002
-0.014814286 -0.0078428574 0.91500002
-0.013071429 -0.0078428574 0.91500002
-0.011328572 -0.0078428574 0.91500002
-0.0095857149 -0.0078428574 0.91500002
-0.0078600002 -0.0078600002 0.91700006
-0.0061133336 -0.0078600002 0.91700006
-0.0043571433 -0.0078428574 0.91500002
-0.0026200002 -0.0078600002 0.91700006
-0.00087333337 -0.0078600002 0.91700006
0.00087333337 -0.0078600002 0.91700006
0.0026142858 -0.0078428574 0.91500002
0.0043571433 -0.0078428574 0.91500002
0.0061000003 -0.0078428574 0.91500002
0.0078428574 -0.0078428574 0.91500002
0.0095857149 -0.0078428574 0.91500002
0.01130381 -0.0078257145 0.91300005
0.013000001 -0.0078000007 0.91000003
0.01355143 -0.0071742861 0.83700001
0.015145715 -0.0071742861 0.83700001
0.016740002 -0.0071742861 0.83700001
0.018290477 -0.0071571432 0.83500004
0.019880954 -0.0071571432 0.83500004
0.021420002 -0.0071400004 0.83300006
0.02295143 -0.0071228575 0.83100003
0.024475239 -0.0071057146 0.82900006
0.026054287 -0.0071057146 0.82900006
0.027633335 -0.0071057146 0.82900006
0.029141907 -0.0070885718 0.82700002
0.030717146 -0.0070885718 0.82700002
0.032292385 -0.0070885718 0.82700002
0.033703811 -0.0070542861 0.82300001
0.035271432 -0.0070542861 0.82300001
0.036749527 -0.0070371432 0.82100004
0.038220003 -0.0070200004 0.81900007
0.039682861 -0.0070028575 0.81700003
0.049780004 -0.0078600002 0.91700006
0.051301908 -0.0078257145 0.91300005
0.053040955 -0.0078257145 0.91300005
0.054780003 -0.0078257145 0.91300005
0.05664286 -0.0078428574 0.91500002
0.058385719 -0.0078428574 0.91500002
0.059997145 -0.0078257145 0.91300005
0.061736196 -0.0078257145 0.91300005
0.063475244 -0.0078257145 0.91300005
0.065000005 -0.0078000007 0.91000003
0.066733338 -0.0078000007 0.91000003
0.068316191 -0.0077828579 0.90800005
0.070045717 -0.0077828579 0.90800005
0.071775243 -0.0077828579 0.90800005
0.073504768 -0.0077828579 0.90800005
0.075234294 -0.0077828579 0.90800005
0.077133335 -0.0078000007 0.91000003
0.078866675 -0.0078000007 0.91000003
0.080865718 -0.0078257145 0.91300005
0.08296667 -0.0078600002 0.91700006
0.08471334 -0.0078600002 0.91700006
0.086460009 -0.0078600002 0.91700006
0.088206671 -0.0078600002 0.91700006
0.089953341 -0.0078600002 0.91700006
0.093446672 -0.0078600002 0.91700006
0.095193341 -0.0078600002 0.91700006
0.096940003 -0.0078600002 0.91700006
0.098686673 -0.0078600002 0.91700006
-0.11686286 -0.005346667 0.80200005
-0.1161981 -0.0053866669 0.80800003
-0.11465906 -0.0053866669 0.80800003
-0.11396001 -0.0054266672 0.81400001
-0.11240953 -0.0054266672 0.81400001
-0.11126763 -0.0054466669 0.81700003
-0.10971144 -0.0054466669 0.81700003
-0.10868477 -0.0054733339 0.82100004
-0.10738191 -0.0054866672 0.82300001
-0.10632858 -0.0055133337 0.82700002
-0.10500667 -0.005526667 0.82900006
-0.10342763 -0.005526667 0.82900006
-0.10184858 -0.005526667 0.82900006
-0.10026953 -0.005526667 0.82900006
-0.098928578 -0.0055400003 0.83100003
-0.097345717 -0.0055400003 0.83100003
-0.095762864 -0.0055400003 0.83100003
-0.094406672 -0.0055533336 0.83300006
-0.09326572 -0.0055800006 0.83700001
-0.091671437 -0.0055800006 0.83700001
-0.090292387 -0.0055933339 0.83900005
-0.088694289 -0.0055933339 0.83900005
-0.087096199 -0.0055933339 0.83900005
-0.085498102 -0.0055933339 0.83900005
-0.083900005 -0.0055933339 0.83900005
-0.082301907 -0.0055933339 0.83900005
-0.080896199 -0.0056066671 0.84100002
-0.079482861 -0.0056200004 0.84300005
-0.078339055 -0.0056533339 0.84800005
-0.037553336 -0.0061133336 0.91700006
-0.035806671 -0.0061133336 0.91700006
-0.034060001 -0.0061133336 0.91700006
-0.032313336 -0.0061133336 0.91700006
-0.030566668 -0.0061133336 0.91700006
-0.028820002 -0.0061133336 0.91700006
-0.027073335 -0.0061133336 0.91700006
-0.025326669 -0.0061133336 0.91700006
-0.021833334 -0.0061133336 0.91700006
-0.020042859 -0.0061000003 0.91500002
-0.018300001 -0.0061000003 0.91500002
-0.016557144 -0.0061000003 0.91500002
-0.014814286 -0.0061000003 0.91500002
-0.013071429 -0.0061000003 0.91500002
-0.01130381 -0.0060866671 0.91300005
-0.0095647629 -0.0060866671 0.91300005
-0.0078257145 -0.0060866671 0.91300005
-0.0061000003 -0.0061000003 0.91500002
-0.0043571433 -0.0061000003 0.91500002
-0.0026142858 -0.0061000003 0.91500002
0.00087142864 -0.0061000003 0.91500002
0.0026142858 -0.0061000003 0.91500002
0.0043571433 -0.0061000003 0.91500002
0.0061000003 -0.0061000003 0.91500002
0.0078257145 -0.0060866671 0.91300005
0.0095647629 -0.0060866671 0.91300005
0.011266667 -0.0060666669 0.91000003
0.013000001 -0.0060666669 0.91000003
0.014733334 -0.0060666669 0.91000003
0.016520953 -0.0060866671 0.91300005
0.018200001 -0.0060666669 0.91000003
0.01999905 -0.0060866671 0.91300005
0.021420002 -0.0055533336 0.83300006
0.022896191 -0.005526667 0.82900006
0.024475239 -0.005526667 0.82900006
0.026054287 -0.005526667 0.82900006
0.027566668 -0.0055133337 0.82700002
0.029141907 -0.0055133337 0.82700002
0.030717146 -0.0055133337 0.82700002
0.032136194 -0.0054866672 0.82300001
0.033621907 -0.0054733339 0.82100004
0.035185717 -0.0054733339 0.82100004
0.036660001 -0.0054600001 0.81900007
0.03812667 -0.0054466669 0.81700003
0.039682861 -0.0054466669 0.81700003
0.041138098 -0.0054333336 0.81500006
0.042638097 -0.0054266672 0.81400001
0.053157147 -0.0061000003 0.91500002
0.054180004 -0.0060200002 0.90300006
0.055900004 -0.0060200002 0.90300006
0.05806667 -0.0060666669 0.91000003
0.059800003 -0.0060666669 0.91000003
0.0613981 -0.0060533336 0.90800005
0.063127622 -0.0060533336 0.90800005
0.064857148 -0.0060533336 0.90800005
0.066733338 -0.0060666669 0.91000003
0.068316191 -0.0060533336 0.90800005
0.070045717 -0.0060533336 0.90800005
0.071775243 -0.0060533336 0.90800005
0.073504768 -0.0060533336 0.90800005
0.075400002 -0.0060666669 0.91000003
0.077133335 -0.0060666669 0.91000003
0.078866675 -0.0060666669 0.91000003
0.080600008 -0.0060666669 0.91000003
0.082604766 -0.0060866671 0.91300005
0.084343813 -0.0060866671 0.91300005
-0.11839049 -0.0038190479 0.80200005
-0.11686286 -0.0038190479 0.80200005
-0.1161981 -0.0038476193 0.80800003
-0.11465906 -0.0038476193 0.80800003
-0.1134 -0.0038571432 0.81000006
-0.11254763 -0.0038809527 0.81500006
-0.11126763 -0.0038904764 0.81700003
-0.10998001 -0.0039000004 0.81900007
-0.10894953 -0.0039190478 0.82300001
-0.10738191 -0.0039190478 0.82300001
-0.10607143 -0.0039285715 0.82500005
-0.10475334 -0.0039380956 0.82700002
-0.1031781 -0.0039380956 0.82700002
-0.10184858 -0.0039476193 0.82900006
-0.10026953 -0.0039476193 0.82900006
-0.09869048 -0.0039476193 0.82900006
-0.097345717 -0.0039571431 0.83100003
-0.096728578 -0.0043571433 0.91500002
-0.094985723 -0.0043571433 0.91500002
-0.093242861 -0.0043571433 0.91500002
-0.091500007 -0.0043571433 0.91500002
-0.089757152 -0.0043571433 0.91500002
-0.01826 -0.0043476191 0.91300005
-0.016520953 -0.0043476191 0.91300005
-0.014781905 -0.0043476191 0.91300005
-0.013042858 -0.0043476191 0.91300005
-0.011266667 -0.0043333336 0.91000003
-0.0095333336 -0.0043333336 0.91000003
-0.0078000007 -0.0043333336 0.91000003
-0.0060866671 -0.0043476191 0.91300005
-0.0043476191 -0.0043476191 0.91300005
-0.0026085717 -0.0043476191 0.91300005
-0.00086952385 -0.0043476191 0.91300005
0.0026085717 -0.0043476191 0.91300005
0.0043476191 -0.0043476191 0.91300005
0.0060866671 -0.0043476191 0.91300005
0.0078000007 -0.0043333336 0.91000003
0.0095333336 -0.0043333336 0.91000003
0.011241905 -0.0043238099 0.90800005
0.012971429 -0.0043238099 0.90800005
0.014700953 -0.0043238099 0.90800005
0.016466668 -0.0043333336 0.91000003
0.01816 -0.0043238099 0.90800005
0.019933335 -0.0043333336 0.91000003
0.021666668 -0.0043333336 0.91000003
0.022896191 -0.0039476193 0.82900006
0.024475239 -0.0039476193 0.82900006
0.026054287 -0.0039476193 0.82900006
0.027566668 -0.0039380956 0.82700002
0.029141907 -0.0039380956 0.82700002
0.03064286 -0.0039285715 0.82500005
0.032058097 -0.0039095241 0.82100004
0.033621907 -0.0039095241 0.82100004
0.035100002 -0.0039000004 0.81900007
0.036660001 -0.0039000004 0.81900007
0.03812667 -0.0038904764 0.81700003
0.039585717 -0.0038809527 0.81500006
0.041138098 -0.0038809527 0.81500006
0.042638097 -0.0038761906 0.81400001
0.044080004 -0.0038666669 0.81200004
0.045514289 -0.0038571432 0.81000006
0.061533336 -0.0043333336 0.91000003
0.063266672 -0.0043333336 0.91000003
0.065000005 -0.0043333336 0.91000003
0.066733338 -0.0043333336 0.91000003
0.068316191 -0.0043238099 0.90800005
0.070200004 -0.0043333336 0.91000003
0.071933337 -0.0043333336 0.91000003
0.073666669 -0.0043333336 0.91000003
0.075400002 -0.0043333336 0.91000003
0.077133335 -0.0043333336 0.91000003
0.078866675 -0.0043333336 0.91000003
0.080600008 -0.0043333336 0.91000003
0.084066674 -0.0043333336 0.91000003
-0.1199181 -0.0022914286 0.80200005
-0.11839049 -0.0022914286 0.80200005
-0.11686286 -0.0022914286 0.80200005
-0.11591049 -0.0023028573 0.80600005
-0.11465906 -0.0023085715 0.80800003
-0.1134 -0.0023142858 0.81000006
-0.11254763 -0.0023285716 0.81500006
-0.11099525 -0.0023285716 0.81500006
-0.10971144 -0.0023342858 0.81700003
-0.10842001 -0.0023400001 0.81900007
-0.10686 -0.0023400001 0.81900007
-0.10632858 -0.0023628573 0.82700002
-0.10500667 -0.0023685715 0.82900006
-0.10342763 -0.0023685715 0.82900006
-0.10184858 -0.0023685715 0.82900006
-0.10026953 -0.0023685715 0.82900006
-0.098928578 -0.0023742858 0.83100003
-0.097345717 -0.0023742858 0.83100003
-0.096517146 -0.0026085717 0.91300005
-0.014733334 -0.0026000002 0.91000003
-0.013000001 -0.0026000002 0.91000003
-0.011241905 -0.0025942859 0.90800005
-0.0095333336 -0.0026000002 0.91000003
-0.0077828579 -0.0025942859 0.90800005
-0.0060666669 -0.0026000002 0.91000003
-0.0043333336 -0.0026000002 0.91000003
0.0060666669 -0.0026000002 0.91000003
0.0077828579 -0.0025942859 0.90800005
0.0095123816 -0.0025942859 0.90800005
0.011204762 -0.0025857145 0.90500003
0.012928572 -0.0025857145 0.90500003
0.014652382 -0.0025857145 0.90500003
0.016430477 -0.0025942859 0.90800005
0.018100001 -0.0025857145 0.90500003
0.019889524 -0.0025942859 0.90800005
0.02161905 -0.0025942859 0.90800005
0.027663812 -0.0026771431 0.93700004
0.025991431 -0.0023628573 0.82700002
0.027566668 -0.0023628573 0.82700002
0.029141907 -0.0023628573 0.82700002
0.03064286 -0.002357143 0.82500005
0.032058097 -0.0023457145 0.82100004
0.033621907 -0.0023457145 0.82100004
0.035100002 -0.0023400001 0.81900007
0.036660001 -0.0023400001 0.81900007
0.03812667 -0.0023342858 0.81700003
0.039682861 -0.0023342858 0.81700003
0.041138098 -0.0023285716 0.81500006
0.042638097 -0.0023257143 0.81400001
0.043971431 -0.0023142858 0.81000006
0.045514289 -0.0023142858 0.81000006
0.073504768 -0.0025942859 0.90800005
-0.12144572 -0.0007638096 0.80200005
-0.1199181 -0.0007638096 0.80200005
-0.11868572 -0.00076571433 0.80400002
-0.11715429 -0.00076571433 0.80400002
-0.11591049 -0.00076761912 0.80600005
-0.11437525 -0.00076761912 0.80600005
-0.11368001 -0.00077333336 0.81200004
-0.11240953 -0.00077523815 0.81400001
-0.11099525 -0.00077619054 0.81500006
-0.10971144 -0.00077809527 0.81700003
-0.10815524 -0.00077809527 0.81700003
-0.10686 -0.00078000006 0.81900007
-0.10607143 -0.00078571436 0.82500005
-0.10500667 -0.00078952388 0.82900006
-0.10342763 -0.00078952388 0.82900006
-0.11006667 -0.00086666673 0.91000003
-0.0077571436 -0.00086190482 0.90500003
0.011204762 -0.00086190482 0.90500003
0.012928572 -0.00086190482 0.90500003
0.014652382 -0.00086190482 0.90500003
0.016376192 -0.00086190482 0.90500003
0.018100001 -0.00086190482 0.90500003
0.01982381 -0.00086190482 0.90500003
0.021547621 -0.00086190482 0.90500003
0.02327143 -0.00086190482 0.90500003
0.024995239 -0.00086190482 0.90500003
0.027663812 -0.00089238101 0.93700004
0.029385716 -0.00089047622 0.93500006
0.027566668 -0.00078761909 0.82700002
0.02907143 -0.00078571436 0.82500005
0.03064286 -0.00078571436 0.82500005
0.032058097 -0.00078190479 0.82100004
0.033621907 -0.00078190479 0.82100004
0.035100002 -0.00078000006 0.81900007
0.036660001 -0.00078000006 0.81900007
0.03812667 -0.00077809527 0.81700003
0.039682861 -0.00077809527 0.81700003
0.041138098 -0.00077619054 0.81500006
0.042638097 -0.00077523815 0.81400001
0.043971431 -0.00077142863 0.81000006
0.045289528 -0.00076761912 0.80600005
-0.1199181 0.0007638096 0.80200005
-0.11839049 0.0007638096 0.80200005
-0.11686286 0.0007638096 0.80200005
-0.11562286 0.00076571433 0.80400002
-0.11437525 0.00076761912 0.80600005
-0.11368001 0.00077333336 0.81200004
-0.11240953 0.00077523815 0.81400001
-0.11099525 0.00077619054 0.81500006
-0.10944287 0.00077619054 0.81500006
-0.10815524 0.00077809527 0.81700003
-0.10659906 0.00077809527 0.81700003
-0.11463334 0.00086190482 0.90500003
-0.01118 0.00086000003 0.90300006
-0.0094600003 0.00086000003 0.90300006
-0.0077400007 0.00086000003 0.90300006
0.01118 0.00086000003 0.90300006
0.0129 0.00086000003 0.90300006
0.01462 0.00086000003 0.90300006
0.016340001 0.00086000003 0.90300006
0.018060001 0.00086000003 0.90300006
0.019780001 0.00086000003 0.90300006
0.021500001 0.00086000003 0.90300006
0.023220001 0.00086000003 0.90300006
0.024884764 0.0008580953 0.90100002
0.027663812 0.00089238101 0.93700004
0.029385716 0.00089047622 0.93500006
0.031166669 0.00089047622 0.93500006
0.032841906 0.0008876191 0.93200004
0.034728575 0.00089047622 0.93500006
0.032058097 0.00078190479 0.82100004
0.033621907 0.00078190479 0.82100004
0.035100002 0.00078000006 0.81900007
0.036660001 0.00078000006 0.81900007
0.03812667 0.00077809527 0.81700003
0.039585717 0.00077619054 0.81500006
0.04108762 0.00077523815 0.81400001
0.042638097 0.00077523815 0.81400001
0.043862861 0.00076952385 0.80800003
0.045177147 0.00076571433 0.80400002
0.046592385 0.0007638096 0.80200005
0.047880001 0.00076000002 0.79800004
0.049090479 0.00075523817 0.79300004
0.050473336 0.00075333338 0.79100001
0.051848575 0.0007514286 0.78900003
-0.14743716 0.0026485715 0.92700005
-0.14567144 0.0026485715 0.92700005
-0.12114286 0.0022857145 0.80000001
-0.11961906 0.0022857145 0.80000001
-0.11809525 0.0022857145 0.80000001
-0.11686286 0.0022914286 0.80200005
-0.11562286 0.002297143 0.80400002
-0.11409143 0.002297143 0.80400002
-0.11396001 0.0023257143 0.81400001
-0.11240953 0.0023257143 0.81400001
-0.11099525 0.0023285716 0.81500006
-0.10944287 0.0023285716 0.81500006
-0.11610001 0.0025800001 0.90300006
-0.016303811 0.002574286 0.90100002
-0.01458762 0.002574286 0.90100002
-0.012871429 0.002574286 0.90100002
0.024801906 0.0025657145 0.89800006
0.027663812 0.0026771431 0.93700004
0.029385716 0.0026714287 0.93500006
0.029866669 0.0025600002 0.89600003
0.031573337 0.0025600002 0.89600003
0.033205718 0.0025542858 0.89400005
0.034986667 0.0025600002 0.89600003
0.036693335 0.0025600002 0.89600003
0.035185717 0.0023457145 0.82100004
0.036660001 0.0023400001 0.81900007
0.03812667 0.0023342858 0.81700003
0.039585717 0.0023285716 0.81500006
0.04108762 0.0023257143 0.81400001
0.042533334 0.0023200002 0.81200004
0.043862861 0.0023085715 0.80800003
0.045177147 0.002297143 0.80400002
0.046592385 0.0022914286 0.80200005
0.047880001 0.0022800001 0.79800004
0.049214289 0.0022714287 0.79500002
0.050600957 0.0022657143 0.79300004
0.051848575 0.0022542858 0.78900003
-0.11961906 0.003809524 0.80000001
-0.11809525 0.003809524 0.80000001
-0.11657143 0.003809524 0.80000001
-0.11533525 0.0038190479 0.80200005
-0.11352382 0.003809524 0.80000001
-0.11200001 0.003809524 0.80000001
-0.11254763 0.0038809527 0.81500006
-0.11861334 0.0042666672 0.89600003
-0.11716763 0.0042761909 0.89800006
-0.016249524 0.0042761909 0.89800006
0.022911429 0.0042428575 0.89100003
0.024608573 0.0042428575 0.89100003
0.026453335 0.0042666672 0.89600003
0.028097145 0.004257143 0.89400005
0.029800002 0.004257143 0.89400005
0.03132667 0.0042333337 0.88900006
0.033205718 0.004257143 0.89400005
0.034908574 0.004257143 0.89400005
0.036693335 0.0042666672 0.89600003
0.038400002 0.0042666672 0.89600003
0.036660001 0.0039000004 0.81900007
0.03812667 0.0038904764 0.81700003
0.039682861 0.0038904764 0.81700003
0.04108762 0.0038761906 0.81400001
0.042533334 0.0038666669 0.81200004
0.043862861 0.0038476193 0.80800003
0.045177147 0.0038285716 0.80400002
0.046592385 0.0038190479 0.80200005
0.048000004 0.003809524 0.80000001
0.049338099 0.0037952384 0.79700005
0.050600957 0.0037761908 0.79300004
0.051848575 0.0037571432 0.78900003
0.053351432 0.0037571432 0.78900003
-0.11932001 0.0053200005 0.79800004
-0.1178 0.0053200005 0.79800004
-0.11657143 0.0053333337 0.80000001
-0.11504763 0.0053333337 0.80000001
-0.12032001 0.0059733335 0.89600003
-0.11861334 0.0059733335 0.89600003
0.022860002 0.0059266672 0.88900006
0.024553334 0.0059266672 0.88900006
0.026305716 0.0059400005 0.89100003
0.027940001 0.0059266672 0.88900006
0.029633336 0.0059266672 0.88900006
0.031256191 0.0059133335 0.88700002
0.033020001 0.0059266672 0.88900006
0.034791432 0.0059400005 0.89100003
0.040986668 0.0054133339 0.81200004
0.042533334 0.0054133339 0.81200004
0.043862861 0.0053866669 0.80800003
0.045289528 0.0053733336 0.80600005
0.046708573 0.0053600003 0.80400002
0.047880001 0.0053200005 0.79800004
0.049214289 0.0053000003 0.79500002
0.050600957 0.005286667 0.79300004
0.051848575 0.0052600005 0.78900003
0.053351432 0.0052600005 0.78900003
-0.11932001 0.0068400004 0.79800004
-0.1178 0.0068400004 0.79800004
0.022860002 0.0076200003 0.88900006
0.024498098 0.0076028574 0.88700002
0.026187621 0.0076028574 0.88700002
0.027877145 0.0076028574 0.88700002
0.029566668 0.0076028574 0.88700002
0.031256191 0.0076028574 0.88700002
0.032945715 0.0076028574 0.88700002
0.034713335 0.0076200003 0.88900006
0.039793335 0.0076200003 0.88900006
0.041486669 0.0076200003 0.88900006
0.047880001 0.0068400004 0.79800004
0.049214289 0.0068142861 0.79500002
0.066736192 0.0076028574 0.88700002
0.068580002 0.0076200003 0.88900006
-0.12114286 0.0083809532 0.80000001
-0.11961906 0.0083809532 0.80000001
-0.1178 0.0083600003 0.79800004
-0.057237148 0.0091247624 0.87100005
-0.05545048 0.0091038104 0.86900002
-0.053795241 0.0091038104 0.86900002
-0.052140005 0.0091038104 0.86900002
-0.045414288 0.0090828575 0.86700004
-0.043661907 0.0090619056 0.86500007
-0.04201429 0.0090619056 0.86500007
-0.040366668 0.0090619056 0.86500007
-0.038719051 0.0090619056 0.86500007
-0.037071429 0.0090619056 0.86500007
-0.035423812 0.0090619056 0.86500007
-0.033776194 0.0090619056 0.86500007
-0.032128572 0.0090619056 0.86500007
-0.030480955 0.0090619056 0.86500007
-0.028966669 0.0091038104 0.86900002
-0.027311431 0.0091038104 0.86900002
-0.025597144 0.0090828575 0.86700004
-0.0046933335 0.0073752385 0.70400006
-0.00067142863 0.0073857149 0.70500004
0.00067142863 0.0073857149 0.70500004
0.0020200002 0.0074066673 0.70700002
0.0033714287 0.0074171433 0.708
0.022808572 0.0092923818 0.88700002
0.02441524 0.0092609534 0.88400006
0.026099049 0.0092609534 0.88400006
0.027782859 0.0092609534 0.88400006
0.029466668 0.0092609534 0.88400006
0.031150479 0.0092609534 0.88400006
0.032834288 0.0092609534 0.88400006
0.034518097 0.0092609534 0.88400006
0.036324766 0.0092923818 0.88700002
0.038014289 0.0092923818 0.88700002
0.039569527 0.0092609534 0.88400006
0.041160002 0.0092400005 0.88200003
0.042840004 0.0092400005 0.88200003
0.044520002 0.0092400005 0.88200003
0.049214289 0.0083285719 0.79500002
0.068194292 0.0092609534 0.88400006
0.069878101 0.0092609534 0.88400006
0.073245719 0.0092609534 0.88400006
-0.12144572 0.0099295247 0.80200005
-0.11961906 0.0099047627 0.80000001
-0.11809525 0.0099047627 0.80000001
-0.054231431 0.0087038102 0.70300001
