# .PCD v0.7 - Point Cloud Data file format
VERSION 0.7
FIELDS x y z
SIZE 4 4 4
TYPE F F F
COUNT 1 1 1
WIDTH 1354
HEIGHT 1
VIEWPOINT 0 0 0 1 0 0 0
POINTS 1354
DATA ascii
-0.087619051 0.070796192 0.73600006
-0.08621715 0.070796192 0.73600006
-0.084815241 0.070796192 0.73600006
-0.08341334 0.070796192 0.73600006
-0.082011431 0.070796192 0.73600006
-0.08060953 0.070796192 0.73600006
-0.079207622 0.070796192 0.73600006
-0.07780572 0.070796192 0.73600006
-0.076403812 0.070796192 0.73600006
-0.0747981 0.070603818 0.73400003
-0.073400006 0.070603818 0.73400003
-0.072001912 0.070603818 0.73400003
-0.070603818 0.070603818 0.73400003
-0.069205716 0.070603818 0.73400003
-0.067807622 0.070603818 0.73400003
-0.066590481 0.070796192 0.73600006
-0.065188579 0.070796192 0.73600006
-0.063786671 0.070796192 0.73600006
-0.062384766 0.070796192 0.73600006
-0.061065719 0.070892386 0.73700005
-0.05966191 0.070892386 0.73700005
-0.058258098 0.070892386 0.73700005
-0.056854289 0.070892386 0.73700005
-0.055600956 0.071084768 0.73900002
-0.054193337 0.071084768 0.73900002
-0.052785717 0.071084768 0.73900002
-0.051378097 0.071084768 0.73900002
-0.050038099 0.071180955 0.74000001
-0.048628576 0.071180955 0.74000001
-0.02867143 0.064351432 0.66900003
-0.02731524 0.064159051 0.66700006
-0.026005715 0.064062864 0.66600001
-0.024700001 0.063966669 0.66500002
-0.023362858 0.063774288 0.66300005
-0.022100002 0.063774288 0.66300005
-0.020837145 0.063774288 0.66300005
-0.019544763 0.063678101 0.66200006
-0.01828381 0.063678101 0.66200006
-0.017022857 0.063678101 0.66200006
-0.015785715 0.063774288 0.66300005
-0.014522858 0.063774288 0.66300005
-0.013260001 0.063774288 0.66300005
-0.012033334 0.063966669 0.66500002
-0.010766667 0.063966669 0.66500002
-0.0095000006 0.063966669 0.66500002
-0.0082085719 0.063774288 0.66300005
-0.0069457148 0.063774288 0.66300005
-0.0056828577 0.063774288 0.66300005
-0.0044200001 0.063774288 0.66300005
-0.003157143 0.063774288 0.66300005
-0.0019000001 0.063966669 0.66500002
-0.00063523813 0.064159051 0.66700006
0.00063714292 0.064351432 0.66900003
0.0019114286 0.064351432 0.66900003
0.0031857146 0.064351432 0.66900003
0.0044600004 0.064351432 0.66900003
0.0057171434 0.064159051 0.66700006
0.0069876197 0.064159051 0.66700006
0.0082457149 0.064062864 0.66600001
0.0094428575 0.063581906 0.66100001
0.010685715 0.063485719 0.66000003
0.011942858 0.063485719 0.66000003
-0.16529335 0.067293338 0.68600005
-0.16422573 0.067391433 0.68700004
-0.16291715 0.067391433 0.68700004
-0.16160858 0.067391433 0.68700004
-0.16100001 0.067685716 0.69000006
-0.15991715 0.067783818 0.69100004
-0.15860096 0.067783818 0.69100004
-0.15865049 0.068372384 0.69700003
-0.15800001 0.068666674 0.70000005
-0.15666668 0.068666674 0.70000005
-0.15599906 0.068960957 0.70300001
-0.15466002 0.068960957 0.70300001
-0.15332097 0.068960957 0.70300001
-0.15219811 0.069059052 0.70400006
-0.15150002 0.069353335 0.70700002
-0.1495162 0.069059052 0.70400006
-0.1494381 0.069647625 0.71000004
-0.12618001 0.068764769 0.70100003
-0.12520096 0.068960957 0.70300001
-0.1240381 0.069059052 0.70400006
-0.12287144 0.069157146 0.70500004
-0.12152858 0.069157146 0.70500004
-0.12052667 0.069353335 0.70700002
-0.11918001 0.069353335 0.70700002
-0.11783334 0.069353335 0.70700002
-0.11648668 0.069353335 0.70700002
-0.11514001 0.069353335 0.70700002
-0.11379334 0.069353335 0.70700002
-0.11260572 0.069451436 0.708
-0.11125715 0.069451436 0.708
-0.11021905 0.069647625 0.71000004
-0.10902001 0.069745719 0.71100003
-0.10796858 0.069941908 0.71300006
-0.10720858 0.070334293 0.71700001
-0.10658096 0.070824765 0.72200006
-0.10535143 0.070922859 0.72300005
-0.10426191 0.071119055 0.72500002
-0.10302287 0.071217149 0.72600001
-0.10164001 0.071217149 0.72600001
-0.10053334 0.071413338 0.72800004
-0.099146672 0.071413338 0.72800004
-0.097894289 0.071511433 0.72900003
-0.096505724 0.071511433 0.72900003
-0.095378101 0.071707621 0.73100001
-0.094114289 0.071805716 0.73200005
-0.092720009 0.071805716 0.73200005
-0.091575243 0.072001912 0.73400003
-0.090177149 0.072001912 0.73400003
-0.088779055 0.072001912 0.73400003
-0.087380961 0.072001912 0.73400003
-0.085982859 0.072001912 0.73400003
-0.084584765 0.072001912 0.73400003
-0.083186671 0.072001912 0.73400003
-0.081788577 0.072001912 0.73400003
-0.080390483 0.072001912 0.73400003
-0.078992389 0.072001912 0.73400003
-0.077594288 0.072001912 0.73400003
-0.076196194 0.072001912 0.73400003
-0.0747981 0.072001912 0.73400003
-0.073400006 0.072001912 0.73400003
-0.072001912 0.072001912 0.73400003
-0.070603818 0.072001912 0.73400003
-0.069205716 0.072001912 0.73400003
-0.067807622 0.072001912 0.73400003
-0.066409528 0.072001912 0.73400003
-0.065011434 0.072001912 0.73400003
-0.063786671 0.0721981 0.73600006
-0.062384766 0.0721981 0.73600006
-0.061065719 0.072296195 0.73700005
-0.05966191 0.072296195 0.73700005
-0.058258098 0.072296195 0.73700005
-0.057008576 0.072492383 0.73900002
-0.055600956 0.072492383 0.73900002
-0.054193337 0.072492383 0.73900002
-0.052785717 0.072492383 0.73900002
-0.051378097 0.072492383 0.73900002
-0.050038099 0.072590478 0.74000001
-0.02867143 0.06562572 0.66900003
-0.02731524 0.065429531 0.66700006
-0.026005715 0.065331429 0.66600001
-0.024700001 0.065233335 0.66500002
-0.023362858 0.065037146 0.66300005
-0.022100002 0.065037146 0.66300005
-0.020837145 0.065037146 0.66300005
-0.019544763 0.064939052 0.66200006
-0.01828381 0.064939052 0.66200006
-0.017022857 0.064939052 0.66200006
-0.015785715 0.065037146 0.66300005
-0.014522858 0.065037146 0.66300005
-0.013260001 0.065037146 0.66300005
-0.012033334 0.065233335 0.66500002
-0.010766667 0.065233335 0.66500002
-0.0095000006 0.065233335 0.66500002
-0.0082333339 0.065233335 0.66500002
-0.0069457148 0.065037146 0.66300005
-0.0056828577 0.065037146 0.66300005
-0.0044200001 0.065037146 0.66300005
-0.003166667 0.065233335 0.66500002
-0.0019000001 0.065233335 0.66500002
-0.00063714292 0.06562572 0.66900003
0.00063714292 0.06562572 0.66900003
0.0019114286 0.06562572 0.66900003
0.0031857146 0.06562572 0.66900003
0.0044600004 0.06562572 0.66900003
0.0057342863 0.06562572 0.66900003
0.0069876197 0.065429531 0.66700006
0.0082457149 0.065331429 0.66600001
0.0094428575 0.064840958 0.66100001
0.010653334 0.064546674 0.65800005
0.011906668 0.064546674 0.65800005
-0.1661143 0.068400003 0.68400002
-0.16481143 0.068400003 0.68400002
-0.16398668 0.068600006 0.68600005
-0.16268001 0.068600006 0.68600005
-0.16137335 0.068600006 0.68600005
-0.16100001 0.069000006 0.69000006
-0.15968573 0.069000006 0.69000006
-0.15928954 0.069400005 0.69400001
-0.1588781 0.069800004 0.69800001
-0.15800001 0.070000008 0.70000005
-0.15666668 0.070000008 0.70000005
-0.15599906 0.070300005 0.70300001
-0.15466002 0.070300005 0.70300001
-0.15332097 0.070300005 0.70300001
-0.15219811 0.070400007 0.70400006
-0.15085715 0.070400007 0.70400006
-0.15036573 0.070800006 0.708
-0.1494381 0.071000002 0.71000004
-0.12520096 0.070300005 0.70300001
-0.1240381 0.070400007 0.70400006
-0.12287144 0.070500001 0.70500004
-0.12187334 0.070700005 0.70700002
-0.12052667 0.070700005 0.70700002
-0.11918001 0.070700005 0.70700002
-0.11800001 0.070800006 0.708
-0.11665144 0.070800006 0.708
-0.11530287 0.070800006 0.708
-0.11395429 0.070800006 0.708
-0.11260572 0.070800006 0.708
-0.11157144 0.071000002 0.71000004
-0.11037429 0.071100004 0.71100003
-0.10932668 0.071300007 0.71300006
-0.10812001 0.071400002 0.71400005
-0.10720858 0.071700007 0.71700001
-0.1061381 0.071900003 0.71900004
-0.10535143 0.072300002 0.72300005
-0.10426191 0.072500005 0.72500002
-0.10302287 0.072600007 0.72600001
-0.10164001 0.072600007 0.72600001
-0.10025715 0.072600007 0.72600001
-0.098874293 0.072600007 0.72600001
-0.097760007 0.072800003 0.72800004
-0.096373342 0.072800003 0.72800004
-0.095117152 0.072900005 0.72900003
-0.09372858 0.072900005 0.72900003
-0.092593342 0.073100008 0.73100001
-0.091325723 0.073200002 0.73200005
-0.089931436 0.073200002 0.73200005
-0.088537149 0.073200002 0.73200005
-0.087142862 0.073200002 0.73200005
-0.085982859 0.073400006 0.73400003
-0.084354289 0.073200002 0.73200005
-0.082960002 0.073200002 0.73200005
-0.081565723 0.073200002 0.73200005
-0.080171436 0.073200002 0.73200005
-0.078992389 0.073400006 0.73400003
-0.077594288 0.073400006 0.73400003
-0.076196194 0.073400006 0.73400003
-0.074594289 0.073200002 0.73200005
-0.073200002 0.073200002 0.73200005
-0.071805716 0.073200002 0.73200005
-0.070603818 0.073400006 0.73400003
-0.069205716 0.073400006 0.73400003
-0.067807622 0.073400006 0.73400003
-0.066409528 0.073400006 0.73400003
-0.065011434 0.073400006 0.73400003
-0.063786671 0.073600002 0.73600006
-0.062469527 0.073700003 0.73700005
-0.061065719 0.073700003 0.73700005
-0.05966191 0.073700003 0.73700005
-0.058258098 0.073700003 0.73700005
-0.057008576 0.073900007 0.73900002
-0.055600956 0.073900007 0.73900002
-0.054193337 0.073900007 0.73900002
-0.052785717 0.073900007 0.73900002
-0.051378097 0.073900007 0.73900002
-0.02731524 0.066700004 0.66700006
-0.026005715 0.066600002 0.66600001
-0.024625717 0.066300005 0.66300005
-0.023362858 0.066300005 0.66300005
-0.022100002 0.066300005 0.66300005
-0.020837145 0.066300005 0.66300005
-0.019544763 0.066200003 0.66200006
-0.01828381 0.066200003 0.66200006
-0.017022857 0.066200003 0.66200006
-0.015785715 0.066300005 0.66300005
-0.014522858 0.066300005 0.66300005
-0.013260001 0.066300005 0.66300005
-0.012033334 0.066500001 0.66500002
-0.010766667 0.066500001 0.66500002
-0.0095000006 0.066500001 0.66500002
-0.0082085719 0.066300005 0.66300005
-0.0069457148 0.066300005 0.66300005
-0.0056828577 0.066300005 0.66300005
-0.0044200001 0.066300005 0.66300005
-0.003166667 0.066500001 0.66500002
-0.0019000001 0.066500001 0.66500002
-0.00063523813 0.066700004 0.66700006
0.00063714292 0.066900007 0.66900003
0.0019114286 0.066900007 0.66900003
0.0031857146 0.066900007 0.66900003
0.0044600004 0.066900007 0.66900003
0.0057342863 0.066900007 0.66900003
0.0070085721 0.066900007 0.66900003
0.0082457149 0.066600002 0.66600001
0.0094285719 0.066000007 0.66000003
0.010653334 0.065800004 0.65800005
0.011906668 0.065800004 0.65800005
-0.16587144 0.069600955 0.68300003
-0.16457048 0.069600955 0.68300003
-0.16398668 0.069906674 0.68600005
-0.16268001 0.069906674 0.68600005
-0.16137335 0.069906674 0.68600005
-0.16076668 0.070212387 0.68900001
-0.1594543 0.070212387 0.68900001
-0.15906002 0.070620008 0.69300002
-0.1588781 0.071129531 0.69800001
-0.15822573 0.071435243 0.70100003
-0.15689048 0.071435243 0.70100003
-0.15599906 0.071639054 0.70300001
-0.15466002 0.071639054 0.70300001
-0.15353906 0.071740955 0.70400006
-0.15219811 0.071740955 0.70400006
-0.15107144 0.071842864 0.70500004
-0.15015334 0.072046675 0.70700002
-0.14901716 0.072148576 0.708
-0.12322001 0.072046675 0.70700002
-0.12187334 0.072046675 0.70700002
-0.12069715 0.072148576 0.708
-0.11934858 0.072148576 0.708
-0.11800001 0.072148576 0.708
-0.11665144 0.072148576 0.708
-0.11530287 0.072148576 0.708
-0.11395429 0.072148576 0.708
-0.11292382 0.072352387 0.71000004
-0.11157144 0.072352387 0.71000004
-0.11037429 0.072454289 0.71100003
-0.10932668 0.072658099 0.71300006
-0.10812001 0.072760008 0.71400005
-0.10705905 0.072963811 0.71600002
-0.1061381 0.073269531 0.71900004
-0.10520572 0.073575243 0.72200006
-0.10383049 0.073575243 0.72200006
-0.10288096 0.073880956 0.72500002
-0.10164001 0.073982865 0.72600001
-0.10011905 0.073880956 0.72500002
-0.098874293 0.073982865 0.72600001
-0.097491436 0.073982865 0.72600001
-0.096108578 0.073982865 0.72600001
-0.094725721 0.073982865 0.72600001
-0.093342863 0.073982865 0.72600001
-0.092340007 0.074288577 0.72900003
-0.091200955 0.074492387 0.73100001
-0.089808576 0.074492387 0.73100001
-0.088537149 0.074594289 0.73200005
-0.087142862 0.074594289 0.73200005
-0.085748576 0.074594289 0.73200005
-0.084354289 0.074594289 0.73200005
-0.082960002 0.074594289 0.73200005
-0.081565723 0.074594289 0.73200005
-0.080171436 0.074594289 0.73200005
-0.078777149 0.074594289 0.73200005
-0.077594288 0.0747981 0.73400003
-0.076196194 0.0747981 0.73400003
-0.074594289 0.074594289 0.73200005
-0.073200002 0.074594289 0.73200005
-0.071805716 0.074594289 0.73200005
-0.070603818 0.0747981 0.73400003
-0.069205716 0.0747981 0.73400003
-0.067807622 0.0747981 0.73400003
-0.066409528 0.0747981 0.73400003
-0.065011434 0.0747981 0.73400003
-0.063786671 0.07500191 0.73600006
-0.062384766 0.07500191 0.73600006
-0.061065719 0.075103812 0.73700005
-0.05966191 0.075103812 0.73700005
-0.058258098 0.075103812 0.73700005
-0.057008576 0.075307623 0.73900002
-0.055600956 0.075307623 0.73900002
-0.054266669 0.075409532 0.74000001
-0.052857146 0.075409532 0.74000001
-0.026005715 0.067868575 0.66600001
-0.024625717 0.067562863 0.66300005
-0.023362858 0.067562863 0.66300005
-0.022100002 0.067562863 0.66300005
-0.020837145 0.067562863 0.66300005
-0.019574286 0.067562863 0.66300005
-0.01828381 0.067460954 0.66200006
-0.017022857 0.067460954 0.66200006
-0.015785715 0.067562863 0.66300005
-0.014522858 0.067562863 0.66300005
-0.013260001 0.067562863 0.66300005
-0.011997144 0.067562863 0.66300005
-0.010734286 0.067562863 0.66300005
-0.0094714295 0.067562863 0.66300005
-0.0082085719 0.067562863 0.66300005
-0.0069457148 0.067562863 0.66300005
-0.0056828577 0.067562863 0.66300005
-0.0044200001 0.067562863 0.66300005
-0.003166667 0.067766674 0.66500002
-0.0019028572 0.067868575 0.66600001
-0.00063523813 0.067970477 0.66700006
0.00063714292 0.068174288 0.66900003
0.0019114286 0.068174288 0.66900003
0.0031857146 0.068174288 0.66900003
0.0044666668 0.068276197 0.67000002
0.0057428577 0.068276197 0.67000002
0.0070085721 0.068174288 0.66900003
0.0082828579 0.068174288 0.66900003
0.0094428575 0.067359053 0.66100001
0.010637144 0.066951431 0.65700001
0.011888572 0.066951431 0.65700001
-0.16717239 0.070901908 0.68300003
-0.16587144 0.070901908 0.68300003
-0.16457048 0.070901908 0.68300003
-0.16350858 0.071005717 0.68400002
-0.16268001 0.071213335 0.68600005
-0.16090287 0.071005717 0.68400002
-0.16030002 0.071317151 0.68700004
-0.15899144 0.071317151 0.68700004
-0.15768287 0.071317151 0.68700004
-0.16001619 0.072978102 0.70300001
-0.15867715 0.072978102 0.70300001
-0.15756191 0.073081911 0.70400006
-0.15622096 0.073081911 0.70400006
-0.15488002 0.073081911 0.70400006
-0.15353906 0.073081911 0.70400006
-0.15241429 0.07318572 0.70500004
-0.15150002 0.073393337 0.70700002
-0.15036573 0.073497146 0.708
-0.1494381 0.073704764 0.71000004
-0.12322001 0.073393337 0.70700002
-0.12187334 0.073393337 0.70700002
-0.12069715 0.073497146 0.708
-0.11934858 0.073497146 0.708
-0.11800001 0.073497146 0.708
-0.11698096 0.073704764 0.71000004
-0.11562858 0.073704764 0.71000004
-0.1142762 0.073704764 0.71000004
-0.11292382 0.073704764 0.71000004
-0.11172858 0.073808573 0.71100003
-0.11037429 0.073808573 0.71100003
-0.10932668 0.074016199 0.71300006
-0.10812001 0.074120007 0.71400005
-0.10705905 0.074327625 0.71600002
-0.1061381 0.074639052 0.71900004
-0.10520572 0.074950479 0.72200006
-0.10383049 0.074950479 0.72200006
-0.10259715 0.075054288 0.72300005
-0.1015 0.075261913 0.72500002
-0.10011905 0.075261913 0.72500002
-0.098738104 0.075261913 0.72500002
-0.097491436 0.075365722 0.72600001
-0.096108578 0.075365722 0.72600001
-0.094725721 0.075365722 0.72600001
-0.093342863 0.075365722 0.72600001
-0.09221334 0.07557334 0.72800004
-0.090951435 0.075677149 0.72900003
-0.089808576 0.075884767 0.73100001
-0.088416196 0.075884767 0.73100001
-0.087142862 0.075988576 0.73200005
-0.085748576 0.075988576 0.73200005
-0.084354289 0.075988576 0.73200005
-0.082960002 0.075988576 0.73200005
-0.081565723 0.075988576 0.73200005
-0.080171436 0.075988576 0.73200005
-0.078777149 0.075988576 0.73200005
-0.077382863 0.075988576 0.73200005
-0.075988576 0.075988576 0.73200005
-0.074594289 0.075988576 0.73200005
-0.073200002 0.075988576 0.73200005
-0.071805716 0.075988576 0.73200005
-0.070603818 0.076196194 0.73400003
-0.069205716 0.076196194 0.73400003
-0.067807622 0.076196194 0.73400003
-0.066409528 0.076196194 0.73400003
-0.065011434 0.076196194 0.73400003
-0.063786671 0.076403812 0.73600006
-0.062469527 0.076507621 0.73700005
-0.061065719 0.076507621 0.73700005
-0.05966191 0.076507621 0.73700005
-0.058416195 0.076715246 0.73900002
-0.057008576 0.076715246 0.73900002
-0.055600956 0.076715246 0.73900002
-0.054266669 0.076819055 0.74000001
-0.052857146 0.076819055 0.74000001
-0.026005715 0.069137149 0.66600001
-0.024625717 0.068825722 0.66300005
-0.023362858 0.068825722 0.66300005
-0.022100002 0.068825722 0.66300005
-0.020837145 0.068825722 0.66300005
-0.019574286 0.068825722 0.66300005
-0.01831143 0.068825722 0.66300005
-0.017048573 0.068825722 0.66300005
-0.015785715 0.068825722 0.66300005
-0.014566667 0.06903334 0.66500002
-0.013300001 0.06903334 0.66500002
-0.012033334 0.06903334 0.66500002
-0.010766667 0.06903334 0.66500002
-0.0095000006 0.06903334 0.66500002
-0.0082333339 0.06903334 0.66500002
-0.0069666672 0.06903334 0.66500002
-0.0057000006 0.06903334 0.66500002
-0.0044333334 0.06903334 0.66500002
-0.0031714288 0.069137149 0.66600001
-0.0019057144 0.069240957 0.66700006
-0.00063523813 0.069240957 0.66700006
0.00063714292 0.069448575 0.66900003
0.0019114286 0.069448575 0.66900003
0.0031857146 0.069448575 0.66900003
0.0044666668 0.069552384 0.67000002
0.0057428577 0.069552384 0.67000002
0.0070295241 0.069656193 0.671
0.00830762 0.069656193 0.671
0.0095857149 0.069656193 0.671
0.01086381 0.069656193 0.671
0.012141906 0.069656193 0.671
0.013480001 0.06996762 0.67400002
-0.16902858 0.07188572 0.68000001
-0.16822667 0.072097145 0.68200004
-0.16692764 0.072097145 0.68200004
-0.16562858 0.072097145 0.68200004
-0.16432953 0.072097145 0.68200004
-0.16326953 0.072202861 0.68300003
-0.16220573 0.072308578 0.68400002
-0.16090287 0.072308578 0.68400002
-0.16006668 0.072520003 0.68600005
-0.15876001 0.072520003 0.68600005
-0.15745334 0.072520003 0.68600005
-0.16092667 0.074740008 0.70700002
-0.15958001 0.074740008 0.70700002
-0.15756191 0.074422859 0.70400006
-0.15622096 0.074422859 0.70400006
-0.15488002 0.074422859 0.70400006
-0.15375715 0.074528575 0.70500004
-0.15284668 0.074740008 0.70700002
-0.15150002 0.074740008 0.70700002
-0.15036573 0.074845716 0.708
-0.1494381 0.075057149 0.71000004
-0.12239049 0.075057149 0.71000004
-0.1210381 0.075057149 0.71000004
-0.11968572 0.075057149 0.71000004
-0.11833334 0.075057149 0.71000004
-0.11714572 0.075162865 0.71100003
-0.11579143 0.075162865 0.71100003
-0.11443715 0.075162865 0.71100003
-0.11308286 0.075162865 0.71100003
-0.11172858 0.075162865 0.71100003
-0.11068477 0.07537429 0.71300006
-0.10932668 0.07537429 0.71300006
-0.10812001 0.075480007 0.71400005
-0.10705905 0.075691432 0.71600002
-0.1061381 0.076008573 0.71900004
-0.10491429 0.076114289 0.72000003
-0.10383049 0.076325722 0.72200006
-0.10259715 0.076431431 0.72300005
-0.1015 0.076642863 0.72500002
-0.10011905 0.076642863 0.72500002
-0.098738104 0.076642863 0.72500002
-0.097491436 0.07674858 0.72600001
-0.096108578 0.07674858 0.72600001
-0.094595246 0.076642863 0.72500002
-0.093214288 0.076642863 0.72500002
-0.09221334 0.076960005 0.72800004
-0.090577148 0.07674858 0.72600001
-0.089562863 0.077065721 0.72900003
-0.088416196 0.077277146 0.73100001
-0.087023817 0.077277146 0.73100001
-0.085631438 0.077277146 0.73100001
-0.084239051 0.077277146 0.73100001
-0.082960002 0.077382863 0.73200005
-0.081565723 0.077382863 0.73200005
-0.080171436 0.077382863 0.73200005
-0.078777149 0.077382863 0.73200005
-0.077382863 0.077382863 0.73200005
-0.075988576 0.077382863 0.73200005
-0.074594289 0.077382863 0.73200005
-0.073200002 0.077382863 0.73200005
-0.071805716 0.077382863 0.73200005
-0.070411436 0.077382863 0.73200005
-0.069205716 0.077594288 0.73400003
-0.067807622 0.077594288 0.73400003
-0.066409528 0.077594288 0.73400003
-0.065188579 0.07780572 0.73600006
-0.063786671 0.07780572 0.73600006
-0.062469527 0.077911437 0.73700005
-0.061065719 0.077911437 0.73700005
-0.05966191 0.077911437 0.73700005
-0.058416195 0.078122862 0.73900002
-0.057008576 0.078122862 0.73900002
-0.055600956 0.078122862 0.73900002
-0.054266669 0.078228578 0.74000001
-0.052857146 0.078228578 0.74000001
-0.026044764 0.070511431 0.66700006
-0.024700001 0.070300005 0.66500002
-0.023362858 0.070088573 0.66300005
-0.022100002 0.070088573 0.66300005
-0.020837145 0.070088573 0.66300005
-0.019574286 0.070088573 0.66300005
-0.01831143 0.070088573 0.66300005
-0.017048573 0.070088573 0.66300005
-0.015785715 0.070088573 0.66300005
-0.014522858 0.070088573 0.66300005
-0.013300001 0.070300005 0.66500002
-0.012033334 0.070300005 0.66500002
-0.010766667 0.070300005 0.66500002
-0.0095142862 0.070405722 0.66600001
-0.0082457149 0.070405722 0.66600001
-0.0069771432 0.070405722 0.66600001
-0.005708572 0.070405722 0.66600001
-0.0044400003 0.070405722 0.66600001
-0.0031714288 0.070405722 0.66600001
-0.0019057144 0.070511431 0.66700006
-0.00063714292 0.070722863 0.66900003
0.00063714292 0.070722863 0.66900003
0.0019114286 0.070722863 0.66900003
0.0031857146 0.070722863 0.66900003
0.0044733337 0.070934288 0.671
0.0057514291 0.070934288 0.671
0.0070295241 0.070934288 0.671
0.008320001 0.071040004 0.67200005
0.0096285725 0.07125143 0.67400002
0.010912382 0.07125143 0.67400002
0.012196192 0.07125143 0.67400002
0.013480001 0.07125143 0.67400002
-0.17032382 0.073180959 0.68000001
-0.16902858 0.073180959 0.68000001
-0.16773334 0.073180959 0.68000001
-0.1664381 0.073180959 0.68000001
-0.16514286 0.073180959 0.68000001
-0.16432953 0.073396198 0.68200004
-0.16326953 0.073503815 0.68300003
-0.16196859 0.073503815 0.68300003
-0.16066763 0.073503815 0.68300003
-0.1596 0.073611431 0.68400002
-0.1569943 0.073611431 0.68400002
-0.15778573 0.07587143 0.70500004
-0.15644287 0.07587143 0.70500004
-0.1551 0.07587143 0.70500004
-0.15375715 0.07587143 0.70500004
-0.15241429 0.07587143 0.70500004
-0.15150002 0.07608667 0.70700002
-0.15036573 0.076194294 0.708
-0.14964858 0.07651715 0.71100003
-0.14735334 0.07673239 0.71300006
-0.14620002 0.076840006 0.71400005
-0.12256286 0.07651715 0.71100003
-0.12120858 0.07651715 0.71100003
-0.11968572 0.076409526 0.71000004
-0.11850001 0.07651715 0.71100003
-0.11714572 0.07651715 0.71100003
-0.11611715 0.07673239 0.71300006
-0.11443715 0.07651715 0.71100003
-0.11308286 0.07651715 0.71100003
-0.11204287 0.07673239 0.71300006
-0.11068477 0.07673239 0.71300006
-0.10948001 0.076840006 0.71400005
-0.10842287 0.077055246 0.71600002
-0.10720858 0.077162862 0.71700001
-0.1061381 0.077378102 0.71900004
-0.10476858 0.077378102 0.71900004
-0.10354286 0.077485718 0.72000003
-0.10245524 0.077700958 0.72200006
-0.10122 0.077808574 0.72300005
-0.099842861 0.077808574 0.72300005
-0.098465718 0.077808574 0.72300005
-0.097357146 0.078023814 0.72500002
-0.095976196 0.078023814 0.72500002
-0.094595246 0.078023814 0.72500002
-0.093214288 0.078023814 0.72500002
-0.091833338 0.078023814 0.72500002
-0.090452388 0.078023814 0.72500002
-0.089440003 0.07834667 0.72800004
-0.088174291 0.078454293 0.72900003
-0.086785719 0.078454293 0.72900003
-0.085631438 0.078669526 0.73100001
-0.084239051 0.078669526 0.73100001
-0.082846671 0.078669526 0.73100001
-0.081454292 0.078669526 0.73100001
-0.080061913 0.078669526 0.73100001
-0.078777149 0.078777149 0.73200005
-0.077382863 0.078777149 0.73200005
-0.075988576 0.078777149 0.73200005
-0.074594289 0.078777149 0.73200005
-0.073200002 0.078777149 0.73200005
-0.071805716 0.078777149 0.73200005
-0.070603818 0.078992389 0.73400003
-0.069205716 0.078992389 0.73400003
-0.067807622 0.078992389 0.73400003
-0.066409528 0.078992389 0.73400003
-0.065188579 0.079207622 0.73600006
-0.063873336 0.079315245 0.73700005
-0.062469527 0.079315245 0.73700005
-0.061231434 0.079530485 0.73900002
-0.05966191 0.079315245 0.73700005
-0.058416195 0.079530485 0.73900002
-0.057008576 0.079530485 0.73900002
-0.055600956 0.079530485 0.73900002
-0.054193337 0.079530485 0.73900002
-0.026044764 0.071781911 0.66700006
-0.024700001 0.071566671 0.66500002
-0.023433335 0.071566671 0.66500002
-0.022100002 0.071351431 0.66300005
-0.020837145 0.071351431 0.66300005
-0.019574286 0.071351431 0.66300005
-0.01831143 0.071351431 0.66300005
-0.017048573 0.071351431 0.66300005
-0.015785715 0.071351431 0.66300005
-0.014566667 0.071566671 0.66500002
-0.013300001 0.071566671 0.66500002
-0.012033334 0.071566671 0.66500002
-0.010766667 0.071566671 0.66500002
-0.0095142862 0.071674287 0.66600001
-0.0082457149 0.071674287 0.66600001
-0.0069771432 0.071674287 0.66600001
-0.0057171434 0.071781911 0.66700006
-0.0044400003 0.071674287 0.66600001
-0.0031761907 0.071781911 0.66700006
-0.0019057144 0.071781911 0.66700006
-0.00063714292 0.071997151 0.66900003
0.00063714292 0.071997151 0.66900003
0.0019142858 0.072104767 0.67000002
0.0031904764 0.072104767 0.67000002
0.0044733337 0.072212383 0.671
0.0057514291 0.072212383 0.671
0.0070400005 0.072320007 0.67200005
0.008320001 0.072320007 0.67200005
0.0096285725 0.072535239 0.67400002
0.010912382 0.072535239 0.67400002
0.012196192 0.072535239 0.67400002
0.013480001 0.072535239 0.67400002
-0.1711143 0.07425715 0.67800003
-0.17007335 0.074366674 0.67900002
-0.16878001 0.074366674 0.67900002
-0.16748668 0.074366674 0.67900002
-0.1664381 0.074476197 0.68000001
-0.16562858 0.074695244 0.68200004
-0.16432953 0.074695244 0.68200004
-0.16303049 0.074695244 0.68200004
-0.16196859 0.074804768 0.68300003
-0.16066763 0.074804768 0.68300003
-0.15688668 0.07743334 0.70700002
-0.15554 0.07743334 0.70700002
-0.15419334 0.07743334 0.70700002
-0.15241429 0.077214293 0.70500004
-0.15150002 0.07743334 0.70700002
-0.15100287 0.077871434 0.71100003
-0.15006953 0.078090481 0.71300006
-0.14871144 0.078090481 0.71300006
-0.14756002 0.078200005 0.71400005
-0.12120858 0.077871434 0.71100003
-0.11985429 0.077871434 0.71100003
-0.11883334 0.078090481 0.71300006
-0.11747525 0.078090481 0.71300006
-0.11611715 0.078090481 0.71300006
-0.11475906 0.078090481 0.71300006
-0.11340096 0.078090481 0.71300006
-0.11204287 0.078090481 0.71300006
-0.11084001 0.078200005 0.71400005
-0.10978667 0.078419052 0.71600002
-0.10842287 0.078419052 0.71600002
-0.10720858 0.078528576 0.71700001
-0.1061381 0.078747623 0.71900004
-0.10491429 0.078857146 0.72000003
-0.10354286 0.078857146 0.72000003
-0.10245524 0.079076193 0.72200006
-0.10122 0.079185717 0.72300005
-0.099842861 0.079185717 0.72300005
-0.098465718 0.079185717 0.72300005
-0.097357146 0.079404764 0.72500002
-0.095976196 0.079404764 0.72500002
-0.094595246 0.079404764 0.72500002
-0.093342863 0.079514287 0.72600001
-0.091833338 0.079404764 0.72500002
-0.090577148 0.079514287 0.72600001
-0.089440003 0.079733342 0.72800004
-0.088174291 0.079842865 0.72900003
-0.086785719 0.079842865 0.72900003
-0.085631438 0.080061913 0.73100001
-0.084239051 0.080061913 0.73100001
-0.082846671 0.080061913 0.73100001
-0.081454292 0.080061913 0.73100001
-0.080061913 0.080061913 0.73100001
-0.078777149 0.080171436 0.73200005
-0.077382863 0.080171436 0.73200005
-0.075988576 0.080171436 0.73200005
-0.074594289 0.080171436 0.73200005
-0.073200002 0.080171436 0.73200005
-0.072001912 0.080390483 0.73400003
-0.070603818 0.080390483 0.73400003
-0.069205716 0.080390483 0.73400003
-0.067807622 0.080390483 0.73400003
-0.066590481 0.08060953 0.73600006
-0.065277144 0.080719054 0.73700005
-0.064046673 0.080938101 0.73900002
-0.06263905 0.080938101 0.73900002
-0.061231434 0.080938101 0.73900002
-0.059823815 0.080938101 0.73900002
-0.058495242 0.081047624 0.74000001
-0.057085719 0.081047624 0.74000001
-0.055676196 0.081047624 0.74000001
-0.026122859 0.073271431 0.66900003
-0.024737144 0.07294286 0.66600001
-0.023433335 0.072833337 0.66500002
-0.022166668 0.072833337 0.66500002
-0.020900002 0.072833337 0.66500002
-0.019574286 0.07261429 0.66300005
-0.01831143 0.07261429 0.66300005
-0.017048573 0.07261429 0.66300005
-0.015785715 0.07261429 0.66300005
-0.014522858 0.07261429 0.66300005
-0.013300001 0.072833337 0.66500002
-0.012033334 0.072833337 0.66500002
-0.010766667 0.072833337 0.66500002
-0.0095142862 0.07294286 0.66600001
-0.0082457149 0.07294286 0.66600001
-0.0069876197 0.073052384 0.66700006
-0.0057171434 0.073052384 0.66700006
-0.0044466672 0.073052384 0.66700006
-0.0031761907 0.073052384 0.66700006
-0.0019114286 0.073271431 0.66900003
-0.00063809525 0.073380955 0.67000002
0.00063809525 0.073380955 0.67000002
0.0019142858 0.073380955 0.67000002
0.0031952383 0.073490478 0.671
0.0044800001 0.073600002 0.67200005
0.0057600006 0.073600002 0.67200005
0.0070400005 0.073600002 0.67200005
0.008344762 0.073819056 0.67400002
0.0096571436 0.074038103 0.67600006
0.010944762 0.074038103 0.67600006
0.012214286 0.07392858 0.67500001
0.013500001 0.07392858 0.67500001
-0.1711143 0.075548574 0.67800003
-0.16982287 0.075548574 0.67800003
-0.16853143 0.075548574 0.67800003
-0.16724001 0.075548574 0.67800003
-0.16619335 0.075660005 0.67900002
-0.16465716 0.075548574 0.67800003
-0.16384763 0.075771436 0.68000001
-0.16255239 0.075771436 0.68000001
-0.16196859 0.076105721 0.68300003
-0.16090287 0.076217145 0.68400002
-0.15688668 0.078780003 0.70700002
-0.15554 0.078780003 0.70700002
-0.15375715 0.078557149 0.70500004
-0.15219811 0.078445718 0.70400006
-0.15107144 0.078557149 0.70500004
-0.15036573 0.078891434 0.708
-0.14901716 0.078891434 0.708
-0.12019144 0.079448573 0.71300006
-0.11883334 0.079448573 0.71300006
-0.11747525 0.079448573 0.71300006
-0.11611715 0.079448573 0.71300006
-0.11475906 0.079448573 0.71300006
-0.11340096 0.079448573 0.71300006
-0.11220001 0.079560004 0.71400005
-0.11115048 0.079782866 0.71600002
-0.10978667 0.079782866 0.71600002
-0.10857429 0.079894289 0.71700001
-0.10750762 0.080117151 0.71900004
-0.1061381 0.080117151 0.71900004
-0.10491429 0.080228575 0.72000003
-0.10354286 0.080228575 0.72000003
-0.10245524 0.080451436 0.72200006
-0.10122 0.08056286 0.72300005
-0.099842861 0.08056286 0.72300005
-0.098465718 0.08056286 0.72300005
-0.097357146 0.080785722 0.72500002
-0.095976196 0.080785722 0.72500002
-0.094725721 0.080897145 0.72600001
-0.093342863 0.080897145 0.72600001
-0.091960005 0.080897145 0.72600001
-0.090452388 0.080785722 0.72500002
-0.089440003 0.081120007 0.72800004
-0.088053338 0.081120007 0.72800004
-0.086785719 0.081231438 0.72900003
-0.085397147 0.081231438 0.72900003
-0.084239051 0.081454292 0.73100001
-0.082846671 0.081454292 0.73100001
-0.081454292 0.081454292 0.73100001
-0.080061913 0.081454292 0.73100001
-0.078777149 0.081565723 0.73200005
-0.077382863 0.081565723 0.73200005
-0.075988576 0.081565723 0.73200005
-0.074594289 0.081565723 0.73200005
-0.073200002 0.081565723 0.73200005
-0.072001912 0.081788577 0.73400003
-0.070603818 0.081788577 0.73400003
-0.06939429 0.082011431 0.73600006
-0.067992382 0.082011431 0.73600006
-0.06668096 0.082122862 0.73700005
-0.065454289 0.082345717 0.73900002
-0.063873336 0.082122862 0.73700005
-0.062723815 0.082457148 0.74000001
-0.061314289 0.082457148 0.74000001
-0.059904765 0.082457148 0.74000001
-0.058653336 0.082680002 0.74200004
-0.057240006 0.082680002 0.74200004
-0.026122859 0.074545719 0.66900003
-0.024737144 0.074211434 0.66600001
-0.023433335 0.074100003 0.66500002
-0.022166668 0.074100003 0.66500002
-0.020900002 0.074100003 0.66500002
-0.019574286 0.073877148 0.66300005
-0.01831143 0.073877148 0.66300005
-0.017048573 0.073877148 0.66300005
-0.015785715 0.073877148 0.66300005
-0.014522858 0.073877148 0.66300005
-0.013300001 0.074100003 0.66500002
-0.012033334 0.074100003 0.66500002
-0.010766667 0.074100003 0.66500002
-0.0095142862 0.074211434 0.66600001
-0.0082457149 0.074211434 0.66600001
-0.0069876197 0.074322864 0.66700006
-0.0057171434 0.074322864 0.66700006
-0.0044466672 0.074322864 0.66700006
-0.0031857146 0.074545719 0.66900003
-0.0019114286 0.074545719 0.66900003
-0.00063809525 0.07465715 0.67000002
0.00063809525 0.07465715 0.67000002
0.001917143 0.074768573 0.671
0.0032000002 0.074880004 0.67200005
0.0044800001 0.074880004 0.67200005
0.0057600006 0.074880004 0.67200005
0.007060953 0.075102866 0.67400002
0.008344762 0.075102866 0.67400002
0.0091285724 0.071202859 0.63900006
0.010345715 0.071202859 0.63900006
0.011562858 0.071202859 0.63900006
-0.17189716 0.076613337 0.67600006
-0.1711143 0.076840006 0.67800003
-0.16932191 0.076613337 0.67600006
-0.1680343 0.076613337 0.67600006
-0.16724001 0.076840006 0.67800003
-0.16594858 0.076840006 0.67800003
-0.1649 0.076953337 0.67900002
-0.16360667 0.076953337 0.67900002
-0.16255239 0.077066675 0.68000001
-0.15644287 0.079900004 0.70500004
-0.1551 0.079900004 0.70500004
-0.15375715 0.079900004 0.70500004
-0.15219811 0.079786673 0.70400006
-0.15085715 0.079786673 0.70400006
-0.14972858 0.079900004 0.70500004
-0.14880668 0.080126673 0.70700002
-0.11883334 0.080806673 0.71300006
-0.11747525 0.080806673 0.71300006
-0.11628 0.080920003 0.71400005
-0.11492001 0.080920003 0.71400005
-0.11356001 0.080920003 0.71400005
-0.11251429 0.081146672 0.71600002
-0.11115048 0.081146672 0.71600002
-0.10994001 0.081260003 0.71700001
-0.10887715 0.081486672 0.71900004
-0.10750762 0.081486672 0.71900004
-0.10628572 0.081600003 0.72000003
-0.10491429 0.081600003 0.72000003
-0.10383049 0.081826672 0.72200006
-0.10245524 0.081826672 0.72200006
-0.10122 0.081940003 0.72300005
-0.099842861 0.081940003 0.72300005
-0.098738104 0.082166672 0.72500002
-0.097357146 0.082166672 0.72500002
-0.095976196 0.082166672 0.72500002
-0.094725721 0.082280003 0.72600001
-0.093342863 0.082280003 0.72600001
-0.091833338 0.082166672 0.72500002
-0.090452388 0.082166672 0.72500002
-0.089440003 0.082506672 0.72800004
-0.088053338 0.082506672 0.72800004
-0.086785719 0.082620002 0.72900003
-0.085397147 0.082620002 0.72900003
-0.084239051 0.082846671 0.73100001
-0.082846671 0.082846671 0.73100001
-0.081454292 0.082846671 0.73100001
-0.080171436 0.082960002 0.73200005
-0.078777149 0.082960002 0.73200005
-0.077382863 0.082960002 0.73200005
-0.075988576 0.082960002 0.73200005
-0.074594289 0.082960002 0.73200005
-0.073400006 0.083186671 0.73400003
-0.072001912 0.083186671 0.73400003
-0.070603818 0.083186671 0.73400003
-0.069488578 0.083526671 0.73700005
-0.068084769 0.083526671 0.73700005
-0.06668096 0.083526671 0.73700005
-0.065454289 0.08375334 0.73900002
-0.064046673 0.08375334 0.73900002
-0.06263905 0.08375334 0.73900002
-0.061480004 0.08409334 0.74200004
-0.06006667 0.08409334 0.74200004
-0.058732383 0.084206671 0.74300003
-0.057471432 0.08443334 0.74500006
-0.026161907 0.075933337 0.67000002
-0.024774287 0.075593337 0.66700006
-0.023468573 0.075480007 0.66600001
-0.022200001 0.075480007 0.66600001
-0.02093143 0.075480007 0.66600001
-0.019633334 0.075366668 0.66500002
-0.018366668 0.075366668 0.66500002
-0.017048573 0.075140007 0.66300005
-0.015785715 0.075140007 0.66300005
-0.014566667 0.075366668 0.66500002
-0.013300001 0.075366668 0.66500002
-0.012033334 0.075366668 0.66500002
-0.010782857 0.075480007 0.66600001
-0.0095285717 0.075593337 0.66700006
-0.0082580959 0.075593337 0.66700006
-0.0069876197 0.075593337 0.66700006
-0.0057342863 0.075820006 0.66900003
-0.0044600004 0.075820006 0.66900003
-0.0031857146 0.075820006 0.66900003
-0.0019114286 0.075820006 0.66900003
-0.00063809525 0.075933337 0.67000002
0.00063904765 0.076046668 0.671
0.001917143 0.076046668 0.671
0.0032000002 0.076160006 0.67200005
0.0044933334 0.076386675 0.67400002
0.0057771434 0.076386675 0.67400002
0.007060953 0.076386675 0.67400002
0.0079114288 0.072420008 0.63900006
0.0091285724 0.072420008 0.63900006
0.010345715 0.072420008 0.63900006
0.011562858 0.072420008 0.63900006
0.01278 0.072420008 0.63900006
-0.17189716 0.077900961 0.67600006
-0.17060953 0.077900961 0.67600006
-0.16932191 0.077900961 0.67600006
-0.1680343 0.077900961 0.67600006
-0.16674668 0.077900961 0.67600006
-0.1652143 0.077785723 0.67500001
-0.16417144 0.077900961 0.67600006
-0.16264287 0.077785723 0.67500001
-0.16255239 0.078361914 0.68000001
-0.15778573 0.081242859 0.70500004
-0.15622096 0.081127621 0.70400006
-0.15488002 0.081127621 0.70400006
-0.15353906 0.081127621 0.70400006
-0.15198192 0.081012383 0.70300001
-0.15064287 0.081012383 0.70300001
-0.14930382 0.081012383 0.70300001
-0.14796478 0.081012383 0.70300001
-0.14662573 0.081012383 0.70300001
-0.14528668 0.081012383 0.70300001
-0.14394763 0.081012383 0.70300001
-0.1383381 0.080090478 0.69500005
-0.1370143 0.080090478 0.69500005
-0.13569048 0.080090478 0.69500005
-0.13417335 0.07997524 0.69400001
-0.13285144 0.07997524 0.69400001
-0.11747525 0.082164764 0.71300006
-0.11628 0.082280003 0.71400005
-0.11492001 0.082280003 0.71400005
-0.11356001 0.082280003 0.71400005
-0.11267143 0.082625717 0.71700001
-0.11161619 0.082856193 0.71900004
-0.11024667 0.082856193 0.71900004
-0.10902858 0.082971431 0.72000003
-0.10765715 0.082971431 0.72000003
-0.10628572 0.082971431 0.72000003
-0.10491429 0.082971431 0.72000003
-0.10383049 0.083201908 0.72200006
-0.10245524 0.083201908 0.72200006
-0.10122 0.083317146 0.72300005
-0.099842861 0.083317146 0.72300005
-0.098738104 0.083547622 0.72500002
-0.097357146 0.083547622 0.72500002
-0.095976196 0.083547622 0.72500002
-0.094725721 0.08366286 0.72600001
-0.093342863 0.08366286 0.72600001
-0.091960005 0.08366286 0.72600001
-0.090577148 0.08366286 0.72600001
-0.089440003 0.083893336 0.72800004
-0.088053338 0.083893336 0.72800004
-0.086785719 0.084008574 0.72900003
-0.085397147 0.084008574 0.72900003
-0.084239051 0.084239051 0.73100001
-0.082846671 0.084239051 0.73100001
-0.081454292 0.084239051 0.73100001
-0.080061913 0.084239051 0.73100001
-0.078777149 0.084354289 0.73200005
-0.077382863 0.084354289 0.73200005
-0.075988576 0.084354289 0.73200005
-0.074594289 0.084354289 0.73200005
-0.073400006 0.084584765 0.73400003
-0.0721981 0.084815241 0.73600006
-0.070796192 0.084815241 0.73600006
-0.069488578 0.08493048 0.73700005
-0.068084769 0.08493048 0.73700005
-0.066861913 0.085160956 0.73900002
-0.065454289 0.085160956 0.73900002
-0.064046673 0.085160956 0.73900002
-0.062978096 0.085621908 0.74300003
-0.061480004 0.08550667 0.74200004
-0.060147624 0.085621908 0.74300003
-0.058890481 0.085852385 0.74500006
-0.057625718 0.086082861 0.74700004
-0.024848573 0.077094294 0.66900003
-0.023574287 0.077094294 0.66900003
-0.022233335 0.076863818 0.66700006
-0.02093143 0.07674858 0.66600001
-0.019633334 0.076633342 0.66500002
-0.018366668 0.076633342 0.66500002
-0.017100001 0.076633342 0.66500002
-0.015833335 0.076633342 0.66500002
-0.014566667 0.076633342 0.66500002
-0.013300001 0.076633342 0.66500002
-0.01205143 0.07674858 0.66600001
-0.010799048 0.076863818 0.66700006
-0.0095285717 0.076863818 0.66700006
-0.0082580959 0.076863818 0.66700006
-0.0070085721 0.077094294 0.66900003
-0.0057342863 0.077094294 0.66900003
-0.0044666668 0.077209532 0.67000002
-0.0031904764 0.077209532 0.67000002
-0.001917143 0.07732477 0.671
-0.00063904765 0.07732477 0.671
0.00063904765 0.07732477 0.671
0.0019200002 0.077440009 0.67200005
0.0032000002 0.077440009 0.67200005
0.0044933334 0.077670485 0.67400002
0.0057771434 0.077670485 0.67400002
0.0066942861 0.07363715 0.63900006
0.0079114288 0.07363715 0.63900006
0.0091285724 0.07363715 0.63900006
0.010345715 0.07363715 0.63900006
0.011562858 0.07363715 0.63900006
0.01278 0.07363715 0.63900006
-0.17164287 0.079071432 0.67500001
-0.17035715 0.079071432 0.67500001
-0.16907144 0.079071432 0.67500001
-0.16778572 0.079071432 0.67500001
-0.16650002 0.079071432 0.67500001
-0.1652143 0.079071432 0.67500001
-0.16417144 0.079188578 0.67600006
-0.16264287 0.079071432 0.67500001
-0.16135715 0.079071432 0.67500001
-0.15599906 0.082351431 0.70300001
-0.15466002 0.082351431 0.70300001
-0.15332097 0.082351431 0.70300001
-0.15198192 0.082351431 0.70300001
-0.15064287 0.082351431 0.70300001
-0.14930382 0.082351431 0.70300001
-0.14754382 0.082117148 0.70100003
-0.14662573 0.082351431 0.70300001
-0.14487334 0.082117148 0.70100003
-0.1383381 0.08141429 0.69500005
-0.1370143 0.08141429 0.69500005
-0.13569048 0.08141429 0.69500005
-0.13436668 0.08141429 0.69500005
-0.11747525 0.083522864 0.71300006
-0.11628 0.083640009 0.71400005
-0.11524191 0.083874293 0.71600002
-0.1138781 0.083874293 0.71600002
-0.11267143 0.083991431 0.71700001
-0.11161619 0.084225722 0.71900004
-0.11024667 0.084225722 0.71900004
-0.10902858 0.08434286 0.72000003
-0.10765715 0.08434286 0.72000003
-0.10628572 0.08434286 0.72000003
-0.10491429 0.08434286 0.72000003
-0.10383049 0.084577151 0.72200006
-0.10245524 0.084577151 0.72200006
-0.10122 0.084694289 0.72300005
-0.10011905 0.08492858 0.72500002
-0.098738104 0.08492858 0.72500002
-0.097357146 0.08492858 0.72500002
-0.096108578 0.085045718 0.72600001
-0.094725721 0.085045718 0.72600001
-0.093342863 0.085045718 0.72600001
-0.091960005 0.085045718 0.72600001
-0.090577148 0.085045718 0.72600001
-0.089440003 0.085280009 0.72800004
-0.088174291 0.085397147 0.72900003
-0.086785719 0.085397147 0.72900003
-0.085397147 0.085397147 0.72900003
-0.084239051 0.085631438 0.73100001
-0.082846671 0.085631438 0.73100001
-0.081454292 0.085631438 0.73100001
-0.080061913 0.085631438 0.73100001
-0.078777149 0.085748576 0.73200005
-0.077382863 0.085748576 0.73200005
-0.075988576 0.085748576 0.73200005
-0.074594289 0.085748576 0.73200005
-0.073400006 0.085982859 0.73400003
-0.0721981 0.08621715 0.73600006
-0.070892386 0.086334288 0.73700005
-0.069677144 0.086568579 0.73900002
-0.068269528 0.086568579 0.73900002
-0.066952385 0.086685717 0.74000001
-0.065542862 0.086685717 0.74000001
-0.064133339 0.086685717 0.74000001
-0.062978096 0.087037146 0.74300003
-0.061562862 0.087037146 0.74300003
-0.060309529 0.087271437 0.74500006
-0.024885716 0.07848572 0.67000002
-0.023574287 0.078368574 0.66900003
-0.022300001 0.078368574 0.66900003
-0.020962859 0.078134291 0.66700006
-0.019662859 0.078017145 0.66600001
-0.018394288 0.078017145 0.66600001
-0.017125715 0.078017145 0.66600001
-0.015833335 0.077900007 0.66500002
-0.014566667 0.077900007 0.66500002
-0.013300001 0.077900007 0.66500002
-0.01205143 0.078017145 0.66600001
-0.010799048 0.078134291 0.66700006
-0.0095285717 0.078134291 0.66700006
-0.0082580959 0.078134291 0.66700006
-0.0070085721 0.078368574 0.66900003
-0.0057428577 0.07848572 0.67000002
-0.0044666668 0.07848572 0.67000002
-0.0031904764 0.07848572 0.67000002
-0.001917143 0.078602865 0.671
-0.00063904765 0.078602865 0.671
0.00064000004 0.078720003 0.67200005
0.0019200002 0.078720003 0.67200005
0.0032000002 0.078720003 0.67200005
0.0044800001 0.078720003 0.67200005
0.005477143 0.074854292 0.63900006
0.0066942861 0.074854292 0.63900006
0.0079114288 0.074854292 0.63900006
0.0091285724 0.074854292 0.63900006
0.010345715 0.074854292 0.63900006
0.011580953 0.07497143 0.64000005
0.012800001 0.07497143 0.64000005
-0.17164287 0.080357149 0.67500001
-0.17010477 0.080238104 0.67400002
-0.16882096 0.080238104 0.67400002
-0.16753715 0.080238104 0.67400002
-0.16625334 0.080238104 0.67400002
-0.16496953 0.080238104 0.67400002
-0.16392858 0.080357149 0.67500001
-0.16264287 0.080357149 0.67500001
-0.16135715 0.080357149 0.67500001
-0.15599906 0.083690479 0.70300001
-0.15466002 0.083690479 0.70300001
-0.15332097 0.083690479 0.70300001
-0.15154953 0.083452389 0.70100003
-0.1502143 0.083452389 0.70100003
-0.14887905 0.083452389 0.70100003
-0.14754382 0.083452389 0.70100003
-0.14620858 0.083452389 0.70100003
-0.14487334 0.083452389 0.70100003
-0.1435381 0.083452389 0.70100003
-0.1387362 0.082976192 0.69700003
-0.13740858 0.082976192 0.69700003
-0.13608097 0.082976192 0.69700003
-0.13436668 0.082738101 0.69500005
-0.11524191 0.085238099 0.71600002
-0.11403715 0.085357152 0.71700001
-0.11298572 0.085595243 0.71900004
-0.11161619 0.085595243 0.71900004
-0.11040001 0.085714288 0.72000003
-0.10902858 0.085714288 0.72000003
-0.10765715 0.085714288 0.72000003
-0.10658096 0.085952386 0.72200006
-0.10520572 0.085952386 0.72200006
-0.10383049 0.085952386 0.72200006
-0.10259715 0.086071432 0.72300005
-0.10122 0.086071432 0.72300005
-0.10011905 0.08630953 0.72500002
-0.098738104 0.08630953 0.72500002
-0.097491436 0.086428575 0.72600001
-0.096108578 0.086428575 0.72600001
-0.094725721 0.086428575 0.72600001
-0.093342863 0.086428575 0.72600001
-0.09221334 0.086666673 0.72800004
-0.090577148 0.086428575 0.72600001
-0.089440003 0.086666673 0.72800004
-0.088174291 0.086785719 0.72900003
-0.087023817 0.087023817 0.73100001
-0.085631438 0.087023817 0.73100001
-0.084239051 0.087023817 0.73100001
-0.082846671 0.087023817 0.73100001
-0.081454292 0.087023817 0.73100001
-0.080171436 0.087142862 0.73200005
-0.078777149 0.087142862 0.73200005
-0.077382863 0.087142862 0.73200005
-0.075988576 0.087142862 0.73200005
-0.0747981 0.087380961 0.73400003
-0.073600002 0.087619051 0.73600006
-0.072296195 0.087738104 0.73700005
-0.071084768 0.087976195 0.73900002
-0.069677144 0.087976195 0.73900002
-0.068361908 0.08809524 0.74000001
-0.066952385 0.08809524 0.74000001
-0.065542862 0.08809524 0.74000001
-0.064133339 0.08809524 0.74000001
-0.023609525 0.079761907 0.67000002
-0.022300001 0.079642862 0.66900003
-0.020962859 0.079404764 0.66700006
-0.019692382 0.079404764 0.66700006
-0.018394288 0.079285719 0.66600001
-0.017125715 0.079285719 0.66600001
-0.015833335 0.079166673 0.66500002
-0.014566667 0.079166673 0.66500002
-0.013300001 0.079166673 0.66500002
-0.01205143 0.079285719 0.66600001
-0.010799048 0.079404764 0.66700006
-0.0095571438 0.079642862 0.66900003
-0.0082828579 0.079642862 0.66900003
-0.0070190481 0.079761907 0.67000002
-0.0057428577 0.079761907 0.67000002
-0.0044733337 0.07988096 0.671
-0.0031952383 0.07988096 0.671
-0.001917143 0.07988096 0.671
-0.00064000004 0.080000006 0.67200005
0.00064000004 0.080000006 0.67200005
0.0019200002 0.080000006 0.67200005
0.0030428574 0.076071434 0.63900006
0.0042600003 0.076071434 0.63900006
0.005477143 0.076071434 0.63900006
0.0066942861 0.076071434 0.63900006
0.0079114288 0.076071434 0.63900006
0.0091285724 0.076071434 0.63900006
0.010345715 0.076071434 0.63900006
0.011580953 0.076190479 0.64000005
0.012800001 0.076190479 0.64000005
-0.17138858 0.081521913 0.67400002
-0.16960001 0.081280008 0.67200005
-0.16832002 0.081280008 0.67200005
-0.16704001 0.081280008 0.67200005
-0.16576001 0.081280008 0.67200005
-0.16496953 0.081521913 0.67400002
-0.16368572 0.081521913 0.67400002
-0.16240191 0.081521913 0.67400002
-0.15599906 0.085029528 0.70300001
-0.15466002 0.085029528 0.70300001
-0.15332097 0.085029528 0.70300001
-0.15154953 0.084787622 0.70100003
-0.1502143 0.084787622 0.70100003
-0.14887905 0.084787622 0.70100003
-0.14754382 0.084787622 0.70100003
-0.14620858 0.084787622 0.70100003
-0.14487334 0.084787622 0.70100003
-0.1435381 0.084787622 0.70100003
-0.142 0.084666669 0.70000005
-0.14066668 0.084666669 0.70000005
-0.13893525 0.084424764 0.69800001
-0.11298572 0.086964771 0.71900004
-0.11161619 0.086964771 0.71900004
-0.11040001 0.087085716 0.72000003
-0.10933144 0.087327622 0.72200006
-0.1079562 0.087327622 0.72200006
-0.10658096 0.087327622 0.72200006
-0.10520572 0.087327622 0.72200006
-0.10397429 0.087448575 0.72300005
-0.10288096 0.08769048 0.72500002
-0.1015 0.08769048 0.72500002
-0.10025715 0.087811433 0.72600001
-0.098874293 0.087811433 0.72600001
-0.097491436 0.087811433 0.72600001
-0.096108578 0.087811433 0.72600001
-0.094725721 0.087811433 0.72600001
-0.093342863 0.087811433 0.72600001
-0.09221334 0.088053338 0.72800004
-0.090826675 0.088053338 0.72800004
-0.089562863 0.088174291 0.72900003
-0.088416196 0.088416196 0.73100001
-0.087023817 0.088416196 0.73100001
-0.085631438 0.088416196 0.73100001
-0.084354289 0.088537149 0.73200005
-0.082960002 0.088537149 0.73200005
-0.081565723 0.088537149 0.73200005
-0.080171436 0.088537149 0.73200005
-0.078992389 0.088779055 0.73400003
-0.077594288 0.088779055 0.73400003
-0.076196194 0.088779055 0.73400003
-0.07500191 0.08902096 0.73600006
-0.073700003 0.089141913 0.73700005
-0.072296195 0.089141913 0.73700005
-0.071084768 0.089383818 0.73900002
-0.069771431 0.089504771 0.74000001
-0.068361908 0.089504771 0.74000001
-0.066952385 0.089504771 0.74000001
-0.065542862 0.089504771 0.74000001
-0.064133339 0.089504771 0.74000001
-0.023609525 0.081038103 0.67000002
-0.022333335 0.081038103 0.67000002
-0.021025715 0.08091715 0.66900003
