# .PCD v0.7 - Point Cloud Data file format
VERSION 0.7
FIELDS x y z
SIZE 4 4 4
TYPE F F F
COUNT 1 1 1
WIDTH 1347
HEIGHT 1
VIEWPOINT 0 0 0 1 0 0 0
POINTS 1347
DATA ascii
-0.036823813 0.022094287 0.70300001
-0.037018098 0.025991431 0.82700002
-0.035442859 0.025991431 0.82700002
-0.033949528 0.026054287 0.82900006
-0.032370478 0.026054287 0.82900006
-0.029282859 0.026117144 0.83100003
-0.027700001 0.026117144 0.83100003
-0.026054287 0.026054287 0.82900006
-0.024475239 0.026054287 0.82900006
-0.02295143 0.026117144 0.83100003
-0.021317145 0.026054287 0.82900006
-0.019738097 0.026054287 0.82900006
-0.018202858 0.026117144 0.83100003
-0.016580001 0.026054287 0.82900006
-0.015109525 0.02624286 0.83500004
-0.013519049 0.02624286 0.83500004
-0.011928572 0.02624286 0.83500004
-0.010338096 0.02624286 0.83500004
-0.0087476196 0.02624286 0.83500004
-0.0071571432 0.02624286 0.83500004
-0.0055666668 0.02624286 0.83500004
-0.0039761909 0.02624286 0.83500004
-0.0023914287 0.026305716 0.83700001
-0.00079714291 0.026305716 0.83700001
0.00079714291 0.026305716 0.83700001
0.0023914287 0.026305716 0.83700001
0.0039857146 0.026305716 0.83700001
0.0055800006 0.026305716 0.83700001
0.0071742861 0.026305716 0.83700001
0.0087685715 0.026305716 0.83700001
0.010362858 0.026305716 0.83700001
0.011957143 0.026305716 0.83700001
0.01355143 0.026305716 0.83700001
0.015145715 0.026305716 0.83700001
0.016740002 0.026305716 0.83700001
0.018334286 0.026305716 0.83700001
0.019976191 0.026368573 0.83900005
0.021522859 0.026305716 0.83700001
0.026117144 0.026117144 0.83100003
0.027700001 0.026117144 0.83100003
0.029212384 0.026054287 0.82900006
0.03079143 0.026054287 0.82900006
0.032370478 0.026054287 0.82900006
0.07608667 0.024860002 0.79100001
0.077593341 0.024860002 0.79100001
0.078900002 0.024797145 0.78900003
0.080097146 0.024702858 0.78600001
0.08138667 0.024640001 0.78400004
0.08266858 0.024577145 0.78200006
0.08394286 0.024514288 0.78000003
0.08531905 0.024482859 0.77900004
0.086802863 0.024482859 0.77900004
0.088060006 0.024420002 0.77700001
0.089309528 0.024357144 0.77500004
-0.080828577 0.023000002 0.69000006
-0.079514287 0.023000002 0.69000006
-0.078086674 0.022966668 0.68900001
-0.07655143 0.022900002 0.68700004
-0.075133339 0.022866668 0.68600005
-0.073826671 0.022866668 0.68600005
-0.072625719 0.022900002 0.68700004
-0.071317151 0.022900002 0.68700004
-0.070008576 0.022900002 0.68700004
-0.068700008 0.022900002 0.68700004
-0.067391433 0.022900002 0.68700004
-0.066082865 0.022900002 0.68700004
-0.06477429 0.022900002 0.68700004
-0.063373335 0.022866668 0.68600005
-0.062157147 0.022900002 0.68700004
-0.060848575 0.022900002 0.68700004
-0.059540004 0.022900002 0.68700004
-0.058400955 0.022966668 0.68900001
-0.057088576 0.022966668 0.68900001
-0.055857148 0.023000002 0.69000006
-0.054542862 0.023000002 0.69000006
-0.053228576 0.023000002 0.69000006
-0.05183905 0.022966668 0.68900001
-0.050600003 0.023000002 0.69000006
-0.049285717 0.023000002 0.69000006
-0.047971431 0.023000002 0.69000006
-0.046657145 0.023000002 0.69000006
-0.045342859 0.023000002 0.69000006
-0.044092383 0.023033334 0.69100004
-0.042900003 0.023100002 0.69300002
-0.041640002 0.023133336 0.69400001
-0.040376194 0.023166668 0.69500005
-0.039220955 0.023266668 0.69800001
-0.038054287 0.023366667 0.70100003
-0.036823813 0.023433335 0.70300001
-0.03710762 0.027633335 0.82900006
-0.035528574 0.027633335 0.82900006
-0.033949528 0.027633335 0.82900006
-0.032448575 0.027700001 0.83100003
-0.030940002 0.027766669 0.83300006
-0.029353335 0.027766669 0.83300006
-0.027766669 0.027766669 0.83300006
-0.026117144 0.027700001 0.83100003
-0.024534287 0.027700001 0.83100003
-0.023006668 0.027766669 0.83300006
-0.021368572 0.027700001 0.83100003
-0.019785715 0.027700001 0.83100003
-0.018246667 0.027766669 0.83300006
-0.016700001 0.027833335 0.83500004
-0.015109525 0.027833335 0.83500004
-0.013519049 0.027833335 0.83500004
-0.011928572 0.027833335 0.83500004
-0.010338096 0.027833335 0.83500004
-0.0087476196 0.027833335 0.83500004
-0.0071571432 0.027833335 0.83500004
-0.0055666668 0.027833335 0.83500004
-0.0039761909 0.027833335 0.83500004
-0.0023914287 0.027900001 0.83700001
-0.00079714291 0.027900001 0.83700001
0.00079714291 0.027900001 0.83700001
0.0023914287 0.027900001 0.83700001
0.0039857146 0.027900001 0.83700001
0.0055800006 0.027900001 0.83700001
0.0071742861 0.027900001 0.83700001
0.0087685715 0.027900001 0.83700001
0.010362858 0.027900001 0.83700001
0.011957143 0.027900001 0.83700001
0.01355143 0.027900001 0.83700001
0.015145715 0.027900001 0.83700001
0.016740002 0.027900001 0.83700001
0.018334286 0.027900001 0.83700001
0.019928573 0.027900001 0.83700001
0.02147143 0.027833335 0.83500004
0.023061907 0.027833335 0.83500004
0.024593335 0.027766669 0.83300006
0.026117144 0.027700001 0.83100003
0.027700001 0.027700001 0.83100003
0.029282859 0.027700001 0.83100003
0.03079143 0.027633335 0.82900006
0.032448575 0.027700001 0.83100003
0.034031432 0.027700001 0.83100003
0.035614289 0.027700001 0.83100003
0.078900002 0.026300002 0.78900003
0.080097146 0.026200002 0.78600001
0.08138667 0.026133334 0.78400004
0.082457148 0.026000002 0.78000003
0.083835244 0.025966669 0.77900004
0.08531905 0.025966669 0.77900004
0.086580008 0.025900003 0.77700001
0.088060006 0.025900003 0.77700001
0.089309528 0.025833335 0.77500004
0.090785719 0.025833335 0.77500004
-0.081190482 0.024032382 0.68200004
-0.080008574 0.02406762 0.68300003
-0.078822859 0.024102859 0.68400002
-0.077860005 0.024208574 0.68700004
-0.076440006 0.024173334 0.68600005
-0.075133339 0.024173334 0.68600005
-0.073826671 0.024173334 0.68600005
-0.072520003 0.024173334 0.68600005
-0.071213335 0.024173334 0.68600005
-0.069906674 0.024173334 0.68600005
-0.068600006 0.024173334 0.68600005
-0.067293338 0.024173334 0.68600005
-0.065986671 0.024173334 0.68600005
-0.064680003 0.024173334 0.68600005
-0.063373335 0.024173334 0.68600005
-0.062066671 0.024173334 0.68600005
-0.060760003 0.024173334 0.68600005
-0.059540004 0.024208574 0.68700004
-0.058231432 0.024208574 0.68700004
-0.05692286 0.024208574 0.68700004
-0.055776194 0.024279049 0.68900001
-0.054463815 0.024279049 0.68900001
-0.053151432 0.024279049 0.68900001
-0.05183905 0.024279049 0.68900001
-0.050526671 0.024279049 0.68900001
-0.049214289 0.024279049 0.68900001
-0.047901906 0.024279049 0.68900001
-0.046589527 0.024279049 0.68900001
-0.045342859 0.024314288 0.69000006
-0.044028573 0.024314288 0.69000006
-0.042776193 0.024349526 0.69100004
-0.041580003 0.024420002 0.69300002
-0.040376194 0.024490478 0.69500005
-0.039164763 0.024560954 0.69700003
-0.037837144 0.024560954 0.69700003
-0.03868667 0.029212384 0.82900006
-0.03710762 0.029212384 0.82900006
-0.035614289 0.029282859 0.83100003
-0.034031432 0.029282859 0.83100003
-0.032448575 0.029282859 0.83100003
-0.030940002 0.029353335 0.83300006
-0.029353335 0.029353335 0.83300006
-0.027766669 0.029353335 0.83300006
-0.026180001 0.029353335 0.83300006
-0.024593335 0.029353335 0.83300006
-0.023006668 0.029353335 0.83300006
-0.021420002 0.029353335 0.83300006
-0.019833334 0.029353335 0.83300006
-0.018246667 0.029353335 0.83300006
-0.016700001 0.029423811 0.83500004
-0.015109525 0.029423811 0.83500004
-0.013519049 0.029423811 0.83500004
-0.011928572 0.029423811 0.83500004
-0.010362858 0.029494287 0.83700001
-0.0087685715 0.029494287 0.83700001
-0.0071742861 0.029494287 0.83700001
-0.0055800006 0.029494287 0.83700001
-0.0039857146 0.029494287 0.83700001
-0.0023914287 0.029494287 0.83700001
-0.00079714291 0.029494287 0.83700001
0.00079714291 0.029494287 0.83700001
0.0023914287 0.029494287 0.83700001
0.0039857146 0.029494287 0.83700001
0.0055933339 0.029564764 0.83900005
0.0071742861 0.029494287 0.83700001
0.0087685715 0.029494287 0.83700001
0.010362858 0.029494287 0.83700001
0.011957143 0.029494287 0.83700001
0.013519049 0.029423811 0.83500004
0.015109525 0.029423811 0.83500004
0.016740002 0.029494287 0.83700001
0.018290477 0.029423811 0.83500004
0.019928573 0.029494287 0.83700001
0.02147143 0.029423811 0.83500004
0.023061907 0.029423811 0.83500004
0.024652382 0.029423811 0.83500004
0.026180001 0.029353335 0.83300006
0.027766669 0.029353335 0.83300006
0.029353335 0.029353335 0.83300006
0.030865716 0.029282859 0.83100003
0.032526668 0.029353335 0.83300006
0.034113336 0.029353335 0.83300006
0.035614289 0.029282859 0.83100003
0.037197147 0.029282859 0.83100003
0.08138667 0.027626669 0.78400004
0.082457148 0.027485715 0.78000003
0.083835244 0.027450478 0.77900004
0.08531905 0.027450478 0.77900004
0.086580008 0.027380003 0.77700001
0.088060006 0.027380003 0.77700001
0.089079052 0.027239049 0.77300006
0.09043429 0.027203811 0.77200001
0.091904767 0.027203811 0.77200001
-0.080833338 0.025220001 0.67900002
-0.079657145 0.025257144 0.68000001
-0.078707621 0.025368573 0.68300003
-0.077520005 0.025405716 0.68400002
-0.076217145 0.025405716 0.68400002
-0.074914292 0.025405716 0.68400002
-0.073611431 0.025405716 0.68400002
-0.072308578 0.025405716 0.68400002
-0.071005717 0.025405716 0.68400002
-0.069702864 0.025405716 0.68400002
-0.068400003 0.025405716 0.68400002
-0.06709715 0.025405716 0.68400002
-0.065794289 0.025405716 0.68400002
-0.064491436 0.025405716 0.68400002
-0.063188575 0.025405716 0.68400002
-0.061885718 0.025405716 0.68400002
-0.060760003 0.025480002 0.68600005
-0.059453338 0.025480002 0.68600005
-0.058231432 0.025517145 0.68700004
-0.05692286 0.025517145 0.68700004
-0.055614289 0.025517145 0.68700004
-0.054305717 0.025517145 0.68700004
-0.052997146 0.025517145 0.68700004
-0.051688574 0.025517145 0.68700004
-0.050380003 0.025517145 0.68700004
-0.049071431 0.025517145 0.68700004
-0.04776286 0.025517145 0.68700004
-0.046454288 0.025517145 0.68700004
-0.045342859 0.025628572 0.69000006
-0.044028573 0.025628572 0.69000006
-0.04271429 0.025628572 0.69000006
-0.041460004 0.025665715 0.69100004
-0.040260002 0.025740001 0.69300002
-0.039052382 0.025814287 0.69500005
-0.037728574 0.025814287 0.69500005
-0.038780004 0.030865716 0.83100003
-0.037197147 0.030865716 0.83100003
-0.035614289 0.030865716 0.83100003
-0.034031432 0.030865716 0.83100003
-0.032448575 0.030865716 0.83100003
-0.030940002 0.030940002 0.83300006
-0.029353335 0.030940002 0.83300006
-0.027833335 0.031014288 0.83500004
-0.026180001 0.030940002 0.83300006
-0.024593335 0.030940002 0.83300006
-0.023061907 0.031014288 0.83500004
-0.02147143 0.031014288 0.83500004
-0.019880954 0.031014288 0.83500004
-0.018290477 0.031014288 0.83500004
-0.016700001 0.031014288 0.83500004
-0.015109525 0.031014288 0.83500004
-0.013519049 0.031014288 0.83500004
-0.011928572 0.031014288 0.83500004
-0.010362858 0.031088574 0.83700001
-0.0087476196 0.031014288 0.83500004
-0.0071742861 0.031088574 0.83700001
-0.0055800006 0.031088574 0.83700001
-0.0039857146 0.031088574 0.83700001
-0.0023914287 0.031088574 0.83700001
-0.00079714291 0.031088574 0.83700001
0.00079714291 0.031088574 0.83700001
0.0023914287 0.031088574 0.83700001
0.0039857146 0.031088574 0.83700001
0.0055800006 0.031088574 0.83700001
0.0071742861 0.031088574 0.83700001
0.0087685715 0.031088574 0.83700001
0.010362858 0.031088574 0.83700001
0.011957143 0.031088574 0.83700001
0.013519049 0.031014288 0.83500004
0.015109525 0.031014288 0.83500004
0.016700001 0.031014288 0.83500004
0.018290477 0.031014288 0.83500004
0.019880954 0.031014288 0.83500004
0.021420002 0.030940002 0.83300006
0.023061907 0.031014288 0.83500004
0.024593335 0.030940002 0.83300006
0.026180001 0.030940002 0.83300006
0.027766669 0.030940002 0.83300006
0.029353335 0.030940002 0.83300006
0.030940002 0.030940002 0.83300006
0.032526668 0.030940002 0.83300006
0.034031432 0.030865716 0.83100003
0.035614289 0.030865716 0.83100003
0.037197147 0.030865716 0.83100003
0.038780004 0.030865716 0.83100003
0.040362861 0.030865716 0.83100003
0.041844763 0.03079143 0.82900006
0.088694289 0.03116286 0.83900005
0.090507627 0.031237144 0.84100002
0.085100003 0.028860003 0.77700001
0.086357147 0.028785717 0.77500004
0.087833337 0.028785717 0.77500004
0.088963814 0.028674288 0.77200001
0.090200007 0.028600002 0.77000004
0.091428578 0.028525716 0.76800001
0.092891432 0.028525716 0.76800001
0.094354294 0.028525716 0.76800001
-0.08212667 0.026513334 0.67900002
-0.080952384 0.026552383 0.68000001
-0.079657145 0.026552383 0.68000001
-0.078822859 0.026708573 0.68400002
-0.077406675 0.026669526 0.68300003
-0.076105721 0.026669526 0.68300003
-0.074804768 0.026669526 0.68300003
-0.073503815 0.026669526 0.68300003
-0.072308578 0.026708573 0.68400002
-0.070901908 0.026669526 0.68300003
-0.069600955 0.026669526 0.68300003
-0.068300001 0.026669526 0.68300003
-0.066999055 0.026669526 0.68300003
-0.065794289 0.026708573 0.68400002
-0.064397149 0.026669526 0.68300003
-0.063096195 0.026669526 0.68300003
-0.061885718 0.026708573 0.68400002
-0.060760003 0.026786668 0.68600005
-0.059453338 0.026786668 0.68600005
-0.05814667 0.026786668 0.68600005
-0.056840003 0.026786668 0.68600005
-0.055533338 0.026786668 0.68600005
-0.05422667 0.026786668 0.68600005
-0.052920002 0.026786668 0.68600005
-0.051613338 0.026786668 0.68600005
-0.05030667 0.026786668 0.68600005
-0.049000002 0.026786668 0.68600005
-0.047693338 0.026786668 0.68600005
-0.04638667 0.026786668 0.68600005
-0.045145717 0.026825717 0.68700004
-0.043964766 0.026903812 0.68900001
-0.042652383 0.026903812 0.68900001
-0.041400004 0.026942858 0.69000006
-0.040260002 0.027060002 0.69300002
-0.039052382 0.027138097 0.69500005
-0.037728574 0.027138097 0.69500005
-0.038873337 0.032526668 0.83300006
-0.037286669 0.032526668 0.83300006
-0.035700001 0.032526668 0.83300006
-0.034113336 0.032526668 0.83300006
-0.032526668 0.032526668 0.83300006
-0.031014288 0.032604765 0.83500004
-0.029423811 0.032604765 0.83500004
-0.027833335 0.032604765 0.83500004
-0.02624286 0.032604765 0.83500004
-0.024652382 0.032604765 0.83500004
-0.023061907 0.032604765 0.83500004
-0.021522859 0.032682858 0.83700001
-0.019928573 0.032682858 0.83700001
-0.018290477 0.032604765 0.83500004
-0.016740002 0.032682858 0.83700001
-0.015145715 0.032682858 0.83700001
-0.01355143 0.032682858 0.83700001
-0.011957143 0.032682858 0.83700001
-0.010362858 0.032682858 0.83700001
-0.0087685715 0.032682858 0.83700001
-0.0071742861 0.032682858 0.83700001
-0.0055800006 0.032682858 0.83700001
-0.0039857146 0.032682858 0.83700001
-0.0023914287 0.032682858 0.83700001
-0.00079714291 0.032682858 0.83700001
0.00079714291 0.032682858 0.83700001
0.0023914287 0.032682858 0.83700001
0.0039857146 0.032682858 0.83700001
0.0055800006 0.032682858 0.83700001
0.0071742861 0.032682858 0.83700001
0.0087685715 0.032682858 0.83700001
0.010362858 0.032682858 0.83700001
0.011957143 0.032682858 0.83700001
0.01355143 0.032682858 0.83700001
0.015109525 0.032604765 0.83500004
0.016700001 0.032604765 0.83500004
0.018290477 0.032604765 0.83500004
0.019880954 0.032604765 0.83500004
0.021420002 0.032526668 0.83300006
0.023061907 0.032604765 0.83500004
0.024593335 0.032526668 0.83300006
0.026180001 0.032526668 0.83300006
0.027766669 0.032526668 0.83300006
0.029353335 0.032526668 0.83300006
0.030940002 0.032526668 0.83300006
0.032526668 0.032526668 0.83300006
0.034031432 0.032448575 0.83100003
0.035614289 0.032448575 0.83100003
0.037197147 0.032448575 0.83100003
0.038780004 0.032448575 0.83100003
0.040265717 0.032370478 0.82900006
0.041844763 0.032370478 0.82900006
0.043423813 0.032370478 0.82900006
0.045002859 0.032370478 0.82900006
0.046581909 0.032370478 0.82900006
0.086134292 0.030183811 0.77300006
0.087266669 0.030066669 0.77000004
0.088733338 0.030066669 0.77000004
0.089965723 0.029988574 0.76800001
0.091428578 0.029988574 0.76800001
0.092891432 0.029988574 0.76800001
0.094354294 0.029988574 0.76800001
-0.08212667 0.027806668 0.67900002
-0.080952384 0.027847622 0.68000001
-0.079657145 0.027847622 0.68000001
-0.078707621 0.027970478 0.68300003
-0.077293336 0.027929526 0.68200004
-0.07599429 0.027929526 0.68200004
-0.074695244 0.027929526 0.68200004
-0.073396198 0.027929526 0.68200004
-0.072202861 0.027970478 0.68300003
-0.070798099 0.027929526 0.68200004
-0.069499053 0.027929526 0.68200004
-0.068200007 0.027929526 0.68200004
-0.066999055 0.027970478 0.68300003
-0.065698102 0.027970478 0.68300003
-0.064397149 0.027970478 0.68300003
-0.063096195 0.027970478 0.68300003
-0.061795242 0.027970478 0.68300003
-0.060582861 0.02801143 0.68400002
-0.059453338 0.028093334 0.68600005
-0.05814667 0.028093334 0.68600005
-0.056840003 0.028093334 0.68600005
-0.055533338 0.028093334 0.68600005
-0.05422667 0.028093334 0.68600005
-0.05276572 0.02801143 0.68400002
-0.051462859 0.02801143 0.68400002
-0.050160002 0.02801143 0.68400002
-0.048785716 0.027970478 0.68300003
-0.047484767 0.027970478 0.68300003
-0.046251431 0.02801143 0.68400002
-0.045080002 0.028093334 0.68600005
-0.043773334 0.028093334 0.68600005
-0.04246667 0.028093334 0.68600005
-0.041340001 0.028216192 0.68900001
-0.040027622 0.028216192 0.68900001
-0.042349525 0.034359049 0.83900005
-0.040557146 0.034195241 0.83500004
-0.038966671 0.034195241 0.83500004
-0.037286669 0.034113336 0.83300006
-0.035785716 0.034195241 0.83500004
-0.034195241 0.034195241 0.83500004
-0.032604765 0.034195241 0.83500004
-0.031014288 0.034195241 0.83500004
-0.029494287 0.034277145 0.83700001
-0.027900001 0.034277145 0.83700001
-0.02624286 0.034195241 0.83500004
-0.024652382 0.034195241 0.83500004
-0.023117144 0.034277145 0.83700001
-0.021574287 0.034359049 0.83900005
-0.019976191 0.034359049 0.83900005
-0.018290477 0.034195241 0.83500004
-0.016740002 0.034277145 0.83700001
-0.015145715 0.034277145 0.83700001
-0.01355143 0.034277145 0.83700001
-0.011957143 0.034277145 0.83700001
-0.010362858 0.034277145 0.83700001
-0.0087685715 0.034277145 0.83700001
-0.0071742861 0.034277145 0.83700001
-0.0055800006 0.034277145 0.83700001
-0.0039857146 0.034277145 0.83700001
-0.0023914287 0.034277145 0.83700001
-0.00079714291 0.034277145 0.83700001
0.00079714291 0.034277145 0.83700001
0.0023914287 0.034277145 0.83700001
0.0039857146 0.034277145 0.83700001
0.0055800006 0.034277145 0.83700001
0.0087685715 0.034277145 0.83700001
0.010362858 0.034277145 0.83700001
0.011957143 0.034277145 0.83700001
0.01355143 0.034277145 0.83700001
0.015109525 0.034195241 0.83500004
0.016700001 0.034195241 0.83500004
0.018290477 0.034195241 0.83500004
0.019880954 0.034195241 0.83500004
0.021420002 0.034113336 0.83300006
0.023006668 0.034113336 0.83300006
0.024593335 0.034113336 0.83300006
0.026180001 0.034113336 0.83300006
0.027766669 0.034113336 0.83300006
0.029353335 0.034113336 0.83300006
0.030940002 0.034113336 0.83300006
0.032448575 0.034031432 0.83100003
0.034031432 0.034031432 0.83100003
0.035528574 0.033949528 0.82900006
0.03710762 0.033949528 0.82900006
0.03868667 0.033949528 0.82900006
0.040265717 0.033949528 0.82900006
0.041844763 0.033949528 0.82900006
0.043423813 0.033949528 0.82900006
0.045002859 0.033949528 0.82900006
0.046581909 0.033949528 0.82900006
0.048044764 0.03386762 0.82700002
0.049620003 0.03386762 0.82700002
0.087266669 0.031533334 0.77000004
0.088733338 0.031533334 0.77000004
0.089965723 0.03145143 0.76800001
0.091428578 0.03145143 0.76800001
0.092891432 0.03145143 0.76800001
0.094354294 0.03145143 0.76800001
0.095817149 0.03145143 0.76800001
-0.08212667 0.029100003 0.67900002
-0.080833338 0.029100003 0.67900002
-0.079540007 0.029100003 0.67900002
-0.07859239 0.029228574 0.68200004
-0.077293336 0.029228574 0.68200004
-0.075771436 0.029142858 0.68000001
-0.074476197 0.029142858 0.68000001
-0.073180959 0.029142858 0.68000001
-0.072097145 0.029228574 0.68200004
-0.070798099 0.029228574 0.68200004
-0.069499053 0.029228574 0.68200004
-0.068200007 0.029228574 0.68200004
-0.066900954 0.029228574 0.68200004
-0.065601908 0.029228574 0.68200004
-0.064302862 0.029228574 0.68200004
-0.063003816 0.029228574 0.68200004
-0.061704766 0.029228574 0.68200004
-0.060582861 0.029314287 0.68400002
-0.059280004 0.029314287 0.68400002
-0.057977147 0.029314287 0.68400002
-0.05667429 0.029314287 0.68400002
-0.055371433 0.029314287 0.68400002
-0.054068577 0.029314287 0.68400002
-0.05276572 0.029314287 0.68400002
-0.051387623 0.029271431 0.68300003
-0.05008667 0.029271431 0.68300003
-0.048785716 0.029271431 0.68300003
-0.047484767 0.029271431 0.68300003
-0.046183813 0.029271431 0.68300003
-0.04488286 0.029271431 0.68300003
-0.043645717 0.029314287 0.68400002
-0.04246667 0.029400002 0.68600005
-0.041160002 0.029400002 0.68600005
-0.039853334 0.029400002 0.68600005
-0.037465718 0.035871431 0.83700001
-0.035871431 0.035871431 0.83700001
-0.034277145 0.035871431 0.83700001
-0.032682858 0.035871431 0.83700001
-0.031088574 0.035871431 0.83700001
-0.029494287 0.035871431 0.83700001
-0.012105715 0.02867143 0.66900003
-0.0082828579 0.02867143 0.66900003
-0.0069876197 0.028585717 0.66700006
-0.0057171434 0.028585717 0.66700006
-0.0044400003 0.028542859 0.66600001
-0.0031857146 0.02867143 0.66900003
-0.0019114286 0.02867143 0.66900003
-0.00063809525 0.028714288 0.67000002
0.00063809525 0.028714288 0.67000002
0.0019142858 0.028714288 0.67000002
0.0031952383 0.028757146 0.671
0.0044733337 0.028757146 0.671
0.015109525 0.035785716 0.83500004
0.016700001 0.035785716 0.83500004
0.018290477 0.035785716 0.83500004
0.019880954 0.035785716 0.83500004
0.02147143 0.035785716 0.83500004
0.023061907 0.035785716 0.83500004
0.024593335 0.035700001 0.83300006
0.026180001 0.035700001 0.83300006
0.027766669 0.035700001 0.83300006
0.029353335 0.035700001 0.83300006
0.030865716 0.035614289 0.83100003
0.032448575 0.035614289 0.83100003
0.033949528 0.035528574 0.82900006
0.035528574 0.035528574 0.82900006
0.03710762 0.035528574 0.82900006
0.03868667 0.035528574 0.82900006
0.040265717 0.035528574 0.82900006
0.041743811 0.035442859 0.82700002
0.04331905 0.035442859 0.82700002
0.045002859 0.035528574 0.82900006
0.046469528 0.035442859 0.82700002
0.048044764 0.035442859 0.82700002
0.049500003 0.035357144 0.82500005
0.050947621 0.035271432 0.82300001
0.052515242 0.035271432 0.82300001
0.053951431 0.035185717 0.82100004
0.055515241 0.035185717 0.82100004
0.087266669 0.033000004 0.77000004
0.088502862 0.032914288 0.76800001
0.089848578 0.032871429 0.76700002
0.091309533 0.032871429 0.76700002
0.09277048 0.032871429 0.76700002
0.094231434 0.032871429 0.76700002
0.097153343 0.032871429 0.76700002
-0.08212667 0.030393336 0.67900002
-0.080952384 0.030438097 0.68000001
-0.079657145 0.030438097 0.68000001
-0.07859239 0.030527622 0.68200004
-0.077293336 0.030527622 0.68200004
-0.075771436 0.030438097 0.68000001
-0.074476197 0.030438097 0.68000001
-0.073180959 0.030438097 0.68000001
-0.07188572 0.030438097 0.68000001
-0.070590481 0.030438097 0.68000001
-0.069295242 0.030438097 0.68000001
-0.068000004 0.030438097 0.68000001
-0.066900954 0.030527622 0.68200004
-0.065601908 0.030527622 0.68200004
-0.064302862 0.030527622 0.68200004
-0.062819049 0.030438097 0.68000001
-0.061795242 0.030572383 0.68300003
-0.060494289 0.030572383 0.68300003
-0.059280004 0.030617144 0.68400002
-0.057977147 0.030617144 0.68400002
-0.05667429 0.030617144 0.68400002
-0.055371433 0.030617144 0.68400002
-0.054068577 0.030617144 0.68400002
-0.052688576 0.030572383 0.68300003
-0.051387623 0.030572383 0.68300003
-0.050013337 0.030527622 0.68200004
-0.048714288 0.030527622 0.68200004
-0.047415242 0.030527622 0.68200004
-0.046116192 0.030527622 0.68200004
-0.04488286 0.030572383 0.68300003
-0.043645717 0.030617144 0.68400002
-0.04234286 0.030617144 0.68400002
-0.041040003 0.030617144 0.68400002
-0.039737146 0.030617144 0.68400002
-0.017228572 0.029990477 0.67000002
-0.015952382 0.029990477 0.67000002
-0.014676192 0.029990477 0.67000002
-0.013400001 0.029990477 0.67000002
-0.012105715 0.029945716 0.66900003
-0.01083143 0.029945716 0.66900003
-0.0095571438 0.029945716 0.66900003
-0.0082580959 0.029856192 0.66700006
-0.0069876197 0.029856192 0.66700006
-0.0057171434 0.029856192 0.66700006
-0.0044466672 0.029856192 0.66700006
-0.0031761907 0.029856192 0.66700006
-0.0019114286 0.029945716 0.66900003
-0.00063714292 0.029945716 0.66900003
0.00063809525 0.029990477 0.67000002
0.0019142858 0.029990477 0.67000002
0.0031904764 0.029990477 0.67000002
0.0044666668 0.029990477 0.67000002
0.0057514291 0.030035241 0.671
0.0070190481 0.029990477 0.67000002
0.0082952389 0.029990477 0.67000002
0.0095571438 0.029945716 0.66900003
0.01084762 0.029990477 0.67000002
0.030865716 0.037197147 0.83100003
0.032448575 0.037197147 0.83100003
0.03386762 0.037018098 0.82700002
0.035442859 0.037018098 0.82700002
0.03710762 0.03710762 0.82900006
0.03868667 0.03710762 0.82900006
0.040265717 0.03710762 0.82900006
0.041743811 0.037018098 0.82700002
0.04331905 0.037018098 0.82700002
0.044894289 0.037018098 0.82700002
0.046469528 0.037018098 0.82700002
0.048044764 0.037018098 0.82700002
0.049500003 0.036928575 0.82500005
0.050947621 0.036839049 0.82300001
0.052515242 0.036839049 0.82300001
0.053951431 0.036749527 0.82100004
0.055515241 0.036749527 0.82100004
0.057079051 0.036749527 0.82100004
0.058500003 0.036660001 0.81900007
0.060060006 0.036660001 0.81900007
0.088157147 0.034242861 0.76500005
0.089614294 0.034242861 0.76500005
0.091071434 0.034242861 0.76500005
0.092528574 0.034242861 0.76500005
-0.084034294 0.031920001 0.68400002
-0.082489528 0.031826667 0.68200004
-0.081190482 0.031826667 0.68200004
-0.079657145 0.031733334 0.68000001
-0.07859239 0.031826667 0.68200004
-0.077066675 0.031733334 0.68000001
-0.075771436 0.031733334 0.68000001
-0.074366674 0.031686667 0.67900002
-0.073180959 0.031733334 0.68000001
-0.07188572 0.031733334 0.68000001
-0.070590481 0.031733334 0.68000001
-0.069295242 0.031733334 0.68000001
-0.068000004 0.031733334 0.68000001
-0.066704765 0.031733334 0.68000001
-0.065409526 0.031733334 0.68000001
-0.064114287 0.031733334 0.68000001
-0.062726669 0.031686667 0.67900002
-0.061523814 0.031733334 0.68000001
-0.06040572 0.031826667 0.68200004
-0.059193335 0.031873334 0.68300003
-0.057892386 0.031873334 0.68300003
-0.056591433 0.031873334 0.68300003
-0.055290479 0.031873334 0.68300003
-0.053989526 0.031873334 0.68300003
-0.052688576 0.031873334 0.68300003
-0.051312383 0.031826667 0.68200004
-0.050013337 0.031826667 0.68200004
-0.04857143 0.031733334 0.68000001
-0.047276195 0.031733334 0.68000001
-0.045980956 0.031733334 0.68000001
-0.044817146 0.031826667 0.68200004
-0.0435181 0.031826667 0.68200004
-0.042280953 0.031873334 0.68300003
-0.040920004 0.031826667 0.68200004
-0.039620955 0.031826667 0.68200004
-0.015952382 0.031266667 0.67000002
-0.014676192 0.031266667 0.67000002
-0.013400001 0.031266667 0.67000002
-0.012105715 0.031220002 0.66900003
-0.01083143 0.031220002 0.66900003
-0.0095571438 0.031220002 0.66900003
-0.0082580959 0.031126669 0.66700006
-0.0069876197 0.031126669 0.66700006
-0.005708572 0.031080002 0.66600001
-0.0044466672 0.031126669 0.66700006
-0.0031761907 0.031126669 0.66700006
-0.0019057144 0.031126669 0.66700006
-0.00063714292 0.031220002 0.66900003
0.00063714292 0.031220002 0.66900003
0.0019114286 0.031220002 0.66900003
0.0031904764 0.031266667 0.67000002
0.0044600004 0.031220002 0.66900003
0.0057428577 0.031266667 0.67000002
0.0070190481 0.031266667 0.67000002
0.0082828579 0.031220002 0.66900003
0.0095571438 0.031220002 0.66900003
0.01083143 0.031220002 0.66900003
0.012105715 0.031220002 0.66900003
0.013380001 0.031220002 0.66900003
0.014610477 0.031126669 0.66700006
0.015928572 0.031220002 0.66900003
0.017228572 0.031266667 0.67000002
0.018504763 0.031266667 0.67000002
0.019780954 0.031266667 0.67000002
0.021120001 0.03136 0.67200005
0.03386762 0.038593337 0.82700002
0.035442859 0.038593337 0.82700002
0.037018098 0.038593337 0.82700002
0.038593337 0.038593337 0.82700002
0.040168572 0.038593337 0.82700002
0.041743811 0.038593337 0.82700002
0.04331905 0.038593337 0.82700002
0.044894289 0.038593337 0.82700002
0.046469528 0.038593337 0.82700002
0.048044764 0.038593337 0.82700002
0.049620003 0.038593337 0.82700002
0.051071431 0.038500004 0.82500005
0.052515242 0.03840667 0.82300001
0.053951431 0.038313337 0.82100004
0.055515241 0.038313337 0.82100004
0.057079051 0.038313337 0.82100004
0.058500003 0.038220003 0.81900007
0.060060006 0.038220003 0.81900007
0.061620004 0.038220003 0.81900007
0.063180007 0.038220003 0.81900007
0.089380004 0.035606667 0.76300001
0.098818101 0.03812667 0.81700003
0.10062001 0.038220003 0.81900007
0.10348667 0.03812667 0.81700003
-0.083542861 0.033028573 0.68000001
-0.08212667 0.032980002 0.67900002
-0.080833338 0.032980002 0.67900002
-0.079540007 0.032980002 0.67900002
-0.078246675 0.032980002 0.67900002
-0.076953337 0.032980002 0.67900002
-0.075660005 0.032980002 0.67900002
-0.07425715 0.032931432 0.67800003
-0.073073335 0.032980002 0.67900002
-0.071780004 0.032980002 0.67900002
-0.070486672 0.032980002 0.67900002
-0.069193341 0.032980002 0.67900002
-0.067900002 0.032980002 0.67900002
-0.066606671 0.032980002 0.67900002
-0.065313339 0.032980002 0.67900002
-0.064020008 0.032980002 0.67900002
-0.062634289 0.032931432 0.67800003
-0.061433338 0.032980002 0.67900002
-0.060228575 0.033028573 0.68000001
-0.05910667 0.033125717 0.68200004
-0.057638098 0.033028573 0.68000001
-0.056508575 0.033125717 0.68200004
-0.055209529 0.033125717 0.68200004
-0.053910479 0.033125717 0.68200004
-0.052457146 0.033028573 0.68000001
-0.051161908 0.033028573 0.68000001
-0.049866669 0.033028573 0.68000001
-0.04857143 0.033028573 0.68000001
-0.047276195 0.033028573 0.68000001
-0.045980956 0.033028573 0.68000001
-0.044685718 0.033028573 0.68000001
-0.0435181 0.033125717 0.68200004
-0.04221905 0.033125717 0.68200004
-0.040920004 0.033125717 0.68200004
-0.039620955 0.033125717 0.68200004
-0.01715143 0.032397144 0.66700006
-0.015880954 0.032397144 0.66700006
-0.014654287 0.032494288 0.66900003
-0.013380001 0.032494288 0.66900003
-0.012069524 0.032397144 0.66700006
-0.010782857 0.032348573 0.66600001
-0.0095285717 0.032397144 0.66700006
-0.0082457149 0.032348573 0.66600001
-0.0069771432 0.032348573 0.66600001
-0.0057000006 0.032300003 0.66500002
-0.0044400003 0.032348573 0.66600001
-0.0031714288 0.032348573 0.66600001
-0.0019028572 0.032348573 0.66600001
-0.00063523813 0.032397144 0.66700006
0.00063523813 0.032397144 0.66700006
0.0019057144 0.032397144 0.66700006
0.0031761907 0.032397144 0.66700006
0.0044466672 0.032397144 0.66700006
0.0057342863 0.032494288 0.66900003
0.0069876197 0.032397144 0.66700006
0.0082457149 0.032348573 0.66600001
0.0095142862 0.032348573 0.66600001
0.010799048 0.032397144 0.66700006
0.012069524 0.032397144 0.66700006
0.013340001 0.032397144 0.66700006
0.014610477 0.032397144 0.66700006
0.015928572 0.032494288 0.66900003
0.017228572 0.032542858 0.67000002
0.018504763 0.032542858 0.67000002
0.019810477 0.032591432 0.671
0.021120001 0.032640003 0.67200005
0.022466669 0.032737143 0.67400002
0.023750478 0.032737143 0.67400002
0.025071431 0.032785717 0.67500001
0.026357144 0.032785717 0.67500001
0.035357144 0.040071432 0.82500005
0.047928575 0.040071432 0.82500005
0.049500003 0.040071432 0.82500005
0.050947621 0.039974287 0.82300001
0.052387621 0.039877146 0.82100004
0.053951431 0.039877146 0.82100004
0.055515241 0.039877146 0.82100004
0.057079051 0.039877146 0.82100004
0.058500003 0.039780002 0.81900007
0.060060006 0.039780002 0.81900007
0.061620004 0.039780002 0.81900007
0.06302572 0.039682861 0.81700003
0.064581908 0.039682861 0.81700003
0.065976195 0.039585717 0.81500006
0.067528576 0.039585717 0.81500006
0.096174292 0.039877146 0.82100004
0.097738102 0.039877146 0.82100004
0.099060006 0.039780002 0.81900007
0.10062001 0.039780002 0.81900007
0.10193048 0.039682861 0.81700003
0.10348667 0.039682861 0.81700003
0.10478572 0.039585717 0.81500006
0.1063381 0.039585717 0.81500006
-0.082005717 0.03422286 0.67800003
-0.080476195 0.034121908 0.67600006
-0.079422861 0.03422286 0.67800003
-0.078246675 0.034273334 0.67900002
-0.076840006 0.03422286 0.67800003
-0.075548574 0.03422286 0.67800003
-0.07425715 0.03422286 0.67800003
-0.072965719 0.03422286 0.67800003
-0.071780004 0.034273334 0.67900002
-0.070382863 0.03422286 0.67800003
-0.069091432 0.03422286 0.67800003
-0.067900002 0.034273334 0.67900002
-0.066606671 0.034273334 0.67900002
-0.065313339 0.034273334 0.67900002
-0.063925721 0.03422286 0.67800003
-0.062634289 0.03422286 0.67800003
-0.061433338 0.034273334 0.67900002
-0.060228575 0.034323812 0.68000001
-0.058933336 0.034323812 0.68000001
-0.057638098 0.034323812 0.68000001
-0.056342863 0.034323812 0.68000001
-0.055047624 0.034323812 0.68000001
-0.053752385 0.034323812 0.68000001
-0.052457146 0.034323812 0.68000001
-0.051161908 0.034323812 0.68000001
-0.049793337 0.034273334 0.67900002
-0.048500001 0.034273334 0.67900002
-0.047276195 0.034323812 0.68000001
-0.045980956 0.034323812 0.68000001
-0.044685718 0.034323812 0.68000001
-0.043390479 0.034323812 0.68000001
-0.04209524 0.034323812 0.68000001
-0.040800001 0.034323812 0.68000001
-0.039504763 0.034323812 0.68000001
-0.018421905 0.03366762 0.66700006
-0.01715143 0.03366762 0.66700006
-0.015857143 0.033617146 0.66600001
-0.014610477 0.03366762 0.66700006
-0.013340001 0.03366762 0.66700006
-0.012069524 0.03366762 0.66700006
-0.010782857 0.033617146 0.66600001
-0.0095142862 0.033617146 0.66600001
-0.0082333339 0.033566669 0.66500002
-0.0069771432 0.033617146 0.66600001
-0.0057000006 0.033566669 0.66500002
-0.0044400003 0.033617146 0.66600001
-0.003166667 0.033566669 0.66500002
-0.0019028572 0.033617146 0.66600001
-0.00063523813 0.03366762 0.66700006
0.00063523813 0.03366762 0.66700006
0.0019057144 0.03366762 0.66700006
0.0031761907 0.03366762 0.66700006
0.0044400003 0.033617146 0.66600001
0.005708572 0.033617146 0.66600001
0.0069666672 0.033566669 0.66500002
0.0082333339 0.033566669 0.66500002
0.0094714295 0.033465717 0.66300005
0.010766667 0.033566669 0.66500002
0.01205143 0.033617146 0.66600001
0.013320001 0.033617146 0.66600001
0.014588572 0.033617146 0.66600001
0.015880954 0.03366762 0.66700006
0.017202858 0.033768572 0.66900003
0.018477144 0.033768572 0.66900003
0.019780954 0.03381905 0.67000002
0.021120001 0.033920001 0.67200005
0.022466669 0.034020953 0.67400002
0.023785716 0.034071431 0.67500001
0.025108574 0.034121908 0.67600006
0.026474288 0.03422286 0.67800003
0.027765715 0.03422286 0.67800003
0.029057145 0.03422286 0.67800003
0.030348573 0.03422286 0.67800003
0.047812384 0.041541908 0.82300001
0.049380004 0.041541908 0.82300001
0.050823811 0.041440956 0.82100004
0.052387621 0.041440956 0.82100004
0.053951431 0.041440956 0.82100004
0.055515241 0.041440956 0.82100004
0.056940004 0.041340001 0.81900007
0.058500003 0.041340001 0.81900007
0.060060006 0.041340001 0.81900007
0.061469529 0.041239049 0.81700003
0.062871434 0.041138098 0.81500006
0.064423814 0.041138098 0.81500006
0.065976195 0.041138098 0.81500006
0.067528576 0.041138098 0.81500006
0.069080956 0.041138098 0.81500006
0.070633337 0.041138098 0.81500006
0.097738102 0.041440956 0.82100004
0.099060006 0.041340001 0.81900007
0.10062001 0.041340001 0.81900007
0.10218 0.041340001 0.81900007
0.10348667 0.041239049 0.81700003
0.10478572 0.041138098 0.81500006
0.1063381 0.041138098 0.81500006
-0.08231429 0.035095241 0.67000002
-0.081038103 0.035095241 0.67000002
-0.080357149 0.035357144 0.67500001
-0.079071432 0.035357144 0.67500001
-0.077900961 0.035409525 0.67600006
-0.076613337 0.035409525 0.67600006
-0.075548574 0.035514288 0.67800003
-0.07425715 0.035514288 0.67800003
-0.072965719 0.035514288 0.67800003
-0.071674287 0.035514288 0.67800003
-0.070382863 0.035514288 0.67800003
-0.069091432 0.035514288 0.67800003
-0.067800008 0.035514288 0.67800003
-0.066508576 0.035514288 0.67800003
-0.065217145 0.035514288 0.67800003
-0.063925721 0.035514288 0.67800003
-0.062634289 0.035514288 0.67800003
-0.061433338 0.035566669 0.67900002
-0.060140003 0.035566669 0.67900002
-0.058846671 0.035566669 0.67900002
-0.057553336 0.035566669 0.67900002
-0.056342863 0.03561905 0.68000001
-0.055047624 0.03561905 0.68000001
-0.053673338 0.035566669 0.67900002
-0.052380003 0.035566669 0.67900002
-0.051086672 0.035566669 0.67900002
-0.049793337 0.035566669 0.67900002
-0.048500001 0.035566669 0.67900002
-0.04720667 0.035566669 0.67900002
-0.045913335 0.035566669 0.67900002
-0.044685718 0.03561905 0.68000001
-0.043390479 0.03561905 0.68000001
-0.04209524 0.03561905 0.68000001
-0.040800001 0.03561905 0.68000001
-0.039504763 0.03561905 0.68000001
-0.022233335 0.034938097 0.66700006
-0.020962859 0.034938097 0.66700006
-0.019662859 0.034885716 0.66600001
-0.018394288 0.034885716 0.66600001
-0.017125715 0.034885716 0.66600001
-0.015833335 0.034833334 0.66500002
-0.014588572 0.034885716 0.66600001
-0.013320001 0.034885716 0.66600001
-0.01205143 0.034885716 0.66600001
-0.010766667 0.034833334 0.66500002
-0.0095000006 0.034833334 0.66500002
-0.0082333339 0.034833334 0.66500002
-0.0069666672 0.034833334 0.66500002
-0.0056828577 0.034728575 0.66300005
-0.0044333334 0.034833334 0.66500002
-0.003166667 0.034833334 0.66500002
-0.0019000001 0.034833334 0.66500002
-0.00063428574 0.034885716 0.66600001
0.00063428574 0.034885716 0.66600001
0.0019028572 0.034885716 0.66600001
0.003166667 0.034833334 0.66500002
0.0044133337 0.034676194 0.66200006
0.0055714292 0.034047622 0.65000004
0.0068095243 0.034047622 0.65000004
0.009457143 0.034676194 0.66200006
0.010718096 0.034676194 0.66200006
0.011997144 0.034728575 0.66300005
0.013260001 0.034728575 0.66300005
0.014588572 0.034885716 0.66600001
0.015857143 0.034885716 0.66600001
0.01715143 0.034938097 0.66700006
0.018421905 0.034938097 0.66700006
0.019692382 0.034938097 0.66700006
0.020680001 0.034466669 0.65800005
0.023820953 0.035409525 0.67600006
0.025108574 0.035409525 0.67600006
0.026474288 0.035514288 0.67800003
0.027765715 0.035514288 0.67800003
0.029057145 0.035514288 0.67800003
0.030348573 0.035514288 0.67800003
0.031453334 0.035304762 0.67400002
0.050823811 0.043004766 0.82100004
0.052387621 0.043004766 0.82100004
0.053951431 0.043004766 0.82100004
0.055380005 0.042900003 0.81900007
0.056940004 0.042900003 0.81900007
0.058500003 0.042900003 0.81900007
0.060060006 0.042900003 0.81900007
0.061469529 0.042795241 0.81700003
0.062871434 0.042690478 0.81500006
0.064423814 0.042690478 0.81500006
0.065976195 0.042690478 0.81500006
0.067445718 0.042638097 0.81400001
0.068996198 0.042638097 0.81400001
0.070546672 0.042638097 0.81400001
0.074665718 0.044157147 0.84300005
0.076090485 0.044052385 0.84100002
0.077692389 0.044052385 0.84100002
0.099060006 0.042900003 0.81900007
0.10218 0.042900003 0.81900007
0.10374001 0.042900003 0.81900007
0.10504287 0.042795241 0.81700003
0.10659906 0.042795241 0.81700003
-0.081280008 0.036480002 0.67200005
-0.080357149 0.036642861 0.67500001
-0.079071432 0.036642861 0.67500001
-0.077900961 0.036697146 0.67600006
-0.076613337 0.036697146 0.67600006
-0.07532572 0.036697146 0.67600006
-0.074038103 0.036697146 0.67600006
-0.072750479 0.036697146 0.67600006
-0.071674287 0.036805715 0.67800003
-0.070175245 0.036697146 0.67600006
-0.068887621 0.036697146 0.67600006
-0.067600004 0.036697146 0.67600006
-0.066312388 0.036697146 0.67600006
-0.065024763 0.036697146 0.67600006
-0.063737147 0.036697146 0.67600006
-0.06244953 0.036697146 0.67600006
-0.061342862 0.036805715 0.67800003
-0.060140003 0.036860004 0.67900002
-0.058846671 0.036860004 0.67900002
-0.057553336 0.036860004 0.67900002
-0.056260005 0.036860004 0.67900002
-0.05496667 0.036860004 0.67900002
-0.053673338 0.036860004 0.67900002
-0.052380003 0.036860004 0.67900002
-0.051086672 0.036860004 0.67900002
-0.049720004 0.036805715 0.67800003
-0.048428576 0.036805715 0.67800003
-0.04720667 0.036860004 0.67900002
-0.045913335 0.036860004 0.67900002
-0.044620004 0.036860004 0.67900002
-0.043390479 0.036914289 0.68000001
-0.04209524 0.036914289 0.68000001
-0.040740002 0.036860004 0.67900002
-0.039504763 0.036914289 0.68000001
-0.02350381 0.036208574 0.66700006
-0.022233335 0.036208574 0.66700006
-0.020962859 0.036208574 0.66700006
-0.019662859 0.036154289 0.66600001
-0.018394288 0.036154289 0.66600001
-0.017100001 0.036100004 0.66500002
-0.015833335 0.036100004 0.66500002
-0.014566667 0.036100004 0.66500002
-0.013300001 0.036100004 0.66500002
-0.012033334 0.036100004 0.66500002
-0.010734286 0.03599143 0.66300005
-0.0094714295 0.03599143 0.66300005
-0.0082085719 0.03599143 0.66300005
-0.0069457148 0.03599143 0.66300005
-0.0056828577 0.03599143 0.66300005
-0.0044200001 0.03599143 0.66300005
-0.003157143 0.03599143 0.66300005
-0.0018942858 0.03599143 0.66300005
-0.00061904767 0.035285715 0.65000004
0.00061904767 0.035285715 0.65000004
0.001857143 0.035285715 0.65000004
0.0031047622 0.035394289 0.65200001
0.0043466669 0.035394289 0.65200001
0.0055714292 0.035285715 0.65000004
0.0068095243 0.035285715 0.65000004
0.0080476198 0.035285715 0.65000004
0.0092857145 0.035285715 0.65000004
0.01052381 0.035285715 0.65000004
0.011816191 0.035448574 0.65300006
0.013060001 0.035448574 0.65300006
0.014413334 0.035720002 0.65800005
0.015666667 0.035720002 0.65800005
0.01692 0.035720002 0.65800005
0.018394288 0.036154289 0.66600001
0.019662859 0.036154289 0.66600001
0.020680001 0.035720002 0.65800005
0.021900002 0.035665717 0.65700001
0.025182858 0.036805715 0.67800003
0.026474288 0.036805715 0.67800003
0.027765715 0.036805715 0.67800003
0.029100003 0.036860004 0.67900002
0.030348573 0.036805715 0.67800003
0.031546667 0.036697146 0.67600006
0.032931432 0.036805715 0.67800003
0.059913337 0.044351432 0.81700003
0.061469529 0.044351432 0.81700003
0.062871434 0.044242859 0.81500006
0.064423814 0.044242859 0.81500006
0.065895244 0.044188574 0.81400001
0.067445718 0.044188574 0.81400001
0.068996198 0.044188574 0.81400001
0.070546672 0.044188574 0.81400001
0.071920007 0.044080004 0.81200004
0.076271437 0.045762859 0.84300005
0.077877149 0.045762859 0.84300005
-0.081521913 0.037872385 0.67400002
-0.080238104 0.037872385 0.67400002
-0.079071432 0.037928574 0.67500001
-0.077785723 0.037928574 0.67500001
-0.076500006 0.037928574 0.67500001
-0.07532572 0.037984766 0.67600006
-0.074038103 0.037984766 0.67600006
-0.072750479 0.037984766 0.67600006
-0.071462862 0.037984766 0.67600006
-0.070175245 0.037984766 0.67600006
-0.068887621 0.037984766 0.67600006
-0.067600004 0.037984766 0.67600006
-0.066312388 0.037984766 0.67600006
-0.064928576 0.037928574 0.67500001
-0.063642859 0.037928574 0.67500001
-0.062357146 0.037928574 0.67500001
-0.061342862 0.038097147 0.67800003
-0.060051434 0.038097147 0.67800003
-0.058846671 0.038153335 0.67900002
-0.057553336 0.038153335 0.67900002
-0.056260005 0.038153335 0.67900002
-0.05496667 0.038153335 0.67900002
-0.053594287 0.038097147 0.67800003
-0.05230286 0.038097147 0.67800003
-0.051011432 0.038097147 0.67800003
-0.049573336 0.037984766 0.67600006
-0.048285719 0.037984766 0.67600006
-0.047137145 0.038097147 0.67800003
-0.045845717 0.038097147 0.67800003
-0.044620004 0.038153335 0.67900002
-0.043326668 0.038153335 0.67900002
-0.042033337 0.038153335 0.67900002
-0.040740002 0.038153335 0.67900002
-0.039446671 0.038153335 0.67900002
-0.042349525 0.047143813 0.83900005
-0.024774287 0.03747905 0.66700006
-0.02350381 0.03747905 0.66700006
-0.022200001 0.037422858 0.66600001
-0.02093143 0.037422858 0.66600001
-0.019633334 0.03736667 0.66500002
-0.018366668 0.03736667 0.66500002
-0.017048573 0.037254289 0.66300005
-0.015785715 0.037254289 0.66300005
-0.014522858 0.037254289 0.66300005
-0.013260001 0.037254289 0.66300005
-0.011997144 0.037254289 0.66300005
-0.010734286 0.037254289 0.66300005
-0.009457143 0.037198097 0.66200006
-0.0081961909 0.037198097 0.66200006
-0.0069352384 0.037198097 0.66200006
-0.0056742863 0.037198097 0.66200006
-0.0044133337 0.037198097 0.66200006
-0.0030857145 0.036411431 0.648
-0.001857143 0.036523812 0.65000004
-0.00061904767 0.036523812 0.65000004
0.00061904767 0.036523812 0.65000004
0.001857143 0.036523812 0.65000004
0.0030952382 0.036523812 0.65000004
0.0043333336 0.036523812 0.65000004
0.0055714292 0.036523812 0.65000004
0.0068095243 0.036523812 0.65000004
0.0080476198 0.036523812 0.65000004
0.0092857145 0.036523812 0.65000004
0.010556191 0.036636192 0.65200001
0.011816191 0.036692385 0.65300006
0.013060001 0.036692385 0.65300006
0.014303811 0.036692385 0.65300006
0.015595239 0.036804765 0.65500003
0.016868573 0.036860954 0.65600002
0.018145716 0.036917146 0.65700001
0.019397143 0.036917146 0.65700001
0.020648573 0.036917146 0.65700001
0.021900002 0.036917146 0.65700001
0.025182858 0.038097147 0.67800003
0.026474288 0.038097147 0.67800003
0.027765715 0.038097147 0.67800003
0.029100003 0.038153335 0.67900002
0.030348573 0.038097147 0.67800003
0.031640001 0.038097147 0.67800003
0.032980002 0.038153335 0.67900002
0.061319053 0.04579524 0.81500006
0.062871434 0.04579524 0.81500006
0.064344764 0.045739051 0.81400001
0.065895244 0.045739051 0.81400001
0.067445718 0.045739051 0.81400001
0.068826668 0.04562667 0.81200004
0.070373341 0.04562667 0.81200004
0.071920007 0.04562667 0.81200004
0.072923817 0.045289528 0.80600005
0.074459054 0.045289528 0.80600005
0.075617149 0.045064766 0.80200005
-0.081521913 0.039156195 0.67400002
-0.080238104 0.039156195 0.67400002
-0.079071432 0.039214287 0.67500001
-0.077785723 0.039214287 0.67500001
-0.076500006 0.039214287 0.67500001
-0.075214289 0.039214287 0.67500001
-0.07392858 0.039214287 0.67500001
-0.072642863 0.039214287 0.67500001
-0.071357146 0.039214287 0.67500001
-0.070071436 0.039214287 0.67500001
-0.06878572 0.039214287 0.67500001
-0.067500003 0.039214287 0.67500001
-0.066214293 0.039214287 0.67500001
-0.064928576 0.039214287 0.67500001
-0.063642859 0.039214287 0.67500001
-0.062357146 0.039214287 0.67500001
-0.061161909 0.039272383 0.67600006
-0.060051434 0.039388575 0.67800003
-0.058760002 0.039388575 0.67800003
-0.057468574 0.039388575 0.67800003
-0.056177147 0.039388575 0.67800003
-0.054885719 0.039388575 0.67800003
-0.053594287 0.039388575 0.67800003
-0.05230286 0.039388575 0.67800003
-0.050860956 0.039272383 0.67600006
-0.049573336 0.039272383 0.67600006
-0.048285719 0.039272383 0.67600006
-0.046998098 0.039272383 0.67600006
-0.045845717 0.039388575 0.67800003
-0.044554289 0.039388575 0.67800003
-0.043262862 0.039388575 0.67800003
-0.04197143 0.039388575 0.67800003
-0.040680002 0.039388575 0.67800003
-0.039388575 0.039388575 0.67800003
-0.026122859 0.038865715 0.66900003
-0.024774287 0.038749527 0.66700006
-0.023468573 0.038691431 0.66600001
-0.022166668 0.038633335 0.66500002
-0.020900002 0.038633335 0.66500002
-0.019574286 0.038517144 0.66300005
-0.01831143 0.038517144 0.66300005
-0.017048573 0.038517144 0.66300005
-0.015785715 0.038517144 0.66300005
-0.014500953 0.038459051 0.66200006
-0.013240001 0.038459051 0.66200006
-0.011997144 0.038517144 0.66300005
-0.010734286 0.038517144 0.66300005
-0.0092571434 0.037645716 0.648
-0.0080228578 0.037645716 0.648
-0.0067885718 0.037645716 0.648
-0.0055542863 0.037645716 0.648
-0.0043200003 0.037645716 0.648
-0.0030857145 0.037645716 0.648
-0.0018514286 0.037645716 0.648
-0.00061714288 0.037645716 0.648
0.00061714288 0.037645716 0.648
0.0018514286 0.037645716 0.648
0.0030857145 0.037645716 0.648
0.0043200003 0.037645716 0.648
0.0055542863 0.037645716 0.648
0.0067885718 0.037645716 0.648
0.0080228578 0.037645716 0.648
0.0092571434 0.037645716 0.648
0.01052381 0.037761908 0.65000004
0.011761906 0.037761908 0.65000004
0.01302 0.037820004 0.65100002
0.014281905 0.037878096 0.65200001
0.01554762 0.037936192 0.65300006
0.016791429 0.037936192 0.65300006
0.018090477 0.038052384 0.65500003
0.019338097 0.038052384 0.65500003
0.020617144 0.03811048 0.65600002
0.021900002 0.038168576 0.65700001
0.023151429 0.038168576 0.65700001
0.024402859 0.038168576 0.65700001
0.027847622 0.039504763 0.68000001
0.029228574 0.039620955 0.68200004
0.030393336 0.039446671 0.67900002
0.031640001 0.039388575 0.67800003
0.032980002 0.039446671 0.67900002
0.067280002 0.047173336 0.81200004
0.068826668 0.047173336 0.81200004
0.070373341 0.047173336 0.81200004
0.071742862 0.047057144 0.81000006
0.072923817 0.046824764 0.80600005
0.074274294 0.046708573 0.80400002
0.075617149 0.046592385 0.80200005
0.077144764 0.046592385 0.80200005
-0.081521913 0.040440004 0.67400002
-0.080238104 0.040440004 0.67400002
-0.079071432 0.040500004 0.67500001
