# .PCD v0.7 - Point Cloud Data file format
VERSION 0.7
FIELDS x y z
SIZE 4 4 4
TYPE F F F
COUNT 1 1 1
WIDTH 1350
HEIGHT 1
VIEWPOINT 0 0 0 1 0 0 0
POINTS 1350
DATA ascii
0.054228574 0.018571429 0.78000003
0.055714291 0.018571429 0.78000003
0.057126671 0.018547621 0.77900004
0.05861048 0.018547621 0.77900004
0.059940003 0.018500002 0.77700001
0.061420005 0.018500002 0.77700001
0.062900007 0.018500002 0.77700001
0.064380005 0.018500002 0.77700001
0.065860003 0.018500002 0.77700001
0.067166671 0.018452382 0.77500004
0.068642862 0.018452382 0.77500004
0.070119053 0.018452382 0.77500004
0.071595244 0.018452382 0.77500004
0.072882861 0.018404763 0.77300006
0.074355245 0.018404763 0.77300006
-0.088088579 0.018437143 0.71700001
-0.086722866 0.018437143 0.71700001
-0.085357152 0.018437143 0.71700001
-0.083874293 0.01841143 0.71600002
-0.082510479 0.01841143 0.71600002
-0.080920003 0.018360002 0.71400005
-0.079448573 0.018334286 0.71300006
-0.078090481 0.018334286 0.71300006
-0.07651715 0.018282859 0.71100003
-0.075162865 0.018282859 0.71100003
-0.073808573 0.018282859 0.71100003
-0.072352387 0.018257145 0.71000004
-0.071000002 0.018257145 0.71000004
-0.069647625 0.018257145 0.71000004
-0.06829524 0.018257145 0.71000004
-0.066942863 0.018257145 0.71000004
-0.065405719 0.018205715 0.708
-0.064057149 0.018205715 0.708
-0.062620007 0.018180002 0.70700002
-0.061100002 0.018128572 0.70500004
-0.059757147 0.018128572 0.70500004
-0.058331434 0.018102858 0.70400006
-0.056990478 0.018102858 0.70400006
-0.055570479 0.018077144 0.70300001
-0.054231431 0.018077144 0.70300001
-0.052892383 0.018077144 0.70300001
-0.051553335 0.018077144 0.70300001
-0.050214291 0.018077144 0.70300001
-0.048875242 0.018077144 0.70300001
-0.047536194 0.018077144 0.70300001
-0.04626286 0.018102858 0.70400006
-0.044921909 0.018102858 0.70400006
-0.04364286 0.018128572 0.70500004
-0.042300005 0.018128572 0.70500004
-0.041073337 0.018180002 0.70700002
-0.039726671 0.018180002 0.70700002
-0.038434289 0.018205715 0.708
-0.037085716 0.018205715 0.708
-0.035838097 0.018257145 0.71000004
-0.034485716 0.018257145 0.71000004
-0.033180002 0.018282859 0.71100003
-0.03191524 0.018334286 0.71300006
-0.030600002 0.018360002 0.71400005
-0.029321907 0.01841143 0.71600002
-0.027997145 0.018437143 0.71700001
-0.026705716 0.018488573 0.71900004
-0.02537143 0.018514287 0.72000003
-0.024066668 0.018565716 0.72200006
-0.022785716 0.018642858 0.72500002
-0.021522859 0.018745715 0.72900003
-0.020189526 0.018797144 0.73100001
-0.018822858 0.018822858 0.73200005
-0.017404763 0.018797144 0.73100001
-0.016078096 0.018874288 0.73400003
-0.014720001 0.018925715 0.73600006
-0.013336191 0.018951429 0.73700005
-0.011932381 0.018951429 0.73700005
-0.010528572 0.018951429 0.73700005
-0.0082342867 0.02021143 0.78600001
-0.0067200004 0.020160001 0.78400004
-0.005226667 0.020160001 0.78400004
-0.0037333337 0.020160001 0.78400004
-0.0022457144 0.02021143 0.78600001
-0.00074666669 0.020160001 0.78400004
0.00074666669 0.020160001 0.78400004
0.0022400001 0.020160001 0.78400004
0.0037333337 0.020160001 0.78400004
0.0052400003 0.02021143 0.78600001
0.0067371433 0.02021143 0.78600001
0.0082342867 0.02021143 0.78600001
0.0097066676 0.020160001 0.78400004
0.011200001 0.020160001 0.78400004
0.046800002 0.020057144 0.78000003
0.048223812 0.02003143 0.77900004
0.049771432 0.020057144 0.78000003
0.051257145 0.020057144 0.78000003
0.0528781 0.020108573 0.78200006
0.054228574 0.020057144 0.78000003
0.055714291 0.020057144 0.78000003
0.057126671 0.02003143 0.77900004
0.05861048 0.02003143 0.77900004
0.060094289 0.02003143 0.77900004
0.061420005 0.019980002 0.77700001
0.062900007 0.019980002 0.77700001
0.064380005 0.019980002 0.77700001
0.06569048 0.019928573 0.77500004
0.067166671 0.019928573 0.77500004
0.068642862 0.019928573 0.77500004
0.069938101 0.019877145 0.77300006
0.071410477 0.019877145 0.77300006
0.072600007 0.019800002 0.77000004
0.074355245 0.019877145 0.77300006
0.075729527 0.019851429 0.77200001
0.077200003 0.019851429 0.77200001
-0.089454293 0.019802859 0.71700001
-0.088088579 0.019802859 0.71700001
-0.086722866 0.019802859 0.71700001
-0.085357152 0.019802859 0.71700001
-0.083874293 0.01977524 0.71600002
-0.082280003 0.019720001 0.71400005
-0.080920003 0.019720001 0.71400005
-0.079448573 0.019692382 0.71300006
-0.077871434 0.019637143 0.71100003
-0.07651715 0.019637143 0.71100003
-0.075162865 0.019637143 0.71100003
-0.073704764 0.019609526 0.71000004
-0.072352387 0.019609526 0.71000004
-0.071000002 0.019609526 0.71000004
-0.069647625 0.019609526 0.71000004
-0.06829524 0.019609526 0.71000004
-0.066754289 0.019554287 0.708
-0.065405719 0.019554287 0.708
-0.063966669 0.019526668 0.70700002
-0.062442861 0.019471429 0.70500004
-0.061013337 0.01944381 0.70400006
-0.059672385 0.01944381 0.70400006
-0.058331434 0.01944381 0.70400006
-0.056990478 0.01944381 0.70400006
-0.055570479 0.019416193 0.70300001
-0.054231431 0.019416193 0.70300001
-0.052892383 0.019416193 0.70300001
-0.051553335 0.019416193 0.70300001
-0.050214291 0.019416193 0.70300001
-0.048875242 0.019416193 0.70300001
-0.047536194 0.019416193 0.70300001
-0.04626286 0.01944381 0.70400006
-0.044921909 0.01944381 0.70400006
-0.04364286 0.019471429 0.70500004
-0.042300005 0.019471429 0.70500004
-0.041073337 0.019526668 0.70700002
-0.039726671 0.019526668 0.70700002
-0.038434289 0.019554287 0.708
-0.037085716 0.019554287 0.708
-0.035838097 0.019609526 0.71000004
-0.034485716 0.019609526 0.71000004
-0.033273336 0.019692382 0.71300006
-0.031960003 0.019720001 0.71400005
-0.030685715 0.01977524 0.71600002
-0.029362859 0.019802859 0.71700001
-0.027997145 0.019802859 0.71700001
-0.026705716 0.019858096 0.71900004
-0.02537143 0.019885715 0.72000003
-0.024066668 0.019940954 0.72200006
-0.022785716 0.020023812 0.72500002
-0.021522859 0.020134287 0.72900003
-0.020189526 0.020189526 0.73100001
-0.018822858 0.020217145 0.73200005
-0.017428573 0.020217145 0.73200005
-0.016078096 0.020272382 0.73400003
-0.014720001 0.02032762 0.73600006
-0.013336191 0.02035524 0.73700005
-0.011932381 0.02035524 0.73700005
-0.010528572 0.02035524 0.73700005
-0.0082133338 0.021653336 0.78400004
-0.0067200004 0.021653336 0.78400004
-0.005226667 0.021653336 0.78400004
-0.0037333337 0.021653336 0.78400004
-0.0022457144 0.021708572 0.78600001
-0.00074857147 0.021708572 0.78600001
0.00074857147 0.021708572 0.78600001
0.0022457144 0.021708572 0.78600001
0.0037428574 0.021708572 0.78600001
0.0052533336 0.021763811 0.78800005
0.0067542861 0.021763811 0.78800005
0.0082342867 0.021708572 0.78600001
0.0097561907 0.021763811 0.78800005
0.011228573 0.021708572 0.78600001
0.012725716 0.021708572 0.78600001
0.046740003 0.021515239 0.77900004
0.048223812 0.021515239 0.77900004
0.049771432 0.021542858 0.78000003
0.051257145 0.021542858 0.78000003
0.052742861 0.021542858 0.78000003
0.054228574 0.021542858 0.78000003
0.055714291 0.021542858 0.78000003
0.057126671 0.021515239 0.77900004
0.05861048 0.021515239 0.77900004
0.060094289 0.021515239 0.77900004
0.061420005 0.021460002 0.77700001
0.062900007 0.021460002 0.77700001
0.064380005 0.021460002 0.77700001
0.06569048 0.021404764 0.77500004
0.067166671 0.021404764 0.77500004
0.068642862 0.021404764 0.77500004
0.069938101 0.021349525 0.77300006
0.071410477 0.021349525 0.77300006
0.072788574 0.021321906 0.77200001
0.07425905 0.021321906 0.77200001
0.075729527 0.021321906 0.77200001
0.077200003 0.021321906 0.77200001
0.16009811 0.024056192 0.87100005
0.16175716 0.024056192 0.87100005
0.16341621 0.024056192 0.87100005
0.16507524 0.024056192 0.87100005
0.16673429 0.024056192 0.87100005
0.16839334 0.024056192 0.87100005
0.17005239 0.024056192 0.87100005
0.18000668 0.024056192 0.87100005
0.18166573 0.024056192 0.87100005
0.18332477 0.024056192 0.87100005
-0.092442863 0.021227621 0.71900004
-0.091073342 0.021227621 0.71900004
-0.089703813 0.021227621 0.71900004
-0.088088579 0.021168573 0.71700001
-0.086722866 0.021168573 0.71700001
-0.085238099 0.02113905 0.71600002
-0.083640009 0.021080002 0.71400005
-0.082280003 0.021080002 0.71400005
-0.080580004 0.02099143 0.71100003
-0.079114288 0.020961907 0.71000004
-0.077761911 0.020961907 0.71000004
-0.076409526 0.020961907 0.71000004
-0.074845716 0.020902859 0.708
-0.073497146 0.020902859 0.708
-0.072352387 0.020961907 0.71000004
-0.070800006 0.020902859 0.708
-0.069451436 0.020902859 0.708
-0.068006672 0.020873334 0.70700002
-0.066471435 0.020814287 0.70500004
-0.065036193 0.020784764 0.70400006
-0.063695244 0.020784764 0.70400006
-0.06226572 0.020755239 0.70300001
-0.060926672 0.020755239 0.70300001
-0.059587624 0.020755239 0.70300001
-0.058248576 0.020755239 0.70300001
-0.056909528 0.020755239 0.70300001
-0.055570479 0.020755239 0.70300001
-0.054231431 0.020755239 0.70300001
-0.052892383 0.020755239 0.70300001
-0.051553335 0.020755239 0.70300001
-0.050214291 0.020755239 0.70300001
-0.048875242 0.020755239 0.70300001
-0.047536194 0.020755239 0.70300001
-0.04626286 0.020784764 0.70400006
-0.044921909 0.020784764 0.70400006
-0.04364286 0.020814287 0.70500004
-0.042420004 0.020873334 0.70700002
-0.041073337 0.020873334 0.70700002
-0.039726671 0.020873334 0.70700002
-0.038434289 0.020902859 0.708
-0.037085716 0.020902859 0.708
-0.035838097 0.020961907 0.71000004
-0.034534287 0.02099143 0.71100003
-0.033273336 0.021050477 0.71300006
-0.031960003 0.021080002 0.71400005
-0.030685715 0.02113905 0.71600002
-0.029362859 0.021168573 0.71700001
-0.028075241 0.021227621 0.71900004
-0.026742859 0.021257143 0.72000003
-0.02537143 0.021257143 0.72000003
-0.024066668 0.021316191 0.72200006
-0.022785716 0.021404764 0.72500002
-0.021581907 0.021581907 0.73100001
-0.020189526 0.021581907 0.73100001
-0.018822858 0.02161143 0.73200005
-0.017476192 0.021670477 0.73400003
-0.016121905 0.021729525 0.73600006
-0.014720001 0.021729525 0.73600006
-0.013372382 0.021818096 0.73900002
-0.011964763 0.021818096 0.73900002
-0.010600001 0.021906668 0.74200004
-0.0097066676 0.023146668 0.78400004
-0.0082133338 0.023146668 0.78400004
-0.0067200004 0.023146668 0.78400004
-0.0052400003 0.023205716 0.78600001
-0.0037333337 0.023146668 0.78400004
-0.0022457144 0.023205716 0.78600001
-0.00074857147 0.023205716 0.78600001
0.00074857147 0.023205716 0.78600001
0.0022457144 0.023205716 0.78600001
0.0037428574 0.023205716 0.78600001
0.0052533336 0.023264764 0.78800005
0.0067542861 0.023264764 0.78800005
0.0082552386 0.023264764 0.78800005
0.0097561907 0.023264764 0.78800005
0.011257144 0.023264764 0.78800005
0.012725716 0.023205716 0.78600001
0.054367624 0.023087621 0.78200006
0.055857148 0.023087621 0.78200006
0.057346672 0.023087621 0.78200006
0.05868572 0.023028573 0.78000003
0.060171433 0.023028573 0.78000003
0.061578099 0.022999048 0.77900004
0.063061908 0.022999048 0.77900004
0.064380005 0.022940002 0.77700001
0.065860003 0.022940002 0.77700001
0.067166671 0.022880955 0.77500004
0.068642862 0.022880955 0.77500004
0.069938101 0.022821907 0.77300006
0.071410477 0.022821907 0.77300006
0.072788574 0.022792382 0.77200001
0.07425905 0.022792382 0.77200001
0.075729527 0.022792382 0.77200001
0.077000007 0.022733334 0.77000004
0.078466669 0.022733334 0.77000004
0.079933338 0.022733334 0.77000004
0.081188574 0.022674287 0.76800001
0.082651436 0.022674287 0.76800001
0.17918001 0.025597144 0.86700004
0.18083145 0.025597144 0.86700004
0.18248287 0.025597144 0.86700004
0.1841343 0.025597144 0.86700004
-0.092442863 0.022597143 0.71900004
-0.091073342 0.022597143 0.71900004
-0.089703813 0.022597143 0.71900004
-0.088088579 0.022534287 0.71700001
-0.086722866 0.022534287 0.71700001
-0.085238099 0.022502858 0.71600002
-0.083640009 0.022440001 0.71400005
-0.082280003 0.022440001 0.71400005
-0.080806673 0.022408573 0.71300006
-0.079114288 0.022314288 0.71000004
-0.077761911 0.022314288 0.71000004
-0.076194294 0.022251431 0.708
-0.074845716 0.022251431 0.708
-0.073497146 0.022251431 0.708
-0.072148576 0.022251431 0.708
-0.070800006 0.022251431 0.708
-0.069353335 0.022220001 0.70700002
-0.067718096 0.022125715 0.70400006
-0.066377148 0.022125715 0.70400006
-0.065036193 0.022125715 0.70400006
-0.063604765 0.022094287 0.70300001
-0.06226572 0.022094287 0.70300001
-0.060926672 0.022094287 0.70300001
-0.059587624 0.022094287 0.70300001
-0.058248576 0.022094287 0.70300001
-0.056909528 0.022094287 0.70300001
-0.055412386 0.02203143 0.70100003
-0.054077145 0.02203143 0.70100003
-0.052892383 0.022094287 0.70300001
-0.051553335 0.022094287 0.70300001
-0.050214291 0.022094287 0.70300001
-0.048875242 0.022094287 0.70300001
-0.047536194 0.022094287 0.70300001
-0.04626286 0.022125715 0.70400006
-0.044985719 0.022157144 0.70500004
-0.04364286 0.022157144 0.70500004
-0.042420004 0.022220001 0.70700002
-0.041131433 0.022251431 0.708
-0.039782859 0.022251431 0.708
-0.038542859 0.022314288 0.71000004
-0.03724286 0.022345716 0.71100003
-0.035888575 0.022345716 0.71100003
-0.034631431 0.022408573 0.71300006
-0.033320002 0.022440001 0.71400005
-0.032049526 0.022502858 0.71600002
-0.030814288 0.022597143 0.71900004
-0.029444763 0.022597143 0.71900004
-0.028114287 0.022628574 0.72000003
-0.026817145 0.022691431 0.72200006
-0.025441907 0.022691431 0.72200006
-0.024166668 0.022785716 0.72500002
-0.022911429 0.022911429 0.72900003
-0.02161143 0.023005717 0.73200005
-0.020272382 0.023068573 0.73400003
-0.018925715 0.02313143 0.73600006
-0.01752381 0.02313143 0.73600006
-0.01614381 0.023162859 0.73700005
-0.014740001 0.023162859 0.73700005
-0.013390477 0.023257144 0.74000001
-0.011964763 0.023225715 0.73900002
-0.010614286 0.023351431 0.74300003
-0.0092485724 0.023477145 0.74700004
-0.0067371433 0.024702858 0.78600001
-0.0052400003 0.024702858 0.78600001
-0.0037428574 0.024702858 0.78600001
-0.0022514288 0.024765715 0.78800005
-0.0007514286 0.024797145 0.78900003
0.00075047626 0.024765715 0.78800005
0.0022542858 0.024797145 0.78900003
0.0037571432 0.024797145 0.78900003
0.0052600005 0.024797145 0.78900003
0.0067542861 0.024765715 0.78800005
0.0082552386 0.024765715 0.78800005
0.0097561907 0.024765715 0.78800005
0.011257144 0.024765715 0.78800005
0.012693334 0.024640001 0.78400004
0.060171433 0.024514288 0.78000003
0.061420005 0.024420002 0.77700001
0.063061908 0.024482859 0.77900004
0.064380005 0.024420002 0.77700001
0.065860003 0.024420002 0.77700001
0.067166671 0.024357144 0.77500004
0.068465717 0.024294287 0.77300006
0.069938101 0.024294287 0.77300006
0.071410477 0.024294287 0.77300006
0.072882861 0.024294287 0.77300006
0.07425905 0.024262859 0.77200001
0.075533338 0.024200002 0.77000004
0.077000007 0.024200002 0.77000004
0.078466669 0.024200002 0.77000004
0.079933338 0.024200002 0.77000004
0.081188574 0.024137145 0.76800001
0.082651436 0.024137145 0.76800001
0.084114291 0.024137145 0.76800001
0.17711906 0.027185716 0.86500007
0.17876668 0.027185716 0.86500007
0.1804143 0.027185716 0.86500007
0.18206191 0.027185716 0.86500007
0.18370953 0.027185716 0.86500007
0.18535715 0.027185716 0.86500007
-0.13325715 0.028266668 0.84800005
-0.13164191 0.028266668 0.84800005
-0.092185721 0.023900002 0.71700001
-0.090820007 0.023900002 0.71700001
-0.089454293 0.023900002 0.71700001
-0.087965719 0.023866668 0.71600002
-0.086601913 0.023866668 0.71600002
-0.085000008 0.023800002 0.71400005
-0.083640009 0.023800002 0.71400005
-0.082164764 0.023766669 0.71300006
-0.080580004 0.023700001 0.71100003
-0.079114288 0.023666669 0.71000004
-0.077542864 0.023600001 0.708
-0.076194294 0.023600001 0.708
-0.074845716 0.023600001 0.708
-0.073497146 0.023600001 0.708
-0.072148576 0.023600001 0.708
-0.070700005 0.023566669 0.70700002
-0.069059052 0.023466669 0.70400006
-0.067718096 0.023466669 0.70400006
-0.066282861 0.023433335 0.70300001
-0.064943813 0.023433335 0.70300001
-0.063604765 0.023433335 0.70300001
-0.06226572 0.023433335 0.70300001
-0.060753338 0.023366667 0.70100003
-0.059418101 0.023366667 0.70100003
-0.05808286 0.023366667 0.70100003
-0.056909528 0.023433335 0.70300001
-0.055412386 0.023366667 0.70100003
-0.054077145 0.023366667 0.70100003
-0.052892383 0.023433335 0.70300001
-0.051553335 0.023433335 0.70300001
-0.050214291 0.023433335 0.70300001
-0.048875242 0.023433335 0.70300001
-0.047603812 0.023466669 0.70400006
-0.04626286 0.023466669 0.70400006
-0.044985719 0.023500001 0.70500004
-0.04376667 0.023566669 0.70700002
-0.042420004 0.023566669 0.70700002
-0.041131433 0.023600001 0.708
-0.039782859 0.023600001 0.708
-0.038542859 0.023666669 0.71000004
-0.03724286 0.023700001 0.71100003
-0.035888575 0.023700001 0.71100003
-0.034631431 0.023766669 0.71300006
-0.033413336 0.023866668 0.71600002
-0.032094289 0.023900002 0.71700001
-0.030857146 0.024000002 0.72000003
-0.029485716 0.024000002 0.72000003
-0.028192382 0.024066668 0.72200006
-0.026854288 0.024100002 0.72300005
-0.02554762 0.024166668 0.72500002
-0.024266668 0.024266668 0.72800004
-0.022974288 0.024366667 0.73100001
-0.021670477 0.024466669 0.73400003
-0.02032762 0.024533335 0.73600006
-0.018951429 0.024566669 0.73700005
-0.01752381 0.024533335 0.73600006
-0.01614381 0.024566669 0.73700005
-0.014780001 0.024633335 0.73900002
-0.013390477 0.024666669 0.74000001
-0.012013334 0.024733335 0.74200004
-0.010614286 0.024766669 0.74300003
-0.0092485724 0.024900002 0.74700004
-0.0067371433 0.026200002 0.78600001
-0.0052400003 0.026200002 0.78600001
-0.0037523813 0.026266668 0.78800005
-0.0022542858 0.026300002 0.78900003
-0.0007514286 0.026300002 0.78900003
0.0007514286 0.026300002 0.78900003
0.0022542858 0.026300002 0.78900003
0.0037571432 0.026300002 0.78900003
0.0052600005 0.026300002 0.78900003
0.0067542861 0.026266668 0.78800005
0.0082552386 0.026266668 0.78800005
0.0097314296 0.026200002 0.78600001
0.011200001 0.026133334 0.78400004
0.012660953 0.026066668 0.78200006
0.014096191 0.025966669 0.77900004
0.064380005 0.025900003 0.77700001
0.06569048 0.025833335 0.77500004
0.066993341 0.025766669 0.77300006
0.068465717 0.025766669 0.77300006
0.069847621 0.025733335 0.77200001
0.071318097 0.025733335 0.77200001
0.072788574 0.025733335 0.77200001
0.074066669 0.025666669 0.77000004
0.075533338 0.025666669 0.77000004
0.077000007 0.025666669 0.77000004
0.078466669 0.025666669 0.77000004
0.079933338 0.025666669 0.77000004
0.081188574 0.025600001 0.76800001
0.082651436 0.025600001 0.76800001
0.084333338 0.025666669 0.77000004
0.085800007 0.025666669 0.77000004
0.10132858 0.028833335 0.86500007
0.17650478 0.028733335 0.86200005
0.17814668 0.028733335 0.86200005
0.17978859 0.028733335 0.86200005
0.18143049 0.028733335 0.86200005
0.18307239 0.028733335 0.86200005
-0.13164191 0.029881908 0.84800005
-0.13002667 0.029881908 0.84800005
-0.093942866 0.02537143 0.72000003
-0.092185721 0.025265716 0.71700001
-0.090820007 0.025265716 0.71700001
-0.089454293 0.025265716 0.71700001
-0.087965719 0.025230478 0.71600002
-0.086360008 0.025160002 0.71400005
-0.085000008 0.025160002 0.71400005
-0.083522864 0.025124764 0.71300006
-0.082164764 0.025124764 0.71300006
-0.080580004 0.025054287 0.71100003
-0.078891434 0.024948573 0.708
-0.077542864 0.024948573 0.708
-0.076194294 0.024948573 0.708
-0.074740008 0.024913335 0.70700002
-0.073393337 0.024913335 0.70700002
-0.072046675 0.024913335 0.70700002
-0.070500001 0.024842858 0.70500004
-0.068960957 0.024772383 0.70300001
-0.067621909 0.024772383 0.70300001
-0.066094287 0.024701906 0.70100003
-0.064943813 0.024772383 0.70300001
-0.063423812 0.024701906 0.70100003
-0.062088575 0.024701906 0.70100003
-0.060753338 0.024701906 0.70100003
-0.059418101 0.024701906 0.70100003
-0.05808286 0.024701906 0.70100003
-0.056747623 0.024701906 0.70100003
-0.055570479 0.024772383 0.70300001
-0.054231431 0.024772383 0.70300001
-0.052892383 0.024772383 0.70300001
-0.051553335 0.024772383 0.70300001
-0.050214291 0.024772383 0.70300001
-0.048944764 0.024807621 0.70400006
-0.047603812 0.024807621 0.70400006
-0.046328574 0.024842858 0.70500004
-0.045113336 0.024913335 0.70700002
-0.04376667 0.024913335 0.70700002
-0.042480003 0.024948573 0.708
-0.041247621 0.02501905 0.71000004
-0.03989524 0.02501905 0.71000004
-0.038542859 0.02501905 0.71000004
-0.037347622 0.025124764 0.71300006
-0.035989527 0.025124764 0.71300006
-0.034680001 0.025160002 0.71400005
-0.033460002 0.025265716 0.71700001
-0.032228574 0.02537143 0.72000003
-0.030942859 0.025441907 0.72200006
-0.029567622 0.025441907 0.72200006
-0.028231431 0.025477145 0.72300005
-0.026928574 0.02554762 0.72500002
-0.025582859 0.025582859 0.72600001
-0.024300002 0.025688574 0.72900003
-0.023068573 0.025864763 0.73400003
-0.021729525 0.02593524 0.73600006
-0.02035524 0.025970478 0.73700005
-0.018951429 0.025970478 0.73700005
-0.01754762 0.025970478 0.73700005
-0.016187619 0.026040955 0.73900002
-0.014800001 0.026076192 0.74000001
-0.013426668 0.026146669 0.74200004
-0.012029525 0.026181906 0.74300003
-0.010642858 0.026252383 0.74500006
-0.0092485724 0.026322858 0.74700004
-0.0078257145 0.026322858 0.74700004
-0.0052533336 0.027767621 0.78800005
-0.0037571432 0.027802859 0.78900003
-0.0022542858 0.027802859 0.78900003
-0.0007514286 0.027802859 0.78900003
0.0007514286 0.027802859 0.78900003
0.0022542858 0.027802859 0.78900003
0.0037571432 0.027802859 0.78900003
0.0052600005 0.027802859 0.78900003
0.0067542861 0.027767621 0.78800005
0.0082342867 0.027697144 0.78600001
0.0097066676 0.027626669 0.78400004
0.011200001 0.027626669 0.78400004
0.012660953 0.027556192 0.78200006
0.014096191 0.027450478 0.77900004
0.015580001 0.027450478 0.77900004
0.066993341 0.027239049 0.77300006
0.068377145 0.027203811 0.77200001
0.069666669 0.027133334 0.77000004
0.071133338 0.027133334 0.77000004
0.072600007 0.027133334 0.77000004
0.074066669 0.027133334 0.77000004
0.075533338 0.027133334 0.77000004
0.077000007 0.027133334 0.77000004
0.078466669 0.027133334 0.77000004
0.079933338 0.027133334 0.77000004
0.081188574 0.027062859 0.76800001
0.082651436 0.027062859 0.76800001
0.084114291 0.027062859 0.76800001
0.085465722 0.02702762 0.76700002
0.086926669 0.02702762 0.76700002
0.10132858 0.030480955 0.86500007
0.18100953 0.030304763 0.86000001
0.18264763 0.030304763 0.86000001
-0.095314294 0.026742859 0.72000003
-0.093812384 0.026705716 0.71900004
-0.092185721 0.02663143 0.71700001
-0.090820007 0.02663143 0.71700001
-0.089329533 0.026594287 0.71600002
-0.087965719 0.026594287 0.71600002
-0.086360008 0.026520003 0.71400005
-0.084880956 0.02648286 0.71300006
-0.083522864 0.02648286 0.71300006
-0.081934288 0.026408574 0.71100003
-0.080466673 0.026371431 0.71000004
-0.078891434 0.026297145 0.708
-0.077542864 0.026297145 0.708
-0.07608667 0.026260002 0.70700002
-0.074740008 0.026260002 0.70700002
-0.07318572 0.026185716 0.70500004
-0.071842864 0.026185716 0.70500004
-0.070400007 0.026148573 0.70400006
-0.068960957 0.02611143 0.70300001
-0.067621909 0.02611143 0.70300001
-0.066094287 0.026037145 0.70100003
-0.064759053 0.026037145 0.70100003
-0.063423812 0.026037145 0.70100003
-0.062088575 0.026037145 0.70100003
-0.060753338 0.026037145 0.70100003
-0.059418101 0.026037145 0.70100003
-0.05808286 0.026037145 0.70100003
-0.056747623 0.026037145 0.70100003
-0.055570479 0.02611143 0.70300001
-0.054231431 0.02611143 0.70300001
-0.052892383 0.02611143 0.70300001
-0.051553335 0.02611143 0.70300001
-0.050214291 0.02611143 0.70300001
-0.048944764 0.026148573 0.70400006
-0.047671434 0.026185716 0.70500004
-0.046460003 0.026260002 0.70700002
-0.045113336 0.026260002 0.70700002
-0.043828573 0.026297145 0.708
-0.042480003 0.026297145 0.708
-0.041247621 0.026371431 0.71000004
-0.03989524 0.026371431 0.71000004
-0.038542859 0.026371431 0.71000004
-0.03724286 0.026408574 0.71100003
-0.035888575 0.026408574 0.71100003
-0.034825716 0.02663143 0.71700001
-0.033600003 0.026742859 0.72000003
-0.032318097 0.026817145 0.72200006
-0.030985717 0.026854288 0.72300005
-0.029567622 0.026817145 0.72200006
-0.028309526 0.026928574 0.72500002
-0.026965717 0.026965717 0.72600001
-0.025653334 0.027040001 0.72800004
-0.024400001 0.027188573 0.73200005
-0.023162859 0.027374288 0.73700005
-0.021818096 0.027448574 0.73900002
-0.020410478 0.027448574 0.73900002
-0.019002859 0.027448574 0.73900002
-0.017595239 0.027448574 0.73900002
-0.016209524 0.027485715 0.74000001
-0.014840001 0.027560001 0.74200004
-0.013444763 0.027597144 0.74300003
-0.012029525 0.027597144 0.74300003
-0.010642858 0.02767143 0.74500006
-0.0092485724 0.027745716 0.74700004
-0.0078257145 0.027745716 0.74700004
-0.0052533336 0.029268574 0.78800005
-0.0037571432 0.029305717 0.78900003
-0.0022542858 0.029305717 0.78900003
-0.0007514286 0.029305717 0.78900003
0.00075333338 0.029380001 0.79100001
0.0022600002 0.029380001 0.79100001
0.0037571432 0.029305717 0.78900003
0.0052600005 0.029305717 0.78900003
0.0067542861 0.029268574 0.78800005
0.0082342867 0.029194288 0.78600001
0.0097066676 0.029120002 0.78400004
0.011171429 0.029045716 0.78200006
0.012628572 0.02897143 0.78000003
0.014096191 0.028934287 0.77900004
0.015600001 0.02897143 0.78000003
0.068200007 0.028600002 0.77000004
0.069666669 0.028600002 0.77000004
0.071133338 0.028600002 0.77000004
0.072600007 0.028600002 0.77000004
0.074066669 0.028600002 0.77000004
0.075533338 0.028600002 0.77000004
0.077000007 0.028600002 0.77000004
0.078466669 0.028600002 0.77000004
0.079933338 0.028600002 0.77000004
0.081188574 0.028525716 0.76800001
0.082543813 0.028488573 0.76700002
0.084004767 0.028488573 0.76700002
0.08524286 0.028414287 0.76500005
0.086700007 0.028414287 0.76500005
0.087926671 0.028340003 0.76300001
0.089380004 0.028340003 0.76300001
0.18342859 0.031794287 0.85600007
0.18505906 0.031794287 0.85600007
-0.095314294 0.028114287 0.72000003
-0.093812384 0.028075241 0.71900004
-0.092185721 0.027997145 0.71700001
-0.09069334 0.027958097 0.71600002
-0.089329533 0.027958097 0.71600002
-0.087720007 0.027880002 0.71400005
-0.086360008 0.027880002 0.71400005
-0.084880956 0.027840953 0.71300006
-0.083522864 0.027840953 0.71300006
-0.081934288 0.027762858 0.71100003
-0.080240004 0.027645716 0.708
-0.078891434 0.027645716 0.708
-0.07743334 0.027606668 0.70700002
-0.07608667 0.027606668 0.70700002
-0.074528575 0.027528573 0.70500004
-0.073081911 0.027489526 0.70400006
-0.071740955 0.027489526 0.70400006
-0.070300005 0.027450478 0.70300001
-0.068960957 0.027450478 0.70300001
-0.067429528 0.027372383 0.70100003
-0.066094287 0.027372383 0.70100003
-0.064759053 0.027372383 0.70100003
-0.063423812 0.027372383 0.70100003
-0.062088575 0.027372383 0.70100003
-0.060753338 0.027372383 0.70100003
-0.059418101 0.027372383 0.70100003
-0.05808286 0.027372383 0.70100003
-0.056909528 0.027450478 0.70300001
-0.055570479 0.027450478 0.70300001
-0.054231431 0.027450478 0.70300001
-0.052892383 0.027450478 0.70300001
-0.051553335 0.027450478 0.70300001
-0.050285719 0.027489526 0.70400006
-0.049014289 0.027528573 0.70500004
-0.047671434 0.027528573 0.70500004
-0.046460003 0.027606668 0.70700002
-0.045113336 0.027606668 0.70700002
-0.043828573 0.027645716 0.708
-0.042480003 0.027645716 0.708
-0.041247621 0.027723812 0.71000004
-0.03989524 0.027723812 0.71000004
-0.038542859 0.027723812 0.71000004
-0.037190478 0.027723812 0.71000004
-0.035838097 0.027723812 0.71000004
-0.03490667 0.029207621 0.74800003
-0.03236286 0.028231431 0.72300005
-0.030985717 0.028231431 0.72300005
-0.029608574 0.028231431 0.72300005
-0.028309526 0.028309526 0.72500002
-0.026965717 0.028348573 0.72600001
-0.025582859 0.028348573 0.72600001
-0.024633335 0.028856192 0.73900002
-0.023257144 0.02889524 0.74000001
-0.021847621 0.02889524 0.74000001
-0.020493334 0.028973335 0.74200004
-0.019028572 0.02889524 0.74000001
-0.017619049 0.02889524 0.74000001
-0.016253334 0.028973335 0.74200004
-0.014840001 0.028973335 0.74200004
-0.013444763 0.029012382 0.74300003
-0.012061905 0.029090479 0.74500006
-0.010671429 0.029168574 0.74700004
-0.0092485724 0.029168574 0.74700004
-0.0067628575 0.030808574 0.78900003
-0.0052600005 0.030808574 0.78900003
-0.0037571432 0.030808574 0.78900003
-0.0022600002 0.030886669 0.79100001
-0.00075333338 0.030886669 0.79100001
0.00075333338 0.030886669 0.79100001
0.0022600002 0.030886669 0.79100001
0.0037666669 0.030886669 0.79100001
0.0052600005 0.030808574 0.78900003
0.0067542861 0.030769525 0.78800005
0.0082342867 0.03069143 0.78600001
0.0097066676 0.030613335 0.78400004
0.011171429 0.03053524 0.78200006
0.012628572 0.030457145 0.78000003
0.014150477 0.03053524 0.78200006
0.015640002 0.03053524 0.78200006
0.070948578 0.029988574 0.76800001
0.072411433 0.029988574 0.76800001
0.073874287 0.029988574 0.76800001
0.075337149 0.029988574 0.76800001
0.077000007 0.030066669 0.77000004
0.078466669 0.030066669 0.77000004
0.079933338 0.030066669 0.77000004
0.081188574 0.029988574 0.76800001
0.082543813 0.029949525 0.76700002
0.084004767 0.029949525 0.76700002
0.08524286 0.02987143 0.76500005
0.086700007 0.02987143 0.76500005
0.087926671 0.029793335 0.76300001
0.089380004 0.029793335 0.76300001
0.090833336 0.029793335 0.76300001
-0.096954294 0.029567622 0.72200006
-0.095314294 0.029485716 0.72000003
-0.093812384 0.029444763 0.71900004
-0.092057146 0.029321907 0.71600002
-0.09069334 0.029321907 0.71600002
-0.089329533 0.029321907 0.71600002
-0.087720007 0.029240001 0.71400005
-0.086239055 0.029199049 0.71300006
-0.084880956 0.029199049 0.71300006
-0.08328858 0.029117145 0.71100003
-0.081588574 0.028994288 0.708
-0.080240004 0.028994288 0.708
-0.078891434 0.028994288 0.708
-0.07743334 0.028953334 0.70700002
-0.07608667 0.028953334 0.70700002
-0.074422859 0.028830478 0.70400006
-0.072978102 0.028789526 0.70300001
-0.071639054 0.028789526 0.70300001
-0.070300005 0.028789526 0.70300001
-0.068764769 0.028707622 0.70100003
-0.067429528 0.028707622 0.70100003
-0.066094287 0.028707622 0.70100003
-0.064759053 0.028707622 0.70100003
-0.063423812 0.028707622 0.70100003
-0.062088575 0.028707622 0.70100003
-0.060753338 0.028707622 0.70100003
-0.059418101 0.028707622 0.70100003
-0.05808286 0.028707622 0.70100003
-0.056909528 0.028789526 0.70300001
-0.055570479 0.028789526 0.70300001
-0.054231431 0.028789526 0.70300001
-0.052892383 0.028789526 0.70300001
-0.051626671 0.028830478 0.70400006
-0.050285719 0.028830478 0.70400006
-0.049014289 0.02887143 0.70500004
-0.047671434 0.02887143 0.70500004
-0.046460003 0.028953334 0.70700002
-0.045113336 0.028953334 0.70700002
-0.043828573 0.028994288 0.708
-0.042480003 0.028994288 0.708
-0.041247621 0.029076193 0.71000004
-0.03989524 0.029076193 0.71000004
-0.038542859 0.029076193 0.71000004
-0.037705716 0.03059143 0.74700004
-0.03628286 0.03059143 0.74700004
-0.03490667 0.030632382 0.74800003
-0.033481907 0.030632382 0.74800003
-0.030714288 0.030714288 0.75000006
-0.029285716 0.030714288 0.75000006
-0.027597144 0.030427622 0.74300003
-0.026181906 0.030427622 0.74300003
-0.024766669 0.030427622 0.74300003
-0.023351431 0.030427622 0.74300003
-0.021936191 0.030427622 0.74300003
-0.020520953 0.030427622 0.74300003
-0.019105716 0.030427622 0.74300003
-0.017666668 0.03038667 0.74200004
-0.016275238 0.030427622 0.74300003
-0.014860001 0.030427622 0.74300003
-0.013480953 0.030509526 0.74500006
-0.012061905 0.030509526 0.74500006
-0.010671429 0.03059143 0.74700004
-0.0092485724 0.03059143 0.74700004
-0.0067628575 0.032311432 0.78900003
-0.0052600005 0.032311432 0.78900003
-0.0037666669 0.032393336 0.79100001
-0.0022600002 0.032393336 0.79100001
-0.00075333338 0.032393336 0.79100001
0.00075333338 0.032393336 0.79100001
0.0022600002 0.032393336 0.79100001
0.0037666669 0.032393336 0.79100001
0.0052600005 0.032311432 0.78900003
0.0067542861 0.03227048 0.78800005
0.0082133338 0.032106668 0.78400004
0.0096819056 0.032024764 0.78200006
0.011142858 0.031942859 0.78000003
0.012628572 0.031942859 0.78000003
0.014114287 0.031942859 0.78000003
0.015600001 0.031942859 0.78000003
0.072411433 0.03145143 0.76800001
0.073874287 0.03145143 0.76800001
0.075337149 0.03145143 0.76800001
0.076800004 0.03145143 0.76800001
0.078262866 0.03145143 0.76800001
0.079933338 0.031533334 0.77000004
0.081188574 0.03145143 0.76800001
0.082651436 0.03145143 0.76800001
0.084004767 0.031410478 0.76700002
0.08524286 0.031328574 0.76500005
0.086700007 0.031328574 0.76500005
0.087926671 0.03124667 0.76300001
0.089380004 0.03124667 0.76300001
0.090595245 0.031164763 0.76100004
0.092044771 0.031164763 0.76100004
-0.096954294 0.030942859 0.72200006
-0.095314294 0.030857146 0.72000003
-0.09342096 0.030685715 0.71600002
-0.092057146 0.030685715 0.71600002
-0.09069334 0.030685715 0.71600002
-0.089080006 0.030600002 0.71400005
-0.087720007 0.030600002 0.71400005
-0.086239055 0.030557144 0.71300006
-0.084880956 0.030557144 0.71300006
-0.08328858 0.030471431 0.71100003
-0.081588574 0.030342858 0.708
-0.080240004 0.030342858 0.708
-0.078891434 0.030342858 0.708
-0.07743334 0.030300003 0.70700002
-0.07587143 0.030214287 0.70500004
-0.074422859 0.03017143 0.70400006
-0.072978102 0.030128574 0.70300001
-0.071639054 0.030128574 0.70300001
-0.070300005 0.030128574 0.70300001
-0.068764769 0.030042859 0.70100003
-0.067429528 0.030042859 0.70100003
-0.066094287 0.030042859 0.70100003
-0.064759053 0.030042859 0.70100003
-0.063423812 0.030042859 0.70100003
-0.062088575 0.030042859 0.70100003
-0.060753338 0.030042859 0.70100003
-0.059418101 0.030042859 0.70100003
-0.058248576 0.030128574 0.70300001
-0.056909528 0.030128574 0.70300001
-0.055570479 0.030128574 0.70300001
-0.054231431 0.030128574 0.70300001
-0.052892383 0.030128574 0.70300001
-0.051626671 0.03017143 0.70400006
-0.050285719 0.03017143 0.70400006
-0.049014289 0.030214287 0.70500004
-0.047671434 0.030214287 0.70500004
-0.046460003 0.030300003 0.70700002
-0.045113336 0.030300003 0.70700002
-0.043828573 0.030342858 0.708
-0.042480003 0.030342858 0.708
-0.041247621 0.030428573 0.71000004
-0.03989524 0.030428573 0.71000004
-0.038542859 0.030428573 0.71000004
-0.039180957 0.032057144 0.74800003
-0.037705716 0.032014288 0.74700004
-0.03628286 0.032014288 0.74700004
-0.03490667 0.032057144 0.74800003
-0.033481907 0.032057144 0.74800003
-0.032142859 0.032142859 0.75000006
-0.030714288 0.032142859 0.75000006
-0.029285716 0.032142859 0.75000006
-0.027782859 0.032057144 0.74800003
-0.026252383 0.031928573 0.74500006
-0.024833335 0.031928573 0.74500006
-0.023351431 0.031842858 0.74300003
-0.021936191 0.031842858 0.74300003
-0.020520953 0.031842858 0.74300003
-0.019105716 0.031842858 0.74300003
-0.017690478 0.031842858 0.74300003
-0.016275238 0.031842858 0.74300003
-0.014900001 0.031928573 0.74500006
-0.013480953 0.031928573 0.74500006
-0.012094286 0.032014288 0.74700004
-0.010671429 0.032014288 0.74700004
-0.0092485724 0.032014288 0.74700004
-0.0067800004 0.033900004 0.79100001
-0.0052733338 0.033900004 0.79100001
-0.0037666669 0.033900004 0.79100001
-0.0022657143 0.033985715 0.79300004
-0.00075333338 0.033900004 0.79100001
0.00075523817 0.033985715 0.79300004
0.0022600002 0.033900004 0.79100001
0.0037666669 0.033900004 0.79100001
0.0052733338 0.033900004 0.79100001
0.0067542861 0.033771429 0.78800005
0.0081923818 0.033514287 0.78200006
0.0096571436 0.033428572 0.78000003
0.011142858 0.033428572 0.78000003
0.012612382 0.033385716 0.77900004
0.014114287 0.033428572 0.78000003
0.015600001 0.033428572 0.78000003
0.070856199 0.032871429 0.76700002
0.072317146 0.032871429 0.76700002
0.073874287 0.032914288 0.76800001
0.075337149 0.032914288 0.76800001
0.076800004 0.032914288 0.76800001
0.078160957 0.032871429 0.76700002
0.079933338 0.033000004 0.77000004
0.081188574 0.032914288 0.76800001
0.082651436 0.032914288 0.76800001
0.084004767 0.032871429 0.76700002
0.08524286 0.032785717 0.76500005
0.086473338 0.032700002 0.76300001
0.087926671 0.032700002 0.76300001
0.08914572 0.032614287 0.76100004
0.090595245 0.032614287 0.76100004
0.092044771 0.032614287 0.76100004
0.093494289 0.032614287 0.76100004
0.094819054 0.032571431 0.76000005
-0.098329529 0.032318097 0.72200006
-0.096685722 0.032228574 0.72000003
-0.095314294 0.032228574 0.72000003
-0.093812384 0.032183811 0.71900004
-0.092057146 0.032049526 0.71600002
-0.09069334 0.032049526 0.71600002
-0.089080006 0.031960003 0.71400005
-0.087597147 0.03191524 0.71300006
-0.086239055 0.03191524 0.71300006
-0.084880956 0.03191524 0.71300006
-0.08328858 0.031825718 0.71100003
-0.081588574 0.031691432 0.708
-0.080126673 0.031646669 0.70700002
-0.078780003 0.031646669 0.70700002
-0.077214293 0.031557146 0.70500004
-0.075763814 0.031512383 0.70400006
-0.07431715 0.03146762 0.70300001
-0.072978102 0.03146762 0.70300001
-0.071639054 0.03146762 0.70300001
-0.070300005 0.03146762 0.70300001
-0.068764769 0.031378098 0.70100003
-0.067429528 0.031378098 0.70100003
-0.066094287 0.031378098 0.70100003
-0.064759053 0.031378098 0.70100003
-0.063423812 0.031378098 0.70100003
-0.062088575 0.031378098 0.70100003
-0.060753338 0.031378098 0.70100003
-0.059418101 0.031378098 0.70100003
-0.058248576 0.03146762 0.70300001
-0.056909528 0.03146762 0.70300001
-0.055570479 0.03146762 0.70300001
-0.054308575 0.031512383 0.70400006
-0.052967623 0.031512383 0.70400006
-0.051626671 0.031512383 0.70400006
-0.050285719 0.031512383 0.70400006
-0.049014289 0.031557146 0.70500004
-0.047806669 0.031646669 0.70700002
-0.046460003 0.031646669 0.70700002
-0.045113336 0.031646669 0.70700002
-0.043828573 0.031691432 0.708
-0.042480003 0.031691432 0.708
-0.041131433 0.031691432 0.708
-0.03989524 0.031780954 0.71000004
-0.038542859 0.031780954 0.71000004
-0.039180957 0.033481907 0.74800003
-0.037705716 0.033437144 0.74700004
-0.03628286 0.033437144 0.74700004
-0.03490667 0.033481907 0.74800003
-0.033481907 0.033481907 0.74800003
-0.032142859 0.03357143 0.75000006
-0.030714288 0.03357143 0.75000006
-0.029285716 0.03357143 0.75000006
-0.027857145 0.03357143 0.75000006
-0.026358098 0.033481907 0.74800003
-0.024833335 0.033347622 0.74500006
-0.023414288 0.033347622 0.74500006
-0.021995239 0.033347622 0.74500006
-0.020576192 0.033347622 0.74500006
-0.019157143 0.033347622 0.74500006
-0.017690478 0.033258099 0.74300003
-0.016275238 0.033258099 0.74300003
-0.014900001 0.033347622 0.74500006
-0.013517144 0.033437144 0.74700004
-0.012110477 0.033481907 0.74800003
-0.010671429 0.033437144 0.74700004
-0.0092485724 0.033437144 0.74700004
-0.0067800004 0.035406668 0.79100001
-0.0052733338 0.035406668 0.79100001
-0.0037666669 0.035406668 0.79100001
-0.0022657143 0.035496194 0.79300004
-0.00075333338 0.035406668 0.79100001
0.00075333338 0.035406668 0.79100001
0.0022600002 0.035406668 0.79100001
0.0037666669 0.035406668 0.79100001
0.0052600005 0.035317145 0.78900003
0.0067028576 0.035003811 0.78200006
0.0081714289 0.034914289 0.78000003
0.0096571436 0.034914289 0.78000003
0.011142858 0.034914289 0.78000003
0.012628572 0.034914289 0.78000003
0.014114287 0.034914289 0.78000003
0.015640002 0.035003811 0.78200006
0.020333335 0.038226668 0.85400003
0.021960001 0.038226668 0.85400003
0.023531429 0.038137145 0.85200006
0.023619048 0.035809524 0.80000001
0.076700002 0.034332383 0.76700002
0.078466669 0.034466669 0.77000004
0.079933338 0.034466669 0.77000004
0.081400007 0.034466669 0.77000004
0.082543813 0.034332383 0.76700002
0.084004767 0.034332383 0.76700002
0.085020006 0.034153335 0.76300001
0.086473338 0.034153335 0.76300001
0.087696195 0.034063812 0.76100004
0.08914572 0.034063812 0.76100004
0.090595245 0.034063812 0.76100004
0.092044771 0.034063812 0.76100004
0.093494289 0.034063812 0.76100004
0.094819054 0.034019049 0.76000005
0.096266672 0.034019049 0.76000005
0.097200006 0.033840001 0.75600004
-0.098329529 0.033693336 0.72200006
-0.096685722 0.033600003 0.72000003
-0.095181912 0.033553336 0.71900004
-0.09342096 0.033413336 0.71600002
-0.092057146 0.033413336 0.71600002
-0.090440005 0.033320002 0.71400005
-0.089080006 0.033320002 0.71400005
-0.087597147 0.033273336 0.71300006
-0.086239055 0.033273336 0.71300006
-0.084642865 0.033180002 0.71100003
-0.08328858 0.033180002 0.71100003
-0.081473336 0.032993335 0.70700002
-0.080126673 0.032993335 0.70700002
-0.078780003 0.032993335 0.70700002
-0.077214293 0.032900002 0.70500004
-0.075763814 0.032853335 0.70400006
-0.07431715 0.032806668 0.70300001
-0.072770484 0.032713335 0.70100003
-0.071435243 0.032713335 0.70100003
-0.070100002 0.032713335 0.70100003
-0.068764769 0.032713335 0.70100003
-0.067429528 0.032713335 0.70100003
-0.066000007 0.032666668 0.70000005
-0.064759053 0.032713335 0.70100003
-0.063423812 0.032713335 0.70100003
-0.062088575 0.032713335 0.70100003
-0.060753338 0.032713335 0.70100003
-0.059418101 0.032713335 0.70100003
-0.058248576 0.032806668 0.70300001
-0.056909528 0.032806668 0.70300001
-0.055649526 0.032853335 0.70400006
-0.054308575 0.032853335 0.70400006
-0.052967623 0.032853335 0.70400006
-0.051700003 0.032900002 0.70500004
-0.050357144 0.032900002 0.70500004
-0.049014289 0.032900002 0.70500004
-0.047806669 0.032993335 0.70700002
-0.046460003 0.032993335 0.70700002
-0.045177147 0.033040002 0.708
-0.043828573 0.033040002 0.708
-0.042480003 0.033040002 0.708
-0.041131433 0.033040002 0.708
-0.040605716 0.03490667 0.74800003
-0.039128575 0.034860004 0.74700004
-0.037705716 0.034860004 0.74700004
-0.03633143 0.03490667 0.74800003
-0.034860004 0.034860004 0.74700004
-0.03357143 0.035000004 0.75000006
-0.032142859 0.035000004 0.75000006
-0.030796193 0.035093337 0.75200003
-0.029363811 0.035093337 0.75200003
-0.027931431 0.035093337 0.75200003
-0.026358098 0.03490667 0.74800003
-0.024933334 0.03490667 0.74800003
-0.023477145 0.034860004 0.74700004
-0.022054287 0.034860004 0.74700004
-0.020576192 0.03476667 0.74500006
-0.019208573 0.034860004 0.74700004
-0.017738096 0.03476667 0.74500006
-0.01631905 0.03476667 0.74500006
-0.014940001 0.034860004 0.74700004
-0.013535239 0.03490667 0.74800003
-0.012110477 0.03490667 0.74800003
-0.010685715 0.03490667 0.74800003
-0.0092609534 0.03490667 0.74800003
-0.0067800004 0.036913335 0.79100001
-0.0052733338 0.036913335 0.79100001
-0.0037761908 0.037006669 0.79300004
-0.0022657143 0.037006669 0.79300004
-0.00075523817 0.037006669 0.79300004
0.00075333338 0.036913335 0.79100001
0.0022600002 0.036913335 0.79100001
0.0037571432 0.036820002 0.78900003
0.0051800003 0.036260001 0.77700001
0.0066771433 0.036353335 0.77900004
0.0081609525 0.036353335 0.77900004
0.0096447626 0.036353335 0.77900004
0.011128572 0.036353335 0.77900004
0.012612382 0.036353335 0.77900004
0.014114287 0.036400001 0.78000003
0.015640002 0.036493335 0.78200006
0.017173335 0.036586668 0.78400004
0.018976191 0.037193336 0.79700005
0.020494288 0.037193336 0.79700005
0.022040002 0.037240002 0.79800004
0.023560002 0.037240002 0.79800004
0.02514286 0.037333336 0.80000001
0.081188574 0.035840001 0.76800001
0.082651436 0.035840001 0.76800001
0.084004767 0.035793334 0.76700002
0.085020006 0.035606667 0.76300001
0.086473338 0.035606667 0.76300001
0.087696195 0.035513334 0.76100004
0.08914572 0.035513334 0.76100004
0.0904762 0.035466667 0.76000005
0.092044771 0.035513334 0.76100004
0.093371436 0.035466667 0.76000005
0.094569527 0.035373334 0.75800002
0.096013337 0.035373334 0.75800002
0.097200006 0.035280004 0.75600004
0.09864001 0.035280004 0.75600004
0.15655716 0.039340004 0.84300005
0.16298001 0.039340004 0.84300005
0.16458572 0.039340004 0.84300005
-0.099704765 0.035068575 0.72200006
-0.098057151 0.034971431 0.72000003
-0.096685722 0.034971431 0.72000003
-0.095181912 0.034922861 0.71900004
-0.09342096 0.034777146 0.71600002
-0.092057146 0.034777146 0.71600002
-0.090440005 0.034680001 0.71400005
-0.089080006 0.034680001 0.71400005
-0.087597147 0.034631431 0.71300006
-0.085997149 0.034534287 0.71100003
-0.084642865 0.034534287 0.71100003
-0.083171435 0.034485716 0.71000004
-0.081473336 0.034340002 0.70700002
-0.079900004 0.034242861 0.70500004
-0.078557149 0.034242861 0.70500004
-0.076995246 0.034145717 0.70300001
-0.075656198 0.034145717 0.70300001
-0.074105717 0.034048572 0.70100003
-0.072770484 0.034048572 0.70100003
-0.071435243 0.034048572 0.70100003
-0.070100002 0.034048572 0.70100003
-0.068764769 0.034048572 0.70100003
-0.067333341 0.034000002 0.70000005
-0.066000007 0.034000002 0.70000005
-0.064759053 0.034048572 0.70100003
-0.063423812 0.034048572 0.70100003
-0.062088575 0.034048572 0.70100003
-0.060753338 0.034048572 0.70100003
-0.059418101 0.034048572 0.70100003
-0.058248576 0.034145717 0.70300001
-0.056990478 0.034194287 0.70400006
-0.055649526 0.034194287 0.70400006
-0.054308575 0.034194287 0.70400006
-0.053042859 0.034242861 0.70500004
-0.051700003 0.034242861 0.70500004
-0.050357144 0.034242861 0.70500004
-0.049153335 0.034340002 0.70700002
-0.04787429 0.034388572 0.708
-0.043700002 0.032300003 0.66500002
-0.042433336 0.032300003 0.66500002
-0.041166671 0.032300003 0.66500002
-0.039960004 0.032348573 0.66600001
-0.040551431 0.03628286 0.74700004
-0.039128575 0.03628286 0.74700004
-0.037705716 0.03628286 0.74700004
-0.032300003 0.032300003 0.66500002
-0.031033335 0.032300003 0.66500002
-0.029766669 0.032300003 0.66500002
-0.028414287 0.032202858 0.66300005
-0.027233334 0.032300003 0.66500002
-0.025966669 0.032300003 0.66500002
-0.027931431 0.036525715 0.75200003
-0.026428573 0.036428574 0.75000006
-0.024933334 0.03633143 0.74800003
-0.023508573 0.03633143 0.74800003
-0.022054287 0.03628286 0.74700004
-0.020631431 0.03628286 0.74700004
-0.019208573 0.03628286 0.74700004
-0.017785715 0.03628286 0.74700004
-0.016362859 0.03628286 0.74700004
-0.014960001 0.03633143 0.74800003
-0.013571429 0.036428574 0.75000006
-0.012142858 0.036428574 0.75000006
-0.010714286 0.036428574 0.75000006
-0.0092857145 0.036428574 0.75000006
-0.0067971433 0.038517144 0.79300004
-0.005286667 0.038517144 0.79300004
-0.0037761908 0.038517144 0.79300004
-0.0022657143 0.038517144 0.79300004
-0.00075523817 0.038517144 0.79300004
0.00075333338 0.038420003 0.79100001
0.0022542858 0.038322859 0.78900003
0.0037000002 0.037740003 0.77700001
0.0051800003 0.037740003 0.77700001
0.0066600004 0.037740003 0.77700001
0.0081400005 0.037740003 0.77700001
0.0096200006 0.037740003 0.77700001
0.011100001 0.037740003 0.77700001
0.012612382 0.037837144 0.77900004
0.014096191 0.037837144 0.77900004
0.015600001 0.037885718 0.78000003
0.017217144 0.038177144 0.78600001
0.019000001 0.038760003 0.79800004
0.020494288 0.038711432 0.79700005
0.022040002 0.038760003 0.79800004
0.023619048 0.038857147 0.80000001
0.02514286 0.038857147 0.80000001
0.026666669 0.038857147 0.80000001
0.028190479 0.038857147 0.80000001
0.029714288 0.038857147 0.80000001
0.082543813 0.037254289 0.76700002
0.084004767 0.037254289 0.76700002
0.084797151 0.036962859 0.76100004
0.086246669 0.036962859 0.76100004
0.087696195 0.036962859 0.76100004
0.089028575 0.036914289 0.76000005
0.090238102 0.036817145 0.75800002
0.091681913 0.036817145 0.75800002
0.093125723 0.036817145 0.75800002
0.094320007 0.036720004 0.75600004
0.095760003 0.036720004 0.75600004
0.097200006 0.036720004 0.75600004
0.098118104 0.036525715 0.75200003
0.09968286 0.036574289 0.75300002
0.10098287 0.036525715 0.75200003
-0.099704765 0.036443811 0.72200006
-0.098057151 0.036342859 0.72000003
-0.096685722 0.036342859 0.72000003
-0.095181912 0.036292382 0.71900004
-0.093551435 0.03619143 0.71700001
-0.092057146 0.036140956 0.71600002
-0.090440005 0.036040001 0.71400005
-0.089080006 0.036040001 0.71400005
-0.087597147 0.035989527 0.71300006
-0.086239055 0.035989527 0.71300006
-0.084642865 0.035888575 0.71100003
-0.08328858 0.035888575 0.71100003
-0.081473336 0.035686668 0.70700002
-0.079786673 0.035535239 0.70400006
-0.078445718 0.035535239 0.70400006
-0.076995246 0.035484765 0.70300001
-0.075440958 0.035383813 0.70100003
-0.074105717 0.035383813 0.70100003
-0.072770484 0.035383813 0.70100003
-0.071435243 0.035383813 0.70100003
-0.070000008 0.035333335 0.70000005
-0.068666674 0.035333335 0.70000005
-0.067333341 0.035333335 0.70000005
-0.066000007 0.035333335 0.70000005
-0.064759053 0.035383813 0.70100003
-0.063423812 0.035383813 0.70100003
-0.062088575 0.035383813 0.70100003
-0.060753338 0.035383813 0.70100003
-0.059587624 0.035484765 0.70300001
-0.058248576 0.035484765 0.70300001
-0.056990478 0.035535239 0.70400006
-0.055649526 0.035535239 0.70400006
-0.054308575 0.035535239 0.70400006
-0.043700002 0.033566669 0.66500002
-0.042433336 0.033566669 0.66500002
-0.041166671 0.033566669 0.66500002
-0.039900001 0.033566669 0.66500002
