# .PCD v0.7 - Point Cloud Data file format
VERSION 0.7
FIELDS x y z
SIZE 4 4 4
TYPE F F F
COUNT 1 1 1
WIDTH 1400
HEIGHT 1
VIEWPOINT 0 0 0 1 0 0 0
POINTS 1400
DATA ascii
0.032658096 0.04867905 0.64700001
0.03394286 0.04875429 0.648
0.03512286 0.04867905 0.64700001
0.036355242 0.04867905 0.64700001
0.059965719 0.047851432 0.63600004
0.061177146 0.047851432 0.63600004
0.062388577 0.047851432 0.63600004
0.063500002 0.047776192 0.63500005
0.064709529 0.047776192 0.63500005
0.065919049 0.047776192 0.63500005
0.06702286 0.047700956 0.634
0.068338096 0.047776192 0.63500005
0.069547623 0.047776192 0.63500005
0.07064572 0.047700956 0.634
0.07185334 0.047700956 0.634
0.07306096 0.047700956 0.634
0.074268579 0.047700956 0.634
0.075476192 0.047700956 0.634
0.076562859 0.047625717 0.63300002
0.077891432 0.047700956 0.634
0.079223812 0.047776192 0.63500005
0.080306672 0.047700956 0.634
0.081771433 0.047851432 0.63600004
0.082982861 0.047851432 0.63600004
0.084194288 0.047851432 0.63600004
0.085674293 0.048001908 0.63800001
0.086889528 0.048001908 0.63800001
0.08810477 0.048001908 0.63800001
0.089460008 0.048077147 0.63900006
0.09067715 0.048077147 0.63900006
0.091894291 0.048077147 0.63900006
0.093111433 0.048077147 0.63900006
0.094476193 0.048152383 0.64000005
0.095695242 0.048152383 0.64000005
0.097065717 0.048227623 0.64100003
0.098746672 0.048453335 0.64400005
0.099973343 0.048453335 0.64400005
0.14148001 0.059137147 0.78600001
0.14261334 0.058986671 0.78400004
0.14410667 0.058986671 0.78400004
0.14560001 0.058986671 0.78400004
0.14709334 0.058986671 0.78400004
-0.0067571434 0.049757145 0.64500004
-0.0055200006 0.049680002 0.64400005
-0.0042933337 0.049680002 0.64400005
-0.0030666669 0.049680002 0.64400005
-0.0018400002 0.049680002 0.64400005
-0.00061333337 0.049680002 0.64400005
0.00061142864 0.049525719 0.64200002
0.0018314287 0.049448576 0.64100003
0.0030523811 0.049448576 0.64100003
0.0042733336 0.049448576 0.64100003
0.0054942863 0.049448576 0.64100003
0.0067152386 0.049448576 0.64100003
0.0079361908 0.049448576 0.64100003
0.0091571435 0.049448576 0.64100003
0.010378096 0.049448576 0.64100003
0.011599048 0.049448576 0.64100003
0.012840001 0.049525719 0.64200002
0.014062858 0.049525719 0.64200002
0.015333334 0.049680002 0.64400005
0.016560001 0.049680002 0.64400005
0.017814286 0.049757145 0.64500004
0.019042859 0.049757145 0.64500004
0.02027143 0.049757145 0.64500004
0.021500001 0.049757145 0.64500004
0.022728574 0.049757145 0.64500004
0.023957144 0.049757145 0.64500004
0.025146669 0.049680002 0.64400005
0.026373334 0.049680002 0.64400005
0.027600002 0.049680002 0.64400005
0.028826669 0.049680002 0.64400005
0.030100003 0.049757145 0.64500004
0.031328574 0.049757145 0.64500004
0.032658096 0.049911432 0.64700001
0.033890478 0.049911432 0.64700001
0.03512286 0.049911432 0.64700001
0.036355242 0.049911432 0.64700001
0.037529524 0.049834289 0.64600003
0.059871431 0.048985716 0.63500005
0.061177146 0.049062859 0.63600004
0.062388577 0.049062859 0.63600004
0.063500002 0.048985716 0.63500005
0.064709529 0.048985716 0.63500005
0.06581524 0.048908576 0.634
0.06702286 0.048908576 0.634
0.06823048 0.048908576 0.634
0.0694381 0.048908576 0.634
0.07064572 0.048908576 0.634
0.071740001 0.048831433 0.63300002
0.072945721 0.048831433 0.63300002
0.074268579 0.048908576 0.634
0.075357147 0.048831433 0.63300002
0.076562859 0.048831433 0.63300002
0.077768579 0.048831433 0.63300002
0.079099052 0.048908576 0.634
0.080306672 0.048908576 0.634
0.081642866 0.048985716 0.63500005
0.082852386 0.048985716 0.63500005
0.084061913 0.048985716 0.63500005
0.085405722 0.049062859 0.63600004
0.086889528 0.049217146 0.63800001
0.08810477 0.049217146 0.63800001
0.089320004 0.049217146 0.63800001
0.09067715 0.049294289 0.63900006
0.091894291 0.049294289 0.63900006
0.093111433 0.049294289 0.63900006
0.094476193 0.049371433 0.64000005
0.095695242 0.049371433 0.64000005
0.096914291 0.049371433 0.64000005
0.098286673 0.049448576 0.64100003
0.099662863 0.049525719 0.64200002
0.10088572 0.049525719 0.64200002
0.14261334 0.060480002 0.78400004
0.14410667 0.060480002 0.78400004
0.14560001 0.060480002 0.78400004
0.14709334 0.060480002 0.78400004
0.14858668 0.060480002 0.78400004
0.14969715 0.060325719 0.78200006
0.15697144 0.062022861 0.80400002
0.16156572 0.062022861 0.80400002
-0.0067571434 0.050985716 0.64500004
-0.0055200006 0.050906669 0.64400005
-0.0042933337 0.050906669 0.64400005
-0.0030666669 0.050906669 0.64400005
-0.0018342858 0.050748575 0.64200002
-0.00061142864 0.050748575 0.64200002
0.00061047624 0.050669529 0.64100003
0.0018314287 0.050669529 0.64100003
0.0030476192 0.050590478 0.64000005
0.0042666672 0.050590478 0.64000005
0.0054857144 0.050590478 0.64000005
0.0067047626 0.050590478 0.64000005
0.0079238098 0.050590478 0.64000005
0.009142858 0.050590478 0.64000005
0.010361905 0.050590478 0.64000005
0.011599048 0.050669529 0.64100003
0.012820001 0.050669529 0.64100003
0.014062858 0.050748575 0.64200002
0.015333334 0.050906669 0.64400005
0.016560001 0.050906669 0.64400005
0.017814286 0.050985716 0.64500004
0.019042859 0.050985716 0.64500004
0.02027143 0.050985716 0.64500004
0.021500001 0.050985716 0.64500004
0.022728574 0.050985716 0.64500004
0.023920001 0.050906669 0.64400005
0.025146669 0.050906669 0.64400005
0.02629143 0.050748575 0.64200002
0.027514288 0.050748575 0.64200002
0.028737145 0.050748575 0.64200002
0.030053336 0.050906669 0.64400005
0.031328574 0.050985716 0.64500004
0.032607622 0.051064767 0.64600003
0.033838097 0.051064767 0.64600003
0.035068575 0.051064767 0.64600003
0.036355242 0.051143814 0.64700001
0.037529524 0.051064767 0.64600003
0.058661908 0.050195243 0.63500005
0.059871431 0.050195243 0.63500005
0.061080955 0.050195243 0.63500005
0.062290478 0.050195243 0.63500005
0.063400008 0.050116193 0.634
0.06460762 0.050116193 0.634
0.06581524 0.050116193 0.634
0.066917144 0.050037146 0.63300002
0.06823048 0.050116193 0.634
0.069328576 0.050037146 0.63300002
0.070534289 0.050037146 0.63300002
0.071740001 0.050037146 0.63300002
0.072945721 0.050037146 0.63300002
0.074151434 0.050037146 0.63300002
0.075357147 0.050037146 0.63300002
0.076562859 0.050037146 0.63300002
0.077768579 0.050037146 0.63300002
0.079099052 0.050116193 0.634
0.080180004 0.050037146 0.63300002
0.081514291 0.050116193 0.634
0.082852386 0.050195243 0.63500005
0.083929531 0.050116193 0.634
0.085271433 0.050195243 0.63500005
0.086889528 0.050432384 0.63800001
0.08810477 0.050432384 0.63800001
0.089320004 0.050432384 0.63800001
0.090535246 0.050432384 0.63800001
0.091894291 0.050511431 0.63900006
0.093111433 0.050511431 0.63900006
0.094328575 0.050511431 0.63900006
0.095695242 0.050590478 0.64000005
0.096762866 0.050511431 0.63900006
0.098286673 0.050669529 0.64100003
0.099507622 0.050669529 0.64100003
0.10072858 0.050669529 0.64100003
0.10210858 0.050748575 0.64200002
0.10333143 0.050748575 0.64200002
0.14969715 0.061815243 0.78200006
0.1508 0.061657146 0.78000003
0.15228572 0.061657146 0.78000003
0.15219429 0.061024766 0.77200001
-0.0092285722 0.052295242 0.64600003
-0.0079857148 0.052214291 0.64500004
-0.0067571434 0.052214291 0.64500004
-0.0055200006 0.052133337 0.64400005
-0.0042933337 0.052133337 0.64400005
-0.0030666669 0.052133337 0.64400005
-0.0018342858 0.051971432 0.64200002
-0.00061142864 0.051971432 0.64200002
0.00061047624 0.051890481 0.64100003
0.0018285715 0.051809527 0.64000005
0.0030476192 0.051809527 0.64000005
0.0042666672 0.051809527 0.64000005
0.0054857144 0.051809527 0.64000005
0.0067047626 0.051809527 0.64000005
0.0079238098 0.051809527 0.64000005
0.0091285724 0.051728576 0.63900006
0.010361905 0.051809527 0.64000005
0.011580953 0.051809527 0.64000005
0.012800001 0.051809527 0.64000005
0.014040953 0.051890481 0.64100003
0.015285715 0.051971432 0.64200002
0.016560001 0.052133337 0.64400005
0.017786669 0.052133337 0.64400005
0.019013334 0.052133337 0.64400005
0.020240001 0.052133337 0.64400005
0.021466669 0.052133337 0.64400005
0.022693334 0.052133337 0.64400005
0.023920001 0.052133337 0.64400005
0.025146669 0.052133337 0.64400005
0.02629143 0.051971432 0.64200002
0.027514288 0.051971432 0.64200002
0.028737145 0.051971432 0.64200002
0.029960003 0.051971432 0.64200002
0.031280003 0.052133337 0.64400005
0.032557145 0.052214291 0.64500004
0.033838097 0.052295242 0.64600003
0.035068575 0.052295242 0.64600003
0.03629905 0.052295242 0.64600003
0.037529524 0.052295242 0.64600003
0.038820002 0.052376192 0.64700001
0.057452384 0.051404767 0.63500005
0.058661908 0.051404767 0.63500005
0.059777148 0.051323812 0.634
0.060984764 0.051323812 0.634
0.062192384 0.051323812 0.634
0.063400008 0.051323812 0.634
0.06460762 0.051323812 0.634
0.065711431 0.051242862 0.63300002
0.066917144 0.051242862 0.63300002
0.068122864 0.051242862 0.63300002
0.069328576 0.051242862 0.63300002
0.070534289 0.051242862 0.63300002
0.071626671 0.051161908 0.63200003
0.072830483 0.051161908 0.63200003
0.074034289 0.051161908 0.63200003
0.075238101 0.051161908 0.63200003
0.076441906 0.051161908 0.63200003
0.077645719 0.051161908 0.63200003
0.078974292 0.051242862 0.63300002
0.080180004 0.051242862 0.63300002
0.081514291 0.051323812 0.634
0.082852386 0.051404767 0.63500005
0.083929531 0.051323812 0.634
0.085271433 0.051404767 0.63500005
0.086889528 0.051647622 0.63800001
0.08810477 0.051647622 0.63800001
0.089320004 0.051647622 0.63800001
0.090535246 0.051647622 0.63800001
0.09175048 0.051647622 0.63800001
0.092965722 0.051647622 0.63800001
0.094328575 0.051728576 0.63900006
0.095545724 0.051728576 0.63900006
0.096611433 0.051647622 0.63800001
0.09813334 0.051809527 0.64000005
0.099507622 0.051890481 0.64100003
0.10072858 0.051890481 0.64100003
0.10242667 0.052133337 0.64400005
0.10365334 0.052133337 0.64400005
0.10488001 0.052133337 0.64400005
0.1493143 0.063142858 0.78000003
0.15060668 0.063061908 0.77900004
0.1517 0.062900007 0.77700001
0.15219429 0.062495243 0.77200001
0.15326668 0.062333338 0.77000004
0.15433145 0.062171433 0.76800001
-0.0092285722 0.053525716 0.64600003
-0.0079980958 0.053525716 0.64600003
-0.0067676194 0.053525716 0.64600003
-0.005528572 0.053442862 0.64500004
-0.0043000001 0.053442862 0.64500004
-0.0030666669 0.053360004 0.64400005
-0.0018314287 0.05311143 0.64100003
-0.00061047624 0.05311143 0.64100003
0.00060857146 0.052945718 0.63900006
0.0018257144 0.052945718 0.63900006
0.0030428574 0.052945718 0.63900006
0.0042600003 0.052945718 0.63900006
0.005477143 0.052945718 0.63900006
0.0066942861 0.052945718 0.63900006
0.0079114288 0.052945718 0.63900006
0.0091285724 0.052945718 0.63900006
0.010345715 0.052945718 0.63900006
0.011562858 0.052945718 0.63900006
0.01278 0.052945718 0.63900006
0.014040953 0.05311143 0.64100003
0.015261906 0.05311143 0.64100003
0.016508572 0.053194288 0.64200002
0.017786669 0.053360004 0.64400005
0.019013334 0.053360004 0.64400005
0.020240001 0.053360004 0.64400005
0.021466669 0.053360004 0.64400005
0.022622859 0.053194288 0.64200002
0.023845715 0.053194288 0.64200002
0.025068574 0.053194288 0.64200002
0.02629143 0.053194288 0.64200002
0.027471431 0.05311143 0.64100003
0.028692383 0.05311143 0.64100003
0.029960003 0.053194288 0.64200002
0.031280003 0.053360004 0.64400005
0.032557145 0.053442862 0.64500004
0.033838097 0.053525716 0.64600003
0.035068575 0.053525716 0.64600003
0.03629905 0.053525716 0.64600003
0.037529524 0.053525716 0.64600003
0.038760003 0.053525716 0.64600003
0.057452384 0.05261429 0.63500005
0.058569528 0.052531432 0.634
0.059777148 0.052531432 0.634
0.060984764 0.052531432 0.634
0.062192384 0.052531432 0.634
0.063400008 0.052531432 0.634
0.064505719 0.052448574 0.63300002
0.065607622 0.052365717 0.63200003
0.066811435 0.052365717 0.63200003
0.06801524 0.052365717 0.63200003
0.069219053 0.052365717 0.63200003
0.070311435 0.052282862 0.63100004
0.071286671 0.052117147 0.62900001
0.072715245 0.052282862 0.63100004
0.07391715 0.052282862 0.63100004
0.075119056 0.052282862 0.63100004
0.076079056 0.052117147 0.62900001
0.077277146 0.052117147 0.62900001
0.078849532 0.052365717 0.63200003
0.07992667 0.052282862 0.63100004
0.081128575 0.052282862 0.63100004
0.082852386 0.05261429 0.63500005
0.084061913 0.05261429 0.63500005
0.085271433 0.05261429 0.63500005
0.086617149 0.052697148 0.63600004
0.087828577 0.052697148 0.63600004
0.089320004 0.05286286 0.63800001
0.090535246 0.05286286 0.63800001
0.09175048 0.05286286 0.63800001
0.092965722 0.05286286 0.63800001
0.094180956 0.05286286 0.63800001
0.095545724 0.052945718 0.63900006
0.096611433 0.05286286 0.63800001
0.097826675 0.05286286 0.63800001
0.099507622 0.05311143 0.64100003
0.10072858 0.05311143 0.64100003
0.10242667 0.053360004 0.64400005
0.10365334 0.053360004 0.64400005
0.10488001 0.053360004 0.64400005
0.15091906 0.064048573 0.77300006
0.15219429 0.063965715 0.77200001
0.15326668 0.063800007 0.77000004
0.15433145 0.063634291 0.76800001
0.15579429 0.063634291 0.76800001
0.15725715 0.063634291 0.76800001
-0.0092428578 0.054840956 0.64700001
-0.0079980958 0.054756194 0.64600003
-0.0067676194 0.054756194 0.64600003
-0.005528572 0.054671433 0.64500004
-0.0043000001 0.054671433 0.64500004
-0.003057143 0.054417148 0.64200002
-0.0018314287 0.054332383 0.64100003
-0.00060857146 0.05416286 0.63900006
0.00060857146 0.05416286 0.63900006
0.0018257144 0.05416286 0.63900006
0.0030428574 0.05416286 0.63900006
0.0042533334 0.054078098 0.63800001
0.0054685716 0.054078098 0.63800001
0.0066838101 0.054078098 0.63800001
0.0079114288 0.05416286 0.63900006
0.0091285724 0.05416286 0.63900006
0.010345715 0.05416286 0.63900006
0.011544763 0.054078098 0.63800001
0.01278 0.05416286 0.63900006
0.014019049 0.054247621 0.64000005
0.015261906 0.054332383 0.64100003
0.016508572 0.054417148 0.64200002
0.01773143 0.054417148 0.64200002
0.018954286 0.054417148 0.64200002
0.020177145 0.054417148 0.64200002
0.021400001 0.054417148 0.64200002
0.022622859 0.054417148 0.64200002
0.023845715 0.054417148 0.64200002
0.025068574 0.054417148 0.64200002
0.026250478 0.054332383 0.64100003
0.027471431 0.054332383 0.64100003
0.02864762 0.054247621 0.64000005
0.029913336 0.054332383 0.64100003
0.031182859 0.054417148 0.64200002
0.032506667 0.054586671 0.64400005
0.033785716 0.054671433 0.64500004
0.035014287 0.054671433 0.64500004
0.03629905 0.054756194 0.64600003
0.037529524 0.054756194 0.64600003
0.038760003 0.054756194 0.64600003
0.039990477 0.054756194 0.64600003
0.041220956 0.054756194 0.64600003
0.056154288 0.053739052 0.634
0.057361908 0.053739052 0.634
0.058569528 0.053739052 0.634
0.059682861 0.053654291 0.63300002
0.060888577 0.053654291 0.63300002
0.06209429 0.053654291 0.63300002
0.063300006 0.053654291 0.63300002
0.064505719 0.053654291 0.63300002
0.065503813 0.053484764 0.63100004
0.066705719 0.053484764 0.63100004
0.067907624 0.053484764 0.63100004
0.068890482 0.053315241 0.62900001
0.070088573 0.053315241 0.62900001
0.07117334 0.053230479 0.62800002
0.072369531 0.053230479 0.62800002
0.07368286 0.053315241 0.62900001
0.074642859 0.053145718 0.62700003
0.075716197 0.053060956 0.62600005
0.076908574 0.053060956 0.62600005
0.077976197 0.052976195 0.625
0.079420008 0.053145718 0.62700003
0.080485716 0.053060956 0.62600005
0.081417151 0.052891433 0.62400001
0.082076199 0.052552383 0.62
0.083257146 0.052552383 0.62
0.084301911 0.052467622 0.61900002
0.087828577 0.053908575 0.63600004
0.089040004 0.053908575 0.63600004
0.090251431 0.053908575 0.63600004
0.091462865 0.053908575 0.63600004
0.092382863 0.053739052 0.634
0.09388572 0.053908575 0.63600004
0.095396198 0.054078098 0.63800001
0.096611433 0.054078098 0.63800001
0.095680006 0.052891433 0.62400001
0.10120001 0.054586671 0.64400005
0.10242667 0.054586671 0.64400005
0.10365334 0.054586671 0.64400005
0.10488001 0.054586671 0.64400005
0.15130953 0.06569048 0.77500004
0.15239143 0.065520957 0.77300006
0.15366477 0.065436192 0.77200001
0.15473334 0.065266669 0.77000004
0.15579429 0.065097146 0.76800001
0.15725715 0.065097146 0.76800001
-0.0092428578 0.056073338 0.64700001
-0.0079980958 0.055986669 0.64600003
-0.0067676194 0.055986669 0.64600003
-0.0055371434 0.055986669 0.64600003
-0.0043000001 0.055900004 0.64500004
-0.003057143 0.055640005 0.64200002
-0.0018285715 0.055466671 0.64000005
-0.00060857146 0.055380005 0.63900006
0.00060761906 0.055293337 0.63800001
0.0018228573 0.055293337 0.63800001
0.0030380955 0.055293337 0.63800001
0.0042533334 0.055293337 0.63800001
0.0054514287 0.055120002 0.63600004
0.0066838101 0.055293337 0.63800001
0.0078990478 0.055293337 0.63800001
0.0091142859 0.055293337 0.63800001
0.010329524 0.055293337 0.63800001
0.011544763 0.055293337 0.63800001
0.012760001 0.055293337 0.63800001
0.013997144 0.055380005 0.63900006
0.015214287 0.055380005 0.63900006
0.016482858 0.055553336 0.64100003
0.01773143 0.055640005 0.64200002
0.018954286 0.055640005 0.64200002
0.020177145 0.055640005 0.64200002
0.021400001 0.055640005 0.64200002
0.02258762 0.055553336 0.64100003
0.023808572 0.055553336 0.64100003
0.025029525 0.055553336 0.64100003
0.026209526 0.055466671 0.64000005
0.027428573 0.055466671 0.64000005
0.028602859 0.055380005 0.63900006
0.029866669 0.055466671 0.64000005
0.031134287 0.055553336 0.64100003
0.032405715 0.055640005 0.64200002
0.033733334 0.055813339 0.64400005
0.035014287 0.055900004 0.64500004
0.03629905 0.055986669 0.64600003
0.037529524 0.055986669 0.64600003
0.038820002 0.056073338 0.64700001
0.040052384 0.056073338 0.64700001
0.041284766 0.056073338 0.64700001
0.052531432 0.054946668 0.634
0.053739052 0.054946668 0.634
0.054946668 0.054946668 0.634
0.056154288 0.054946668 0.634
0.057361908 0.054946668 0.634
0.058477148 0.054860003 0.63300002
0.059682861 0.054860003 0.63300002
0.060888577 0.054860003 0.63300002
0.06209429 0.054860003 0.63300002
0.063300006 0.054860003 0.63300002
0.064403817 0.054773338 0.63200003
0.065503813 0.054686669 0.63100004
0.066494294 0.054513335 0.62900001
0.067692384 0.054513335 0.62900001
0.068780959 0.05442667 0.62800002
0.069977149 0.05442667 0.62800002
0.07117334 0.05442667 0.62800002
0.071678102 0.053906672 0.62200004
0.073214293 0.054166671 0.625
0.074404769 0.054166671 0.625
0.075595245 0.054166671 0.625
0.076908574 0.054253336 0.62600005
0.077976197 0.054166671 0.625
0.079166673 0.054166671 0.625
0.080228575 0.054080002 0.62400001
0.081417151 0.054080002 0.62400001
0.082076199 0.053733338 0.62
0.083257146 0.053733338 0.62
0.084301911 0.053646669 0.61900002
0.085480958 0.053646669 0.61900002
0.086660005 0.053646669 0.61900002
0.088264771 0.053906672 0.62200004
0.089880958 0.054166671 0.625
0.091071434 0.054166671 0.625
0.09226191 0.054166671 0.625
0.093601912 0.054253336 0.62600005
0.094794288 0.054253336 0.62600005
0.095680006 0.054080002 0.62400001
0.097023815 0.054166671 0.625
0.10242667 0.055813339 0.64400005
0.10365334 0.055813339 0.64400005
0.15366477 0.066906668 0.77200001
0.15473334 0.066733338 0.77000004
0.15620001 0.066733338 0.77000004
0.1570524 0.066473335 0.76700002
0.15768668 0.066126674 0.76300001
0.16648668 0.068553336 0.79100001
0.16799335 0.068553336 0.79100001
0.16950001 0.068553336 0.79100001
-0.0092571434 0.057394288 0.648
-0.0080104768 0.05730572 0.64700001
-0.0067676194 0.057217147 0.64600003
-0.005528572 0.057128575 0.64500004
-0.0043000001 0.057128575 0.64500004
-0.003057143 0.056862861 0.64200002
-0.0018285715 0.05668572 0.64000005
-0.00060761906 0.056508575 0.63800001
0.00060761906 0.056508575 0.63800001
0.0018228573 0.056508575 0.63800001
0.0030380955 0.056508575 0.63800001
0.0042400002 0.056331433 0.63600004
0.0054514287 0.056331433 0.63600004
0.0066628577 0.056331433 0.63600004
0.0078742858 0.056331433 0.63600004
0.0090857148 0.056331433 0.63600004
0.010297144 0.056331433 0.63600004
0.011508572 0.056331433 0.63600004
0.012760001 0.056508575 0.63800001
0.013975239 0.056508575 0.63800001
0.015190477 0.056508575 0.63800001
0.01643143 0.056597147 0.63900006
0.017676191 0.05668572 0.64000005
0.018865716 0.056597147 0.63900006
0.020114288 0.05668572 0.64000005
0.021333335 0.05668572 0.64000005
0.022552382 0.05668572 0.64000005
0.023771429 0.05668572 0.64000005
0.02495143 0.056597147 0.63900006
0.026168574 0.056597147 0.63900006
0.027385715 0.056597147 0.63900006
0.028602859 0.056597147 0.63900006
0.029820003 0.056597147 0.63900006
0.031037144 0.056597147 0.63900006
0.032254286 0.056597147 0.63900006
0.033523813 0.05668572 0.64000005
0.034742858 0.05668572 0.64000005
0.036018096 0.056774288 0.64100003
0.037413336 0.057040002 0.64400005
0.038760003 0.057217147 0.64600003
0.040052384 0.05730572 0.64700001
0.041284766 0.05730572 0.64700001
0.050195243 0.056242861 0.63500005
0.051323812 0.056154288 0.634
0.052531432 0.056154288 0.634
0.053654291 0.05606572 0.63300002
0.054860003 0.05606572 0.63300002
0.05606572 0.05606572 0.63300002
0.057271432 0.05606572 0.63300002
0.058384765 0.055977147 0.63200003
0.059588574 0.055977147 0.63200003
0.060792387 0.055977147 0.63200003
0.061996195 0.055977147 0.63200003
0.063200004 0.055977147 0.63200003
0.064301908 0.055888575 0.63100004
0.065296195 0.055711433 0.62900001
0.066388577 0.055622861 0.62800002
0.067584768 0.055622861 0.62800002
0.068123817 0.055091433 0.62200004
0.069308579 0.055091433 0.62200004
0.07049334 0.055091433 0.62200004
0.071678102 0.055091433 0.62200004
0.072628573 0.054914288 0.62
0.073809527 0.054914288 0.62
0.074869528 0.054825719 0.61900002
0.076048575 0.054825719 0.61900002
0.07735239 0.054914288 0.62
0.078406669 0.054825719 0.61900002
0.079328574 0.054648574 0.61700004
0.080503814 0.054648574 0.61700004
0.081811436 0.054737147 0.61800003
0.082988575 0.054737147 0.61800003
0.084165722 0.054737147 0.61800003
0.085204765 0.054648574 0.61700004
0.086660005 0.054825719 0.61900002
0.088264771 0.055091433 0.62200004
0.089449532 0.055091433 0.62200004
0.090925723 0.055268575 0.62400001
0.091966674 0.055180002 0.62300003
0.093302861 0.055268575 0.62400001
0.094491437 0.055268575 0.62400001
0.095680006 0.055268575 0.62400001
0.096868575 0.055268575 0.62400001
0.098057151 0.055268575 0.62400001
0.09924572 0.055268575 0.62400001
0.10027334 0.055180002 0.62300003
0.15473334 0.068200007 0.77000004
0.15579429 0.068022862 0.76800001
0.1570524 0.06793429 0.76700002
0.15768668 0.067580007 0.76300001
0.15872286 0.067402862 0.76100004
0.16690762 0.070237145 0.79300004
0.16841811 0.070237145 0.79300004
0.16950001 0.070060007 0.79100001
0.17207715 0.069882862 0.78900003
-0.0080104768 0.058538098 0.64700001
-0.0067676194 0.058447622 0.64600003
-0.0055371434 0.058447622 0.64600003
-0.0042933337 0.05826667 0.64400005
-0.0030523811 0.057995241 0.64100003
-0.0018285715 0.057904765 0.64000005
-0.00060761906 0.057723813 0.63800001
0.00060761906 0.057723813 0.63800001
0.0018171429 0.057542861 0.63600004
0.0030285716 0.057542861 0.63600004
0.0042400002 0.057542861 0.63600004
0.0054514287 0.057542861 0.63600004
0.0066628577 0.057542861 0.63600004
0.0078742858 0.057542861 0.63600004
0.0090857148 0.057542861 0.63600004
0.010297144 0.057542861 0.63600004
0.011508572 0.057542861 0.63600004
0.012760001 0.057723813 0.63800001
0.013975239 0.057723813 0.63800001
0.015190477 0.057723813 0.63800001
0.01643143 0.057814289 0.63900006
0.017648572 0.057814289 0.63900006
0.018865716 0.057814289 0.63900006
0.020082859 0.057814289 0.63900006
0.021333335 0.057904765 0.64000005
0.022517145 0.057814289 0.63900006
0.023734286 0.057814289 0.63900006
0.02495143 0.057814289 0.63900006
0.026168574 0.057814289 0.63900006
0.027385715 0.057814289 0.63900006
0.028558098 0.057723813 0.63800001
0.029773336 0.057723813 0.63800001
0.030988574 0.057723813 0.63800001
0.032203812 0.057723813 0.63800001
0.033471432 0.057814289 0.63900006
0.034688573 0.057814289 0.63900006
0.035905715 0.057814289 0.63900006
0.037122861 0.057814289 0.63900006
0.038760003 0.058447622 0.64600003
0.047776192 0.057452384 0.63500005
0.048908576 0.057361908 0.634
0.050116193 0.057361908 0.634
0.051323812 0.057361908 0.634
0.052448574 0.057271432 0.63300002
0.053654291 0.057271432 0.63300002
0.054773338 0.057180956 0.63200003
0.055977147 0.057180956 0.63200003
0.057180956 0.057180956 0.63200003
0.058292385 0.05709048 0.63100004
0.059494291 0.05709048 0.63100004
0.060696196 0.05709048 0.63100004
0.061898101 0.05709048 0.63100004
0.063100003 0.05709048 0.63100004
0.064098097 0.056909528 0.62900001
0.065296195 0.056909528 0.62900001
0.066388577 0.056819052 0.62800002
0.066616192 0.056004766 0.61900002
0.067904763 0.056095243 0.62
0.069085717 0.056095243 0.62
0.070266671 0.056095243 0.62
0.071447626 0.056095243 0.62
0.072511435 0.056004766 0.61900002
0.073690481 0.056004766 0.61900002
0.074869528 0.056004766 0.61900002
0.075925723 0.05591429 0.61800003
0.077102862 0.05591429 0.61800003
0.078280002 0.05591429 0.61800003
0.079328574 0.055823814 0.61700004
0.080503814 0.055823814 0.61700004
0.081679054 0.055823814 0.61700004
0.082854293 0.055823814 0.61700004
0.084301911 0.056004766 0.61900002
0.085204765 0.055823814 0.61700004
0.086520009 0.05591429 0.61800003
0.087980956 0.056095243 0.62
0.08916191 0.056095243 0.62
0.090634294 0.056276195 0.62200004
0.091819055 0.056276195 0.62200004
0.093003817 0.056276195 0.62200004
0.094188578 0.056276195 0.62200004
0.095526673 0.056366671 0.62300003
0.096713342 0.056366671 0.62300003
0.097900003 0.056366671 0.62300003
0.099086672 0.056366671 0.62300003
0.15579429 0.069485717 0.76800001
0.1570524 0.069395244 0.76700002
0.15768668 0.06903334 0.76300001
0.15914001 0.06903334 0.76300001
0.16017239 0.068852387 0.76100004
0.16950001 0.071566671 0.79100001
0.17057429 0.071385719 0.78900003
0.17292002 0.071114287 0.78600001
-0.0080104768 0.05977048 0.64700001
-0.0067676194 0.0596781 0.64600003
-0.0055371434 0.0596781 0.64600003
-0.0042933337 0.059493337 0.64400005
-0.003057143 0.059308574 0.64200002
-0.0018285715 0.059123814 0.64000005
-0.00060761906 0.058939051 0.63800001
0.00060571433 0.058754291 0.63600004
0.0018171429 0.058754291 0.63600004
0.0030285716 0.058754291 0.63600004
0.0042400002 0.058754291 0.63600004
0.0054428573 0.058661908 0.63500005
0.0066523813 0.058661908 0.63500005
0.0078742858 0.058754291 0.63600004
0.0090857148 0.058754291 0.63600004
0.010280953 0.058661908 0.63500005
0.011508572 0.058754291 0.63600004
0.012720001 0.058754291 0.63600004
0.013975239 0.058939051 0.63800001
0.015190477 0.058939051 0.63800001
0.016405715 0.058939051 0.63800001
0.017648572 0.059031431 0.63900006
0.018865716 0.059031431 0.63900006
0.020082859 0.059031431 0.63900006
0.021300001 0.059031431 0.63900006
0.022517145 0.059031431 0.63900006
0.023734286 0.059031431 0.63900006
0.02495143 0.059031431 0.63900006
0.026127622 0.058939051 0.63800001
0.02734286 0.058939051 0.63800001
0.028558098 0.058939051 0.63800001
0.029773336 0.058939051 0.63800001
0.030988574 0.058939051 0.63800001
0.032203812 0.058939051 0.63800001
0.033471432 0.059031431 0.63900006
0.034688573 0.059031431 0.63900006
0.035905715 0.059031431 0.63900006
0.037122861 0.059031431 0.63900006
0.047700956 0.058569528 0.634
0.048908576 0.058569528 0.634
0.050116193 0.058569528 0.634
0.051242862 0.058477148 0.63300002
0.052448574 0.058477148 0.63300002
0.053569525 0.058384765 0.63200003
0.054773338 0.058384765 0.63200003
0.055888575 0.058292385 0.63100004
0.05709048 0.058292385 0.63100004
0.058107622 0.058107622 0.62900001
0.05930572 0.058107622 0.62900001
0.060503814 0.058107622 0.62900001
0.061701909 0.058107622 0.62900001
0.062900007 0.058107622 0.62900001
0.064098097 0.058107622 0.62900001
0.064361908 0.057276193 0.62
0.065542862 0.057276193 0.62
0.066616192 0.057183813 0.61900002
0.067795239 0.057183813 0.61900002
0.068974294 0.057183813 0.61900002
0.070153341 0.057183813 0.61900002
0.071332388 0.057183813 0.61900002
0.072394289 0.057091434 0.61800003
0.073452383 0.05699905 0.61700004
0.074627623 0.05699905 0.61700004
0.075925723 0.057091434 0.61800003
0.076978102 0.05699905 0.61700004
0.078153342 0.05699905 0.61700004
0.079328574 0.05699905 0.61700004
0.080373339 0.05690667 0.61600006
0.081679054 0.05699905 0.61700004
0.082854293 0.05699905 0.61700004
0.084029533 0.05699905 0.61700004
0.085066669 0.05690667 0.61600006
0.086520009 0.057091434 0.61800003
0.087839052 0.057183813 0.61900002
0.090634294 0.057460956 0.62200004
0.091523819 0.057276193 0.62
0.093003817 0.057460956 0.62200004
0.094188578 0.057460956 0.62200004
0.09537334 0.057460956 0.62200004
0.096558101 0.057460956 0.62200004
0.097742863 0.057460956 0.62200004
0.098927625 0.057460956 0.62200004
0.10011239 0.057460956 0.62200004
0.15664287 0.070671432 0.76500005
0.15768668 0.070486672 0.76300001
0.15872286 0.070301913 0.76100004
0.16017239 0.070301913 0.76100004
0.16162191 0.070301913 0.76100004
0.16285716 0.070209526 0.76000005
0.17185906 0.072796196 0.78800005
0.17397335 0.072426669 0.78400004
-0.0067780958 0.061002862 0.64700001
-0.0055457149 0.061002862 0.64700001
-0.0030523811 0.060437147 0.64100003
-0.0018257144 0.060248576 0.63900006
-0.00060761906 0.060154289 0.63800001
0.00060571433 0.059965719 0.63600004
0.0018171429 0.059965719 0.63600004
0.0030238098 0.059871431 0.63500005
0.0042333337 0.059871431 0.63500005
0.0054428573 0.059871431 0.63500005
0.0066523813 0.059871431 0.63500005
0.0078619057 0.059871431 0.63500005
0.0090714293 0.059871431 0.63500005
0.010280953 0.059871431 0.63500005
0.011490477 0.059871431 0.63500005
0.012720001 0.059965719 0.63600004
0.01393143 0.059965719 0.63600004
0.015190477 0.060154289 0.63800001
0.016405715 0.060154289 0.63800001
0.017620953 0.060154289 0.63800001
0.018836191 0.060154289 0.63800001
0.020082859 0.060248576 0.63900006
0.021300001 0.060248576 0.63900006
0.022517145 0.060248576 0.63900006
0.023734286 0.060248576 0.63900006
0.024912383 0.060154289 0.63800001
0.026127622 0.060154289 0.63800001
0.02734286 0.060154289 0.63800001
0.028558098 0.060154289 0.63800001
0.029773336 0.060154289 0.63800001
0.030988574 0.060154289 0.63800001
0.032203812 0.060154289 0.63800001
0.03341905 0.060154289 0.63800001
0.034634288 0.060154289 0.63800001
0.035849527 0.060154289 0.63800001
0.047700956 0.059777148 0.634
0.048908576 0.059777148 0.634
0.050037146 0.059682861 0.63300002
0.051242862 0.059682861 0.63300002
0.052365717 0.059588574 0.63200003
0.053484764 0.059494291 0.63100004
0.054686669 0.059494291 0.63100004
0.055711433 0.05930572 0.62900001
0.056819052 0.059211433 0.62800002
0.058015242 0.059211433 0.62800002
0.059211433 0.059211433 0.62800002
0.060407624 0.059211433 0.62800002
0.061603814 0.059211433 0.62800002
0.061600003 0.058080003 0.61600006
0.062773339 0.058080003 0.61600006
0.064361908 0.058457147 0.62
0.065542862 0.058457147 0.62
0.066616192 0.05836286 0.61900002
0.067795239 0.05836286 0.61900002
0.068974294 0.05836286 0.61900002
0.070153341 0.05836286 0.61900002
0.071217149 0.058268577 0.61800003
0.072160006 0.058080003 0.61600006
0.073214293 0.057985719 0.61500001
0.074385718 0.057985719 0.61500001
0.075680003 0.058080003 0.61600006
0.076728575 0.057985719 0.61500001
0.078026675 0.058080003 0.61600006
0.079200007 0.058080003 0.61600006
0.080242865 0.057985719 0.61500001
0.081546672 0.058080003 0.61600006
0.082720004 0.058080003 0.61600006
0.083893336 0.058080003 0.61600006
0.08492858 0.057985719 0.61500001
0.086240008 0.058080003 0.61600006
0.087697148 0.058268577 0.61800003
0.089018099 0.05836286 0.61900002
0.090342864 0.058457147 0.62
0.091523819 0.058457147 0.62
0.092704765 0.058457147 0.62
0.09388572 0.058457147 0.62
0.095066674 0.058457147 0.62
0.096247628 0.058457147 0.62
0.097428575 0.058457147 0.62
0.098609529 0.058457147 0.62
0.099790484 0.058457147 0.62
0.10097144 0.058457147 0.62
0.10248191 0.058645718 0.62200004
0.10400001 0.058834288 0.62400001
0.10654762 0.058928575 0.625
0.1077381 0.058928575 0.625
0.15768668 0.071940005 0.76300001
0.15872286 0.071751431 0.76100004
0.16017239 0.071751431 0.76100004
0.16162191 0.071751431 0.76100004
0.16285716 0.071657151 0.76000005
0.16387239 0.071468577 0.75800002
0.16466191 0.071185715 0.75500005
0.17248002 0.073920004 0.78400004
0.17352954 0.07373143 0.78200006
-0.0030523811 0.061658099 0.64100003
-0.0018257144 0.061465718 0.63900006
-0.00060571433 0.061177146 0.63600004
0.00060476194 0.061080955 0.63500005
0.0018142859 0.061080955 0.63500005
0.0030238098 0.061080955 0.63500005
0.0042333337 0.061080955 0.63500005
0.0054428573 0.061080955 0.63500005
0.0066523813 0.061080955 0.63500005
0.0078619057 0.061080955 0.63500005
0.0090714293 0.061080955 0.63500005
0.010264763 0.060984764 0.634
0.011490477 0.061080955 0.63500005
0.012700001 0.061080955 0.63500005
0.01393143 0.061177146 0.63600004
0.015142858 0.061177146 0.63600004
0.016405715 0.061369527 0.63800001
0.017620953 0.061369527 0.63800001
0.018836191 0.061369527 0.63800001
0.020082859 0.061465718 0.63900006
0.021300001 0.061465718 0.63900006
0.022481907 0.061369527 0.63800001
0.023697145 0.061369527 0.63800001
0.024912383 0.061369527 0.63800001
0.026127622 0.061369527 0.63800001
0.02734286 0.061369527 0.63800001
0.028558098 0.061369527 0.63800001
0.029773336 0.061369527 0.63800001
0.030988574 0.061369527 0.63800001
0.032203812 0.061369527 0.63800001
0.03341905 0.061369527 0.63800001
0.034634288 0.061369527 0.63800001
0.035849527 0.061369527 0.63800001
0.037064765 0.061369527 0.63800001
0.046493337 0.060984764 0.634
0.047700956 0.060984764 0.634
0.048908576 0.060984764 0.634
0.050037146 0.060888577 0.63300002
0.051161908 0.060792387 0.63200003
0.052365717 0.060792387 0.63200003
0.053484764 0.060696196 0.63100004
0.054513335 0.060503814 0.62900001
0.055622861 0.060407624 0.62800002
0.056819052 0.060407624 0.62800002
0.057922862 0.060311433 0.62700003
0.059117146 0.060311433 0.62700003
0.060215242 0.060215242 0.62600005
0.061407622 0.060215242 0.62600005
0.061600003 0.059253339 0.61600006
0.062773339 0.059253339 0.61600006
0.064258099 0.059541907 0.61900002
0.065120004 0.059253339 0.61600006
0.066293336 0.059253339 0.61600006
0.067357145 0.059157148 0.61500001
0.068528578 0.059157148 0.61500001
0.069700003 0.059157148 0.61500001
0.070756197 0.059060957 0.61400002
0.071925722 0.059060957 0.61400002
0.07309524 0.059060957 0.61400002
0.074264765 0.059060957 0.61400002
0.07543429 0.059060957 0.61400002
0.076603815 0.059060957 0.61400002
0.07777334 0.059060957 0.61400002
0.078942865 0.059060957 0.61400002
0.080112383 0.059060957 0.61400002
0.08141429 0.059157148 0.61500001
0.082585722 0.059157148 0.61500001
0.083757147 0.059157148 0.61500001
0.084790483 0.059060957 0.61400002
0.086100005 0.059157148 0.61500001
0.087413341 0.059253339 0.61600006
0.088730484 0.059349529 0.61700004
0.090051435 0.059445716 0.61800003
0.091228575 0.059445716 0.61800003
0.092555247 0.059541907 0.61900002
0.093734294 0.059541907 0.61900002
0.094913341 0.059541907 0.61900002
0.096092388 0.059541907 0.61900002
0.097271435 0.059541907 0.61900002
0.098609529 0.059638098 0.62
0.099790484 0.059638098 0.62
0.10129715 0.059830479 0.62200004
0.10248191 0.059830479 0.62200004
0.10416667 0.060119051 0.625
0.10654762 0.060119051 0.625
0.1077381 0.060119051 0.625
0.16017239 0.073200956 0.76100004
0.16162191 0.073200956 0.76100004
0.16285716 0.073104769 0.76000005
0.16387239 0.072912388 0.75800002
0.16488001 0.072720006 0.75600004
0.16610001 0.072623812 0.75500005
0.17352954 0.075220957 0.78200006
0.17583144 0.074932389 0.77900004
0.17731525 0.074932389 0.77900004
-0.0018142859 0.062290478 0.63500005
-0.00060476194 0.062290478 0.63500005
0.00060476194 0.062290478 0.63500005
0.0018114287 0.062192384 0.634
0.0030190479 0.062192384 0.634
0.0042333337 0.062290478 0.63500005
0.0054342858 0.062192384 0.634
0.0066419053 0.062192384 0.634
0.0078495247 0.062192384 0.634
0.0090571437 0.062192384 0.634
0.010264763 0.062192384 0.634
0.011490477 0.062290478 0.63500005
0.012700001 0.062290478 0.63500005
0.01393143 0.062388577 0.63600004
0.015142858 0.062388577 0.63600004
0.016405715 0.062584765 0.63800001
0.017620953 0.062584765 0.63800001
0.018836191 0.062584765 0.63800001
0.020082859 0.06268286 0.63900006
0.021266667 0.062584765 0.63800001
0.022481907 0.062584765 0.63800001
0.023697145 0.062584765 0.63800001
0.024912383 0.062584765 0.63800001
0.026127622 0.062584765 0.63800001
0.02734286 0.062584765 0.63800001
0.028558098 0.062584765 0.63800001
0.029773336 0.062584765 0.63800001
0.030988574 0.062584765 0.63800001
0.032203812 0.062584765 0.63800001
0.03341905 0.062584765 0.63800001
0.034634288 0.062584765 0.63800001
0.035849527 0.062584765 0.63800001
0.037064765 0.062584765 0.63800001
0.044078097 0.062192384 0.634
0.045285717 0.062192384 0.634
0.046493337 0.062192384 0.634
0.047625717 0.06209429 0.63300002
0.048831433 0.06209429 0.63300002
0.049958099 0.061996195 0.63200003
0.051161908 0.061996195 0.63200003
0.052282862 0.061898101 0.63100004
0.053315241 0.061701909 0.62900001
0.05442667 0.061603814 0.62800002
0.055534288 0.06150572 0.62700003
0.056638099 0.061407622 0.62600005
0.057830479 0.061407622 0.62600005
0.058928575 0.061309528 0.625
0.060022861 0.061211433 0.62400001
0.06062286 0.06062286 0.61800003
0.061600003 0.060426671 0.61600006
0.062773339 0.060426671 0.61600006
0.063946672 0.060426671 0.61600006
0.065120004 0.060426671 0.61600006
0.066293336 0.060426671 0.61600006
0.067357145 0.060328577 0.61500001
0.068640001 0.060426671 0.61600006
0.069700003 0.060328577 0.61500001
0.070871435 0.060328577 0.61500001
0.071925722 0.060230479 0.61400002
0.072976194 0.060132384 0.61300004
0.074143812 0.060132384 0.61300004
0.07531143 0.060132384 0.61300004
0.076479055 0.060132384 0.61300004
0.077646673 0.060132384 0.61300004
0.07881429 0.060132384 0.61300004
0.079981908 0.060132384 0.61300004
0.081149526 0.060132384 0.61300004
0.082317151 0.060132384 0.61300004
0.083484769 0.060132384 0.61300004
0.084652387 0.060132384 0.61300004
0.085820004 0.060132384 0.61300004
0.086987622 0.060132384 0.61300004
0.088299051 0.060230479 0.61400002
0.089468576 0.060230479 0.61400002
0.090785719 0.060328577 0.61500001
0.092256196 0.060524765 0.61700004
0.093582861 0.06062286 0.61800003
0.094760008 0.06062286 0.61800003
0.095937148 0.06062286 0.61800003
0.097271435 0.060720958 0.61900002
0.098609529 0.060819052 0.62
0.099790484 0.060819052 0.62
0.10129715 0.061015241 0.62200004
0.10248191 0.061015241 0.62200004
0.10400001 0.061211433 0.62400001
0.10535715 0.061309528 0.625
0.10637715 0.061211433 0.62400001
0.10791048 0.061407622 0.62600005
0.10910287 0.061407622 0.62600005
0.16242859 0.074356198 0.75800002
0.16387239 0.074356198 0.75800002
0.16488001 0.074160002 0.75600004
0.16610001 0.074061908 0.75500005
0.16709429 0.073865719 0.75300002
0.16830477 0.073767625 0.75200003
0.17583144 0.076416194 0.77900004
0.17686 0.076220006 0.77700001
0.17834002 0.076220006 0.77700001
-0.0030238098 0.063500002 0.63500005
-0.0018142859 0.063500002 0.63500005
-0.00060476194 0.063500002 0.63500005
0.00060380955 0.063400008 0.634
0.0018114287 0.063400008 0.634
0.0030190479 0.063400008 0.634
0.0042266669 0.063400008 0.634
0.0054342858 0.063400008 0.634
0.0066419053 0.063400008 0.634
0.0078495247 0.063400008 0.634
0.0090571437 0.063400008 0.634
0.010264763 0.063400008 0.634
0.011490477 0.063500002 0.63500005
0.012700001 0.063500002 0.63500005
0.013909524 0.063500002 0.63500005
0.015142858 0.063600004 0.63600004
0.016354287 0.063600004 0.63600004
0.017620953 0.063800007 0.63800001
0.018836191 0.063800007 0.63800001
0.020051429 0.063800007 0.63800001
0.021266667 0.063800007 0.63800001
0.022481907 0.063800007 0.63800001
0.023697145 0.063800007 0.63800001
0.024912383 0.063800007 0.63800001
0.026127622 0.063800007 0.63800001
0.02734286 0.063800007 0.63800001
0.028558098 0.063800007 0.63800001
0.029773336 0.063800007 0.63800001
0.030988574 0.063800007 0.63800001
0.032203812 0.063800007 0.63800001
0.03341905 0.063800007 0.63800001
0.034634288 0.063800007 0.63800001
0.035737146 0.063600004 0.63600004
0.036948573 0.063600004 0.63600004
0.038040001 0.063400008 0.634
0.039185718 0.063300006 0.63300002
0.04039143 0.063300006 0.63300002
0.041662861 0.063400008 0.634
0.042802859 0.063300006 0.63300002
0.044078097 0.063400008 0.634
0.045285717 0.063400008 0.634
0.046420004 0.063300006 0.63300002
0.047625717 0.063300006 0.63300002
0.04875429 0.063200004 0.63200003
0.049879052 0.063100003 0.63100004
0.050919052 0.062900007 0.62900001
0.052117147 0.062900007 0.62900001
0.053230479 0.062800005 0.62800002
0.054340005 0.062700003 0.62700003
0.05544572 0.062600002 0.62600005
0.056547623 0.062500007 0.625
0.057645719 0.062400006 0.62400001
0.058268577 0.061800003 0.61800003
0.059349529 0.061700005 0.61700004
0.060524765 0.061700005 0.61700004
0.061500005 0.061500005 0.61500001
0.06267143 0.061500005 0.61500001
0.063842863 0.061500005 0.61500001
0.065014288 0.061500005 0.61500001
0.066293336 0.061600003 0.61600006
0.067247622 0.061400004 0.61400002
0.068528578 0.061500005 0.61500001
0.069473341 0.061300006 0.61300004
0.070525721 0.061200004 0.61200005
0.071691431 0.061200004 0.61200005
0.072857149 0.061200004 0.61200005
0.074022859 0.061200004 0.61200005
0.075188577 0.061200004 0.61200005
0.076354288 0.061200004 0.61200005
0.077520005 0.061200004 0.61200005
0.078685716 0.061200004 0.61200005
0.079851434 0.061200004 0.61200005
0.081017151 0.061200004 0.61200005
0.082182862 0.061200004 0.61200005
0.08334858 0.061200004 0.61200005
0.08451429 0.061200004 0.61200005
0.085680008 0.061200004 0.61200005
0.086845718 0.061200004 0.61200005
0.088011436 0.061200004 0.61200005
0.089322865 0.061300006 0.61300004
0.090490483 0.061300006 0.61300004
0.091807626 0.061400004 0.61400002
0.093280002 0.061600003 0.61600006
0.094453342 0.061600003 0.61600006
0.095781907 0.061700005 0.61700004
0.096957147 0.061700005 0.61700004
0.098291434 0.061800003 0.61800003
0.099629529 0.061900005 0.61900002
0.10080858 0.061900005 0.61900002
0.10215238 0.062000003 0.62
0.10366667 0.062200002 0.62200004
0.10518858 0.062400006 0.62400001
0.10637715 0.062400006 0.62400001
0.1077381 0.062500007 0.625
0.10910287 0.062600002 0.62600005
0.16488001 0.075600006 0.75600004
0.16610001 0.075500004 0.75500005
0.16753811 0.075500004 0.75500005
0.16830477 0.075200006 0.75200003
0.17686 0.077700004 0.77700001
0.17834002 0.077700004 0.77700001
0.17935716 0.077500008 0.77500004
-0.0030238098 0.064709529 0.63500005
-0.0018114287 0.06460762 0.634
-0.00060380955 0.06460762 0.634
0.00060380955 0.06460762 0.634
0.0018114287 0.06460762 0.634
0.0030190479 0.06460762 0.634
0.0042266669 0.06460762 0.634
0.0054342858 0.06460762 0.634
0.0066419053 0.06460762 0.634
0.0078495247 0.06460762 0.634
0.0090571437 0.06460762 0.634
0.010264763 0.06460762 0.634
0.011472382 0.06460762 0.634
0.012680001 0.06460762 0.634
0.013909524 0.064709529 0.63500005
0.015119049 0.064709529 0.63500005
0.016354287 0.064811431 0.63600004
0.017565716 0.064811431 0.63600004
0.018836191 0.065015242 0.63800001
0.020051429 0.065015242 0.63800001
0.021266667 0.065015242 0.63800001
0.022481907 0.065015242 0.63800001
0.023697145 0.065015242 0.63800001
0.024912383 0.065015242 0.63800001
0.026045715 0.064811431 0.63600004
0.02734286 0.065015242 0.63800001
0.028468573 0.064811431 0.63600004
0.029773336 0.065015242 0.63800001
0.030988574 0.065015242 0.63800001
0.032203812 0.065015242 0.63800001
0.03341905 0.065015242 0.63800001
0.034525715 0.064811431 0.63600004
0.035737146 0.064811431 0.63600004
0.036890477 0.064709529 0.63500005
0.038040001 0.06460762 0.634
0.039247621 0.06460762 0.634
0.040455241 0.06460762 0.634
0.041662861 0.06460762 0.634
0.042802859 0.064505719 0.63300002
0.044078097 0.06460762 0.634
0.045214288 0.064505719 0.63300002
0.046420004 0.064505719 0.63300002
0.047550481 0.064403817 0.63200003
0.04875429 0.064403817 0.63200003
0.049879052 0.064301908 0.63100004
0.050919052 0.064098097 0.62900001
0.052034289 0.063996196 0.62800002
0.053145718 0.063894287 0.62700003
0.054253336 0.063792385 0.62600005
0.055268575 0.063588575 0.62400001
0.05591429 0.06297715 0.61800003
0.05699905 0.062875241 0.61700004
0.05817429 0.062875241 0.61700004
0.059349529 0.062875241 0.61700004
0.060426671 0.062773339 0.61600006
0.061500005 0.06267143 0.61500001
0.06267143 0.06267143 0.61500001
0.063842863 0.06267143 0.61500001
0.064908579 0.062569529 0.61400002
0.06597048 0.062467624 0.61300004
0.067138098 0.062467624 0.61300004
0.068305716 0.062467624 0.61300004
0.069360003 0.062365718 0.61200005
0.070525721 0.062365718 0.61200005
0.071574293 0.062263813 0.611
0.072738104 0.062263813 0.611
0.073901907 0.062263813 0.611
0.075065717 0.062263813 0.611
0.076229528 0.062263813 0.611
0.077520005 0.062365718 0.61200005
0.078685716 0.062365718 0.61200005
0.079851434 0.062365718 0.61200005
0.081017151 0.062365718 0.61200005
0.082182862 0.062365718 0.61200005
0.08334858 0.062365718 0.61200005
0.08451429 0.062365718 0.61200005
0.085680008 0.062365718 0.61200005
0.086845718 0.062365718 0.61200005
0.088011436 0.062365718 0.61200005
0.089177147 0.062365718 0.61200005
0.090342864 0.062365718 0.61200005
0.0916581 0.062467624 0.61300004
0.093128577 0.06267143 0.61500001
0.094300009 0.06267143 0.61500001
0.095626675 0.062773339 0.61600006
0.096800007 0.062773339 0.61600006
0.098132387 0.062875241 0.61700004
0.099468581 0.06297715 0.61800003
0.10080858 0.063079052 0.61900002
0.10198762 0.063079052 0.61900002
0.10333334 0.063180953 0.62
0.10485143 0.063384764 0.62200004
0.10637715 0.063588575 0.62400001
0.1077381 0.063690484 0.625
0.10910287 0.063792385 0.62600005
0.11011905 0.063690484 0.625
0.16785716 0.076428577 0.75000006
0.1482943 0.066951431 0.65700001
0.14954573 0.066951431 0.65700001
-0.0042266669 0.06581524 0.634
-0.0030190479 0.06581524 0.634
-0.0018114287 0.06581524 0.634
-0.00060380955 0.06581524 0.634
0.00060380955 0.06581524 0.634
0.0018114287 0.06581524 0.634
0.0030190479 0.06581524 0.634
0.0042266669 0.06581524 0.634
0.0054342858 0.06581524 0.634
0.0066419053 0.06581524 0.634
0.0078495247 0.06581524 0.634
0.0090571437 0.06581524 0.634
0.010264763 0.06581524 0.634
0.011472382 0.06581524 0.634
0.012680001 0.06581524 0.634
0.01388762 0.06581524 0.634
0.015119049 0.065919049 0.63500005
0.016328573 0.065919049 0.63500005
0.017565716 0.066022858 0.63600004
0.018777143 0.066022858 0.63600004
0.020051429 0.066230483 0.63800001
0.021266667 0.066230483 0.63800001
0.022481907 0.066230483 0.63800001
0.023622859 0.066022858 0.63600004
0.024834286 0.066022858 0.63600004
0.026045715 0.066022858 0.63600004
0.027257144 0.066022858 0.63600004
0.028468573 0.066022858 0.63600004
0.029680002 0.066022858 0.63600004
0.030988574 0.066230483 0.63800001
0.032102861 0.066022858 0.63600004
0.033314288 0.066022858 0.63600004
0.034525715 0.066022858 0.63600004
0.035849527 0.066230483 0.63800001
0.037064765 0.066230483 0.63800001
0.038040001 0.06581524 0.634
0.039247621 0.06581524 0.634
0.040455241 0.06581524 0.634
0.041662861 0.06581524 0.634
0.042870481 0.06581524 0.634
0.044078097 0.06581524 0.634
0.045214288 0.065711431 0.63300002
0.046420004 0.065711431 0.63300002
0.047550481 0.065607622 0.63200003
0.048677146 0.065503813 0.63100004
0.049720954 0.065296195 0.62900001
0.050838098 0.065192387 0.62800002
0.051868577 0.064984769 0.62600005
0.052976195 0.06488096 0.625
0.053993337 0.064673334 0.62300003
0.055091433 0.064569525 0.62200004
0.055823814 0.064050481 0.61700004
0.05690667 0.063946672 0.61600006
0.058080003 0.063946672 0.61600006
0.059253339 0.063946672 0.61600006
0.060426671 0.063946672 0.61600006
0.061500005 0.063842863 0.61500001
0.06267143 0.063842863 0.61500001
0.063739054 0.063739054 0.61400002
0.064802863 0.063635245 0.61300004
0.065862864 0.063531436 0.61200005
0.067028575 0.063531436 0.61200005
0.068194292 0.063531436 0.61200005
0.069246672 0.06342762 0.611
0.070410483 0.06342762 0.611
0.071574293 0.06342762 0.611
0.072738104 0.06342762 0.611
0.073901907 0.06342762 0.611
0.075065717 0.06342762 0.611
0.076229528 0.06342762 0.611
0.077393338 0.06342762 0.611
0.078557149 0.06342762 0.611
0.079720959 0.06342762 0.611
0.08088477 0.06342762 0.611
0.08204858 0.06342762 0.611
0.083212383 0.06342762 0.611
0.084376194 0.06342762 0.611
0.085540004 0.06342762 0.611
0.086703815 0.06342762 0.611
0.088011436 0.063531436 0.61200005
0.089177147 0.063531436 0.61200005
0.090342864 0.063531436 0.61200005
0.091508575 0.063531436 0.61200005
0.092977151 0.063739054 0.61400002
0.094300009 0.063842863 0.61500001
0.095626675 0.063946672 0.61600006
