# .PCD v0.7 - Point Cloud Data file format
VERSION 0.7
FIELDS x y z
SIZE 4 4 4
TYPE F F F
COUNT 1 1 1
WIDTH 1342
HEIGHT 1
VIEWPOINT 0 0 0 1 0 0 0
POINTS 1342
DATA ascii
0.0047533335 0.074016199 0.71300006
0.0061371434 0.074327625 0.71600002
0.0075323815 0.074639052 0.71900004
0.0089019053 0.074639052 0.71900004
0.010271429 0.074639052 0.71900004
0.011657144 0.074742861 0.72000003
-0.18936001 0.079920009 0.75600004
-0.18841715 0.080131434 0.75800002
-0.18697335 0.080131434 0.75800002
-0.18552953 0.080131434 0.75800002
-0.12263144 0.07960286 0.75300002
-0.1210362 0.079497151 0.75200003
-0.11960382 0.079497151 0.75200003
-0.11817144 0.079497151 0.75200003
-0.11673906 0.079497151 0.75200003
-0.11500001 0.079285719 0.75000006
-0.11357144 0.079285719 0.75000006
-0.066312388 0.071462862 0.67600006
-0.064928576 0.071357146 0.67500001
-0.063548572 0.07125143 0.67400002
-0.062264767 0.07125143 0.67400002
-0.060800005 0.071040004 0.67200005
-0.059520002 0.071040004 0.67200005
-0.058153339 0.070934288 0.671
-0.056790479 0.070828579 0.67000002
-0.054271434 0.069242865 0.65500003
-0.053023811 0.069242865 0.65500003
-0.051776193 0.069242865 0.65500003
-0.050528575 0.069242865 0.65500003
-0.049356192 0.069348574 0.65600002
-0.04810667 0.069348574 0.65600002
-0.046928573 0.06945429 0.65700001
-0.045677144 0.06945429 0.65700001
-0.044425718 0.06945429 0.65700001
-0.043108575 0.069348574 0.65600002
-0.041859049 0.069348574 0.65600002
-0.040609527 0.069348574 0.65600002
-0.039420001 0.06945429 0.65700001
-0.038168576 0.06945429 0.65700001
-0.036917146 0.06945429 0.65700001
-0.035665717 0.06945429 0.65700001
-0.034466669 0.069560006 0.65800005
-0.033314288 0.069771431 0.66000003
-0.032057144 0.069771431 0.66000003
-0.030846668 0.069877148 0.66100001
-0.029632382 0.069982864 0.66200006
-0.028414287 0.070088573 0.66300005
-0.027233334 0.070300005 0.66500002
-0.026005715 0.070405722 0.66600001
-0.024922859 0.070934288 0.671
-0.023750478 0.07125143 0.67400002
-0.022500001 0.071357146 0.67500001
-0.021245716 0.071462862 0.67600006
-0.020017143 0.071674287 0.67800003
-0.018753335 0.071780004 0.67900002
-0.017485715 0.07188572 0.68000001
-0.016190477 0.07188572 0.68000001
-0.014895239 0.07188572 0.68000001
-0.01364 0.072097145 0.68200004
-0.012359048 0.072202861 0.68300003
-0.011074287 0.072308578 0.68400002
-0.009800001 0.072520003 0.68600005
-0.0084933341 0.072520003 0.68600005
-0.0072180959 0.072837144 0.68900001
-0.0059571434 0.073471434 0.69500005
-0.004666667 0.074000008 0.70000005
-0.0033380955 0.074105717 0.70100003
-0.0020028572 0.074105717 0.70100003
-0.00067047623 0.074422859 0.70400006
0.00067142863 0.074528575 0.70500004
0.0020314287 0.075162865 0.71100003
0.0033952384 0.07537429 0.71300006
0.0047600004 0.075480007 0.71400005
0.0061371434 0.075691432 0.71600002
0.0075323815 0.076008573 0.71900004
0.0089019053 0.076008573 0.71900004
0.010271429 0.076008573 0.71900004
-0.18910953 0.081252389 0.75500005
-0.18767144 0.081252389 0.75500005
-0.18623334 0.081252389 0.75500005
-0.12263144 0.081037149 0.75300002
-0.12119715 0.081037149 0.75300002
-0.11960382 0.080929533 0.75200003
-0.11817144 0.080929533 0.75200003
-0.11673906 0.080929533 0.75200003
-0.11530668 0.080929533 0.75200003
-0.11387429 0.080929533 0.75200003
-0.11244191 0.080929533 0.75200003
-0.066214293 0.072642863 0.67500001
-0.064928576 0.072642863 0.67500001
-0.063548572 0.072535239 0.67400002
-0.062264767 0.072535239 0.67400002
-0.060980957 0.072535239 0.67400002
-0.059520002 0.072320007 0.67200005
-0.056160003 0.069737144 0.648
-0.055264767 0.070167623 0.65200001
-0.05402286 0.070167623 0.65200001
-0.052861907 0.07027524 0.65300006
-0.051618099 0.07027524 0.65300006
-0.050528575 0.070490479 0.65500003
-0.049280956 0.070490479 0.65500003
-0.04810667 0.070598103 0.65600002
-0.046857145 0.070598103 0.65600002
-0.045677144 0.070705719 0.65700001
-0.044358097 0.070598103 0.65600002
-0.043108575 0.070598103 0.65600002
-0.041859049 0.070598103 0.65600002
-0.040609527 0.070598103 0.65600002
-0.039360002 0.070598103 0.65600002
-0.03811048 0.070598103 0.65600002
-0.036917146 0.070705719 0.65700001
-0.035720002 0.070813335 0.65800005
-0.034571432 0.071028575 0.66000003
-0.033314288 0.071028575 0.66000003
-0.032105718 0.071136191 0.66100001
-0.030846668 0.071136191 0.66100001
-0.029632382 0.071243815 0.66200006
-0.028414287 0.071351431 0.66300005
-0.027233334 0.071566671 0.66500002
-0.026005715 0.071674287 0.66600001
-0.024922859 0.072212383 0.671
-0.023750478 0.072535239 0.67400002
-0.022500001 0.072642863 0.67500001
-0.021245716 0.072750479 0.67600006
-0.020017143 0.072965719 0.67800003
-0.018753335 0.073073335 0.67900002
-0.017485715 0.073180959 0.68000001
-0.016166668 0.073073335 0.67900002
-0.014960953 0.073503815 0.68300003
-0.013680001 0.073611431 0.68400002
-0.012377144 0.073611431 0.68400002
-0.011106667 0.073826671 0.68600005
-0.009800001 0.073826671 0.68600005
-0.0084933341 0.073826671 0.68600005
-0.0072285719 0.07425715 0.69000006
-0.0059228577 0.074364766 0.69100004
-0.0046466668 0.075010478 0.69700003
-0.0033476192 0.075656198 0.70300001
-0.0020028572 0.075440958 0.70100003
-0.00067142863 0.07587143 0.70500004
0.00067333336 0.07608667 0.70700002
0.0020314287 0.07651715 0.71100003
0.0033952384 0.07673239 0.71300006
0.0047600004 0.076840006 0.71400005
0.0061371434 0.077055246 0.71600002
0.0075323815 0.077378102 0.71900004
0.0089019053 0.077378102 0.71900004
0.010271429 0.077378102 0.71900004
-0.18995143 0.081814289 0.74700004
-0.18979049 0.082361907 0.75200003
-0.18835811 0.082361907 0.75200003
-0.18717431 0.08247143 0.75300002
-0.12263144 0.08247143 0.75300002
-0.1210362 0.082361907 0.75200003
-0.11960382 0.082361907 0.75200003
-0.11817144 0.082361907 0.75200003
-0.11689429 0.08247143 0.75300002
-0.11530668 0.082361907 0.75200003
-0.11402572 0.08247143 0.75300002
-0.11259144 0.08247143 0.75300002
-0.060814291 0.070642859 0.64500004
-0.0596781 0.070752382 0.64600003
-0.058447622 0.070752382 0.64600003
-0.05730572 0.070861906 0.64700001
-0.056160003 0.070971437 0.648
-0.055180002 0.071300007 0.65100002
-0.053940002 0.071300007 0.65100002
-0.052780956 0.071409531 0.65200001
-0.051618099 0.071519054 0.65300006
-0.050374288 0.071519054 0.65300006
-0.049280956 0.071738102 0.65500003
-0.048033338 0.071738102 0.65500003
-0.046928573 0.071957149 0.65700001
-0.045746669 0.072066672 0.65800005
-0.044493336 0.072066672 0.65800005
-0.043174289 0.071957149 0.65700001
-0.04192286 0.071957149 0.65700001
-0.040671431 0.071957149 0.65700001
-0.039480001 0.072066672 0.65800005
-0.038226668 0.072066672 0.65800005
-0.036973335 0.072066672 0.65800005
-0.035720002 0.072066672 0.65800005
-0.034571432 0.072285719 0.66000003
-0.033364765 0.072395243 0.66100001
-0.032105718 0.072395243 0.66100001
-0.030893335 0.072504766 0.66200006
-0.029632382 0.072504766 0.66200006
-0.028414287 0.07261429 0.66300005
-0.026122859 0.073271431 0.66900003
-0.024922859 0.073490478 0.671
-0.023750478 0.073819056 0.67400002
-0.022500001 0.07392858 0.67500001
-0.021245716 0.074038103 0.67600006
-0.020046668 0.074366674 0.67900002
-0.018780954 0.074476197 0.68000001
-0.017537143 0.074695244 0.68200004
-0.016238097 0.074695244 0.68200004
-0.014960953 0.074804768 0.68300003
-0.013680001 0.074914292 0.68400002
-0.012413334 0.075133339 0.68600005
-0.011122858 0.075242862 0.68700004
-0.0098142866 0.075242862 0.68700004
-0.0085304771 0.075461909 0.68900001
-0.0072390479 0.075680956 0.69100004
-0.0059400005 0.075900003 0.69300002
-0.004666667 0.076666668 0.70000005
-0.0033476192 0.076995246 0.70300001
-0.0020114286 0.07710477 0.70400006
-0.00067619054 0.077761911 0.71000004
0.00067714287 0.077871434 0.71100003
0.0020371431 0.078090481 0.71300006
0.0034000003 0.078200005 0.71400005
0.0047733337 0.078419052 0.71600002
0.0061457148 0.078528576 0.71700001
0.0075323815 0.078747623 0.71900004
0.0089019053 0.078747623 0.71900004
0.010271429 0.078747623 0.71900004
-0.18995143 0.083237149 0.74700004
-0.18852858 0.083237149 0.74700004
-0.18710573 0.083237149 0.74700004
-0.18518573 0.083014295 0.74500006
-0.062042862 0.07187143 0.64500004
-0.060814291 0.07187143 0.64500004
-0.0596781 0.071982861 0.64600003
-0.058447622 0.071982861 0.64600003
-0.057394288 0.072205722 0.648
-0.056333337 0.072428577 0.65000004
-0.055180002 0.072540008 0.65100002
-0.053940002 0.072540008 0.65100002
-0.052780956 0.072651431 0.65200001
-0.051539052 0.072651431 0.65200001
-0.050374288 0.072762862 0.65300006
-0.049130481 0.072762862 0.65300006
-0.048033338 0.072985716 0.65500003
-0.046857145 0.073097147 0.65600002
-0.045677144 0.073208578 0.65700001
-0.044493336 0.073320001 0.65800005
-0.043240003 0.073320001 0.65800005
-0.04198667 0.073320001 0.65800005
-0.040671431 0.073208578 0.65700001
-0.039480001 0.073320001 0.65800005
-0.038226668 0.073320001 0.65800005
-0.036973335 0.073320001 0.65800005
-0.035828575 0.073542863 0.66000003
-0.034571432 0.073542863 0.66000003
-0.033364765 0.073654294 0.66100001
-0.032105718 0.073654294 0.66100001
-0.030893335 0.073765717 0.66200006
-0.029677145 0.073877148 0.66300005
-0.028414287 0.073877148 0.66300005
-0.026122859 0.074545719 0.66900003
-0.024922859 0.074768573 0.671
-0.023750478 0.075102866 0.67400002
-0.022533335 0.07532572 0.67600006
-0.021308573 0.075548574 0.67800003
-0.020046668 0.075660005 0.67900002
-0.018780954 0.075771436 0.68000001
-0.017537143 0.07599429 0.68200004
-0.016238097 0.07599429 0.68200004
-0.014960953 0.076105721 0.68300003
-0.013680001 0.076217145 0.68400002
-0.012377144 0.076217145 0.68400002
-0.011122858 0.07655143 0.68700004
-0.0098428577 0.076774292 0.68900001
-0.0085428581 0.076885723 0.69000006
-0.0072600003 0.077220008 0.69300002
-0.0059571434 0.077442862 0.69500005
-0.0046533337 0.077777147 0.69800001
-0.0033523813 0.078445718 0.70400006
-0.0020200002 0.078780003 0.70700002
-0.00067428575 0.078891434 0.708
0.00067714287 0.079225719 0.71100003
0.0020400002 0.079560004 0.71400005
0.0034000003 0.079560004 0.71400005
0.0047733337 0.079782866 0.71600002
0.0061457148 0.079894289 0.71700001
0.0075323815 0.080117151 0.71900004
0.0089019053 0.080117151 0.71900004
0.010285715 0.080228575 0.72000003
-0.18944287 0.08443334 0.74500006
-0.18802382 0.08443334 0.74500006
-0.18710573 0.084660009 0.74700004
-0.18568286 0.084660009 0.74700004
-0.063271433 0.073100008 0.64500004
-0.062139053 0.073213339 0.64600003
-0.060908575 0.073213339 0.64600003
-0.0596781 0.073213339 0.64600003
-0.058447622 0.073213339 0.64600003
-0.057394288 0.073440008 0.648
-0.056333337 0.073666669 0.65000004
-0.055180002 0.073780008 0.65100002
-0.053940002 0.073780008 0.65100002
-0.052780956 0.073893338 0.65200001
-0.051539052 0.073893338 0.65200001
-0.050374288 0.074006669 0.65300006
-0.049130481 0.074006669 0.65300006
-0.048033338 0.074233338 0.65500003
-0.046857145 0.074346669 0.65600002
-0.045746669 0.074573338 0.65800005
-0.044628575 0.074800007 0.66000003
-0.043240003 0.074573338 0.65800005
-0.04198667 0.074573338 0.65800005
-0.040733337 0.074573338 0.65800005
-0.039480001 0.074573338 0.65800005
-0.038226668 0.074573338 0.65800005
-0.036973335 0.074573338 0.65800005
-0.035828575 0.074800007 0.66000003
-0.034623813 0.074913338 0.66100001
-0.033364765 0.074913338 0.66100001
-0.032154288 0.075026669 0.66200006
-0.030940002 0.075140007 0.66300005
-0.029677145 0.075140007 0.66300005
-0.028500002 0.075366668 0.66500002
-0.027274288 0.075480007 0.66600001
-0.026122859 0.075820006 0.66900003
-0.024922859 0.076046668 0.671
-0.023750478 0.076386675 0.67400002
-0.022533335 0.076613337 0.67600006
-0.021308573 0.076840006 0.67800003
-0.020076191 0.077066675 0.68000001
-0.018780954 0.077066675 0.68000001
-0.017562859 0.077406675 0.68300003
-0.016261905 0.077406675 0.68300003
-0.014982858 0.077520005 0.68400002
-0.013720001 0.077746674 0.68600005
-0.01243143 0.077860005 0.68700004
-0.011155238 0.078086674 0.68900001
-0.0098571433 0.078200005 0.69000006
-0.0085552391 0.078313336 0.69100004
-0.0072809528 0.078766674 0.69500005
-0.0059742862 0.078993335 0.69700003
-0.004666667 0.079333335 0.70000005
-0.0033476192 0.079673335 0.70300001
-0.0020200002 0.080126673 0.70700002
-0.00067619054 0.080466673 0.71000004
0.00067714287 0.080580004 0.71100003
0.0020400002 0.080920003 0.71400005
0.0034000003 0.080920003 0.71400005
0.0047733337 0.081146672 0.71600002
0.0061457148 0.081260003 0.71700001
0.007511429 0.081260003 0.71700001
0.0089019053 0.081486672 0.71900004
0.010285715 0.081600003 0.72000003
-0.1889343 0.085621908 0.74300003
-0.18802382 0.085852385 0.74500006
-0.18660477 0.085852385 0.74500006
-0.18518573 0.085852385 0.74500006
-0.064400002 0.074213341 0.64400005
-0.063271433 0.074328579 0.64500004
-0.062139053 0.074443817 0.64600003
-0.060908575 0.074443817 0.64600003
-0.05977048 0.074559055 0.64700001
-0.058538098 0.074559055 0.64700001
-0.057394288 0.074674293 0.648
-0.056160003 0.074674293 0.648
-0.05509524 0.07490477 0.65000004
-0.053940002 0.075020008 0.65100002
-0.052780956 0.075135246 0.65200001
-0.051618099 0.075250484 0.65300006
-0.050374288 0.075250484 0.65300006
-0.049280956 0.07548096 0.65500003
-0.048033338 0.07548096 0.65500003
-0.046857145 0.075596198 0.65600002
-0.045885716 0.076057151 0.66000003
-0.044696193 0.076172389 0.66100001
-0.043240003 0.075826675 0.65800005
-0.04198667 0.075826675 0.65800005
-0.040733337 0.075826675 0.65800005
-0.039480001 0.075826675 0.65800005
-0.038226668 0.075826675 0.65800005
-0.036973335 0.075826675 0.65800005
-0.035828575 0.076057151 0.66000003
-0.034623813 0.076172389 0.66100001
-0.033364765 0.076172389 0.66100001
-0.032154288 0.076287627 0.66200006
-0.030940002 0.076402865 0.66300005
-0.029766669 0.076633342 0.66500002
-0.028500002 0.076633342 0.66500002
-0.027274288 0.07674858 0.66600001
-0.026161907 0.077209532 0.67000002
-0.024960002 0.077440009 0.67200005
-0.023785716 0.077785723 0.67500001
-0.022600001 0.078131437 0.67800003
-0.021340001 0.078246675 0.67900002
-0.020076191 0.078361914 0.68000001
-0.018836191 0.07859239 0.68200004
-0.017588573 0.078822859 0.68400002
-0.016285716 0.078822859 0.68400002
-0.015026668 0.079053335 0.68600005
-0.013720001 0.079053335 0.68600005
-0.01243143 0.079168573 0.68700004
-0.011155238 0.079399049 0.68900001
-0.0098571433 0.079514287 0.69000006
-0.0085800001 0.079860002 0.69300002
-0.0072809528 0.080090478 0.69500005
-0.0059828577 0.080436192 0.69800001
-0.004666667 0.080666669 0.70000005
-0.0033476192 0.081012383 0.70300001
-0.0020200002 0.081473336 0.70700002
-0.00067619054 0.08181905 0.71000004
0.00067904766 0.082164764 0.71300006
0.0020400002 0.082280003 0.71400005
0.003409524 0.082510479 0.71600002
0.0047733337 0.082510479 0.71600002
0.0061457148 0.082625717 0.71700001
0.007511429 0.082625717 0.71700001
0.0088771433 0.082625717 0.71700001
-0.18802382 0.087271437 0.74500006
-0.18660477 0.087271437 0.74500006
-0.18376668 0.087271437 0.74500006
-0.070095241 0.07497143 0.64000005
-0.068876192 0.07497143 0.64000005
-0.06765715 0.07497143 0.64000005
-0.066438101 0.07497143 0.64000005
-0.065320954 0.075088575 0.64100003
-0.064200006 0.075205721 0.64200002
-0.063271433 0.07555715 0.64500004
-0.062139053 0.075674288 0.64600003
-0.060908575 0.075674288 0.64600003
-0.05977048 0.075791433 0.64700001
-0.058538098 0.075791433 0.64700001
-0.057394288 0.075908579 0.648
-0.056160003 0.075908579 0.648
-0.05509524 0.076142862 0.65000004
-0.053857148 0.076142862 0.65000004
-0.052780956 0.076377146 0.65200001
-0.051539052 0.076377146 0.65200001
-0.050374288 0.076494291 0.65300006
-0.049280956 0.076728575 0.65500003
-0.048033338 0.076728575 0.65500003
-0.046857145 0.07684572 0.65600002
-0.046372384 0.078134291 0.66700006
-0.044966668 0.077900007 0.66500002
-0.04350286 0.077548578 0.66200006
-0.042114288 0.077314287 0.66000003
-0.040733337 0.077080004 0.65800005
-0.039480001 0.077080004 0.65800005
-0.03834286 0.077314287 0.66000003
-0.037085716 0.077314287 0.66000003
-0.035828575 0.077314287 0.66000003
-0.034623813 0.077431433 0.66100001
-0.033415239 0.077548578 0.66200006
-0.032202858 0.077665716 0.66300005
-0.031033335 0.077900007 0.66500002
-0.029766669 0.077900007 0.66500002
-0.028542859 0.078017145 0.66600001
-0.02731524 0.078134291 0.66700006
-0.026161907 0.07848572 0.67000002
-0.025034288 0.078954294 0.67400002
-0.023785716 0.079071432 0.67500001
-0.022600001 0.079422861 0.67800003
-0.021340001 0.079540007 0.67900002
-0.020076191 0.079657145 0.68000001
-0.018836191 0.079891436 0.68200004
-0.017588573 0.080125719 0.68400002
-0.016333334 0.080360003 0.68600005
-0.015026668 0.080360003 0.68600005
-0.013740001 0.080477148 0.68700004
-0.01246762 0.080711432 0.68900001
-0.011171429 0.080828577 0.69000006
-0.0099000009 0.081180006 0.69300002
-0.0086047621 0.08141429 0.69500005
-0.0073019052 0.081648573 0.69700003
-0.0059828577 0.081765719 0.69800001
-0.004666667 0.082000002 0.70000005
-0.0033523813 0.082468577 0.70400006
-0.0020200002 0.082820006 0.70700002
-0.00067428575 0.082937151 0.708
0.00067904766 0.083522864 0.71300006
0.0020400002 0.083640009 0.71400005
0.0034000003 0.083640009 0.71400005
0.0047733337 0.083874293 0.71600002
0.0061371434 0.083874293 0.71600002
0.007511429 0.083991431 0.71700001
-0.073752388 0.076190479 0.64000005
-0.07264667 0.076309532 0.64100003
-0.07131429 0.076190479 0.64000005
-0.070095241 0.076190479 0.64000005
-0.068876192 0.076190479 0.64000005
-0.06765715 0.076190479 0.64000005
-0.06654191 0.076309532 0.64100003
-0.065422863 0.076428577 0.64200002
-0.064400002 0.076666668 0.64400005
-0.063271433 0.076785721 0.64500004
-0.062235244 0.077023812 0.64700001
-0.061002862 0.077023812 0.64700001
-0.05977048 0.077023812 0.64700001
-0.058628574 0.077142864 0.648
-0.057394288 0.077142864 0.648
-0.056160003 0.077142864 0.648
-0.054925717 0.077142864 0.648
-0.053857148 0.077380955 0.65000004
-0.052700002 0.077500008 0.65100002
-0.052071434 0.080357149 0.67500001
-0.050785717 0.080357149 0.67500001
-0.049426671 0.080238104 0.67400002
-0.048000004 0.080000006 0.67200005
-0.046580955 0.079761907 0.67000002
-0.045237146 0.079642862 0.66900003
-0.04383143 0.079404764 0.66700006
-0.042114288 0.078571431 0.66000003
-0.040857144 0.078571431 0.66000003
-0.039600004 0.078571431 0.66000003
-0.03834286 0.078571431 0.66000003
-0.037085716 0.078571431 0.66000003
-0.03588286 0.078690484 0.66100001
-0.034676194 0.07880953 0.66200006
-0.033415239 0.07880953 0.66200006
-0.032202858 0.078928575 0.66300005
-0.031033335 0.079166673 0.66500002
-0.029766669 0.079166673 0.66500002
-0.028585717 0.079404764 0.66700006
-0.02731524 0.079404764 0.66700006
-0.026161907 0.079761907 0.67000002
-0.024960002 0.080000006 0.67200005
-0.023785716 0.080357149 0.67500001
-0.022600001 0.080714293 0.67800003
-0.021308573 0.080714293 0.67800003
-0.020076191 0.080952384 0.68000001
-0.018836191 0.081190482 0.68200004
-0.017640002 0.081666671 0.68600005
-0.016357144 0.081785716 0.68700004
-0.015026668 0.081666671 0.68600005
-0.013780001 0.082023814 0.68900001
-0.012485716 0.08214286 0.69000006
-0.01118762 0.082261913 0.69100004
-0.0099142864 0.082619056 0.69400001
-0.0086047621 0.082738101 0.69500005
-0.0073123816 0.083095245 0.69800001
-0.0060000005 0.083333336 0.70000005
-0.0046733338 0.083452389 0.70100003
-0.0033523813 0.083809532 0.70400006
-0.0020142859 0.083928578 0.70500004
-0.00067428575 0.084285721 0.708
0.00067714287 0.084642865 0.71100003
0.0020400002 0.085000008 0.71400005
0.0034000003 0.085000008 0.71400005
0.0047733337 0.085238099 0.71600002
0.0061371434 0.085238099 0.71600002
-0.07497143 0.077409528 0.64000005
-0.073752388 0.077409528 0.64000005
-0.07264667 0.077530481 0.64100003
-0.071425721 0.077530481 0.64100003
-0.070095241 0.077409528 0.64000005
-0.068876192 0.077409528 0.64000005
-0.06765715 0.077409528 0.64000005
-0.06654191 0.077530481 0.64100003
-0.065422863 0.077651434 0.64200002
-0.064400002 0.077893339 0.64400005
-0.063369527 0.078135245 0.64600003
-0.062235244 0.078256197 0.64700001
-0.061002862 0.078256197 0.64700001
-0.05977048 0.078256197 0.64700001
-0.058628574 0.07837715 0.648
-0.057394288 0.07837715 0.648
-0.057638098 0.082247622 0.68000001
-0.056342863 0.082247622 0.68000001
-0.05496667 0.08212667 0.67900002
-0.053673338 0.08212667 0.67900002
-0.05230286 0.082005717 0.67800003
-0.050710481 0.081521913 0.67400002
-0.049280003 0.081280008 0.67200005
-0.047928575 0.081159055 0.671
-0.04665048 0.081159055 0.671
-0.045304764 0.081038103 0.67000002
-0.043962859 0.08091715 0.66900003
-0.042305715 0.080191433 0.66300005
-0.040919051 0.079949528 0.66100001
-0.039660003 0.079949528 0.66100001
-0.038400955 0.079949528 0.66100001
-0.037141908 0.079949528 0.66100001
-0.035937145 0.080070481 0.66200006
-0.034676194 0.080070481 0.66200006
-0.033465717 0.080191433 0.66300005
-0.032300003 0.080433339 0.66500002
-0.031033335 0.080433339 0.66500002
-0.029811431 0.080554292 0.66600001
-0.028585717 0.080675244 0.66700006
-0.027397145 0.08091715 0.66900003
-0.026161907 0.081038103 0.67000002
-0.024960002 0.081280008 0.67200005
-0.023785716 0.081642866 0.67500001
-0.022533335 0.081763811 0.67600006
-0.021308573 0.082005717 0.67800003
-0.020076191 0.082247622 0.68000001
-0.01886381 0.08261048 0.68300003
-0.017665716 0.083094291 0.68700004
-0.016357144 0.083094291 0.68700004
-0.015048573 0.083094291 0.68700004
-0.013780001 0.083336197 0.68900001
-0.012485716 0.08345715 0.69000006
-0.01118762 0.083578102 0.69100004
-0.0099142864 0.08394096 0.69400001
-0.0086047621 0.084061913 0.69500005
-0.0073123816 0.084424764 0.69800001
-0.0060000005 0.084666669 0.70000005
-0.0046733338 0.084787622 0.70100003
-0.0033523813 0.08515048 0.70400006
-0.0020142859 0.085271433 0.70500004
-0.00067428575 0.085634291 0.708
0.00067714287 0.085997149 0.71100003
0.0020371431 0.086239055 0.71300006
0.0034000003 0.086360008 0.71400005
0.0047733337 0.086601913 0.71600002
0.0061371434 0.086601913 0.71600002
-0.098509528 0.092757151 0.75500005
-0.097071432 0.092757151 0.75500005
-0.080940008 0.078505717 0.63900006
-0.079722859 0.078505717 0.63900006
-0.078505717 0.078505717 0.63900006
-0.077288575 0.078505717 0.63900006
-0.076190479 0.078628577 0.64000005
-0.07497143 0.078628577 0.64000005
-0.073752388 0.078628577 0.64000005
-0.07264667 0.078751437 0.64100003
-0.071425721 0.078751437 0.64100003
-0.070095241 0.078628577 0.64000005
-0.068876192 0.078628577 0.64000005
-0.06765715 0.078628577 0.64000005
-0.06654191 0.078751437 0.64100003
-0.065422863 0.07887429 0.64200002
-0.064200006 0.07887429 0.64200002
-0.063271433 0.079242863 0.64500004
-0.062139053 0.079365723 0.64600003
-0.061002862 0.079488575 0.64700001
-0.05977048 0.079488575 0.64700001
-0.060228575 0.083542861 0.68000001
-0.058933336 0.083542861 0.68000001
-0.057638098 0.083542861 0.68000001
-0.056260005 0.083420008 0.67900002
-0.05496667 0.083420008 0.67900002
-0.053594287 0.083297148 0.67800003
-0.052148573 0.083051436 0.67600006
-0.050710481 0.082805723 0.67400002
-0.04920667 0.08243715 0.671
-0.047928575 0.08243715 0.671
-0.04665048 0.08243715 0.671
-0.045372386 0.08243715 0.671
-0.044028573 0.08231429 0.67000002
-0.042688575 0.082191437 0.66900003
-0.040919051 0.081208579 0.66100001
-0.039660003 0.081208579 0.66100001
-0.038400955 0.081208579 0.66100001
-0.037141908 0.081208579 0.66100001
-0.035937145 0.081331432 0.66200006
-0.034676194 0.081331432 0.66200006
-0.033465717 0.081454292 0.66300005
-0.032300003 0.081700005 0.66500002
-0.031033335 0.081700005 0.66500002
-0.029811431 0.081822865 0.66600001
-0.028585717 0.081945717 0.66700006
-0.027397145 0.082191437 0.66900003
-0.026161907 0.08231429 0.67000002
-0.024960002 0.082560003 0.67200005
-0.023785716 0.082928576 0.67500001
-0.022533335 0.083051436 0.67600006
-0.021308573 0.083297148 0.67800003
-0.020076191 0.083542861 0.68000001
-0.01886381 0.083911434 0.68300003
-0.017717144 0.084648579 0.68900001
-0.016404763 0.084648579 0.68900001
-0.015092382 0.084648579 0.68900001
-0.013800001 0.084771432 0.69000006
-0.01250381 0.084894292 0.69100004
-0.011220001 0.085140005 0.69300002
-0.0099142864 0.085262865 0.69400001
-0.0086047621 0.085385717 0.69500005
-0.0073123816 0.08575429 0.69800001
-0.0060085719 0.086122863 0.70100003
-0.0046866671 0.086368576 0.70300001
-0.0033571431 0.086614288 0.70500004
-0.0020200002 0.086860009 0.70700002
-0.00067428575 0.086982861 0.708
0.00067904766 0.087597147 0.71300006
0.0020371431 0.087597147 0.71300006
0.0034000003 0.087720007 0.71400005
0.0047600004 0.087720007 0.71400005
-0.087025717 0.079722859 0.63900006
-0.085808575 0.079722859 0.63900006
-0.084723815 0.079847626 0.64000005
-0.083504766 0.079847626 0.64000005
-0.08215715 0.079722859 0.63900006
-0.080940008 0.079722859 0.63900006
-0.079722859 0.079722859 0.63900006
-0.078505717 0.079722859 0.63900006
-0.077409528 0.079847626 0.64000005
-0.076190479 0.079847626 0.64000005
-0.07497143 0.079847626 0.64000005
-0.073752388 0.079847626 0.64000005
-0.07264667 0.079972386 0.64100003
-0.071425721 0.079972386 0.64100003
-0.070095241 0.079847626 0.64000005
-0.068876192 0.079847626 0.64000005
-0.06765715 0.079847626 0.64000005
-0.06654191 0.079972386 0.64100003
-0.065422863 0.080097146 0.64200002
-0.064200006 0.080097146 0.64200002
-0.063173339 0.080346674 0.64400005
-0.062139053 0.080596194 0.64600003
-0.061002862 0.080720961 0.64700001
-0.061523814 0.0848381 0.68000001
-0.060228575 0.0848381 0.68000001
-0.058933336 0.0848381 0.68000001
-0.057638098 0.0848381 0.68000001
-0.056260005 0.08471334 0.67900002
-0.05496667 0.08471334 0.67900002
-0.053594287 0.08458858 0.67800003
-0.052148573 0.084339052 0.67600006
-0.050710481 0.084089532 0.67400002
-0.049280003 0.083840005 0.67200005
-0.048000004 0.083840005 0.67200005
-0.046720002 0.083840005 0.67200005
-0.045372386 0.083715245 0.671
-0.044094287 0.083715245 0.671
-0.042752385 0.083590485 0.67000002
-0.040857144 0.082342863 0.66000003
-0.039660003 0.082467623 0.66100001
-0.038400955 0.082467623 0.66100001
-0.037198097 0.082592383 0.66200006
-0.035937145 0.082592383 0.66200006
-0.034728575 0.08271715 0.66300005
-0.033465717 0.08271715 0.66300005
-0.032300003 0.08296667 0.66500002
-0.031080002 0.08309143 0.66600001
-0.029811431 0.08309143 0.66600001
-0.028585717 0.083216198 0.66700006
-0.027397145 0.083465718 0.66900003
-0.026161907 0.083590485 0.67000002
-0.024960002 0.083840005 0.67200005
-0.023785716 0.084214292 0.67500001
-0.022600001 0.08458858 0.67800003
-0.021340001 0.08471334 0.67900002
-0.020076191 0.0848381 0.68000001
-0.01889143 0.085337147 0.68400002
-0.017742859 0.086085722 0.69000006
-0.016404763 0.085960954 0.68900001
-0.015092382 0.085960954 0.68900001
-0.013800001 0.086085722 0.69000006
-0.01250381 0.086210482 0.69100004
-0.011220001 0.086460009 0.69300002
-0.009928572 0.086709529 0.69500005
-0.0086295241 0.086959057 0.69700003
-0.0073333336 0.087333336 0.70000005
-0.0060000005 0.087333336 0.70000005
-0.0046866671 0.087707624 0.70300001
-0.0033571431 0.087957151 0.70500004
-0.0020200002 0.088206671 0.70700002
-0.00067904766 0.088955246 0.71300006
0.00067904766 0.088955246 0.71300006
0.0020371431 0.088955246 0.71300006
0.0033952384 0.088955246 0.71300006
-0.088242866 0.080940008 0.63900006
-0.087025717 0.080940008 0.63900006
-0.085808575 0.080940008 0.63900006
-0.084723815 0.081066675 0.64000005
-0.083504766 0.081066675 0.64000005
-0.082285717 0.081066675 0.64000005
-0.080940008 0.080940008 0.63900006
-0.079847626 0.081066675 0.64000005
-0.078628577 0.081066675 0.64000005
-0.077409528 0.081066675 0.64000005
-0.076190479 0.081066675 0.64000005
-0.07497143 0.081066675 0.64000005
-0.073867626 0.081193335 0.64100003
-0.07264667 0.081193335 0.64100003
-0.071425721 0.081193335 0.64100003
-0.070204765 0.081193335 0.64100003
-0.068983816 0.081193335 0.64100003
-0.06765715 0.081066675 0.64000005
-0.06654191 0.081193335 0.64100003
-0.065320954 0.081193335 0.64100003
-0.064100005 0.081193335 0.64100003
-0.062879048 0.081193335 0.64100003
-0.061946671 0.081573337 0.64400005
-0.060908575 0.081826672 0.64600003
-0.061704766 0.086386673 0.68200004
-0.060228575 0.086133339 0.68000001
-0.058933336 0.086133339 0.68000001
-0.057638098 0.086133339 0.68000001
-0.056260005 0.086006671 0.67900002
-0.05496667 0.086006671 0.67900002
-0.053673338 0.086006671 0.67900002
-0.05230286 0.085880004 0.67800003
-0.050785717 0.085500002 0.67500001
-0.049426671 0.085373342 0.67400002
-0.048142862 0.085373342 0.67400002
-0.046859052 0.085373342 0.67400002
-0.045440003 0.085120007 0.67200005
-0.044160005 0.085120007 0.67200005
-0.042752385 0.084866673 0.67000002
-0.040919051 0.083726674 0.66100001
-0.039660003 0.083726674 0.66100001
-0.038400955 0.083726674 0.66100001
-0.037198097 0.083853342 0.66200006
-0.035937145 0.083853342 0.66200006
-0.034728575 0.083980009 0.66300005
-0.033465717 0.083980009 0.66300005
-0.032300003 0.084233336 0.66500002
-0.031033335 0.084233336 0.66500002
-0.029811431 0.084360003 0.66600001
-0.02867143 0.084740005 0.66900003
-0.027397145 0.084740005 0.66900003
-0.026161907 0.084866673 0.67000002
-0.024960002 0.085120007 0.67200005
-0.023785716 0.085500002 0.67500001
-0.022600001 0.085880004 0.67800003
-0.021340001 0.086006671 0.67900002
-0.020164764 0.08651334 0.68300003
-0.018974287 0.087020002 0.68700004
-0.017742859 0.087400004 0.69000006
-0.016404763 0.087273337 0.68900001
-0.015114287 0.087400004 0.69000006
-0.013820001 0.087526672 0.69100004
-0.01254 0.087780006 0.69300002
-0.011236191 0.087906674 0.69400001
-0.009928572 0.088033341 0.69500005
-0.0086295241 0.088286676 0.69700003
-0.0073123816 0.088413343 0.69800001
-0.0060000005 0.08866667 0.70000005
-0.0046733338 0.088793337 0.70100003
-0.0033666668 0.089553341 0.70700002
-0.0020285717 0.089933336 0.71000004
-0.00067714287 0.090060003 0.71100003
0.00067904766 0.090313338 0.71300006
0.0020400002 0.090440005 0.71400005
-0.088242866 0.08215715 0.63900006
-0.087025717 0.08215715 0.63900006
-0.085808575 0.08215715 0.63900006
-0.084723815 0.082285717 0.64000005
-0.083504766 0.082285717 0.64000005
-0.082285717 0.082285717 0.64000005
-0.081066675 0.082285717 0.64000005
-0.079847626 0.082285717 0.64000005
-0.078628577 0.082285717 0.64000005
-0.077409528 0.082285717 0.64000005
-0.076190479 0.082285717 0.64000005
-0.07497143 0.082285717 0.64000005
-0.073867626 0.082414292 0.64100003
-0.07264667 0.082414292 0.64100003
-0.071425721 0.082414292 0.64100003
-0.070204765 0.082414292 0.64100003
-0.068983816 0.082414292 0.64100003
-0.06765715 0.082285717 0.64000005
-0.06654191 0.082414292 0.64100003
-0.065320954 0.082414292 0.64100003
-0.064100005 0.082414292 0.64100003
-0.062879048 0.082414292 0.64100003
-0.06175429 0.082542859 0.64200002
-0.060814291 0.082928576 0.64500004
-0.061704766 0.087685719 0.68200004
-0.060228575 0.087428577 0.68000001
-0.058933336 0.087428577 0.68000001
-0.057638098 0.087428577 0.68000001
-0.056260005 0.087300003 0.67900002
-0.05496667 0.087300003 0.67900002
-0.053673338 0.087300003 0.67900002
-0.05230286 0.087171435 0.67800003
-0.050785717 0.086785719 0.67500001
-0.049500003 0.086785719 0.67500001
-0.048142862 0.086657152 0.67400002
-0.046859052 0.086657152 0.67400002
-0.045575242 0.086657152 0.67400002
-0.044291433 0.086657152 0.67400002
-0.042816192 0.086271435 0.671
-0.041166671 0.085500002 0.66500002
-0.039720003 0.085114293 0.66200006
-0.038459051 0.085114293 0.66200006
-0.037198097 0.085114293 0.66200006
-0.03599143 0.08524286 0.66300005
-0.034728575 0.08524286 0.66300005
-0.033566669 0.085500002 0.66500002
-0.032300003 0.085500002 0.66500002
-0.031080002 0.085628577 0.66600001
-0.029856192 0.085757151 0.66700006
-0.02867143 0.086014293 0.66900003
-0.027397145 0.086014293 0.66900003
-0.026161907 0.08614286 0.67000002
-0.024960002 0.086400002 0.67200005
-0.023785716 0.086785719 0.67500001
-0.022600001 0.087171435 0.67800003
-0.02137143 0.087428577 0.68000001
-0.020194286 0.087942861 0.68400002
-0.018974287 0.088328578 0.68700004
-0.017742859 0.088714294 0.69000006
-0.016404763 0.088585719 0.68900001
-0.015114287 0.088714294 0.69000006
-0.013820001 0.088842861 0.69100004
-0.01254 0.089100003 0.69300002
-0.011236191 0.089228578 0.69400001
-0.009928572 0.089357145 0.69500005
-0.0086295241 0.089614294 0.69700003
-0.0073333336 0.090000004 0.70000005
-0.0060085719 0.090128578 0.70100003
-0.0047000004 0.090642862 0.70500004
-0.0033666668 0.090900004 0.70700002
-0.0020228573 0.091028579 0.708
-0.00067619054 0.09128572 0.71000004
0.00067714287 0.091414295 0.71100003
0.0020314287 0.091414295 0.71100003
-0.18214287 0.097857147 0.75000006
-0.089460008 0.083374292 0.63900006
-0.088242866 0.083374292 0.63900006
-0.087025717 0.083374292 0.63900006
-0.085942864 0.083504766 0.64000005
-0.084723815 0.083504766 0.64000005
-0.083504766 0.083504766 0.64000005
-0.082285717 0.083504766 0.64000005
-0.081066675 0.083504766 0.64000005
-0.079847626 0.083504766 0.64000005
-0.078751437 0.083635241 0.64100003
-0.077530481 0.083635241 0.64100003
-0.076309532 0.083635241 0.64100003
-0.075088575 0.083635241 0.64100003
-0.073867626 0.083635241 0.64100003
-0.07264667 0.083635241 0.64100003
-0.071425721 0.083635241 0.64100003
-0.070204765 0.083635241 0.64100003
-0.068983816 0.083635241 0.64100003
-0.067762859 0.083635241 0.64100003
-0.06654191 0.083635241 0.64100003
-0.065422863 0.083765723 0.64200002
-0.064100005 0.083635241 0.64100003
-0.062879048 0.083635241 0.64100003
-0.06175429 0.083765723 0.64200002
-0.060814291 0.084157147 0.64500004
-0.061885718 0.089245722 0.68400002
-0.06040572 0.088984765 0.68200004
-0.05910667 0.088984765 0.68200004
-0.057892386 0.089115247 0.68300003
-0.056591433 0.089115247 0.68300003
-0.055290479 0.089115247 0.68300003
-0.053752385 0.088723816 0.68000001
-0.052457146 0.088723816 0.68000001
-0.051086672 0.088593341 0.67900002
-0.049720004 0.088462859 0.67800003
-0.048285719 0.08820191 0.67600006
-0.046998098 0.08820191 0.67600006
-0.04564286 0.088071436 0.67500001
-0.044357147 0.088071436 0.67500001
-0.043007623 0.087940961 0.67400002
-0.041228574 0.08689715 0.66600001
-0.039900001 0.086766675 0.66500002
-0.038517144 0.086505719 0.66300005
-0.037254289 0.086505719 0.66300005
-0.03599143 0.086505719 0.66300005
-0.034833334 0.086766675 0.66500002
-0.033566669 0.086766675 0.66500002
-0.032348573 0.08689715 0.66600001
-0.031080002 0.08689715 0.66600001
-0.029856192 0.087027624 0.66700006
-0.02867143 0.087288581 0.66900003
-0.027438097 0.087419055 0.67000002
-0.026200954 0.08754953 0.671
-0.025034288 0.087940961 0.67400002
-0.023785716 0.088071436 0.67500001
-0.022633335 0.088593341 0.67900002
-0.021465715 0.089115247 0.68300003
-0.020253334 0.089506671 0.68600005
-0.019029524 0.089898102 0.68900001
-0.017742859 0.090028577 0.69000006
-0.016404763 0.089898102 0.68900001
-0.015136192 0.090159051 0.69100004
-0.013860001 0.090420008 0.69300002
-0.012558096 0.090550482 0.69400001
-0.011252382 0.090680957 0.69500005
-0.0099571431 0.090941913 0.69700003
-0.0086419052 0.091072388 0.69800001
-0.0073333336 0.091333337 0.70000005
-0.0060342862 0.091855243 0.70400006
-0.0047000004 0.091985717 0.70500004
-0.0033666668 0.092246674 0.70700002
-0.0020114286 0.091855243 0.70400006
-0.00067047623 0.091855243 0.70400006
-0.16354001 0.087768577 0.66300005
-0.18023239 0.099020958 0.74800003
-0.17856859 0.098888576 0.74700004
-0.17714572 0.098888576 0.74700004
-0.11922858 0.084988579 0.64200002
-0.11782191 0.084856197 0.64100003
-0.11641905 0.084723815 0.64000005
-0.10163143 0.084591433 0.63900006
-0.10041429 0.084591433 0.63900006
-0.099197149 0.084591433 0.63900006
-0.097980008 0.084591433 0.63900006
-0.096762866 0.084591433 0.63900006
-0.095545724 0.084591433 0.63900006
-0.094328575 0.084591433 0.63900006
-0.093111433 0.084591433 0.63900006
-0.091894291 0.084591433 0.63900006
-0.090819053 0.084723815 0.64000005
-0.089600004 0.084723815 0.64000005
-0.088380955 0.084723815 0.64000005
-0.087161914 0.084723815 0.64000005
-0.085942864 0.084723815 0.64000005
-0.084723815 0.084723815 0.64000005
-0.083504766 0.084723815 0.64000005
-0.082285717 0.084723815 0.64000005
-0.081066675 0.084723815 0.64000005
-0.079847626 0.084723815 0.64000005
-0.078751437 0.084856197 0.64100003
-0.077530481 0.084856197 0.64100003
-0.076309532 0.084856197 0.64100003
-0.075088575 0.084856197 0.64100003
-0.073867626 0.084856197 0.64100003
-0.072760008 0.084988579 0.64200002
-0.071537144 0.084988579 0.64200002
-0.070204765 0.084856197 0.64100003
-0.068983816 0.084856197 0.64100003
-0.067762859 0.084856197 0.64100003
-0.066645719 0.084988579 0.64200002
-0.065626673 0.085253336 0.64400005
-0.064200006 0.084988579 0.64200002
-0.06297715 0.084988579 0.64200002
-0.06175429 0.084988579 0.64200002
-0.062066671 0.090813339 0.68600005
-0.060494289 0.090416193 0.68300003
-0.059193335 0.090416193 0.68300003
-0.057892386 0.090416193 0.68300003
-0.056591433 0.090416193 0.68300003
-0.055290479 0.090416193 0.68300003
-0.053910479 0.090283819 0.68200004
-0.052457146 0.090019055 0.68000001
-0.051161908 0.090019055 0.68000001
-0.049793337 0.089886673 0.67900002
-0.048428576 0.089754291 0.67800003
-0.046998098 0.089489527 0.67600006
-0.04564286 0.089357145 0.67500001
-0.044357147 0.089357145 0.67500001
-0.043007623 0.089224771 0.67400002
-0.041228574 0.088165723 0.66600001
-0.039900001 0.088033341 0.66500002
-0.038517144 0.087768577 0.66300005
-0.037254289 0.087768577 0.66300005
-0.036100004 0.088033341 0.66500002
-0.034833334 0.088033341 0.66500002
-0.033566669 0.088033341 0.66500002
-0.032348573 0.088165723 0.66600001
-0.031126669 0.088298105 0.66700006
-0.029856192 0.088298105 0.66700006
-0.02867143 0.088562861 0.66900003
-0.027438097 0.088695243 0.67000002
-0.026200954 0.088827625 0.671
-0.025071431 0.089357145 0.67500001
-0.023785716 0.089357145 0.67500001
-0.022666669 0.090019055 0.68000001
-0.021465715 0.090416193 0.68300003
-0.020194286 0.090548575 0.68400002
-0.019029524 0.091210485 0.68900001
-0.017742859 0.091342866 0.69000006
-0.016404763 0.091210485 0.68900001
-0.015136192 0.091475241 0.69100004
-0.013860001 0.091740005 0.69300002
-0.012576192 0.092004769 0.69500005
-0.011284763 0.092269532 0.69700003
-0.0099714296 0.092401914 0.69800001
-0.0086666672 0.092666671 0.70000005
-0.0073438101 0.092799053 0.70100003
-0.0060342862 0.093196198 0.70400006
-0.0047000004 0.09332858 0.70500004
-0.0033666668 0.093593337 0.70700002
-0.0020228573 0.093725719 0.708
-0.00067428575 0.093725719 0.708
0.00067428575 0.093725719 0.708
-0.16554858 0.089434288 0.66600001
-0.16354001 0.089031436 0.66300005
-0.16227715 0.089031436 0.66300005
-0.1610143 0.089031436 0.66300005
-0.17714572 0.10031144 0.74700004
-0.17595811 0.10044572 0.74800003
-0.12026381 0.086077146 0.64100003
-0.11904287 0.086077146 0.64100003
-0.11782191 0.086077146 0.64100003
-0.11641905 0.085942864 0.64000005
-0.11520001 0.085942864 0.64000005
-0.11398096 0.085942864 0.64000005
-0.10666668 0.085942864 0.64000005
-0.10544763 0.085942864 0.64000005
-0.10422858 0.085942864 0.64000005
-0.10300953 0.085942864 0.64000005
-0.10163143 0.085808575 0.63900006
-0.10041429 0.085808575 0.63900006
-0.099197149 0.085808575 0.63900006
-0.097980008 0.085808575 0.63900006
-0.096611433 0.085674293 0.63800001
-0.095545724 0.085808575 0.63900006
-0.094180956 0.085674293 0.63800001
-0.093111433 0.085808575 0.63900006
-0.091894291 0.085808575 0.63900006
-0.090819053 0.085942864 0.64000005
-0.089600004 0.085942864 0.64000005
-0.088380955 0.085942864 0.64000005
-0.087161914 0.085942864 0.64000005
-0.085942864 0.085942864 0.64000005
-0.084723815 0.085942864 0.64000005
-0.083504766 0.085942864 0.64000005
-0.082414292 0.086077146 0.64100003
-0.081193335 0.086077146 0.64100003
-0.079972386 0.086077146 0.64100003
-0.07887429 0.086211435 0.64200002
-0.077651434 0.086211435 0.64200002
-0.076428577 0.086211435 0.64200002
-0.075088575 0.086077146 0.64100003
-0.073982865 0.086211435 0.64200002
-0.072760008 0.086211435 0.64200002
-0.071537144 0.086211435 0.64200002
-0.070204765 0.086077146 0.64100003
-0.069091432 0.086211435 0.64200002
-0.067868575 0.086211435 0.64200002
-0.066853337 0.086480007 0.64400005
-0.065626673 0.086480007 0.64400005
-0.064200006 0.086211435 0.64200002
-0.06297715 0.086211435 0.64200002
-0.06175429 0.086211435 0.64200002
-0.062157147 0.092254288 0.68700004
-0.060760003 0.092120007 0.68600005
-0.059453338 0.092120007 0.68600005
-0.057977147 0.091851436 0.68400002
-0.05667429 0.091851436 0.68400002
-0.055371433 0.091851436 0.68400002
-0.053989526 0.091717146 0.68300003
-0.052611433 0.091582865 0.68200004
-0.051161908 0.091314293 0.68000001
-0.049866669 0.091314293 0.68000001
-0.048500001 0.091180004 0.67900002
-0.047137145 0.091045722 0.67800003
-0.045710478 0.090777151 0.67600006
-0.044422861 0.090777151 0.67600006
-0.04307143 0.090642862 0.67500001
-0.041228574 0.089434288 0.66600001
-0.039900001 0.089300007 0.66500002
-0.038517144 0.089031436 0.66300005
-0.03736667 0.089300007 0.66500002
-0.036100004 0.089300007 0.66500002
-0.034885716 0.089434288 0.66600001
-0.033617146 0.089434288 0.66600001
-0.032397144 0.089568578 0.66700006
-0.031126669 0.089568578 0.66700006
-0.029945716 0.089837149 0.66900003
-0.028714288 0.089971438 0.67000002
-0.027438097 0.089971438 0.67000002
-0.026240002 0.090240009 0.67200005
-0.025071431 0.090642862 0.67500001
-0.023820953 0.090777151 0.67600006
-0.022766668 0.091717146 0.68300003
-0.021497143 0.091851436 0.68400002
-0.020253334 0.092120007 0.68600005
-0.019029524 0.09252286 0.68900001
-0.017768573 0.092791438 0.69100004
-0.016428573 0.092657149 0.69000006
-0.015114287 0.092657149 0.69000006
-0.01388 0.093194291 0.69400001
-0.012576192 0.09332858 0.69500005
-0.011284763 0.093597151 0.69700003
-0.010000001 0.094000004 0.70000005
-0.0086790482 0.094134293 0.70100003
-0.0073647625 0.094402865 0.70300001
-0.0060342862 0.094537146 0.70400006
-0.0047000004 0.094671436 0.70500004
-0.0033666668 0.094940007 0.70700002
-0.0020200002 0.094940007 0.70700002
-0.16554858 0.090702862 0.66600001
-0.16403334 0.090566672 0.66500002
-0.16227715 0.090294294 0.66300005
-0.16077144 0.090158097 0.66200006
-0.15926954 0.090021908 0.66100001
-0.15777144 0.089885719 0.66000003
-0.15604001 0.089613341 0.65800005
-0.15455143 0.089477152 0.65700001
-0.15330002 0.089477152 0.65700001
-0.15204859 0.089477152 0.65700001
-0.15056764 0.089340955 0.65600002
-0.12412 0.087434292 0.64200002
-0.12289715 0.087434292 0.64200002
-0.12167429 0.087434292 0.64200002
-0.12026381 0.087298103 0.64100003
-0.11904287 0.087298103 0.64100003
-0.11782191 0.087298103 0.64100003
-0.11641905 0.087161914 0.64000005
-0.11520001 0.087161914 0.64000005
-0.11398096 0.087161914 0.64000005
-0.11276191 0.087161914 0.64000005
-0.11171715 0.087298103 0.64100003
-0.1104962 0.087298103 0.64100003
-0.10910477 0.087161914 0.64000005
-0.10788572 0.087161914 0.64000005
-0.10666668 0.087161914 0.64000005
-0.10544763 0.087161914 0.64000005
-0.10422858 0.087161914 0.64000005
-0.10300953 0.087161914 0.64000005
-0.10179048 0.087161914 0.64000005
-0.10041429 0.087025717 0.63900006
-0.099041909 0.086889528 0.63800001
-0.097980008 0.087025717 0.63900006
-0.096611433 0.086889528 0.63800001
-0.095545724 0.087025717 0.63900006
-0.094180956 0.086889528 0.63800001
-0.093111433 0.087025717 0.63900006
-0.091894291 0.087025717 0.63900006
-0.090819053 0.087161914 0.64000005
-0.089600004 0.087161914 0.64000005
-0.088380955 0.087161914 0.64000005
-0.087161914 0.087161914 0.64000005
-0.085942864 0.087161914 0.64000005
-0.084723815 0.087161914 0.64000005
-0.083504766 0.087161914 0.64000005
-0.082414292 0.087298103 0.64100003
-0.081193335 0.087298103 0.64100003
-0.079972386 0.087298103 0.64100003
-0.079120003 0.08770667 0.64400005
-0.077893339 0.08770667 0.64400005
-0.076666668 0.08770667 0.64400005
-0.075205721 0.087434292 0.64200002
-0.073982865 0.087434292 0.64200002
-0.07298667 0.08770667 0.64400005
-0.071537144 0.087434292 0.64200002
-0.070314288 0.087434292 0.64200002
-0.069091432 0.087434292 0.64200002
-0.068080008 0.08770667 0.64400005
-0.066853337 0.08770667 0.64400005
-0.065626673 0.08770667 0.64400005
-0.064200006 0.087434292 0.64200002
-0.06297715 0.087434292 0.64200002
-0.06175429 0.087434292 0.64200002
-0.062157147 0.093562864 0.68700004
-0.060760003 0.093426675 0.68600005
-0.059453338 0.093426675 0.68600005
-0.05814667 0.093426675 0.68600005
-0.05667429 0.093154289 0.68400002
-0.055371433 0.093154289 0.68400002
-0.053989526 0.0930181 0.68300003
-0.052611433 0.092881911 0.68200004
-0.051312383 0.092881911 0.68200004
-0.049866669 0.092609532 0.68000001
-0.04857143 0.092609532 0.68000001
-0.04720667 0.092473343 0.67900002
-0.045845717 0.092337146 0.67800003
-0.044554289 0.092337146 0.67800003
-0.043135241 0.092064768 0.67600006
-0.041166671 0.090566672 0.66500002
-0.039900001 0.090566672 0.66500002
-0.038633335 0.090566672 0.66500002
-0.037422858 0.090702862 0.66600001
-0.036154289 0.090702862 0.66600001
-0.034938097 0.090839051 0.66700006
-0.03366762 0.090839051 0.66700006
-0.032494288 0.091111436 0.66900003
-0.031220002 0.091111436 0.66900003
-0.029945716 0.091111436 0.66900003
-0.028714288 0.091247626 0.67000002
-0.027438097 0.091247626 0.67000002
-0.026240002 0.091520004 0.67200005
-0.025071431 0.091928579 0.67500001
-0.02389143 0.092337146 0.67800003
-0.022766668 0.0930181 0.68300003
-0.021497143 0.093154289 0.68400002
-0.020253334 0.093426675 0.68600005
-0.019029524 0.093835242 0.68900001
-0.017768573 0.094107628 0.69100004
-0.016428573 0.093971431 0.69000006
-0.015136192 0.094107628 0.69100004
-0.01388 0.094516195 0.69400001
-0.012576192 0.094652385 0.69500005
-0.011284763 0.09492477 0.69700003
-0.010000001 0.095333338 0.70000005
-0.0086790482 0.095469527 0.70100003
-0.0073647625 0.095741913 0.70300001
-0.0060342862 0.095878102 0.70400006
-0.0047000004 0.096014291 0.70500004
-0.0033571431 0.096014291 0.70500004
-0.0020228573 0.096422866 0.708
-0.16554858 0.091971435 0.66600001
-0.16403334 0.091833338 0.66500002
-0.16227715 0.091557153 0.66300005
-0.16077144 0.091419056 0.66200006
-0.15926954 0.09128096 0.66100001
-0.15777144 0.091142863 0.66000003
-0.15604001 0.09086667 0.65800005
-0.15455143 0.090728581 0.65700001
-0.15330002 0.090728581 0.65700001
-0.15204859 0.090728581 0.65700001
-0.15056764 0.090590484 0.65600002
-0.1493181 0.090590484 0.65600002
-0.14784287 0.090452388 0.65500003
-0.12941334 0.088933341 0.64400005
-0.12778857 0.088657148 0.64200002
-0.12696001 0.088933341 0.64400005
-0.12573335 0.088933341 0.64400005
-0.12450667 0.088933341 0.64400005
-0.12328001 0.088933341 0.64400005
-0.12167429 0.088657148 0.64200002
-0.12026381 0.088519052 0.64100003
-0.11904287 0.088519052 0.64100003
-0.11782191 0.088519052 0.64100003
-0.11660096 0.088519052 0.64100003
-0.11538 0.088519052 0.64100003
-0.11415906 0.088519052 0.64100003
-0.11276191 0.088380955 0.64000005
-0.11171715 0.088519052 0.64100003
-0.1104962 0.088519052 0.64100003
-0.10927524 0.088519052 0.64100003
-0.1080543 0.088519052 0.64100003
-0.10666668 0.088380955 0.64000005
-0.10544763 0.088380955 0.64000005
-0.10422858 0.088380955 0.64000005
-0.10300953 0.088380955 0.64000005
-0.10179048 0.088380955 0.64000005
-0.10041429 0.088242866 0.63900006
-0.099197149 0.088242866 0.63900006
-0.097980008 0.088242866 0.63900006
-0.096611433 0.08810477 0.63800001
-0.095545724 0.088242866 0.63900006
-0.094328575 0.088242866 0.63900006
-0.093111433 0.088242866 0.63900006
-0.091894291 0.088242866 0.63900006
-0.090819053 0.088380955 0.64000005
-0.089600004 0.088380955 0.64000005
-0.088380955 0.088380955 0.64000005
-0.087161914 0.088380955 0.64000005
-0.085942864 0.088380955 0.64000005
-0.084856197 0.088519052 0.64100003
-0.083635241 0.088519052 0.64100003
-0.082414292 0.088519052 0.64100003
-0.081193335 0.088519052 0.64100003
-0.079972386 0.088519052 0.64100003
-0.079120003 0.088933341 0.64400005
-0.077893339 0.088933341 0.64400005
-0.076666668 0.088933341 0.64400005
-0.075440004 0.088933341 0.64400005
-0.074213341 0.088933341 0.64400005
-0.07298667 0.088933341 0.64400005
-0.071760006 0.088933341 0.64400005
-0.070314288 0.088657148 0.64200002
-0.069306672 0.088933341 0.64400005
-0.068080008 0.088933341 0.64400005
-0.066853337 0.088933341 0.64400005
-0.065626673 0.088933341 0.64400005
-0.064400002 0.088933341 0.64400005
-0.06297715 0.088657148 0.64200002
-0.061658099 0.088519052 0.64100003
-0.062157147 0.094871432 0.68700004
-0.060848575 0.094871432 0.68700004
-0.059540004 0.094871432 0.68700004
