# .PCD v0.7 - Point Cloud Data file format
VERSION 0.7
FIELDS x y z
SIZE 4 4 4
TYPE F F F
COUNT 1 1 1
WIDTH 1347
HEIGHT 1
VIEWPOINT 0 0 0 1 0 0 0
POINTS 1347
DATA ascii
-0.091414295 0.075162865 0.71100003
-0.090060003 0.075162865 0.71100003
-0.088705719 0.075162865 0.71100003
-0.087597147 0.07537429 0.71300006
-0.089047626 0.079074293 0.74800003
-0.087622866 0.079074293 0.74800003
-0.086198099 0.079074293 0.74800003
-0.085000008 0.079285719 0.75000006
-0.08334858 0.079074293 0.74800003
-0.081923813 0.079074293 0.74800003
-0.080714293 0.079285719 0.75000006
-0.079285719 0.079285719 0.75000006
-0.077857152 0.079285719 0.75000006
-0.076428577 0.079285719 0.75000006
-0.075000003 0.079285719 0.75000006
-0.073571436 0.079285719 0.75000006
-0.072142862 0.079285719 0.75000006
-0.070714287 0.079285719 0.75000006
-0.069285721 0.079285719 0.75000006
-0.067676194 0.079074293 0.74800003
-0.065000005 0.079285719 0.75000006
-0.057309527 0.076642863 0.72500002
-0.05577429 0.076431431 0.72300005
-0.054321907 0.076325722 0.72200006
-0.052800003 0.076114289 0.72000003
-0.051357146 0.076008573 0.71900004
-0.049987622 0.076008573 0.71900004
-0.048618097 0.076008573 0.71900004
-0.047117148 0.075797148 0.71700001
-0.045560002 0.075480007 0.71400005
-0.0441381 0.07537429 0.71300006
-0.042780004 0.07537429 0.71300006
-0.041305717 0.075162865 0.71100003
-0.039951432 0.075162865 0.71100003
-0.038597144 0.075162865 0.71100003
-0.037190478 0.075057149 0.71000004
-0.035838097 0.075057149 0.71000004
-0.034388572 0.074845716 0.708
-0.033040002 0.074845716 0.708
-0.031691432 0.074845716 0.708
-0.030342858 0.074845716 0.708
-0.028994288 0.074845716 0.708
-0.027645716 0.074845716 0.708
-0.026297145 0.074845716 0.708
-0.024948573 0.074845716 0.708
-0.023600001 0.074845716 0.708
-0.022251431 0.074845716 0.708
-0.020902859 0.074845716 0.708
-0.019609526 0.075057149 0.71000004
-0.018205715 0.074845716 0.708
-0.016904764 0.075057149 0.71000004
-0.015552382 0.075057149 0.71000004
-0.014140001 0.074740008 0.70700002
-0.01281143 0.074845716 0.708
-0.011462858 0.074845716 0.708
-0.010114286 0.074845716 0.708
-0.0088028582 0.075162865 0.71100003
-0.0074485717 0.075162865 0.71100003
-0.0061114291 0.07537429 0.71300006
-0.0047600004 0.075480007 0.71400005
-0.003409524 0.075691432 0.71600002
-0.0020485716 0.075797148 0.71700001
-0.00068476197 0.076008573 0.71900004
0.0006857143 0.076114289 0.72000003
0.0020628574 0.076325722 0.72200006
0.0034380956 0.076325722 0.72200006
0.0048200004 0.076431431 0.72300005
0.0062142862 0.076642863 0.72500002
0.0075952387 0.076642863 0.72500002
0.0090257153 0.077065721 0.72900003
0.010414287 0.077065721 0.72900003
0.011835239 0.077277146 0.73100001
0.013245715 0.077382863 0.73200005
0.014640001 0.077382863 0.73200005
-0.11530953 0.078023814 0.72500002
-0.11392858 0.078023814 0.72500002
-0.11301334 0.07834667 0.72800004
-0.11162668 0.07834667 0.72800004
-0.11039144 0.078454293 0.72900003
-0.10885334 0.07834667 0.72800004
-0.10628572 0.077485718 0.72000003
-0.10476858 0.077378102 0.71900004
-0.10311144 0.077162862 0.71700001
-0.10160381 0.077055246 0.71600002
-0.099960007 0.076840006 0.71400005
-0.098461911 0.07673239 0.71300006
-0.097103819 0.07673239 0.71300006
-0.095477149 0.07651715 0.71100003
-0.093990482 0.076409526 0.71000004
-0.09276858 0.07651715 0.71100003
-0.091414295 0.07651715 0.71100003
-0.089933336 0.076409526 0.71000004
-0.091774292 0.080391437 0.74700004
-0.090351433 0.080391437 0.74700004
-0.089047626 0.080499053 0.74800003
-0.087622866 0.080499053 0.74800003
-0.086198099 0.080499053 0.74800003
-0.085000008 0.080714293 0.75000006
-0.083571434 0.080714293 0.75000006
-0.08214286 0.080714293 0.75000006
-0.080714293 0.080714293 0.75000006
-0.079285719 0.080714293 0.75000006
-0.077857152 0.080714293 0.75000006
-0.076428577 0.080714293 0.75000006
-0.075000003 0.080714293 0.75000006
-0.073571436 0.080714293 0.75000006
-0.072142862 0.080714293 0.75000006
-0.070714287 0.080714293 0.75000006
-0.069285721 0.080714293 0.75000006
-0.067857146 0.080714293 0.75000006
-0.066251434 0.080499053 0.74800003
-0.064826667 0.080499053 0.74800003
-0.061960958 0.078669526 0.73100001
-0.060154289 0.078131437 0.72600001
-0.058771431 0.078131437 0.72600001
-0.057309527 0.078023814 0.72500002
-0.055928577 0.078023814 0.72500002
-0.054397147 0.077808574 0.72300005
-0.052800003 0.077485718 0.72000003
-0.051357146 0.077378102 0.71900004
-0.049987622 0.077378102 0.71900004
-0.048618097 0.077378102 0.71900004
-0.047117148 0.077162862 0.71700001
-0.045687623 0.077055246 0.71600002
-0.044200003 0.076840006 0.71400005
-0.042840004 0.076840006 0.71400005
-0.041480001 0.076840006 0.71400005
-0.040063813 0.07673239 0.71300006
-0.038597144 0.07651715 0.71100003
-0.03724286 0.07651715 0.71100003
-0.035838097 0.076409526 0.71000004
-0.034485716 0.076409526 0.71000004
-0.033133335 0.076409526 0.71000004
-0.031691432 0.076194294 0.708
-0.030342858 0.076194294 0.708
-0.028994288 0.076194294 0.708
-0.027645716 0.076194294 0.708
-0.026297145 0.076194294 0.708
-0.024948573 0.076194294 0.708
-0.023600001 0.076194294 0.708
-0.022314288 0.076409526 0.71000004
-0.020961907 0.076409526 0.71000004
-0.019609526 0.076409526 0.71000004
-0.018257145 0.076409526 0.71000004
-0.016904764 0.076409526 0.71000004
-0.015552382 0.076409526 0.71000004
-0.014160001 0.076194294 0.708
-0.01281143 0.076194294 0.708
-0.011462858 0.076194294 0.708
-0.010142858 0.076409526 0.71000004
-0.0088028582 0.07651715 0.71100003
-0.0074485717 0.07651715 0.71100003
-0.0061114291 0.07673239 0.71300006
-0.0047733337 0.077055246 0.71600002
-0.0034142858 0.077162862 0.71700001
-0.002054286 0.077378102 0.71900004
-0.00068476197 0.077378102 0.71900004
0.0006857143 0.077485718 0.72000003
0.0020628574 0.077700958 0.72200006
0.0034380956 0.077700958 0.72200006
0.0048200004 0.077808574 0.72300005
0.0061971433 0.077808574 0.72300005
0.0076266672 0.07834667 0.72800004
0.0090257153 0.078454293 0.72900003
0.010414287 0.078454293 0.72900003
0.011802858 0.078454293 0.72900003
0.013245715 0.078777149 0.73200005
0.014640001 0.078777149 0.73200005
-0.11074287 0.074476197 0.68000001
-0.10976953 0.074695244 0.68200004
-0.11408572 0.079514287 0.72600001
-0.11301334 0.079733342 0.72800004
-0.11162668 0.079733342 0.72800004
-0.11039144 0.079842865 0.72900003
-0.10900287 0.079842865 0.72900003
-0.10746668 0.079733342 0.72800004
-0.10608001 0.079733342 0.72800004
-0.10354286 0.078857146 0.72000003
-0.10202953 0.078747623 0.71900004
-0.099960007 0.078200005 0.71400005
-0.098461911 0.078090481 0.71300006
-0.097103819 0.078090481 0.71300006
-0.095477149 0.077871434 0.71100003
-0.093990482 0.077761911 0.71000004
-0.092638098 0.077761911 0.71000004
-0.09128572 0.077761911 0.71000004
-0.089933336 0.077761911 0.71000004
-0.091774292 0.081814289 0.74700004
-0.090351433 0.081814289 0.74700004
-0.089047626 0.081923813 0.74800003
-0.087622866 0.081923813 0.74800003
-0.086198099 0.081923813 0.74800003
-0.085000008 0.08214286 0.75000006
-0.083571434 0.08214286 0.75000006
-0.08214286 0.08214286 0.75000006
-0.080929533 0.082361907 0.75200003
-0.079497151 0.082361907 0.75200003
-0.07806477 0.082361907 0.75200003
-0.076632388 0.082361907 0.75200003
-0.075200006 0.082361907 0.75200003
-0.073767625 0.082361907 0.75200003
-0.072335243 0.082361907 0.75200003
-0.070714287 0.08214286 0.75000006
-0.069285721 0.08214286 0.75000006
-0.067857146 0.08214286 0.75000006
-0.066251434 0.081923813 0.74800003
-0.064826667 0.081923813 0.74800003
-0.062045719 0.080171436 0.73200005
-0.060568575 0.080061913 0.73100001
-0.059014291 0.079842865 0.72900003
-0.057388574 0.079514287 0.72600001
-0.056005716 0.079514287 0.72600001
-0.054547623 0.079404764 0.72500002
-0.052946672 0.079076193 0.72200006
-0.051428575 0.078857146 0.72000003
-0.049987622 0.078747623 0.71900004
-0.048618097 0.078747623 0.71900004
-0.047248576 0.078747623 0.71900004
-0.04575143 0.078528576 0.71700001
-0.044385716 0.078528576 0.71700001
-0.043020003 0.078528576 0.71700001
-0.041654289 0.078528576 0.71700001
-0.040232383 0.078419052 0.71600002
-0.038760003 0.078200005 0.71400005
-0.037347622 0.078090481 0.71300006
-0.035989527 0.078090481 0.71300006
-0.034631431 0.078090481 0.71300006
-0.033180002 0.077871434 0.71100003
-0.031825718 0.077871434 0.71100003
-0.030471431 0.077871434 0.71100003
-0.029117145 0.077871434 0.71100003
-0.027723812 0.077761911 0.71000004
-0.026371431 0.077761911 0.71000004
-0.025054287 0.077871434 0.71100003
-0.023700001 0.077871434 0.71100003
-0.022345716 0.077871434 0.71100003
-0.021050477 0.078090481 0.71300006
-0.019692382 0.078090481 0.71300006
-0.018334286 0.078090481 0.71300006
-0.016976191 0.078090481 0.71300006
-0.015618096 0.078090481 0.71300006
-0.014220001 0.077871434 0.71100003
-0.01284762 0.077761911 0.71000004
-0.011511429 0.077871434 0.71100003
-0.010157144 0.077871434 0.71100003
-0.0088276193 0.078090481 0.71300006
-0.0074800006 0.078200005 0.71400005
-0.0061371434 0.078419052 0.71600002
-0.0047800005 0.078528576 0.71700001
-0.0034238098 0.078747623 0.71900004
-0.002057143 0.078857146 0.72000003
-0.00068761909 0.079076193 0.72200006
0.00068761909 0.079076193 0.72200006
0.0020657144 0.079185717 0.72300005
0.0034428574 0.079185717 0.72300005
0.0048333337 0.079404764 0.72500002
0.0062228576 0.079514287 0.72600001
0.0076371431 0.079842865 0.72900003
0.0090257153 0.079842865 0.72900003
0.010442858 0.080061913 0.73100001
0.011835239 0.080061913 0.73100001
0.013245715 0.080171436 0.73200005
-0.11116667 0.074322864 0.66700006
-0.11074287 0.075771436 0.68000001
-0.10944763 0.075771436 0.68000001
-0.10815239 0.075771436 0.68000001
-0.10685715 0.075771436 0.68000001
-0.10540667 0.075660005 0.67900002
-0.10993715 0.080897145 0.72600001
-0.10885334 0.081120007 0.72800004
-0.10746668 0.081120007 0.72800004
-0.10608001 0.081120007 0.72800004
-0.10354286 0.080228575 0.72000003
-0.10202953 0.080117151 0.71900004
-0.099960007 0.079560004 0.71400005
-0.098461911 0.079448573 0.71300006
-0.096831433 0.079225719 0.71100003
-0.095477149 0.079225719 0.71100003
-0.093990482 0.079114288 0.71000004
-0.09276858 0.079225719 0.71100003
-0.091414295 0.079225719 0.71100003
-0.090060003 0.079225719 0.71100003
-0.089808576 0.081454292 0.73100001
-0.090351433 0.083237149 0.74700004
-0.08892858 0.083237149 0.74700004
-0.087622866 0.08334858 0.74800003
-0.086198099 0.08334858 0.74800003
-0.085000008 0.083571434 0.75000006
-0.083571434 0.083571434 0.75000006
-0.070714287 0.083571434 0.75000006
-0.069100954 0.08334858 0.74800003
-0.067676194 0.08334858 0.74800003
-0.065985717 0.083014295 0.74500006
-0.064046673 0.082345717 0.73900002
-0.062469527 0.082122862 0.73700005
-0.060651433 0.081565723 0.73200005
-0.059176195 0.081454292 0.73100001
-0.057546671 0.081120007 0.72800004
-0.056160003 0.081120007 0.72800004
-0.054622862 0.080897145 0.72600001
-0.053020004 0.08056286 0.72300005
-0.051428575 0.080228575 0.72000003
-0.049987622 0.080117151 0.71900004
-0.048618097 0.080117151 0.71900004
-0.047248576 0.080117151 0.71900004
-0.04575143 0.079894289 0.71700001
-0.044385716 0.079894289 0.71700001
-0.043020003 0.079894289 0.71700001
-0.041654289 0.079894289 0.71700001
-0.040288575 0.079894289 0.71700001
-0.038868573 0.079782866 0.71600002
-0.037400004 0.079560004 0.71400005
-0.035989527 0.079448573 0.71300006
-0.034631431 0.079448573 0.71300006
-0.033273336 0.079448573 0.71300006
-0.03191524 0.079448573 0.71300006
-0.030557144 0.079448573 0.71300006
-0.029117145 0.079225719 0.71100003
-0.027762858 0.079225719 0.71100003
-0.026408574 0.079225719 0.71100003
-0.025124764 0.079448573 0.71300006
-0.023766669 0.079448573 0.71300006
-0.022408573 0.079448573 0.71300006
-0.021080002 0.079560004 0.71400005
-0.019720001 0.079560004 0.71400005
-0.018360002 0.079560004 0.71400005
-0.017000001 0.079560004 0.71400005
-0.015640002 0.079560004 0.71400005
-0.014220001 0.079225719 0.71100003
-0.012865715 0.079225719 0.71100003
-0.011511429 0.079225719 0.71100003
-0.010157144 0.079225719 0.71100003
-0.0088276193 0.079448573 0.71300006
-0.0074800006 0.079560004 0.71400005
-0.0061371434 0.079782866 0.71600002
-0.0047800005 0.079894289 0.71700001
-0.0034238098 0.080117151 0.71900004
-0.002057143 0.080228575 0.72000003
-0.00068761909 0.080451436 0.72200006
0.00068857148 0.08056286 0.72300005
0.0020657144 0.08056286 0.72300005
0.0034428574 0.08056286 0.72300005
0.0048333337 0.080785722 0.72500002
0.0062228576 0.080897145 0.72600001
0.0076371431 0.081231438 0.72900003
0.0090504764 0.081454292 0.73100001
0.010442858 0.081454292 0.73100001
0.011851429 0.081565723 0.73200005
0.013245715 0.081565723 0.73200005
-0.11532287 0.075820006 0.66900003
-0.11294287 0.075933337 0.67000002
-0.11166667 0.075933337 0.67000002
-0.11055525 0.076046668 0.671
-0.11074287 0.077066675 0.68000001
-0.10944763 0.077066675 0.68000001
-0.10815239 0.077066675 0.68000001
-0.10685715 0.077066675 0.68000001
-0.11116667 0.082166672 0.72500002
-0.10993715 0.082280003 0.72600001
-0.1085543 0.082280003 0.72600001
-0.10746668 0.082506672 0.72800004
-0.10578858 0.082280003 0.72600001
-0.10469334 0.082506672 0.72800004
-0.10302287 0.082280003 0.72600001
-0.099820003 0.080806673 0.71300006
-0.098185718 0.080580004 0.71100003
-0.096695244 0.080466673 0.71000004
-0.095477149 0.080580004 0.71100003
-0.093990482 0.080466673 0.71000004
-0.09276858 0.080580004 0.71100003
-0.091414295 0.080580004 0.71100003
-0.090577148 0.082280003 0.72600001
-0.089808576 0.082846671 0.73100001
-0.088416196 0.082846671 0.73100001
-0.088690482 0.08443334 0.74500006
-0.087505721 0.084660009 0.74700004
-0.086198099 0.084773339 0.74800003
-0.070525721 0.084773339 0.74800003
-0.069008574 0.084660009 0.74700004
-0.067404769 0.08443334 0.74500006
-0.065808579 0.084206671 0.74300003
-0.064133339 0.083866671 0.74000001
-0.062469527 0.083526671 0.73700005
-0.060651433 0.082960002 0.73200005
-0.059176195 0.082846671 0.73100001
-0.057625718 0.082620002 0.72900003
-0.056160003 0.082506672 0.72800004
-0.054622862 0.082280003 0.72600001
-0.053020004 0.081940003 0.72300005
-0.051428575 0.081600003 0.72000003
-0.049987622 0.081486672 0.71900004
-0.048618097 0.081486672 0.71900004
-0.047248576 0.081486672 0.71900004
-0.045879051 0.081486672 0.71900004
-0.044509526 0.081486672 0.71900004
-0.043020003 0.081260003 0.71700001
-0.041770481 0.081486672 0.71900004
-0.040288575 0.081260003 0.71700001
-0.038922861 0.081260003 0.71700001
-0.037504766 0.081146672 0.71600002
-0.036040001 0.080920003 0.71400005
-0.034680001 0.080920003 0.71400005
-0.033320002 0.080920003 0.71400005
-0.03191524 0.080806673 0.71300006
-0.030557144 0.080806673 0.71300006
-0.029199049 0.080806673 0.71300006
-0.027840953 0.080806673 0.71300006
-0.02648286 0.080806673 0.71300006
-0.025160002 0.080920003 0.71400005
-0.023800002 0.080920003 0.71400005
-0.022440001 0.080920003 0.71400005
-0.021080002 0.080920003 0.71400005
-0.01977524 0.081146672 0.71600002
-0.01841143 0.081146672 0.71600002
-0.017047619 0.081146672 0.71600002
-0.015640002 0.080920003 0.71400005
-0.014260001 0.080806673 0.71300006
-0.012901906 0.080806673 0.71300006
-0.01154381 0.080806673 0.71300006
-0.010185715 0.080806673 0.71300006
-0.0088400003 0.080920003 0.71400005
-0.007500953 0.081146672 0.71600002
-0.0061457148 0.081260003 0.71700001
-0.0047933338 0.081486672 0.71900004
-0.0034238098 0.081486672 0.71900004
-0.002057143 0.081600003 0.72000003
-0.00068761909 0.081826672 0.72200006
0.00068857148 0.081940003 0.72300005
0.0020657144 0.081940003 0.72300005
0.0034523811 0.082166672 0.72500002
0.0048333337 0.082166672 0.72500002
0.0062400005 0.082506672 0.72800004
0.0076371431 0.082620002 0.72900003
0.0090504764 0.082846671 0.73100001
0.010457143 0.082960002 0.73200005
0.011851429 0.082960002 0.73200005
0.013245715 0.082960002 0.73200005
-0.11549524 0.077209532 0.67000002
-0.11421905 0.077209532 0.67000002
-0.11311144 0.07732477 0.671
-0.11183334 0.07732477 0.671
-0.11072001 0.077440009 0.67200005
-0.10944001 0.077440009 0.67200005
-0.10816 0.077440009 0.67200005
-0.10656191 0.077209532 0.67000002
-0.11270286 0.08366286 0.72600001
-0.11132 0.08366286 0.72600001
-0.10993715 0.08366286 0.72600001
-0.1085543 0.08366286 0.72600001
-0.10717144 0.08366286 0.72600001
-0.10578858 0.08366286 0.72600001
-0.10440572 0.08366286 0.72600001
-0.10288096 0.083547622 0.72500002
-0.10066 0.082856193 0.71900004
-0.098185718 0.081934288 0.71100003
-0.096831433 0.081934288 0.71100003
-0.09574572 0.082164764 0.71300006
-0.094122864 0.081934288 0.71100003
-0.092957146 0.083317146 0.72300005
-0.091580003 0.083317146 0.72300005
-0.090577148 0.08366286 0.72600001
-0.089440003 0.083893336 0.72800004
-0.087811433 0.08366286 0.72600001
-0.086428575 0.08366286 0.72600001
-0.067404769 0.085852385 0.74500006
-0.065808579 0.085621908 0.74300003
-0.064133339 0.085276194 0.74000001
-0.06263905 0.085160956 0.73900002
-0.060982861 0.084815241 0.73600006
-0.059257146 0.084354289 0.73200005
-0.057783812 0.084239051 0.73100001
-0.056237146 0.084008574 0.72900003
-0.054622862 0.08366286 0.72600001
-0.053166669 0.083547622 0.72500002
-0.051571433 0.083201908 0.72200006
-0.049987622 0.082856193 0.71900004
-0.048618097 0.082856193 0.71900004
-0.047248576 0.082856193 0.71900004
-0.045879051 0.082856193 0.71900004
-0.044509526 0.082856193 0.71900004
-0.043140002 0.082856193 0.71900004
-0.041770481 0.082856193 0.71900004
-0.040288575 0.082625717 0.71700001
-0.038922861 0.082625717 0.71700001
-0.037504766 0.082510479 0.71600002
-0.036040001 0.082280003 0.71400005
-0.034680001 0.082280003 0.71400005
-0.033320002 0.082280003 0.71400005
-0.031960003 0.082280003 0.71400005
-0.030600002 0.082280003 0.71400005
-0.029240001 0.082280003 0.71400005
-0.027840953 0.082164764 0.71300006
-0.026520003 0.082280003 0.71400005
-0.025160002 0.082280003 0.71400005
-0.023800002 0.082280003 0.71400005
-0.022502858 0.082510479 0.71600002
-0.02113905 0.082510479 0.71600002
-0.01977524 0.082510479 0.71600002
-0.018437143 0.082625717 0.71700001
-0.017047619 0.082510479 0.71600002
-0.015683811 0.082510479 0.71600002
-0.014280001 0.082280003 0.71400005
-0.012920001 0.082280003 0.71400005
-0.01154381 0.082164764 0.71300006
-0.010185715 0.082164764 0.71300006
-0.0088400003 0.082280003 0.71400005
-0.007500953 0.082510479 0.71600002
-0.0061457148 0.082625717 0.71700001
-0.0047933338 0.082856193 0.71900004
-0.0034238098 0.082856193 0.71900004
-0.002057143 0.082971431 0.72000003
-0.00068761909 0.083201908 0.72200006
0.00068857148 0.083317146 0.72300005
0.0020657144 0.083317146 0.72300005
0.0034523811 0.083547622 0.72500002
0.0048400005 0.08366286 0.72600001
0.0062485719 0.084008574 0.72900003
0.0076580956 0.084239051 0.73100001
0.0090504764 0.084239051 0.73100001
0.010457143 0.084354289 0.73200005
0.01188381 0.084584765 0.73400003
0.013281906 0.084584765 0.73400003
-0.11677144 0.07848572 0.67000002
-0.11421905 0.07848572 0.67000002
-0.11311144 0.078602865 0.671
-0.11183334 0.078602865 0.671
-0.11072001 0.078720003 0.67200005
-0.10944001 0.078720003 0.67200005
-0.1078381 0.07848572 0.67000002
-0.10656191 0.07848572 0.67000002
-0.11132 0.085045718 0.72600001
-0.10993715 0.085045718 0.72600001
-0.1085543 0.085045718 0.72600001
-0.10717144 0.085045718 0.72600001
-0.10578858 0.085045718 0.72600001
-0.10440572 0.085045718 0.72600001
-0.10288096 0.08492858 0.72500002
-0.10080001 0.08434286 0.72000003
-0.098600008 0.083640009 0.71400005
-0.097240008 0.083640009 0.71400005
-0.095880009 0.083640009 0.71400005
-0.094520003 0.083640009 0.71400005
-0.09342096 0.083874293 0.71600002
-0.092571437 0.08434286 0.72000003
-0.091580003 0.084694289 0.72300005
-0.090452388 0.08492858 0.72500002
-0.08919429 0.085045718 0.72600001
-0.08769048 0.08492858 0.72500002
-0.086071432 0.084694289 0.72300005
-0.067223817 0.087037146 0.74300003
-0.065720007 0.086920008 0.74200004
-0.064133339 0.086685717 0.74000001
-0.06263905 0.086568579 0.73900002
-0.060982861 0.08621715 0.73600006
-0.059257146 0.085748576 0.73200005
-0.057783812 0.085631438 0.73100001
-0.056391433 0.085631438 0.73100001
-0.054848574 0.085397147 0.72900003
-0.053240005 0.085045718 0.72600001
-0.051571433 0.084577151 0.72200006
-0.050057147 0.08434286 0.72000003
-0.048618097 0.084225722 0.71900004
-0.047248576 0.084225722 0.71900004
-0.045879051 0.084225722 0.71900004
-0.044509526 0.084225722 0.71900004
-0.043140002 0.084225722 0.71900004
-0.041770481 0.084225722 0.71900004
-0.040400956 0.084225722 0.71900004
-0.038922861 0.083991431 0.71700001
-0.037557144 0.083991431 0.71700001
-0.036140956 0.083874293 0.71600002
-0.034777146 0.083874293 0.71600002
-0.033320002 0.083640009 0.71400005
-0.031960003 0.083640009 0.71400005
-0.030600002 0.083640009 0.71400005
-0.029240001 0.083640009 0.71400005
-0.027880002 0.083640009 0.71400005
-0.026520003 0.083640009 0.71400005
-0.025230478 0.083874293 0.71600002
-0.023800002 0.083640009 0.71400005
-0.022502858 0.083874293 0.71600002
-0.021168573 0.083991431 0.71700001
-0.019802859 0.083991431 0.71700001
-0.018437143 0.083991431 0.71700001
-0.01707143 0.083991431 0.71700001
-0.015705716 0.083991431 0.71700001
-0.014320001 0.083874293 0.71600002
-0.012920001 0.083640009 0.71400005
-0.01156 0.083640009 0.71400005
-0.0102 0.083640009 0.71400005
-0.0088647623 0.083874293 0.71600002
-0.007500953 0.083874293 0.71600002
-0.0061457148 0.083991431 0.71700001
-0.0047933338 0.084225722 0.71900004
-0.0034238098 0.084225722 0.71900004
-0.002057143 0.08434286 0.72000003
-0.00068761909 0.084577151 0.72200006
0.00068857148 0.084694289 0.72300005
0.0020714288 0.08492858 0.72500002
0.0034523811 0.08492858 0.72500002
0.0048533338 0.085280009 0.72800004
0.0062485719 0.085397147 0.72900003
0.0076580956 0.085631438 0.73100001
0.0090628574 0.085748576 0.73200005
0.010485715 0.085982859 0.73400003
0.011916191 0.08621715 0.73600006
0.013336191 0.086334288 0.73700005
-0.11566763 0.07988096 0.671
-0.11438953 0.07988096 0.671
-0.11311144 0.07988096 0.671
-0.11183334 0.07988096 0.671
-0.11072001 0.080000006 0.67200005
-0.10944001 0.080000006 0.67200005
-0.10799906 0.07988096 0.671
-0.10672096 0.07988096 0.671
-0.10654286 0.080714293 0.67800003
-0.10525144 0.080714293 0.67800003
-0.11024 0.086666673 0.72800004
-0.10746668 0.086666673 0.72800004
-0.10578858 0.086428575 0.72600001
-0.10440572 0.086428575 0.72600001
-0.10288096 0.08630953 0.72500002
-0.10080001 0.085714288 0.72000003
-0.099290483 0.085595243 0.71900004
-0.097512387 0.085238099 0.71600002
-0.09614858 0.085238099 0.71600002
-0.094784766 0.085238099 0.71600002
-0.093551435 0.085357152 0.71700001
-0.092442863 0.085595243 0.71900004
-0.091580003 0.086071432 0.72300005
-0.090202861 0.086071432 0.72300005
-0.088825718 0.086071432 0.72300005
-0.087327622 0.085952386 0.72200006
-0.085952386 0.085952386 0.72200006
-0.084225722 0.085595243 0.71900004
-0.064133339 0.08809524 0.74000001
-0.06263905 0.087976195 0.73900002
-0.061065719 0.087738104 0.73700005
-0.059257146 0.087142862 0.73200005
-0.057783812 0.087023817 0.73100001
-0.056391433 0.087023817 0.73100001
-0.054848574 0.086785719 0.72900003
-0.053460002 0.086785719 0.72900003
-0.051571433 0.085952386 0.72200006
-0.050057147 0.085714288 0.72000003
-0.048618097 0.085595243 0.71900004
-0.047248576 0.085595243 0.71900004
-0.045879051 0.085595243 0.71900004
-0.044509526 0.085595243 0.71900004
-0.043140002 0.085595243 0.71900004
-0.041770481 0.085595243 0.71900004
-0.040400956 0.085595243 0.71900004
-0.039031431 0.085595243 0.71900004
-0.037661906 0.085595243 0.71900004
-0.036140956 0.085238099 0.71600002
-0.034777146 0.085238099 0.71600002
-0.033413336 0.085238099 0.71600002
-0.032049526 0.085238099 0.71600002
-0.030600002 0.085000008 0.71400005
-0.029240001 0.085000008 0.71400005
-0.027880002 0.085000008 0.71400005
-0.026594287 0.085238099 0.71600002
-0.025230478 0.085238099 0.71600002
-0.023866668 0.085238099 0.71600002
-0.022502858 0.085238099 0.71600002
-0.02113905 0.085238099 0.71600002
-0.019802859 0.085357152 0.71700001
-0.018437143 0.085357152 0.71700001
-0.01707143 0.085357152 0.71700001
-0.015705716 0.085357152 0.71700001
-0.014320001 0.085238099 0.71600002
-0.012956192 0.085238099 0.71600002
-0.011592382 0.085238099 0.71600002
-0.010228572 0.085238099 0.71600002
-0.0088647623 0.085238099 0.71600002
-0.007511429 0.085357152 0.71700001
-0.0061457148 0.085357152 0.71700001
-0.0047933338 0.085595243 0.71900004
-0.0034285716 0.085714288 0.72000003
-0.0020628574 0.085952386 0.72200006
-0.00068857148 0.086071432 0.72300005
0.00069047621 0.08630953 0.72500002
0.0020742859 0.086428575 0.72600001
0.0034666669 0.086666673 0.72800004
0.0048600002 0.086785719 0.72900003
0.0062657148 0.087023817 0.73100001
0.007668572 0.087142862 0.73200005
0.0090876194 0.087380961 0.73400003
0.010528572 0.087738104 0.73700005
0.011932381 0.087738104 0.73700005
0.013390477 0.08809524 0.74000001
-0.11328001 0.081280008 0.67200005
-0.11200001 0.081280008 0.67200005
-0.11104953 0.081521913 0.67400002
-0.10944001 0.081280008 0.67200005
-0.10799906 0.081159055 0.671
-0.10688001 0.081280008 0.67200005
-0.10654286 0.082005717 0.67800003
-0.10525144 0.082005717 0.67800003
-0.10411334 0.08212667 0.67900002
-0.10578858 0.087811433 0.72600001
-0.10426191 0.08769048 0.72500002
-0.10259715 0.087448575 0.72300005
-0.10080001 0.087085716 0.72000003
-0.099428579 0.087085716 0.72000003
-0.097920962 0.086964771 0.71900004
-0.096282862 0.086722866 0.71700001
-0.094917148 0.086722866 0.71700001
-0.093551435 0.086722866 0.71700001
-0.092442863 0.086964771 0.71900004
-0.091200009 0.087085716 0.72000003
-0.089828581 0.087085716 0.72000003
-0.088702865 0.087327622 0.72200006
-0.087085716 0.087085716 0.72000003
-0.085714288 0.087085716 0.72000003
-0.084225722 0.086964771 0.71900004
-0.06263905 0.089383818 0.73900002
-0.061065719 0.089141913 0.73700005
-0.059257146 0.088537149 0.73200005
-0.057783812 0.088416196 0.73100001
-0.056237146 0.088174291 0.72900003
-0.054848574 0.088174291 0.72900003
-0.053460002 0.088174291 0.72900003
-0.051857147 0.087811433 0.72600001
-0.050057147 0.087085716 0.72000003
-0.048618097 0.086964771 0.71900004
-0.047248576 0.086964771 0.71900004
-0.045879051 0.086964771 0.71900004
-0.044509526 0.086964771 0.71900004
-0.043140002 0.086964771 0.71900004
-0.041770481 0.086964771 0.71900004
-0.040400956 0.086964771 0.71900004
-0.039031431 0.086964771 0.71900004
-0.037661906 0.086964771 0.71900004
-0.03619143 0.086722866 0.71700001
-0.034825716 0.086722866 0.71700001
-0.033460002 0.086722866 0.71700001
-0.032049526 0.086601913 0.71600002
-0.030685715 0.086601913 0.71600002
-0.029321907 0.086601913 0.71600002
-0.027880002 0.086360008 0.71400005
-0.026594287 0.086601913 0.71600002
-0.025230478 0.086601913 0.71600002
-0.023866668 0.086601913 0.71600002
-0.022534287 0.086722866 0.71700001
-0.021168573 0.086722866 0.71700001
-0.019802859 0.086722866 0.71700001
-0.018437143 0.086722866 0.71700001
-0.017119048 0.086964771 0.71900004
-0.015705716 0.086722866 0.71700001
-0.014320001 0.086601913 0.71600002
-0.012956192 0.086601913 0.71600002
-0.011592382 0.086601913 0.71600002
-0.010228572 0.086601913 0.71600002
-0.0088771433 0.086722866 0.71700001
-0.007511429 0.086722866 0.71700001
-0.0061628576 0.086964771 0.71900004
-0.0048000002 0.087085716 0.72000003
-0.0034285716 0.087085716 0.72000003
-0.0020657144 0.087448575 0.72300005
-0.00069047621 0.08769048 0.72500002
0.00069142861 0.087811433 0.72600001
0.0020742859 0.087811433 0.72600001
0.0034714288 0.088174291 0.72900003
0.0048733335 0.088416196 0.73100001
0.0062742862 0.088537149 0.73200005
0.0076895244 0.088779055 0.73400003
0.0091123814 0.08902096 0.73600006
0.010528572 0.089141913 0.73700005
0.011932381 0.089141913 0.73700005
-0.11361715 0.082805723 0.67400002
-0.11233334 0.082805723 0.67400002
-0.1112143 0.082928576 0.67500001
-0.10992858 0.082928576 0.67500001
-0.10864286 0.082928576 0.67500001
-0.10735715 0.082928576 0.67500001
-0.10670001 0.083420008 0.67900002
-0.10540667 0.083420008 0.67900002
-0.10221429 0.082928576 0.67500001
-0.10520572 0.088702865 0.72200006
-0.10383049 0.088702865 0.72200006
-0.10245524 0.088702865 0.72200006
-0.10080001 0.088457152 0.72000003
-0.099290483 0.088334292 0.71900004
-0.097920962 0.088334292 0.71900004
-0.096551433 0.088334292 0.71900004
-0.095181912 0.088334292 0.71900004
-0.093812384 0.088334292 0.71900004
-0.092185721 0.088088579 0.71700001
-0.091073342 0.088334292 0.71900004
-0.089828581 0.088457152 0.72000003
-0.088702865 0.088702865 0.72200006
-0.087085716 0.088457152 0.72000003
-0.085714288 0.088457152 0.72000003
-0.084225722 0.088334292 0.71900004
-0.061065719 0.090545721 0.73700005
-0.059176195 0.089808576 0.73100001
-0.057783812 0.089808576 0.73100001
-0.056237146 0.089562863 0.72900003
-0.054848574 0.089562863 0.72900003
-0.053460002 0.089562863 0.72900003
-0.052000005 0.089440003 0.72800004
-0.050057147 0.088457152 0.72000003
-0.048685718 0.088457152 0.72000003
-0.047248576 0.088334292 0.71900004
-0.045879051 0.088334292 0.71900004
-0.044509526 0.088334292 0.71900004
-0.043140002 0.088334292 0.71900004
-0.041770481 0.088334292 0.71900004
-0.040400956 0.088334292 0.71900004
-0.039031431 0.088334292 0.71900004
-0.037661906 0.088334292 0.71900004
-0.036292382 0.088334292 0.71900004
-0.034922861 0.088334292 0.71900004
-0.033460002 0.088088579 0.71700001
-0.032094289 0.088088579 0.71700001
-0.030728573 0.088088579 0.71700001
-0.029321907 0.087965719 0.71600002
-0.027958097 0.087965719 0.71600002
-0.02663143 0.088088579 0.71700001
-0.025265716 0.088088579 0.71700001
-0.023900002 0.088088579 0.71700001
-0.022534287 0.088088579 0.71700001
-0.021227621 0.088334292 0.71900004
-0.019858096 0.088334292 0.71900004
-0.018488573 0.088334292 0.71900004
-0.017119048 0.088334292 0.71900004
-0.015749525 0.088334292 0.71900004
-0.014340001 0.088088579 0.71700001
-0.012974286 0.088088579 0.71700001
-0.011608572 0.088088579 0.71700001
-0.010242858 0.088088579 0.71700001
-0.0088771433 0.088088579 0.71700001
-0.007511429 0.088088579 0.71700001
-0.0061628576 0.088334292 0.71900004
-0.0048000002 0.088457152 0.72000003
-0.0034380956 0.088702865 0.72200006
-0.0020714288 0.089071438 0.72500002
-0.00069142861 0.08919429 0.72600001
0.00069333339 0.089440003 0.72800004
0.0020800002 0.089440003 0.72800004
0.0034714288 0.089562863 0.72900003
0.0048733335 0.089808576 0.73100001
0.0062742862 0.089931436 0.73200005
0.0076895244 0.090177149 0.73400003
0.0091123814 0.090422861 0.73600006
-0.11378572 0.084214292 0.67500001
-0.1125 0.084214292 0.67500001
-0.1112143 0.084214292 0.67500001
-0.10992858 0.084214292 0.67500001
-0.10864286 0.084214292 0.67500001
-0.10735715 0.084214292 0.67500001
-0.10654286 0.08458858 0.67800003
-0.10525144 0.08458858 0.67800003
-0.10350001 0.084214292 0.67500001
-0.10520572 0.090078101 0.72200006
-0.10383049 0.090078101 0.72200006
-0.10245524 0.090078101 0.72200006
-0.10080001 0.089828581 0.72000003
-0.099290483 0.089703813 0.71900004
-0.097920962 0.089703813 0.71900004
-0.096551433 0.089703813 0.71900004
-0.094917148 0.089454293 0.71700001
-0.09342096 0.089329533 0.71600002
-0.092057146 0.089329533 0.71600002
-0.09069334 0.089329533 0.71600002
-0.089454293 0.089454293 0.71700001
-0.088334292 0.089703813 0.71900004
-0.086722866 0.089454293 0.71700001
-0.085595243 0.089703813 0.71900004
-0.083991431 0.089454293 0.71700001
-0.060568575 0.091200955 0.73100001
-0.059176195 0.091200955 0.73100001
-0.057625718 0.090951435 0.72900003
-0.056160003 0.090826675 0.72800004
-0.054773338 0.090826675 0.72800004
-0.053460002 0.090951435 0.72900003
-0.052000005 0.090826675 0.72800004
-0.050404765 0.090452388 0.72500002
-0.048685718 0.089828581 0.72000003
-0.04731429 0.089828581 0.72000003
-0.045879051 0.089703813 0.71900004
-0.044571433 0.089828581 0.72000003
-0.043200001 0.089828581 0.72000003
-0.041828573 0.089828581 0.72000003
-0.040457144 0.089828581 0.72000003
-0.039085716 0.089828581 0.72000003
-0.037714288 0.089828581 0.72000003
-0.036342859 0.089828581 0.72000003
-0.034922861 0.089703813 0.71900004
-0.033553336 0.089703813 0.71900004
-0.032183811 0.089703813 0.71900004
-0.030814288 0.089703813 0.71900004
-0.029362859 0.089454293 0.71700001
-0.027997145 0.089454293 0.71700001
-0.02663143 0.089454293 0.71700001
-0.025265716 0.089454293 0.71700001
-0.023900002 0.089454293 0.71700001
-0.022597143 0.089703813 0.71900004
-0.021227621 0.089703813 0.71900004
-0.019858096 0.089703813 0.71900004
-0.018488573 0.089703813 0.71900004
-0.017119048 0.089703813 0.71900004
-0.015749525 0.089703813 0.71900004
-0.014340001 0.089454293 0.71700001
-0.012974286 0.089454293 0.71700001
-0.011608572 0.089454293 0.71700001
-0.010242858 0.089454293 0.71700001
-0.0089019053 0.089703813 0.71900004
-0.0075323815 0.089703813 0.71900004
-0.0061714291 0.089828581 0.72000003
-0.0048200004 0.090202861 0.72300005
-0.0034523811 0.090452388 0.72500002
-0.0020800002 0.090826675 0.72800004
-0.00069333339 0.090826675 0.72800004
0.00069428579 0.090951435 0.72900003
0.0020828573 0.090951435 0.72900003
0.0034809527 0.091200955 0.73100001
0.0048800004 0.091325723 0.73200005
0.006291429 0.091575243 0.73400003
-0.11266667 0.085626669 0.67600006
-0.11137906 0.085626669 0.67600006
-0.11009143 0.085626669 0.67600006
-0.10880382 0.085626669 0.67600006
-0.10735715 0.085500002 0.67500001
-0.10622858 0.085626669 0.67600006
-0.10494096 0.085626669 0.67600006
-0.10350001 0.085500002 0.67500001
-0.10354286 0.091200009 0.72000003
-0.10217144 0.091200009 0.72000003
-0.10066 0.091073342 0.71900004
-0.099290483 0.091073342 0.71900004
-0.097920962 0.091073342 0.71900004
-0.096282862 0.090820007 0.71700001
-0.094917148 0.090820007 0.71700001
-0.09342096 0.09069334 0.71600002
-0.091800004 0.090440005 0.71400005
-0.090440005 0.090440005 0.71400005
-0.089080006 0.090440005 0.71400005
-0.087965719 0.09069334 0.71600002
-0.086601913 0.09069334 0.71600002
-0.085238099 0.09069334 0.71600002
-0.083640009 0.090440005 0.71400005
-0.082280003 0.090440005 0.71400005
-0.060402863 0.092340007 0.72900003
-0.059014291 0.092340007 0.72900003
-0.057546671 0.09221334 0.72800004
-0.056160003 0.09221334 0.72800004
-0.054773338 0.09221334 0.72800004
-0.05338667 0.09221334 0.72800004
-0.051857147 0.091960005 0.72600001
-0.050404765 0.091833338 0.72500002
-0.048685718 0.091200009 0.72000003
-0.04731429 0.091200009 0.72000003
-0.045942862 0.091200009 0.72000003
-0.044571433 0.091200009 0.72000003
-0.043200001 0.091200009 0.72000003
-0.041828573 0.091200009 0.72000003
-0.040457144 0.091200009 0.72000003
-0.039085716 0.091200009 0.72000003
-0.037714288 0.091200009 0.72000003
-0.036342859 0.091200009 0.72000003
-0.034971431 0.091200009 0.72000003
-0.033600003 0.091200009 0.72000003
-0.032183811 0.091073342 0.71900004
-0.030814288 0.091073342 0.71900004
-0.029444763 0.091073342 0.71900004
-0.028075241 0.091073342 0.71900004
-0.026705716 0.091073342 0.71900004
-0.025336193 0.091073342 0.71900004
-0.023966668 0.091073342 0.71900004
-0.022597143 0.091073342 0.71900004
-0.021227621 0.091073342 0.71900004
-0.019858096 0.091073342 0.71900004
-0.018488573 0.091073342 0.71900004
-0.017142858 0.091200009 0.72000003
-0.01577143 0.091200009 0.72000003
-0.014380001 0.091073342 0.71900004
-0.013010477 0.091073342 0.71900004
-0.011640953 0.091073342 0.71900004
-0.010271429 0.091073342 0.71900004
-0.0089019053 0.091073342 0.71900004
-0.0075323815 0.091073342 0.71900004
-0.0061714291 0.091200009 0.72000003
-0.0048333337 0.091833338 0.72500002
-0.0034666669 0.09221334 0.72800004
-0.0020828573 0.092340007 0.72900003
-0.00069428579 0.092340007 0.72900003
0.00069428579 0.092340007 0.72900003
0.0020885717 0.092593342 0.73100001
0.0034857146 0.092720009 0.73200005
-0.11170858 0.087171435 0.67800003
-0.11041715 0.087171435 0.67800003
-0.10912572 0.087171435 0.67800003
-0.1075162 0.086914293 0.67600006
-0.10654286 0.087171435 0.67800003
-0.10494096 0.086914293 0.67600006
-0.10334668 0.086657152 0.67400002
-0.10206287 0.086657152 0.67400002
-0.10185715 0.088714294 0.69000006
-0.10054287 0.088714294 0.69000006
-0.099372387 0.088842861 0.69100004
-0.098056197 0.088842861 0.69100004
-0.096740007 0.088842861 0.69100004
-0.099290483 0.092442863 0.71900004
-0.097512387 0.092057146 0.71600002
-0.09614858 0.092057146 0.71600002
-0.094784766 0.092057146 0.71600002
-0.093160003 0.091800004 0.71400005
-0.091671437 0.091671437 0.71300006
-0.090060003 0.091414295 0.71100003
-0.088705719 0.091414295 0.71100003
-0.087351434 0.091414295 0.71100003
-0.086239055 0.091671437 0.71300006
-0.084880956 0.091671437 0.71300006
-0.083522864 0.091671437 0.71300006
-0.081934288 0.091414295 0.71100003
-0.080580004 0.091414295 0.71100003
-0.079114288 0.09128572 0.71000004
-0.062833339 0.093214288 0.72500002
-0.061452385 0.093214288 0.72500002
-0.060071431 0.093214288 0.72500002
-0.058771431 0.093342863 0.72600001
-0.057388574 0.093342863 0.72600001
-0.056005716 0.093342863 0.72600001
-0.054622862 0.093342863 0.72600001
-0.053240005 0.093342863 0.72600001
-0.051857147 0.093342863 0.72600001
-0.050404765 0.093214288 0.72500002
-0.048820954 0.092828579 0.72200006
-0.04731429 0.092571437 0.72000003
-0.045942862 0.092571437 0.72000003
-0.044571433 0.092571437 0.72000003
-0.043200001 0.092571437 0.72000003
-0.041944765 0.092828579 0.72200006
-0.040569525 0.092828579 0.72200006
-0.03919429 0.092828579 0.72200006
-0.03781905 0.092828579 0.72200006
-0.036443811 0.092828579 0.72200006
-0.034971431 0.092571437 0.72000003
-0.033600003 0.092571437 0.72000003
-0.032228574 0.092571437 0.72000003
-0.030857146 0.092571437 0.72000003
-0.029444763 0.092442863 0.71900004
-0.028075241 0.092442863 0.71900004
-0.026705716 0.092442863 0.71900004
-0.025336193 0.092442863 0.71900004
-0.023966668 0.092442863 0.71900004
-0.022597143 0.092442863 0.71900004
-0.021227621 0.092442863 0.71900004
-0.019885715 0.092571437 0.72000003
-0.018514287 0.092571437 0.72000003
-0.017142858 0.092571437 0.72000003
-0.01577143 0.092571437 0.72000003
-0.014380001 0.092442863 0.71900004
-0.013010477 0.092442863 0.71900004
-0.011640953 0.092442863 0.71900004
-0.010271429 0.092442863 0.71900004
-0.0089142863 0.092571437 0.72000003
-0.0075428574 0.092571437 0.72000003
-0.0061885719 0.092828579 0.72200006
-0.0048333337 0.093214288 0.72500002
-0.0034666669 0.093600005 0.72800004
-0.0020828573 0.09372858 0.72900003
-0.00069428579 0.09372858 0.72900003
-0.11041715 0.088462859 0.67800003
-0.10912572 0.088462859 0.67800003
-0.10783429 0.088462859 0.67800003
-0.10654286 0.088462859 0.67800003
-0.10494096 0.08820191 0.67600006
-0.10350001 0.088071436 0.67500001
-0.10257334 0.089506671 0.68600005
-0.10126667 0.089506671 0.68600005
-0.10054287 0.090028577 0.69000006
-0.099372387 0.090159051 0.69100004
-0.097914293 0.090028577 0.69000006
-0.096740007 0.090159051 0.69100004
-0.095423818 0.090159051 0.69100004
-0.094107628 0.090159051 0.69100004
-0.094387628 0.093029529 0.71300006
-0.093029529 0.093029529 0.71300006
-0.091414295 0.09276858 0.71100003
-0.089680009 0.092377149 0.708
-0.088331431 0.092377149 0.708
-0.086982861 0.092377149 0.708
-0.085634291 0.092377149 0.708
-0.084285721 0.092377149 0.708
-0.08328858 0.09276858 0.71100003
-0.081588574 0.092377149 0.708
-0.080240004 0.092377149 0.708
-0.079114288 0.092638098 0.71000004
-0.077542864 0.092377149 0.708
-0.076194294 0.092377149 0.708
-0.074845716 0.092377149 0.708
-0.073497146 0.092377149 0.708
-0.065052383 0.093812384 0.71900004
-0.063682862 0.093812384 0.71900004
-0.062573336 0.094203815 0.72200006
-0.061282862 0.094334289 0.72300005
-0.060071431 0.094595246 0.72500002
-0.058771431 0.094725721 0.72600001
-0.057388574 0.094725721 0.72600001
-0.056005716 0.094725721 0.72600001
-0.054622862 0.094725721 0.72600001
-0.053240005 0.094725721 0.72600001
-0.051857147 0.094725721 0.72600001
-0.050404765 0.094595246 0.72500002
-0.048820954 0.094203815 0.72200006
-0.047445718 0.094203815 0.72200006
-0.046070479 0.094203815 0.72200006
-0.04469524 0.094203815 0.72200006
-0.043320004 0.094203815 0.72200006
-0.04200286 0.094334289 0.72300005
-0.040569525 0.094203815 0.72200006
-0.039248575 0.094334289 0.72300005
-0.037871432 0.094334289 0.72300005
-0.036494289 0.094334289 0.72300005
-0.035068575 0.094203815 0.72200006
-0.033693336 0.094203815 0.72200006
-0.032318097 0.094203815 0.72200006
-0.030985717 0.094334289 0.72300005
-0.029567622 0.094203815 0.72200006
-0.028192382 0.094203815 0.72200006
-0.026817145 0.094203815 0.72200006
-0.025441907 0.094203815 0.72200006
-0.024066668 0.094203815 0.72200006
-0.022628574 0.093942866 0.72000003
-0.021257143 0.093942866 0.72000003
-0.019885715 0.093942866 0.72000003
-0.018514287 0.093942866 0.72000003
-0.017142858 0.093942866 0.72000003
-0.015815239 0.094203815 0.72200006
-0.014400001 0.093942866 0.72000003
-0.013028572 0.093942866 0.72000003
-0.011689524 0.094203815 0.72200006
-0.010328572 0.094334289 0.72300005
-0.0089761913 0.094595246 0.72500002
-0.0075952387 0.094595246 0.72500002
-0.0062400005 0.09498667 0.72800004
-0.10350001 0.089357145 0.67500001
-0.10257334 0.090813339 0.68600005
-0.10126667 0.090813339 0.68600005
-0.10010572 0.090945721 0.68700004
-0.099084765 0.091210485 0.68900001
-0.09777239 0.091210485 0.68900001
-0.096740007 0.091475241 0.69100004
-0.095423818 0.091475241 0.69100004
-0.094107628 0.091475241 0.69100004
-0.094402865 0.093063816 0.70300001
-0.093063816 0.093063816 0.70300001
-0.09276858 0.094122864 0.71100003
-0.091028579 0.093725719 0.708
-0.089553341 0.093593337 0.70700002
-0.088206671 0.093593337 0.70700002
-0.086614288 0.09332858 0.70500004
-0.085271433 0.09332858 0.70500004
-0.083928578 0.09332858 0.70500004
-0.082937151 0.093725719 0.708
-0.081473336 0.093593337 0.70700002
-0.080240004 0.093725719 0.708
-0.078891434 0.093725719 0.708
-0.077542864 0.093725719 0.708
-0.076194294 0.093725719 0.708
-0.074845716 0.093725719 0.708
-0.073497146 0.093725719 0.708
-0.072352387 0.093990482 0.71000004
-0.071000002 0.093990482 0.71000004
-0.069941908 0.094387628 0.71300006
-0.068872385 0.094784766 0.71600002
-0.067602858 0.094917148 0.71700001
-0.066237144 0.094917148 0.71700001
-0.06487143 0.094917148 0.71700001
-0.063771434 0.095314294 0.72000003
-0.062573336 0.09557905 0.72200006
-0.0611981 0.09557905 0.72200006
-0.060071431 0.095976196 0.72500002
-0.058771431 0.096108578 0.72600001
-0.057388574 0.096108578 0.72600001
-0.056005716 0.096108578 0.72600001
-0.054622862 0.096108578 0.72600001
-0.053240005 0.096108578 0.72600001
-0.051857147 0.096108578 0.72600001
-0.05047429 0.096108578 0.72600001
-0.048888575 0.095711432 0.72300005
-0.047511432 0.095711432 0.72300005
-0.046134289 0.095711432 0.72300005
-0.044757146 0.095711432 0.72300005
-0.043380003 0.095711432 0.72300005
-0.04200286 0.095711432 0.72300005
-0.040625717 0.095711432 0.72300005
-0.039248575 0.095711432 0.72300005
-0.037871432 0.095711432 0.72300005
-0.03659524 0.095976196 0.72500002
-0.035117146 0.095711432 0.72300005
-0.033740003 0.095711432 0.72300005
-0.032452382 0.095976196 0.72500002
-0.03107143 0.095976196 0.72500002
-0.029690478 0.095976196 0.72500002
-0.028309526 0.095976196 0.72500002
-0.026928574 0.095976196 0.72500002
-0.025477145 0.095711432 0.72300005
-0.024100002 0.095711432 0.72300005
-0.022691431 0.09557905 0.72200006
-0.021316191 0.09557905 0.72200006
-0.019940954 0.09557905 0.72200006
-0.018565716 0.09557905 0.72200006
-0.017190477 0.09557905 0.72200006
-0.015837144 0.095711432 0.72300005
-0.014440001 0.09557905 0.72200006
-0.013064763 0.09557905 0.72200006
-0.011705715 0.095711432 0.72300005
-0.010357143 0.095976196 0.72500002
-0.0089761913 0.095976196 0.72500002
-0.0076057147 0.096108578 0.72600001
-0.10097144 0.091851436 0.68400002
-0.099960007 0.092120007 0.68600005
-0.09879715 0.092254288 0.68700004
-0.097488575 0.092254288 0.68700004
-0.096600004 0.092657149 0.69000006
-0.095700003 0.093060009 0.69300002
-0.094107628 0.092791438 0.69100004
-0.093060009 0.093060009 0.69300002
-0.092666671 0.094000004 0.70000005
-0.091463819 0.094134293 0.70100003
-0.090514295 0.094537146 0.70400006
-0.089173339 0.094537146 0.70400006
-0.087832384 0.094537146 0.70400006
-0.086491436 0.094537146 0.70400006
-0.08515048 0.094537146 0.70400006
-0.083928578 0.094671436 0.70500004
-0.082585722 0.094671436 0.70500004
-0.081473336 0.094940007 0.70700002
-0.080126673 0.094940007 0.70700002
-0.078891434 0.095074289 0.708
-0.07743334 0.094940007 0.70700002
-0.076194294 0.095074289 0.708
-0.074845716 0.095074289 0.708
-0.073497146 0.095074289 0.708
-0.072454289 0.095477149 0.71100003
-0.071300007 0.09574572 0.71300006
-0.070040002 0.095880009 0.71400005
-0.068968579 0.096282862 0.71700001
-0.067602858 0.096282862 0.71700001
-0.066421911 0.096551433 0.71900004
-0.065052383 0.096551433 0.71900004
-0.063682862 0.096551433 0.71900004
-0.062573336 0.096954294 0.72200006
-0.061282862 0.097088575 0.72300005
-0.060071431 0.097357146 0.72500002
-0.049023814 0.097357146 0.72500002
-0.047642861 0.097357146 0.72500002
-0.046261907 0.097357146 0.72500002
-0.044880956 0.097357146 0.72500002
-0.043500002 0.097357146 0.72500002
-0.042119049 0.097357146 0.72500002
-0.040738098 0.097357146 0.72500002
-0.039357144 0.097357146 0.72500002
-0.037976194 0.097357146 0.72500002
-0.03659524 0.097357146 0.72500002
-0.035214286 0.097357146 0.72500002
-0.033833336 0.097357146 0.72500002
-0.022722859 0.097088575 0.72300005
-0.021316191 0.096954294 0.72200006
-0.019940954 0.096954294 0.72200006
-0.018565716 0.096954294 0.72200006
-0.017190477 0.096954294 0.72200006
-0.015837144 0.097088575 0.72300005
-0.014460001 0.097088575 0.72300005
-0.013082858 0.097088575 0.72300005
-0.10097144 0.093154289 0.68400002
-0.099668577 0.093154289 0.68400002
-0.098653339 0.093426675 0.68600005
-0.097346671 0.093426675 0.68600005
-0.096040003 0.093426675 0.68600005
-0.095700003 0.094380006 0.69300002
-0.094380006 0.094380006 0.69300002
-0.093060009 0.094380006 0.69300002
-0.092004769 0.094652385 0.69500005
-0.090680957 0.094652385 0.69500005
-0.09038572 0.095741913 0.70300001
-0.089046672 0.095741913 0.70300001
-0.087707624 0.095741913 0.70300001
-0.086491436 0.095878102 0.70400006
-0.08515048 0.095878102 0.70400006
-0.083809532 0.095878102 0.70400006
-0.082585722 0.096014291 0.70500004
-0.081473336 0.096286669 0.70700002
-0.080126673 0.096286669 0.70700002
-0.078780003 0.096286669 0.70700002
-0.07743334 0.096286669 0.70700002
-0.076194294 0.096422866 0.708
-0.074845716 0.096422866 0.708
-0.073497146 0.096422866 0.708
-0.072352387 0.096695244 0.71000004
-0.071300007 0.097103819 0.71300006
-0.070236199 0.097512387 0.71600002
-0.069160961 0.097920962 0.71900004
-0.067791432 0.097920962 0.71900004
-0.066421911 0.097920962 0.71900004
-0.065142862 0.098057151 0.72000003
-0.063771434 0.098057151 0.72000003
-0.062573336 0.098329529 0.72200006
-0.061282862 0.098465718 0.72300005
-0.019940954 0.098329529 0.72200006
-0.018565716 0.098329529 0.72200006
-0.017190477 0.098329529 0.72200006
-0.099668577 0.09445715 0.68400002
-0.098653339 0.094733343 0.68600005
-0.097062863 0.09445715 0.68400002
-0.095760003 0.09445715 0.68400002
-0.094107628 0.095423818 0.69100004
-0.092791438 0.095423818 0.69100004
-0.087458104 0.096804768 0.70100003
-0.086368576 0.097080961 0.70300001
-0.085029528 0.097080961 0.70300001
-0.083690479 0.097080961 0.70300001
-0.082468577 0.097219057 0.70400006
-0.081242859 0.097357146 0.70500004
-0.079900004 0.097357146 0.70500004
-0.078780003 0.097633339 0.70700002
-0.07743334 0.097633339 0.70700002
-0.076194294 0.097771436 0.708
-0.074845716 0.097771436 0.708
-0.073704764 0.098047629 0.71000004
-0.072658099 0.098461911 0.71300006
-0.071600005 0.098876201 0.71600002
-0.070530482 0.099290483 0.71900004
-0.069449529 0.099704765 0.72200006
-0.067885719 0.099428579 0.72000003
-0.066514291 0.099428579 0.72000003
-0.063771434 0.099428579 0.72000003
-0.099522866 0.095620006 0.68300003
-0.098365724 0.095760003 0.68400002
-0.087333336 0.098000005 0.70000005
-0.086122863 0.098140009 0.70100003
-0.084787622 0.098140009 0.70100003
-0.083690479 0.098420009 0.70300001
-0.082351431 0.098420009 0.70300001
-0.081127621 0.098560005 0.70400006
-0.079786673 0.098560005 0.70400006
-0.078557149 0.098700009 0.70500004
-0.077214293 0.098700009 0.70500004
-0.07608667 0.09898001 0.70700002
-0.074845716 0.099120006 0.708
-0.073704764 0.099400006 0.71000004
-0.07306572 0.10038 0.71700001
-0.071900003 0.10066 0.71900004
