# .PCD v0.7 - Point Cloud Data file format
VERSION 0.7
FIELDS x y z
SIZE 4 4 4
TYPE F F F
COUNT 1 1 1
WIDTH 1415
HEIGHT 1
VIEWPOINT 0 0 0 1 0 0 0
POINTS 1415
DATA ascii
0.079166673 0.091071434 0.625
0.080485716 0.091217145 0.62600005
0.081939057 0.091508575 0.62800002
0.083135247 0.091508575 0.62800002
0.08446572 0.091654293 0.62900001
0.085936196 0.091945723 0.63100004
0.087276198 0.092091434 0.63200003
0.088620007 0.092237152 0.63300002
0.08982572 0.092237152 0.63300002
0.091175243 0.092382863 0.634
0.092382863 0.092382863 0.634
0.093738101 0.092528574 0.63500005
0.095695242 0.093257152 0.64000005
0.097065717 0.093402863 0.64100003
0.098900005 0.093985721 0.64500004
0.10028382 0.094131432 0.64600003
0.10151429 0.094131432 0.64600003
0.10290381 0.094277151 0.64700001
0.1041362 0.094277151 0.64700001
0.10553144 0.094422862 0.648
0.10709524 0.094714291 0.65000004
0.1104143 0.095442861 0.65500003
0.11200286 0.095734291 0.65700001
0.11342667 0.095880009 0.65800005
0.11502858 0.096171431 0.66000003
0.11646191 0.09631715 0.66100001
0.11789905 0.096462861 0.66200006
0.11934001 0.096608579 0.66300005
0.12114858 0.09704572 0.66600001
0.12260096 0.097191438 0.66700006
0.12424286 0.09748286 0.66900003
0.12589239 0.09777429 0.671
0.12736 0.097920008 0.67200005
-0.024279049 0.10170953 0.68900001
-0.022800002 0.10097144 0.68400002
-0.021497143 0.10097144 0.68400002
-0.020135239 0.10067619 0.68200004
-0.018780954 0.10038096 0.68000001
-0.017460002 0.10023334 0.67900002
-0.016142858 0.10008572 0.67800003
-0.014785715 0.099642865 0.67500001
-0.013440001 0.099200003 0.67200005
-0.01212381 0.098904766 0.67000002
-0.010766667 0.098166674 0.66500002
-0.0094714295 0.097871438 0.66300005
-0.0081714289 0.097428575 0.66000003
-0.0068828575 0.09698572 0.65700001
-0.0055971434 0.096395247 0.65300006
-0.0043400005 0.09610001 0.65100002
-0.0030857145 0.095657147 0.648
-0.0018485716 0.095509529 0.64700001
-0.00061428576 0.095214292 0.64500004
0.00061047624 0.094623819 0.64100003
0.0018285715 0.094476193 0.64000005
0.0030380955 0.094180956 0.63800001
0.0042400002 0.09388572 0.63600004
0.0054342858 0.093590483 0.634
0.0066314288 0.093442865 0.63300002
0.0078371437 0.093442865 0.63300002
0.0090428581 0.093442865 0.63300002
0.010248573 0.093442865 0.63300002
0.011454286 0.093442865 0.63300002
0.01266 0.093442865 0.63300002
0.01388762 0.093590483 0.634
0.01509524 0.093590483 0.634
0.016302858 0.093590483 0.634
0.017538097 0.093738101 0.63500005
0.01874762 0.093738101 0.63500005
0.019988572 0.09388572 0.63600004
0.021266667 0.094180956 0.63800001
0.022517145 0.094328575 0.63900006
0.023771429 0.094476193 0.64000005
0.024990479 0.094476193 0.64000005
0.02629143 0.094771437 0.64200002
0.027514288 0.094771437 0.64200002
0.028737145 0.094771437 0.64200002
0.029960003 0.094771437 0.64200002
0.031182859 0.094771437 0.64200002
0.032355241 0.094623819 0.64100003
0.033523813 0.094476193 0.64000005
0.034688573 0.094328575 0.63900006
0.035680953 0.093738101 0.63500005
0.036832385 0.093590483 0.634
0.038040001 0.093590483 0.634
0.039185718 0.093442865 0.63300002
0.040327623 0.093295246 0.63200003
0.041465718 0.093147628 0.63100004
0.042532384 0.092852384 0.62900001
0.043591432 0.092557147 0.62700003
0.044642862 0.09226191 0.625
0.04568667 0.091966674 0.62300003
0.046798099 0.091819055 0.62200004
0.047828574 0.091523819 0.62
0.049009528 0.091523819 0.62
0.050109528 0.091376193 0.61900002
0.051205717 0.091228575 0.61800003
0.05238286 0.091228575 0.61800003
0.053473338 0.091080956 0.61700004
0.054560002 0.090933338 0.61600006
0.055642862 0.090785719 0.61500001
0.056814291 0.090785719 0.61500001
0.057985719 0.090785719 0.61500001
0.059060957 0.090638101 0.61400002
0.060132384 0.090490483 0.61300004
0.061300006 0.090490483 0.61300004
0.062467624 0.090490483 0.61300004
0.063635245 0.090490483 0.61300004
0.064802863 0.090490483 0.61300004
0.06597048 0.090490483 0.61300004
0.067138098 0.090490483 0.61300004
0.068528578 0.090785719 0.61500001
0.069926672 0.091080956 0.61700004
0.071217149 0.091228575 0.61800003
0.072628573 0.091523819 0.62
0.074047625 0.091819055 0.62200004
0.075353339 0.091966674 0.62300003
0.076662861 0.092114292 0.62400001
0.077976197 0.09226191 0.625
0.07929334 0.092409529 0.62600005
0.080614291 0.092557147 0.62700003
0.081939057 0.092704765 0.62800002
0.083267622 0.092852384 0.62900001
0.084734291 0.093147628 0.63100004
0.086072385 0.093295246 0.63200003
0.087414294 0.093442865 0.63300002
0.088760003 0.093590483 0.634
0.089967623 0.093590483 0.634
0.091175243 0.093590483 0.634
0.092528574 0.093738101 0.63500005
0.094180956 0.094180956 0.63800001
0.095994294 0.094771437 0.64200002
0.09721715 0.094771437 0.64200002
0.099053338 0.095361911 0.64600003
0.10043906 0.095509529 0.64700001
0.10167143 0.095509529 0.64700001
0.10290381 0.095509529 0.64700001
0.10429715 0.095657147 0.648
0.10585715 0.095952384 0.65000004
0.10726 0.09610001 0.65100002
0.10866667 0.096247628 0.65200001
0.11058287 0.096838102 0.65600002
0.11217334 0.097133338 0.65800005
0.11377144 0.097428575 0.66000003
0.11520287 0.097576194 0.66100001
0.1166381 0.097723819 0.66200006
0.11807715 0.097871438 0.66300005
0.11970001 0.098166674 0.66500002
0.12114858 0.098314293 0.66600001
0.12260096 0.098461911 0.66700006
0.12424286 0.098757148 0.66900003
0.12551714 0.098757148 0.66900003
-0.023000002 0.10317144 0.69000006
-0.021591431 0.10272286 0.68700004
-0.020253334 0.10257334 0.68600005
-0.01886381 0.10212477 0.68300003
-0.017537143 0.10197525 0.68200004
-0.016190477 0.1016762 0.68000001
-0.01480762 0.1010781 0.67600006
-0.013480001 0.10077906 0.67400002
-0.012141906 0.10033048 0.671
-0.010799048 0.099732384 0.66700006
-0.0095000006 0.09943334 0.66500002
-0.0081838099 0.098835245 0.66100001
-0.0069142859 0.098685719 0.66000003
-0.0056228577 0.098087624 0.65600002
-0.0043533337 0.097639054 0.65300006
-0.0030952382 0.097190484 0.65000004
-0.0018514286 0.096891433 0.648
-0.00061523815 0.096592389 0.64600003
0.00061142864 0.095994294 0.64200002
0.0018314287 0.095844768 0.64100003
0.0030428574 0.095545724 0.63900006
0.0042400002 0.095097147 0.63600004
0.0054342858 0.094798103 0.634
0.0066419053 0.094798103 0.634
0.0078371437 0.094648577 0.63300002
0.0090428581 0.094648577 0.63300002
0.010248573 0.094648577 0.63300002
0.011454286 0.094648577 0.63300002
0.012680001 0.094798103 0.634
0.01388762 0.094798103 0.634
0.01509524 0.094798103 0.634
0.016328573 0.094947629 0.63500005
0.017565716 0.095097147 0.63600004
0.018777143 0.095097147 0.63600004
0.020051429 0.095396198 0.63800001
0.021300001 0.095545724 0.63900006
0.022517145 0.095545724 0.63900006
0.023771429 0.095695242 0.64000005
0.025029525 0.095844768 0.64100003
0.026250478 0.095844768 0.64100003
0.027600002 0.096293338 0.64400005
0.028826669 0.096293338 0.64400005
0.030053336 0.096293338 0.64400005
0.031182859 0.095994294 0.64200002
0.032405715 0.095994294 0.64200002
0.033576194 0.095844768 0.64100003
0.034742858 0.095695242 0.64000005
0.035680953 0.094947629 0.63500005
0.036832385 0.094798103 0.634
0.037980001 0.094648577 0.63300002
0.039185718 0.094648577 0.63300002
0.040327623 0.094499052 0.63200003
0.041465718 0.094349533 0.63100004
0.042261906 0.093452387 0.625
0.043382861 0.093302861 0.62400001
0.044500005 0.093153343 0.62300003
0.045466669 0.092704765 0.62
0.046647623 0.092704765 0.62
0.047828574 0.092704765 0.62
0.049009528 0.092704765 0.62
0.050109528 0.092555247 0.61900002
0.051205717 0.092405722 0.61800003
0.05238286 0.092405722 0.61800003
0.053473338 0.092256196 0.61700004
0.054560002 0.09210667 0.61600006
0.055733338 0.09210667 0.61600006
0.05690667 0.09210667 0.61600006
0.057985719 0.091957152 0.61500001
0.059157148 0.091957152 0.61500001
0.060230479 0.091807626 0.61400002
0.061400004 0.091807626 0.61400002
0.062569529 0.091807626 0.61400002
0.063739054 0.091807626 0.61400002
0.064908579 0.091807626 0.61400002
0.066078097 0.091807626 0.61400002
0.067357145 0.091957152 0.61500001
0.068862863 0.092405722 0.61800003
0.070153341 0.092555247 0.61900002
0.071447626 0.092704765 0.62
0.072862864 0.093003817 0.62200004
0.07416667 0.093153343 0.62300003
0.075474292 0.093302861 0.62400001
0.076785721 0.093452387 0.625
0.078100957 0.093601912 0.62600005
0.079420008 0.093751438 0.62700003
0.080742866 0.093900956 0.62800002
0.082069531 0.094050482 0.62900001
0.083532386 0.094349533 0.63100004
0.08486858 0.094499052 0.63200003
0.086208574 0.094648577 0.63300002
0.087552384 0.094798103 0.634
0.088760003 0.094798103 0.634
0.089967623 0.094798103 0.634
0.091319054 0.094947629 0.63500005
0.092965722 0.095396198 0.63800001
0.094476193 0.095695242 0.64000005
0.095994294 0.095994294 0.64200002
0.097520009 0.096293338 0.64400005
0.099053338 0.096592389 0.64600003
0.10043906 0.096741915 0.64700001
0.10167143 0.096741915 0.64700001
0.10306286 0.096891433 0.648
0.10461906 0.097190484 0.65000004
0.10602 0.09734001 0.65100002
0.10742477 0.097489528 0.65200001
0.10916667 0.097938098 0.65500003
0.11092 0.098386675 0.65800005
0.11217334 0.098386675 0.65800005
0.1141162 0.09898477 0.66200006
0.11537715 0.09898477 0.66200006
0.11681429 0.099134289 0.66300005
0.11807715 0.099134289 0.66300005
0.11988001 0.099582866 0.66600001
0.12133048 0.099732384 0.66700006
0.12260096 0.099732384 0.66700006
0.12461429 0.10033048 0.671
-0.023000002 0.10448572 0.69000006
-0.021591431 0.10403144 0.68700004
-0.020253334 0.10388001 0.68600005
-0.01886381 0.10342572 0.68300003
-0.017537143 0.10327429 0.68200004
-0.016190477 0.10297143 0.68000001
-0.014851429 0.10266858 0.67800003
-0.013500001 0.10221429 0.67500001
-0.01216 0.10176001 0.67200005
-0.01083143 0.10130572 0.66900003
-0.0095142862 0.10085143 0.66600001
-0.0081838099 0.10009429 0.66100001
-0.0069142859 0.099942863 0.66000003
-0.0056228577 0.099337146 0.65600002
-0.0043533337 0.098882861 0.65300006
-0.0031000001 0.098580003 0.65100002
-0.0018514286 0.098125719 0.648
-0.00061619049 0.097974293 0.64700001
0.00061142864 0.09721715 0.64200002
0.0018285715 0.096914291 0.64000005
0.0030428574 0.096762866 0.63900006
0.0042400002 0.096308574 0.63600004
0.0054342858 0.096005723 0.634
0.0066419053 0.096005723 0.634
0.0078495247 0.096005723 0.634
0.0090428581 0.09585429 0.63300002
0.010264763 0.096005723 0.634
0.011472382 0.096005723 0.634
0.012680001 0.096005723 0.634
0.013909524 0.096157148 0.63500005
0.015119049 0.096157148 0.63500005
0.016354287 0.096308574 0.63600004
0.017620953 0.096611433 0.63800001
0.018836191 0.096611433 0.63800001
0.020082859 0.096762866 0.63900006
0.021300001 0.096762866 0.63900006
0.022517145 0.096762866 0.63900006
0.023771429 0.096914291 0.64000005
0.025029525 0.097065717 0.64100003
0.02629143 0.09721715 0.64200002
0.027600002 0.097520009 0.64400005
0.02887143 0.097671434 0.64500004
0.030100003 0.097671434 0.64500004
0.031280003 0.097520009 0.64400005
0.032405715 0.09721715 0.64200002
0.033576194 0.097065717 0.64100003
0.034797147 0.097065717 0.64100003
0.034557145 0.093128577 0.61500001
0.035728574 0.093128577 0.61500001
0.036960002 0.093280002 0.61600006
0.038133334 0.093280002 0.61600006
0.039498098 0.093734294 0.61900002
0.040874287 0.094188578 0.62200004
0.042059049 0.094188578 0.62200004
0.043243811 0.094188578 0.62200004
0.044285718 0.09388572 0.62
0.045466669 0.09388572 0.62
0.046647623 0.09388572 0.62
0.047828574 0.09388572 0.62
0.049009528 0.09388572 0.62
0.050109528 0.093734294 0.61900002
0.051288575 0.093734294 0.61900002
0.05238286 0.093582861 0.61800003
0.053560004 0.093582861 0.61800003
0.054648574 0.093431436 0.61700004
0.055733338 0.093280002 0.61600006
0.05690667 0.093280002 0.61600006
0.057985719 0.093128577 0.61500001
0.059157148 0.093128577 0.61500001
0.060328577 0.093128577 0.61500001
0.061400004 0.092977151 0.61400002
0.062569529 0.092977151 0.61400002
0.063739054 0.092977151 0.61400002
0.064908579 0.092977151 0.61400002
0.06618572 0.093128577 0.61500001
0.067466669 0.093280002 0.61600006
0.068974294 0.093734294 0.61900002
0.070266671 0.09388572 0.62
0.071678102 0.094188578 0.62200004
0.072980002 0.094340004 0.62300003
0.074285716 0.094491437 0.62400001
0.075474292 0.094491437 0.62400001
0.076785721 0.094642863 0.625
0.078225717 0.094945721 0.62700003
0.079420008 0.094945721 0.62700003
0.080742866 0.095097147 0.62800002
0.082069531 0.09524858 0.62900001
0.083532386 0.095551431 0.63100004
0.085002862 0.09585429 0.63300002
0.086208574 0.09585429 0.63300002
0.087552384 0.096005723 0.634
0.088760003 0.096005723 0.634
0.090109527 0.096157148 0.63500005
0.091319054 0.096157148 0.63500005
0.092965722 0.096611433 0.63800001
0.094476193 0.096914291 0.64000005
0.095994294 0.09721715 0.64200002
0.097520009 0.097520009 0.64400005
0.098900005 0.097671434 0.64500004
0.10028382 0.09782286 0.64600003
0.10167143 0.097974293 0.64700001
0.10306286 0.098125719 0.648
0.10478 0.098580003 0.65100002
0.10618287 0.098731436 0.65200001
0.10791905 0.09918572 0.65500003
0.10950001 0.099488579 0.65700001
0.11092 0.099640004 0.65800005
0.11251429 0.099942863 0.66000003
0.11394382 0.10009429 0.66100001
0.11555143 0.10039715 0.66300005
0.11681429 0.10039715 0.66300005
0.11843334 0.10070001 0.66500002
0.11988001 0.10085143 0.66600001
0.12133048 0.10100286 0.66700006
0.12315239 0.10145715 0.67000002
0.12480001 0.10176001 0.67200005
-0.020253334 0.10518667 0.68600005
-0.01886381 0.10472667 0.68300003
-0.017537143 0.10457334 0.68200004
-0.016190477 0.10426667 0.68000001
-0.01480762 0.10365334 0.67600006
-0.013500001 0.10350001 0.67500001
-0.01216 0.10304001 0.67200005
-0.01086381 0.10288668 0.671
-0.0095285717 0.10227334 0.66700006
-0.0082085719 0.10166001 0.66300005
-0.0069247624 0.10135334 0.66100001
-0.0056228577 0.10058668 0.65600002
-0.0043533337 0.10012668 0.65300006
-0.0030952382 0.09966667 0.65000004
-0.0018514286 0.099360004 0.648
-0.00061619049 0.099206671 0.64700001
0.00061142864 0.098440006 0.64200002
0.0018314287 0.098286673 0.64100003
0.0030428574 0.097980008 0.63900006
0.0042533334 0.097826675 0.63800001
0.0054428573 0.097366676 0.63500005
0.0066523813 0.097366676 0.63500005
0.0078495247 0.097213343 0.634
0.0090428581 0.09706001 0.63300002
0.010280953 0.097366676 0.63500005
0.011472382 0.097213343 0.634
0.012700001 0.097366676 0.63500005
0.013909524 0.097366676 0.63500005
0.015142858 0.097520009 0.63600004
0.016354287 0.097520009 0.63600004
0.017620953 0.097826675 0.63800001
0.018836191 0.097826675 0.63800001
0.020082859 0.097980008 0.63900006
0.021300001 0.097980008 0.63900006
0.022552382 0.09813334 0.64000005
0.023771429 0.09813334 0.64000005
0.025029525 0.098286673 0.64100003
0.026373334 0.098746672 0.64400005
0.027642859 0.098900005 0.64500004
0.028916193 0.099053338 0.64600003
0.030100003 0.098900005 0.64500004
0.031328574 0.098900005 0.64500004
0.032506667 0.098746672 0.64400005
0.033733334 0.098746672 0.64400005
0.033385716 0.094300009 0.61500001
0.034557145 0.094300009 0.61500001
0.035728574 0.094300009 0.61500001
0.036960002 0.094453342 0.61600006
0.038133334 0.094453342 0.61600006
0.039498098 0.094913341 0.61900002
0.040677145 0.094913341 0.61900002
0.041923814 0.095066674 0.62
0.043104764 0.095066674 0.62
0.044285718 0.095066674 0.62
0.045466669 0.095066674 0.62
0.046647623 0.095066674 0.62
0.047828574 0.095066674 0.62
0.049009528 0.095066674 0.62
0.050109528 0.094913341 0.61900002
0.051288575 0.094913341 0.61900002
0.05238286 0.094760008 0.61800003
0.053560004 0.094760008 0.61800003
0.054648574 0.094606675 0.61700004
0.055733338 0.094453342 0.61600006
0.05690667 0.094453342 0.61600006
0.057985719 0.094300009 0.61500001
0.059157148 0.094300009 0.61500001
0.060328577 0.094300009 0.61500001
0.061400004 0.094146676 0.61400002
0.062569529 0.094146676 0.61400002
0.063842863 0.094300009 0.61500001
0.065014288 0.094300009 0.61500001
0.066293336 0.094453342 0.61600006
0.067576192 0.094606675 0.61700004
0.068974294 0.094913341 0.61900002
0.07049334 0.09537334 0.62200004
0.071678102 0.09537334 0.62200004
0.073097147 0.095680006 0.62400001
0.074285716 0.095680006 0.62400001
0.075595245 0.095833339 0.625
0.076908574 0.095986672 0.62600005
0.078225717 0.096140005 0.62700003
0.079420008 0.096140005 0.62700003
0.080742866 0.096293338 0.62800002
0.082069531 0.096446671 0.62900001
0.083532386 0.096753336 0.63100004
0.085002862 0.09706001 0.63300002
0.086344771 0.097213343 0.634
0.087552384 0.097213343 0.634
0.088900007 0.097366676 0.63500005
0.090109527 0.097366676 0.63500005
0.09175048 0.097826675 0.63800001
0.093257152 0.09813334 0.64000005
0.094623819 0.098286673 0.64100003
0.095994294 0.098440006 0.64200002
0.097520009 0.098746672 0.64400005
0.098900005 0.098900005 0.64500004
0.10028382 0.099053338 0.64600003
0.10167143 0.099206671 0.64700001
0.10338096 0.09966667 0.65000004
0.10494096 0.099973343 0.65200001
0.10634572 0.10012668 0.65300006
0.10808381 0.10058668 0.65600002
0.10966668 0.10089334 0.65800005
0.11125715 0.10120001 0.66000003
0.11268477 0.10135334 0.66100001
0.1141162 0.10150667 0.66200006
0.11555143 0.10166001 0.66300005
0.11716668 0.10196667 0.66500002
0.11861144 0.10212 0.66600001
0.12006 0.10227334 0.66700006
0.1216943 0.10258 0.66900003
0.12315239 0.10273334 0.67000002
0.12480001 0.10304001 0.67200005
-0.020253334 0.10649334 0.68600005
-0.018836191 0.10587239 0.68200004
-0.017537143 0.10587239 0.68200004
-0.016190477 0.10556191 0.68000001
-0.014851429 0.10525144 0.67800003
-0.013500001 0.10478572 0.67500001
-0.01216 0.10432 0.67200005
-0.01086381 0.10416477 0.671
-0.0095571438 0.10385429 0.66900003
-0.0082333339 0.10323334 0.66500002
-0.0069352384 0.10276762 0.66200006
-0.0056314291 0.10199144 0.65700001
-0.0043533337 0.10137048 0.65300006
-0.0030952382 0.10090477 0.65000004
-0.0018514286 0.10059429 0.648
-0.00061619049 0.10043906 0.64700001
0.00061142864 0.099662863 0.64200002
0.0018314287 0.099507622 0.64100003
0.0030428574 0.099197149 0.63900006
0.0042533334 0.099041909 0.63800001
0.0054514287 0.098731436 0.63600004
0.0066523813 0.098576196 0.63500005
0.0078619057 0.098576196 0.63500005
0.0090571437 0.098420955 0.634
0.010264763 0.098420955 0.634
0.011508572 0.098731436 0.63600004
0.012720001 0.098731436 0.63600004
0.013975239 0.099041909 0.63800001
0.015190477 0.099041909 0.63800001
0.016405715 0.099041909 0.63800001
0.017620953 0.099041909 0.63800001
0.018836191 0.099041909 0.63800001
0.020082859 0.099197149 0.63900006
0.021333335 0.09935239 0.64000005
0.022552382 0.09935239 0.64000005
0.023808572 0.099507622 0.64100003
0.025068574 0.099662863 0.64200002
0.026414288 0.10012858 0.64500004
0.027642859 0.10012858 0.64500004
0.028960954 0.10043906 0.64700001
0.030146668 0.10028382 0.64600003
0.031377144 0.10028382 0.64600003
0.032557145 0.10012858 0.64500004
0.033733334 0.099973343 0.64400005
0.033385716 0.095471434 0.61500001
0.034557145 0.095471434 0.61500001
0.035728574 0.095471434 0.61500001
0.036960002 0.095626675 0.61600006
0.038133334 0.095626675 0.61600006
0.039434288 0.095937148 0.61800003
0.040611431 0.095937148 0.61800003
0.041856192 0.096092388 0.61900002
0.043035243 0.096092388 0.61900002
0.044285718 0.096247628 0.62
0.045466669 0.096247628 0.62
0.046647623 0.096247628 0.62
0.047828574 0.096247628 0.62
0.049009528 0.096247628 0.62
0.050190479 0.096247628 0.62
0.051288575 0.096092388 0.61900002
0.052467622 0.096092388 0.61900002
0.053560004 0.095937148 0.61800003
0.054648574 0.095781907 0.61700004
0.055823814 0.095781907 0.61700004
0.05690667 0.095626675 0.61600006
0.058080003 0.095626675 0.61600006
0.059157148 0.095471434 0.61500001
0.060328577 0.095471434 0.61500001
0.061500005 0.095471434 0.61500001
0.06267143 0.095471434 0.61500001
0.063842863 0.095471434 0.61500001
0.065120004 0.095626675 0.61600006
0.066293336 0.095626675 0.61600006
0.067685716 0.095937148 0.61800003
0.068974294 0.096092388 0.61900002
0.070266671 0.096247628 0.62
0.071678102 0.096558101 0.62200004
0.072980002 0.096713342 0.62300003
0.074285716 0.096868575 0.62400001
0.075595245 0.097023815 0.625
0.076908574 0.097179055 0.62600005
0.078225717 0.097334296 0.62700003
0.079546675 0.097489528 0.62800002
0.080871433 0.097644769 0.62900001
0.08233048 0.097955242 0.63100004
0.083664767 0.098110482 0.63200003
0.085137151 0.098420955 0.634
0.08648096 0.098576196 0.63500005
0.08769048 0.098576196 0.63500005
0.089040004 0.098731436 0.63600004
0.090535246 0.099041909 0.63800001
0.091894291 0.099197149 0.63900006
0.093257152 0.09935239 0.64000005
0.094623819 0.099507622 0.64100003
0.095994294 0.099662863 0.64200002
0.097520009 0.099973343 0.64400005
0.098900005 0.10012858 0.64500004
0.10028382 0.10028382 0.64600003
0.10214286 0.10090477 0.65000004
0.10354 0.10106 0.65100002
0.10510191 0.10137048 0.65300006
0.10667144 0.10168096 0.65500003
0.10824858 0.10199144 0.65700001
0.11000001 0.10245715 0.66000003
0.11142572 0.10261239 0.66100001
0.11285525 0.10276762 0.66200006
0.1141162 0.10276762 0.66200006
0.11555143 0.10292286 0.66300005
0.11716668 0.10323334 0.66500002
0.11843334 0.10323334 0.66500002
0.12006 0.10354382 0.66700006
0.12133048 0.10354382 0.66700006
0.12315239 0.10400953 0.67000002
0.12480001 0.10432 0.67200005
-0.020282859 0.10795715 0.68700004
-0.018974287 0.10795715 0.68700004
-0.017537143 0.10717144 0.68200004
-0.016190477 0.10685715 0.68000001
-0.014851429 0.10654286 0.67800003
-0.013520001 0.10622858 0.67600006
-0.012232382 0.10622858 0.67600006
-0.01086381 0.10544287 0.671
-0.0095714293 0.10528572 0.67000002
-0.0082333339 0.1045 0.66500002
-0.0069352384 0.10402858 0.66200006
-0.0056228577 0.10308572 0.65600002
-0.0043466669 0.10245715 0.65200001
-0.0030952382 0.10214286 0.65000004
-0.0018514286 0.10182858 0.648
-0.00061619049 0.10167143 0.64700001
0.00061523815 0.10151429 0.64600003
0.0018285715 0.10057144 0.64000005
0.0030428574 0.10041429 0.63900006
0.0042533334 0.10025715 0.63800001
0.0054685716 0.10025715 0.63800001
0.0066628577 0.099942863 0.63600004
0.0078742858 0.099942863 0.63600004
0.0091142859 0.10025715 0.63800001
0.010329524 0.10025715 0.63800001
0.011508572 0.099942863 0.63600004
0.012760001 0.10025715 0.63800001
0.013975239 0.10025715 0.63800001
0.015190477 0.10025715 0.63800001
0.016405715 0.10025715 0.63800001
0.017620953 0.10025715 0.63800001
0.018865716 0.10041429 0.63900006
0.020082859 0.10041429 0.63900006
0.021333335 0.10057144 0.64000005
0.02258762 0.10072858 0.64100003
0.023845715 0.10088572 0.64200002
0.025185715 0.10135715 0.64500004
0.026537145 0.10182858 0.648
0.02777143 0.10182858 0.648
0.029005716 0.10182858 0.648
0.030240001 0.10182858 0.648
0.031474289 0.10182858 0.648
0.032658096 0.10167143 0.64700001
0.032266669 0.096800007 0.61600006
0.033440001 0.096800007 0.61600006
0.034613337 0.096800007 0.61600006
0.03578667 0.096800007 0.61600006
0.036960002 0.096800007 0.61600006
0.038133334 0.096800007 0.61600006
0.039370477 0.096957147 0.61700004
0.040611431 0.097114295 0.61800003
0.041856192 0.097271435 0.61900002
0.043035243 0.097271435 0.61900002
0.044285718 0.097428575 0.62
0.045466669 0.097428575 0.62
0.046647623 0.097428575 0.62
0.047828574 0.097428575 0.62
0.049009528 0.097428575 0.62
0.050190479 0.097428575 0.62
0.051371433 0.097428575 0.62
0.052467622 0.097271435 0.61900002
0.053560004 0.097114295 0.61800003
0.054737147 0.097114295 0.61800003
0.055823814 0.096957147 0.61700004
0.05690667 0.096800007 0.61600006
0.058080003 0.096800007 0.61600006
0.059157148 0.096642867 0.61500001
0.060328577 0.096642867 0.61500001
0.061500005 0.096642867 0.61500001
0.06267143 0.096642867 0.61500001
0.063946672 0.096800007 0.61600006
0.065120004 0.096800007 0.61600006
0.06640096 0.096957147 0.61700004
0.067685716 0.097114295 0.61800003
0.069085717 0.097428575 0.62
0.07049334 0.097742863 0.62200004
0.07179334 0.097900003 0.62300003
0.073097147 0.098057151 0.62400001
0.074285716 0.098057151 0.62400001
0.075595245 0.098214291 0.625
0.076908574 0.098371439 0.62600005
0.078350484 0.098685719 0.62800002
0.079673335 0.098842867 0.62900001
0.080871433 0.098842867 0.62900001
0.082460955 0.099314295 0.63200003
0.083797149 0.099471435 0.63300002
0.085271433 0.099785723 0.63500005
0.08648096 0.099785723 0.63500005
0.087828577 0.099942863 0.63600004
0.089320004 0.10025715 0.63800001
0.09067715 0.10041429 0.63900006
0.092038102 0.10057144 0.64000005
0.093402863 0.10072858 0.64100003
0.094771437 0.10088572 0.64200002
0.096293338 0.10120001 0.64400005
0.097520009 0.10120001 0.64400005
0.098900005 0.10135715 0.64500004
0.10028382 0.10151429 0.64600003
0.1023 0.1023 0.65100002
0.10369905 0.10245715 0.65200001
0.10510191 0.10261429 0.65300006
0.10683429 0.10308572 0.65600002
0.10841334 0.10340001 0.65800005
0.11000001 0.10371429 0.66000003
0.11159429 0.10402858 0.66200006
0.11285525 0.10402858 0.66200006
0.11428858 0.10418572 0.66300005
0.11590001 0.1045 0.66500002
0.11716668 0.1045 0.66500002
0.11861144 0.10465715 0.66600001
0.12006 0.10481429 0.66700006
0.12133048 0.10481429 0.66700006
0.12296858 0.10512858 0.66900003
-0.017537143 0.10847048 0.68200004
-0.016190477 0.10815239 0.68000001
-0.014851429 0.10783429 0.67800003
-0.013520001 0.1075162 0.67600006
-0.012232382 0.1075162 0.67600006
-0.01086381 0.10672096 0.671
-0.0095714293 0.10656191 0.67000002
-0.0082457149 0.10592572 0.66600001
-0.0069457148 0.10544858 0.66300005
-0.0056228577 0.10433525 0.65600002
-0.0043466669 0.10369905 0.65200001
-0.0030952382 0.10338096 0.65000004
-0.0018514286 0.10306286 0.648
-0.00061619049 0.10290381 0.64700001
0.00061523815 0.10274477 0.64600003
0.0018342858 0.10210858 0.64200002
0.0030428574 0.10163143 0.63900006
0.0042600003 0.10163143 0.63900006
0.0054685716 0.10147239 0.63800001
0.0066838101 0.10147239 0.63800001
0.0078990478 0.10147239 0.63800001
0.0091142859 0.10147239 0.63800001
0.010329524 0.10147239 0.63800001
0.011544763 0.10147239 0.63800001
0.012760001 0.10147239 0.63800001
0.013997144 0.10163143 0.63900006
0.015214287 0.10163143 0.63900006
0.01643143 0.10163143 0.63900006
0.017648572 0.10163143 0.63900006
0.018865716 0.10163143 0.63900006
0.020114288 0.10179048 0.64000005
0.021333335 0.10179048 0.64000005
0.02258762 0.10194953 0.64100003
0.023920001 0.10242667 0.64400005
0.025420001 0.10354 0.65100002
0.026660001 0.10354 0.65100002
0.027900001 0.10354 0.65100002
0.029140001 0.10354 0.65100002
0.030333335 0.10338096 0.65000004
0.031571429 0.10338096 0.65000004
0.031194288 0.098291434 0.61800003
0.032371432 0.098291434 0.61800003
0.033548575 0.098291434 0.61800003
0.034669526 0.098132387 0.61700004
0.035844766 0.098132387 0.61700004
0.036960002 0.097973339 0.61600006
0.038133334 0.097973339 0.61600006
0.039370477 0.098132387 0.61700004
0.040480003 0.097973339 0.61600006
0.041856192 0.098450482 0.61900002
0.043035243 0.098450482 0.61900002
0.044285718 0.098609529 0.62
0.045613337 0.098927625 0.62200004
0.046798099 0.098927625 0.62200004
0.048060004 0.099086672 0.62300003
0.049167622 0.098927625 0.62200004
0.050352383 0.098927625 0.62200004
0.051371433 0.098609529 0.62
0.052467622 0.098450482 0.61900002
0.053646669 0.098450482 0.61900002
0.054737147 0.098291434 0.61800003
0.055823814 0.098132387 0.61700004
0.05690667 0.097973339 0.61600006
0.058080003 0.097973339 0.61600006
0.059157148 0.097814292 0.61500001
0.060328577 0.097814292 0.61500001
0.061500005 0.097814292 0.61500001
0.062773339 0.097973339 0.61600006
0.063946672 0.097973339 0.61600006
0.065120004 0.097973339 0.61600006
0.066508576 0.098291434 0.61800003
0.067795239 0.098450482 0.61900002
0.069308579 0.098927625 0.62200004
0.070606671 0.099086672 0.62300003
0.07179334 0.099086672 0.62300003
0.073097147 0.09924572 0.62400001
0.074404769 0.099404767 0.625
0.075716197 0.099563815 0.62600005
0.076908574 0.099563815 0.62600005
0.078350484 0.09988191 0.62800002
0.079673335 0.10004096 0.62900001
0.081128575 0.10035905 0.63100004
0.082591437 0.10067715 0.63300002
0.083929531 0.1008362 0.634
0.085137151 0.1008362 0.634
0.086617149 0.10115429 0.63600004
0.08810477 0.10147239 0.63800001
0.089460008 0.10163143 0.63900006
0.09067715 0.10163143 0.63900006
0.092181914 0.10194953 0.64100003
0.093402863 0.10194953 0.64100003
0.094771437 0.10210858 0.64200002
0.096293338 0.10242667 0.64400005
0.097671434 0.10258572 0.64500004
0.099053338 0.10274477 0.64600003
0.10043906 0.10290381 0.64700001
0.10245715 0.10369905 0.65200001
0.1038581 0.1038581 0.65300006
0.10542382 0.1041762 0.65500003
0.10683429 0.10433525 0.65600002
0.10841334 0.10465334 0.65800005
0.11016668 0.10513049 0.66100001
0.11159429 0.10528953 0.66200006
0.11302572 0.10544858 0.66300005
0.11463334 0.10576668 0.66500002
0.11590001 0.10576668 0.66500002
0.11734287 0.10592572 0.66600001
0.11878953 0.10608477 0.66700006
0.12006 0.10608477 0.66700006
0.12114858 0.10592572 0.66600001
0.12260096 0.10608477 0.66700006
-0.016190477 0.10944763 0.68000001
-0.014851429 0.10912572 0.67800003
-0.013520001 0.10880382 0.67600006
-0.012214286 0.10864286 0.67500001
-0.01086381 0.10799906 0.671
-0.0095714293 0.1078381 0.67000002
-0.0082828579 0.10767715 0.66900003
-0.0069666672 0.10703334 0.66500002
-0.0056314291 0.10574572 0.65700001
-0.0043533337 0.10510191 0.65300006
-0.0031000001 0.10478 0.65100002
-0.001857143 0.10461906 0.65000004
-0.00061619049 0.1041362 0.64700001
0.00061523815 0.10397524 0.64600003
0.0018342858 0.10333143 0.64200002
0.0030523811 0.10317048 0.64100003
0.0042666672 0.10300953 0.64000005
0.005477143 0.10284857 0.63900006
0.0066942861 0.10284857 0.63900006
0.0079114288 0.10284857 0.63900006
0.0091285724 0.10284857 0.63900006
0.010345715 0.10284857 0.63900006
0.011562858 0.10284857 0.63900006
0.01278 0.10284857 0.63900006
0.014019049 0.10300953 0.64000005
0.015214287 0.10284857 0.63900006
0.01643143 0.10284857 0.63900006
0.017648572 0.10284857 0.63900006
0.018895239 0.10300953 0.64000005
0.020145716 0.10317048 0.64100003
0.021366669 0.10317048 0.64100003
0.02258762 0.10317048 0.64100003
0.024254287 0.10510191 0.65300006
0.025498098 0.10510191 0.65300006
0.026700955 0.10494096 0.65200001
0.027942859 0.10494096 0.65200001
0.029184764 0.10494096 0.65200001
0.030426668 0.10494096 0.65200001
0.031668574 0.10494096 0.65200001
0.031194288 0.099468581 0.61800003
0.032266669 0.099146672 0.61600006
0.033494286 0.099307626 0.61700004
0.034613337 0.099146672 0.61600006
0.03578667 0.099146672 0.61600006
0.036960002 0.099146672 0.61600006
0.038133334 0.099146672 0.61600006
0.03924286 0.098985724 0.61500001
0.040414289 0.098985724 0.61500001
0.041585717 0.098985724 0.61500001
0.042757146 0.098985724 0.61500001
0.044500005 0.10027334 0.62300003
0.04568667 0.10027334 0.62300003
0.046948574 0.1004343 0.62400001
0.048137147 0.1004343 0.62400001
0.049246669 0.10027334 0.62300003
0.050433338 0.10027334 0.62300003
0.051537145 0.10011239 0.62200004
0.052552383 0.099790484 0.62
0.053646669 0.099629529 0.61900002
0.054737147 0.099468581 0.61800003
0.055823814 0.099307626 0.61700004
0.05690667 0.099146672 0.61600006
0.058080003 0.099146672 0.61600006
0.059253339 0.099146672 0.61600006
0.060426671 0.099146672 0.61600006
0.061500005 0.098985724 0.61500001
0.062773339 0.099146672 0.61600006
0.063946672 0.099146672 0.61600006
0.06522572 0.099307626 0.61700004
0.066508576 0.099468581 0.61800003
0.067904763 0.099790484 0.62
0.069308579 0.10011239 0.62200004
0.070606671 0.10027334 0.62300003
0.071908578 0.1004343 0.62400001
0.073097147 0.1004343 0.62400001
0.074404769 0.10059524 0.625
0.07583715 0.10091715 0.62700003
0.077031434 0.10091715 0.62700003
0.078475244 0.10123906 0.62900001
0.07992667 0.10156096 0.63100004
0.08125715 0.10172191 0.63200003
0.082721911 0.10204381 0.634
0.083929531 0.10204381 0.634
0.085271433 0.10220477 0.63500005
0.086889528 0.10268763 0.63800001
0.08810477 0.10268763 0.63800001
0.089460008 0.10284857 0.63900006
0.090819053 0.10300953 0.64000005
0.092181914 0.10317048 0.64100003
0.093548581 0.10333143 0.64200002
0.094771437 0.10333143 0.64200002
0.096293338 0.10365334 0.64400005
0.097671434 0.10381429 0.64500004
0.099053338 0.10397524 0.64600003
0.10106 0.10478 0.65100002
0.10261429 0.10510191 0.65300006
0.1041762 0.10542382 0.65500003
0.10574572 0.10574572 0.65700001
0.10716001 0.10590667 0.65800005
0.10874286 0.10622858 0.66000003
0.11016668 0.10638953 0.66100001
0.11176287 0.10671143 0.66300005
0.11302572 0.10671143 0.66300005
0.11463334 0.10703334 0.66500002
0.11607429 0.10719429 0.66600001
0.11751906 0.10735524 0.66700006
0.11914572 0.10767715 0.66900003
0.12042001 0.10767715 0.66900003
-0.016190477 0.11074287 0.68000001
-0.01480762 0.11009143 0.67600006
-0.013520001 0.11009143 0.67600006
-0.012214286 0.10992858 0.67500001
-0.01086381 0.10927715 0.671
-0.0095714293 0.10911429 0.67000002
-0.0082828579 0.10895143 0.66900003
-0.0069876197 0.10862572 0.66700006
-0.0056228577 0.10683429 0.65600002
-0.0043533337 0.10634572 0.65300006
-0.0031047622 0.10618287 0.65200001
-0.001857143 0.10585715 0.65000004
-0.00061619049 0.10536858 0.64700001
0.00061523815 0.10520572 0.64600003
0.0018342858 0.1045543 0.64200002
0.0030523811 0.10439143 0.64100003
0.0042666672 0.10422858 0.64000005
0.0054857144 0.10422858 0.64000005
0.0067047626 0.10422858 0.64000005
0.0079114288 0.10406572 0.63900006
0.009142858 0.10422858 0.64000005
0.010361905 0.10422858 0.64000005
0.011580953 0.10422858 0.64000005
0.012800001 0.10422858 0.64000005
0.014040953 0.10439143 0.64100003
0.015238096 0.10422858 0.64000005
0.016457144 0.10422858 0.64000005
0.017676191 0.10422858 0.64000005
0.018895239 0.10422858 0.64000005
0.020114288 0.10422858 0.64000005
0.021333335 0.10422858 0.64000005
0.022552382 0.10422858 0.64000005
0.024328573 0.10667144 0.65500003
0.025498098 0.10634572 0.65300006
0.026741907 0.10634572 0.65300006
0.027985716 0.10634572 0.65300006
0.029229525 0.10634572 0.65300006
0.030473335 0.10634572 0.65300006
0.031717144 0.10634572 0.65300006
0.031194288 0.10064572 0.61800003
0.032266669 0.10032 0.61600006
0.033494286 0.10048287 0.61700004
0.034613337 0.10032 0.61600006
0.03578667 0.10032 0.61600006
0.036960002 0.10032 0.61600006
0.038133334 0.10032 0.61600006
0.03924286 0.10015715 0.61500001
0.043276194 0.10422858 0.64000005
0.04449524 0.10422858 0.64000005
0.044785716 0.10211144 0.62700003
0.045980003 0.10211144 0.62700003
0.047023814 0.10178572 0.625
0.048291434 0.10194858 0.62600005
0.049404766 0.10178572 0.625
0.050514288 0.10162286 0.62400001
0.051620003 0.10146001 0.62300003
0.052552383 0.10097144 0.62
0.053646669 0.10080858 0.61900002
0.054737147 0.10064572 0.61800003
0.055823814 0.10048287 0.61700004
0.05699905 0.10048287 0.61700004
0.058080003 0.10032 0.61600006
0.059253339 0.10032 0.61600006
0.060426671 0.10032 0.61600006
0.061600003 0.10032 0.61600006
0.062773339 0.10032 0.61600006
0.064050481 0.10048287 0.61700004
0.065331429 0.10064572 0.61800003
0.066616192 0.10080858 0.61900002
0.068123817 0.10129715 0.62200004
0.069420002 0.10146001 0.62300003
0.070606671 0.10146001 0.62300003
0.071908578 0.10162286 0.62400001
0.073214293 0.10178572 0.625
0.074523814 0.10194858 0.62600005
0.075958103 0.10227429 0.62800002
0.077277146 0.10243715 0.62900001
0.078724764 0.10276286 0.63100004
0.080053337 0.10292572 0.63200003
0.081385717 0.10308858 0.63300002
0.082721911 0.10325143 0.634
0.084061913 0.10341429 0.63500005
0.085405722 0.10357715 0.63600004
0.086889528 0.10390286 0.63800001
0.088242866 0.10406572 0.63900006
0.089600004 0.10422858 0.64000005
0.090960957 0.10439143 0.64100003
0.092181914 0.10439143 0.64100003
0.093548581 0.1045543 0.64200002
0.095066674 0.10488001 0.64400005
0.096442863 0.10504287 0.64500004
0.097671434 0.10504287 0.64500004
0.099360004 0.10553144 0.648
0.10137048 0.10634572 0.65300006
0.10308572 0.10683429 0.65600002
0.1044943 0.10699715 0.65700001
0.10590667 0.10716001 0.65800005
0.10748572 0.10748572 0.66000003
0.10890763 0.10764858 0.66100001
0.11033334 0.10781144 0.66200006
0.11176287 0.10797429 0.66300005
0.11336667 0.10830001 0.66500002
0.11480572 0.10846286 0.66600001
0.11624858 0.10862572 0.66700006
0.11751906 0.10862572 0.66700006
-0.01480762 0.11137906 0.67600006
-0.013500001 0.1112143 0.67500001
-0.012141906 0.11055525 0.671
-0.01084762 0.11039048 0.67000002
-0.0095714293 0.11039048 0.67000002
-0.0082828579 0.11022572 0.66900003
-0.0069876197 0.1098962 0.66700006
-0.0056314291 0.10824858 0.65700001
-0.0043466669 0.10742477 0.65200001
-0.0031000001 0.10726 0.65100002
-0.001857143 0.10709524 0.65000004
-0.00061619049 0.10660096 0.64700001
0.00061619049 0.10660096 0.64700001
0.0018400002 0.10610668 0.64400005
0.003057143 0.10577715 0.64200002
0.0042733336 0.10561239 0.64100003
0.0054942863 0.10561239 0.64100003
0.0067152386 0.10561239 0.64100003
0.0079238098 0.10544763 0.64000005
0.0091571435 0.10561239 0.64100003
0.010378096 0.10561239 0.64100003
0.011580953 0.10544763 0.64000005
0.012800001 0.10544763 0.64000005
0.014062858 0.10577715 0.64200002
0.015285715 0.10577715 0.64200002
0.016508572 0.10577715 0.64200002
0.017703811 0.10561239 0.64100003
0.018924763 0.10561239 0.64100003
0.020145716 0.10561239 0.64100003
0.021900002 0.10824858 0.65700001
0.023151429 0.10824858 0.65700001
0.024365716 0.10808381 0.65600002
0.025576193 0.10791905 0.65500003
0.026823811 0.10791905 0.65500003
0.02807143 0.10791905 0.65500003
0.029229525 0.10758953 0.65300006
0.030473335 0.10758953 0.65300006
0.031717144 0.10758953 0.65300006
0.031194288 0.10182286 0.61800003
0.032371432 0.10182286 0.61800003
0.033494286 0.1016581 0.61700004
0.034613337 0.10149334 0.61600006
0.03578667 0.10149334 0.61600006
0.036960002 0.10149334 0.61600006
0.038133334 0.10149334 0.61600006
0.040965717 0.10577715 0.64200002
0.04212286 0.10561239 0.64100003
0.043276194 0.10544763 0.64000005
0.044356193 0.1051181 0.63800001
0.044928573 0.10363524 0.62900001
0.046053335 0.10347048 0.62800002
0.04717429 0.10330572 0.62700003
0.048368573 0.10330572 0.62700003
0.049483813 0.10314096 0.62600005
0.050595243 0.1029762 0.625
0.051702861 0.10281143 0.62400001
0.052552383 0.10215238 0.62
0.053646669 0.10198762 0.61900002
0.054737147 0.10182286 0.61800003
0.055823814 0.1016581 0.61700004
0.05699905 0.1016581 0.61700004
0.058080003 0.10149334 0.61600006
0.059253339 0.10149334 0.61600006
0.060426671 0.10149334 0.61600006
0.061600003 0.10149334 0.61600006
0.062773339 0.10149334 0.61600006
0.06415429 0.10182286 0.61800003
0.065437146 0.10198762 0.61900002
0.066723816 0.10215238 0.62
0.068233341 0.10264667 0.62300003
0.069420002 0.10264667 0.62300003
0.070720002 0.10281143 0.62400001
0.072023816 0.1029762 0.625
0.073331431 0.10314096 0.62600005
0.074642859 0.10330572 0.62700003
0.075958103 0.10347048 0.62800002
0.077522859 0.10396477 0.63100004
0.078849532 0.10412953 0.63200003
0.080180004 0.10429429 0.63300002
0.081514291 0.10445905 0.634
0.082852386 0.10462382 0.63500005
0.084194288 0.10478858 0.63600004
0.085405722 0.10478858 0.63600004
0.086889528 0.1051181 0.63800001
0.088242866 0.10528287 0.63900006
0.089740008 0.10561239 0.64100003
0.091102861 0.10577715 0.64200002
0.092325717 0.10577715 0.64200002
0.093840003 0.10610668 0.64400005
0.095214292 0.10627144 0.64500004
0.096592389 0.1064362 0.64600003
0.097974293 0.10660096 0.64700001
0.099973343 0.10742477 0.65200001
0.1018362 0.10808381 0.65600002
0.10324287 0.10824858 0.65700001
0.10465334 0.10841334 0.65800005
0.10622858 0.10874286 0.66000003
0.10748572 0.10874286 0.66000003
0.10890763 0.10890763 0.66100001
0.11033334 0.10907239 0.66200006
0.11176287 0.10923715 0.66300005
0.11336667 0.10956667 0.66500002
0.11480572 0.10973144 0.66600001
0.11624858 0.1098962 0.66700006
0.11751906 0.1098962 0.66700006
-0.013340001 0.11116667 0.66700006
-0.012069524 0.11116667 0.66700006
-0.010799048 0.11116667 0.66700006
-0.0095285717 0.11116667 0.66700006
-0.0082580959 0.11116667 0.66700006
-0.0069771432 0.11100001 0.66600001
-0.0056828577 0.11050001 0.66300005
-0.0043533337 0.10883334 0.65300006
-0.0031000001 0.1085 0.65100002
-0.001857143 0.10833334 0.65000004
-0.00061619049 0.10783334 0.64700001
0.00061523815 0.10766667 0.64600003
0.0018400002 0.10733334 0.64400005
0.003057143 0.10700001 0.64200002
0.0042800005 0.10700001 0.64200002
0.0055028577 0.10700001 0.64200002
0.0067257145 0.10700001 0.64200002
0.0079361908 0.10683334 0.64100003
0.0091714291 0.10700001 0.64200002
0.010394286 0.10700001 0.64200002
0.011617144 0.10700001 0.64200002
0.012840001 0.10700001 0.64200002
0.014062858 0.10700001 0.64200002
0.015285715 0.10700001 0.64200002
0.016508572 0.10700001 0.64200002
0.01773143 0.10700001 0.64200002
0.018924763 0.10683334 0.64100003
0.020145716 0.10683334 0.64100003
0.021933334 0.10966668 0.65800005
0.023186669 0.10966668 0.65800005
0.024402859 0.10950001 0.65700001
0.025654288 0.10950001 0.65700001
0.026905715 0.10950001 0.65700001
0.028157145 0.10950001 0.65700001
0.02931905 0.10916667 0.65500003
0.030613335 0.10933334 0.65600002
0.031814288 0.10916667 0.65500003
0.031143812 0.10283334 0.61700004
0.03231905 0.10283334 0.61700004
0.033440001 0.10266668 0.61600006
0.034613337 0.10266668 0.61600006
0.03578667 0.10266668 0.61600006
0.038520001 0.10700001 0.64200002
0.039742861 0.10700001 0.64200002
0.040965717 0.10700001 0.64200002
0.042057145 0.10666668 0.64000005
0.043208573 0.10650001 0.63900006
0.044356193 0.10633334 0.63800001
0.045214288 0.10550001 0.63300002
0.046126671 0.10483334 0.62900001
0.047249526 0.10466667 0.62800002
0.048445717 0.10466667 0.62800002
0.04956286 0.1045 0.62700003
0.050676193 0.10433334 0.62600005
0.051785719 0.10416667 0.625
0.052806672 0.10383334 0.62300003
0.053646669 0.10316668 0.61900002
0.054825719 0.10316668 0.61900002
0.05591429 0.10300001 0.61800003
0.057091434 0.10300001 0.61800003
0.05817429 0.10283334 0.61700004
0.059349529 0.10283334 0.61700004
0.060524765 0.10283334 0.61700004
0.061700005 0.10283334 0.61700004
0.062875241 0.10283334 0.61700004
0.064258099 0.10316668 0.61900002
0.065437146 0.10316668 0.61900002
0.066939048 0.10366667 0.62200004
0.068342865 0.10400001 0.62400001
0.069531433 0.10400001 0.62400001
0.070720002 0.10400001 0.62400001
0.072023816 0.10416667 0.625
0.073331431 0.10433334 0.62600005
0.074642859 0.1045 0.62700003
0.076079056 0.10483334 0.62900001
0.077645719 0.10533334 0.63200003
0.078974292 0.10550001 0.63300002
0.080180004 0.10550001 0.63300002
0.081642866 0.10583334 0.63500005
0.082982861 0.10600001 0.63600004
0.084459051 0.10633334 0.63800001
0.085674293 0.10633334 0.63800001
0.087025717 0.10650001 0.63900006
0.088242866 0.10650001 0.63900006
0.089740008 0.10683334 0.64100003
0.091102861 0.10700001 0.64200002
0.092613339 0.10733334 0.64400005
0.093985721 0.10750001 0.64500004
0.095214292 0.10750001 0.64500004
0.096741915 0.10783334 0.64700001
0.098428577 0.10833334 0.65000004
0.10043334 0.10916667 0.65500003
0.10199144 0.10950001 0.65700001
0.10340001 0.10966668 0.65800005
0.10497144 0.11000001 0.66000003
0.10622858 0.11000001 0.66000003
0.10764858 0.11016668 0.66100001
0.10907239 0.11033334 0.66200006
0.11050001 0.11050001 0.66300005
0.11210001 0.11083334 0.66500002
0.11353715 0.11100001 0.66600001
0.1149781 0.11116667 0.66700006
0.11624858 0.11116667 0.66700006
0.11751906 0.11116667 0.66700006
-0.013300001 0.11210001 0.66500002
-0.012033334 0.11210001 0.66500002
-0.010782857 0.11226858 0.66600001
-0.0095142862 0.11226858 0.66600001
-0.0082457149 0.11226858 0.66600001
-0.0069457148 0.11176287 0.66300005
-0.0056742863 0.11159429 0.66200006
-0.0043533337 0.11007715 0.65300006
-0.0031047622 0.10990858 0.65200001
-0.0018600001 0.10974 0.65100002
-0.00062000006 0.10974 0.65100002
0.00061904767 0.10957143 0.65000004
0.0018514286 0.1092343 0.648
0.0030761906 0.10889715 0.64600003
0.0043000001 0.10872858 0.64500004
0.0055200006 0.10856001 0.64400005
0.006746667 0.10856001 0.64400005
0.0079733338 0.10856001 0.64400005
0.0092142867 0.10872858 0.64500004
0.010442858 0.10872858 0.64500004
0.011689524 0.10889715 0.64600003
0.012920001 0.10889715 0.64600003
0.014150477 0.10889715 0.64600003
0.015333334 0.10856001 0.64400005
0.022033336 0.11142572 0.66100001
0.023292383 0.11142572 0.66100001
0.024551431 0.11142572 0.66100001
0.025810478 0.11142572 0.66100001
0.027069526 0.11142572 0.66100001
0.028328573 0.11142572 0.66100001
0.029587621 0.11142572 0.66100001
0.030846668 0.11142572 0.66100001
0.038520001 0.10822286 0.64200002
0.039742861 0.10822286 0.64200002
0.040965717 0.10822286 0.64200002
0.042057145 0.10788572 0.64000005
0.043276194 0.10788572 0.64000005
0.044425718 0.10771715 0.63900006
0.04564286 0.10771715 0.63900006
0.046126671 0.10603143 0.62900001
0.047249526 0.10586286 0.62800002
0.048445717 0.10586286 0.62800002
0.049641907 0.10586286 0.62800002
0.050757147 0.10569429 0.62700003
0.051868577 0.10552572 0.62600005
0.052976195 0.10535715 0.625
0.053906672 0.10485143 0.62200004
0.054914288 0.10451429 0.62
0.056004766 0.10434572 0.61900002
0.057183813 0.10434572 0.61900002
0.058268577 0.10417715 0.61800003
0.059541907 0.10434572 0.61900002
0.060720958 0.10434572 0.61900002
0.061900005 0.10434572 0.61900002
0.063180953 0.10451429 0.62
0.064361908 0.10451429 0.62
0.065754287 0.10485143 0.62200004
0.067046672 0.10502001 0.62300003
0.068452388 0.10535715 0.625
0.069642864 0.10535715 0.625
0.070946671 0.10552572 0.62600005
0.072254293 0.10569429 0.62700003
0.073448576 0.10569429 0.62700003
0.074880958 0.10603143 0.62900001
0.076320961 0.10636858 0.63100004
0.077768579 0.10670572 0.63300002
0.079223812 0.10704286 0.63500005
0.080433339 0.10704286 0.63500005
0.081771433 0.10721143 0.63600004
0.083243817 0.10754858 0.63800001
0.084591433 0.10771715 0.63900006
0.085808575 0.10771715 0.63900006
0.087161914 0.10788572 0.64000005
0.088519052 0.1080543 0.64100003
0.089880005 0.10822286 0.64200002
0.09152858 0.10872858 0.64500004
0.093044765 0.10906572 0.64700001
0.094422862 0.1092343 0.648
0.095657147 0.1092343 0.648
0.09734001 0.10974 0.65100002
0.099337146 0.11058287 0.65600002
0.10074001 0.11075144 0.65700001
0.10214667 0.11092 0.65800005
0.10371429 0.11125715 0.66000003
0.10513049 0.11142572 0.66100001
0.10638953 0.11142572 0.66100001
0.10781144 0.11159429 0.66200006
0.10923715 0.11176287 0.66300005
0.11083334 0.11210001 0.66500002
0.11226858 0.11226858 0.66600001
0.11370762 0.11243715 0.66700006
0.1149781 0.11243715 0.66700006
0.11624858 0.11243715 0.66700006
0.11751906 0.11243715 0.66700006
-0.013320001 0.11353715 0.66600001
-0.01205143 0.11353715 0.66600001
-0.010782857 0.11353715 0.66600001
-0.0095142862 0.11353715 0.66600001
-0.0082333339 0.11336667 0.66500002
-0.0069666672 0.11336667 0.66500002
-0.0056742863 0.11285525 0.66200006
-0.004366667 0.11166191 0.65500003
-0.003109524 0.11132096 0.65300006
-0.0018600001 0.11098 0.65100002
-0.00062000006 0.11098 0.65100002
0.00061904767 0.11080953 0.65000004
0.001857143 0.11080953 0.65000004
0.0030809527 0.1102981 0.64700001
0.0043133334 0.1102981 0.64700001
0.005528572 0.10995715 0.64500004
0.0067676194 0.11012763 0.64600003
0.0079980958 0.11012763 0.64600003
0.0092285722 0.11012763 0.64600003
0.010475239 0.1102981 0.64700001
0.01170762 0.1102981 0.64700001
0.012920001 0.11012763 0.64600003
0.014172382 0.1102981 0.64700001
0.015357144 0.10995715 0.64500004
0.024551431 0.11268477 0.66100001
0.025810478 0.11268477 0.66100001
0.027069526 0.11268477 0.66100001
0.028328573 0.11268477 0.66100001
0.038640004 0.10978667 0.64400005
0.039742861 0.10944572 0.64200002
0.041093335 0.10978667 0.64400005
0.042188574 0.10944572 0.64200002
0.04341143 0.10944572 0.64200002
0.04463429 0.10944572 0.64200002
0.044928573 0.10722953 0.62900001
0.046126671 0.10722953 0.62900001
0.047249526 0.10705905 0.62800002
0.048445717 0.10705905 0.62800002
0.049641907 0.10705905 0.62800002
0.050838098 0.10705905 0.62800002
0.051951431 0.10688858 0.62700003
0.053060956 0.1067181 0.62600005
0.053906672 0.1060362 0.62200004
0.054914288 0.10569525 0.62
0.056004766 0.10552477 0.61900002
0.057183813 0.10552477 0.61900002
0.05836286 0.10552477 0.61900002
0.059541907 0.10552477 0.61900002
0.060720958 0.10552477 0.61900002
0.062000003 0.10569525 0.62
0.063180953 0.10569525 0.62
0.064361908 0.10569525 0.62
0.065754287 0.1060362 0.62200004
0.067154288 0.10637715 0.62400001
0.068452388 0.10654762 0.625
0.069754288 0.1067181 0.62600005
0.071060002 0.10688858 0.62700003
0.072254293 0.10688858 0.62700003
0.073565722 0.10705905 0.62800002
0.075119056 0.10757048 0.63100004
0.076441906 0.10774096 0.63200003
0.077891432 0.10808191 0.634
0.079348579 0.10842287 0.63600004
0.080560006 0.10842287 0.63600004
