# .PCD v0.7 - Point Cloud Data file format
VERSION 0.7
FIELDS x y z
SIZE 4 4 4
TYPE F F F
COUNT 1 1 1
WIDTH 1407
HEIGHT 1
VIEWPOINT 0 0 0 1 0 0 0
POINTS 1407
DATA ascii
-0.14542001 0.081208579 0.66100001
-0.14463145 0.082191437 0.66900003
-0.14335716 0.082191437 0.66900003
-0.14208287 0.082191437 0.66900003
-0.14038762 0.081945717 0.66700006
-0.13911715 0.081945717 0.66700006
-0.13784668 0.081945717 0.66700006
-0.13657621 0.081945717 0.66700006
-0.13530572 0.081945717 0.66700006
-0.13383429 0.081822865 0.66600001
-0.13276477 0.081945717 0.66700006
-0.1314943 0.081945717 0.66700006
-0.13002858 0.081822865 0.66600001
-0.12876001 0.081822865 0.66600001
-0.12749144 0.081822865 0.66600001
-0.12603334 0.081700005 0.66500002
-0.12476668 0.081700005 0.66500002
-0.1235 0.081700005 0.66500002
-0.12223334 0.081700005 0.66500002
-0.12060287 0.081454292 0.66300005
-0.11970001 0.081700005 0.66500002
-0.11843334 0.081700005 0.66500002
-0.11716668 0.081700005 0.66500002
-0.11607429 0.081822865 0.66600001
-0.11480572 0.081822865 0.66600001
-0.11353715 0.081822865 0.66600001
-0.11243715 0.081945717 0.66700006
-0.11116667 0.081945717 0.66700006
-0.1098962 0.081945717 0.66700006
-0.15148573 0.082342863 0.66000003
-0.15022857 0.082342863 0.66000003
-0.14919715 0.082467623 0.66100001
-0.1479381 0.082467623 0.66100001
-0.14690097 0.082592383 0.66200006
-0.14564002 0.082592383 0.66200006
-0.14463145 0.083465718 0.66900003
-0.14335716 0.083465718 0.66900003
-0.14208287 0.083465718 0.66900003
-0.14080858 0.083465718 0.66900003
-0.13911715 0.083216198 0.66700006
-0.13784668 0.083216198 0.66700006
-0.13657621 0.083216198 0.66700006
-0.13530572 0.083216198 0.66700006
-0.13403524 0.083216198 0.66700006
-0.13276477 0.083216198 0.66700006
-0.1314943 0.083216198 0.66700006
-0.13022381 0.083216198 0.66700006
-0.12895334 0.083216198 0.66700006
-0.12749144 0.08309143 0.66600001
-0.12622286 0.08309143 0.66600001
-0.12495429 0.08309143 0.66600001
-0.1235 0.08296667 0.66500002
-0.12223334 0.08296667 0.66500002
-0.12096667 0.08296667 0.66500002
-0.11970001 0.08296667 0.66500002
-0.11843334 0.08296667 0.66500002
-0.11734287 0.08309143 0.66600001
-0.11607429 0.08309143 0.66600001
-0.11480572 0.08309143 0.66600001
-0.11353715 0.08309143 0.66600001
-0.11243715 0.083216198 0.66700006
-0.11116667 0.083216198 0.66700006
-0.15148573 0.083600007 0.66000003
-0.15022857 0.083600007 0.66000003
-0.14919715 0.083726674 0.66100001
-0.14816192 0.083853342 0.66200006
-0.14712286 0.083980009 0.66300005
-0.14586002 0.083980009 0.66300005
-0.14463145 0.084740005 0.66900003
-0.14335716 0.084740005 0.66900003
-0.14208287 0.084740005 0.66900003
-0.14080858 0.084740005 0.66900003
-0.13953429 0.084740005 0.66900003
-0.13826001 0.084740005 0.66900003
-0.13657621 0.084486671 0.66700006
-0.13530572 0.084486671 0.66700006
-0.13403524 0.084486671 0.66700006
-0.13316287 0.084740005 0.66900003
-0.13188858 0.084740005 0.66900003
-0.1306143 0.084740005 0.66900003
-0.12934001 0.084740005 0.66900003
-0.12768286 0.084486671 0.66700006
-0.12641239 0.084486671 0.66700006
-0.12495429 0.084360003 0.66600001
-0.12368573 0.084360003 0.66600001
-0.12223334 0.084233336 0.66500002
-0.12096667 0.084233336 0.66500002
-0.11988001 0.084360003 0.66600001
-0.11861144 0.084360003 0.66600001
-0.11734287 0.084360003 0.66600001
-0.11607429 0.084360003 0.66600001
-0.11480572 0.084360003 0.66600001
-0.11353715 0.084360003 0.66600001
-0.11243715 0.084486671 0.66700006
-0.11116667 0.084486671 0.66700006
-0.12168001 0.095760003 0.75600004
-0.12024001 0.095760003 0.75600004
-0.11864287 0.095633343 0.75500005
-0.11720477 0.095633343 0.75500005
0.030714288 0.095000006 0.75000006
0.032142859 0.095000006 0.75000006
-0.15045621 0.084985718 0.66100001
-0.14942287 0.085114293 0.66200006
-0.14883335 0.085500002 0.66500002
-0.14756668 0.085500002 0.66500002
-0.1463 0.085500002 0.66500002
-0.14546953 0.085757151 0.66700006
-0.14463145 0.086014293 0.66900003
-0.14335716 0.086014293 0.66900003
-0.14208287 0.086014293 0.66900003
-0.14080858 0.086014293 0.66900003
-0.13953429 0.086014293 0.66900003
-0.13826001 0.086014293 0.66900003
-0.13657621 0.085757151 0.66700006
-0.13571143 0.086014293 0.66900003
-0.13443716 0.086014293 0.66900003
-0.13316287 0.086014293 0.66900003
-0.13188858 0.086014293 0.66900003
-0.1306143 0.086014293 0.66900003
-0.12934001 0.086014293 0.66900003
-0.12806572 0.086014293 0.66900003
-0.12641239 0.085757151 0.66700006
-0.12514192 0.085757151 0.66700006
-0.12368573 0.085628577 0.66600001
-0.12241715 0.085628577 0.66600001
-0.12114858 0.085628577 0.66600001
-0.11988001 0.085628577 0.66600001
-0.11861144 0.085628577 0.66600001
-0.11751906 0.085757151 0.66700006
-0.11624858 0.085757151 0.66700006
-0.1149781 0.085757151 0.66700006
-0.11370762 0.085757151 0.66700006
-0.11243715 0.085757151 0.66700006
-0.11116667 0.085757151 0.66700006
-0.12393429 0.097842865 0.76100004
-0.12232382 0.09771429 0.76000005
-0.11864287 0.097071432 0.75500005
-0.11720477 0.097071432 0.75500005
-0.11530668 0.096685722 0.75200003
0.026823811 0.084214292 0.65500003
0.02807143 0.084214292 0.65500003
-0.15136668 0.086766675 0.66500002
-0.15032573 0.08689715 0.66600001
-0.14905715 0.08689715 0.66600001
-0.14801049 0.087027624 0.66700006
-0.14674 0.087027624 0.66700006
-0.14546953 0.087027624 0.66700006
-0.14419906 0.087027624 0.66700006
-0.13800001 0.084026672 0.64400005
-0.13698572 0.084157147 0.64500004
-0.13575715 0.084157147 0.64500004
-0.13846667 0.087419055 0.67000002
-0.13698572 0.087288581 0.66900003
-0.1359143 0.087419055 0.67000002
-0.1346381 0.087419055 0.67000002
-0.13356096 0.08754953 0.671
-0.13208573 0.087419055 0.67000002
-0.13080953 0.087419055 0.67000002
-0.12953334 0.087419055 0.67000002
-0.12825716 0.087419055 0.67000002
-0.12679143 0.087288581 0.66900003
-0.12551714 0.087288581 0.66900003
-0.12387144 0.087027624 0.66700006
-0.12296858 0.087288581 0.66900003
-0.12133048 0.087027624 0.66700006
-0.12006 0.087027624 0.66700006
-0.11878953 0.087027624 0.66700006
-0.11787143 0.087288581 0.66900003
-0.11659715 0.087288581 0.66900003
-0.11532287 0.087288581 0.66900003
-0.11404858 0.087288581 0.66900003
-0.11277429 0.087288581 0.66900003
-0.11150001 0.087288581 0.66900003
0.026823811 0.085461907 0.65500003
0.02807143 0.085461907 0.65500003
0.029229525 0.085200958 0.65300006
-0.15136668 0.088033341 0.66500002
-0.15032573 0.088165723 0.66600001
-0.14905715 0.088165723 0.66600001
-0.14801049 0.088298105 0.66700006
-0.14674 0.088298105 0.66700006
-0.14546953 0.088298105 0.66700006
-0.13800001 0.085253336 0.64400005
-0.13677335 0.085253336 0.64400005
-0.13554667 0.085253336 0.64400005
-0.13390286 0.084988579 0.64200002
-0.13226667 0.084723815 0.64000005
-0.1359143 0.088695243 0.67000002
-0.13483906 0.088827625 0.671
-0.13376001 0.088960007 0.67200005
-0.13228287 0.088827625 0.671
-0.13100477 0.088827625 0.671
-0.12972668 0.088827625 0.671
-0.12844858 0.088827625 0.671
-0.12698096 0.088695243 0.67000002
-0.12570477 0.088695243 0.67000002
-0.12424286 0.088562861 0.66900003
-0.12296858 0.088562861 0.66900003
-0.1216943 0.088562861 0.66900003
-0.12042001 0.088562861 0.66900003
-0.11914572 0.088562861 0.66900003
-0.11787143 0.088562861 0.66900003
-0.11659715 0.088562861 0.66900003
-0.11532287 0.088562861 0.66900003
-0.11404858 0.088562861 0.66900003
-0.11294287 0.088695243 0.67000002
-0.11166667 0.088695243 0.67000002
0.024254287 0.086444765 0.65300006
0.025498098 0.086444765 0.65300006
0.026741907 0.086444765 0.65300006
0.02807143 0.086709529 0.65500003
0.029229525 0.086444765 0.65300006
-0.1515943 0.089434288 0.66600001
-0.15032573 0.089434288 0.66600001
-0.14928097 0.089568578 0.66700006
-0.14801049 0.089568578 0.66700006
-0.14674 0.089568578 0.66700006
-0.13512573 0.086211435 0.64200002
-0.13369429 0.086077146 0.64100003
-0.13226667 0.085942864 0.64000005
-0.13104762 0.085942864 0.64000005
-0.12982859 0.085942864 0.64000005
-0.12860954 0.085942864 0.64000005
-0.13248001 0.090240009 0.67200005
-0.13120002 0.090240009 0.67200005
-0.12992001 0.090240009 0.67200005
-0.12844858 0.09010572 0.671
-0.12717049 0.09010572 0.671
-0.12570477 0.089971438 0.67000002
-0.12442858 0.089971438 0.67000002
-0.12315239 0.089971438 0.67000002
-0.1216943 0.089837149 0.66900003
-0.12042001 0.089837149 0.66900003
-0.11914572 0.089837149 0.66900003
-0.11787143 0.089837149 0.66900003
-0.11659715 0.089837149 0.66900003
-0.11549524 0.089971438 0.67000002
-0.11421905 0.089971438 0.67000002
-0.11294287 0.089971438 0.67000002
0.023010477 0.08768858 0.65300006
0.024217144 0.087554291 0.65200001
0.025498098 0.08768858 0.65300006
0.026741907 0.08768858 0.65300006
0.027985716 0.08768858 0.65300006
0.029229525 0.08768858 0.65300006
-0.15263334 0.090566672 0.66500002
-0.15136668 0.090566672 0.66500002
-0.15055144 0.090839051 0.66700006
-0.14928097 0.090839051 0.66700006
-0.14801049 0.090839051 0.66700006
-0.14718001 0.091111436 0.66900003
-0.14590572 0.091111436 0.66900003
-0.14463145 0.091111436 0.66900003
-0.13757144 0.087434292 0.64200002
-0.13634858 0.087434292 0.64200002
-0.13512573 0.087434292 0.64200002
-0.13348572 0.087161914 0.64000005
-0.13226667 0.087161914 0.64000005
-0.13084286 0.087025717 0.63900006
-0.12962572 0.087025717 0.63900006
-0.12860954 0.087161914 0.64000005
-0.12739049 0.087161914 0.64000005
-0.13159049 0.09179239 0.67400002
-0.12992001 0.091520004 0.67200005
-0.12864001 0.091520004 0.67200005
-0.12717049 0.091383815 0.671
-0.12589239 0.091383815 0.671
-0.12442858 0.091247626 0.67000002
-0.12315239 0.091247626 0.67000002
-0.1218762 0.091247626 0.67000002
-0.12060001 0.091247626 0.67000002
-0.11932382 0.091247626 0.67000002
-0.11804762 0.091247626 0.67000002
-0.11677144 0.091247626 0.67000002
-0.11549524 0.091247626 0.67000002
-0.11438953 0.091383815 0.671
-0.11311144 0.091383815 0.671
0.021733334 0.088796198 0.65200001
0.02297524 0.088796198 0.65200001
0.024217144 0.088796198 0.65200001
0.025459049 0.088796198 0.65200001
0.026700955 0.088796198 0.65200001
0.027942859 0.088796198 0.65200001
0.029184764 0.088796198 0.65200001
-0.15263334 0.091833338 0.66500002
-0.15136668 0.091833338 0.66500002
-0.15055144 0.092109531 0.66700006
-0.14972858 0.092385717 0.66900003
-0.14845429 0.092385717 0.66900003
-0.14718001 0.092385717 0.66900003
-0.14612383 0.092523813 0.67000002
-0.1361362 0.088519052 0.64100003
-0.13470477 0.088380955 0.64000005
-0.13327715 0.088242866 0.63900006
-0.13206001 0.088242866 0.63900006
-0.13084286 0.088242866 0.63900006
-0.12962572 0.088242866 0.63900006
-0.12840858 0.088242866 0.63900006
-0.12719144 0.088242866 0.63900006
-0.13178572 0.093214288 0.67500001
-0.13030668 0.093076199 0.67400002
-0.12902287 0.093076199 0.67400002
-0.12736 0.092800006 0.67200005
-0.12589239 0.09266191 0.671
-0.12461429 0.09266191 0.671
-0.12315239 0.092523813 0.67000002
-0.1218762 0.092523813 0.67000002
-0.12060001 0.092523813 0.67000002
-0.11932382 0.092523813 0.67000002
-0.11804762 0.092523813 0.67000002
-0.11694572 0.09266191 0.671
-0.11566763 0.09266191 0.671
-0.11456001 0.092800006 0.67200005
-0.11328001 0.092800006 0.67200005
0.021700002 0.089900009 0.65100002
0.022940002 0.089900009 0.65100002
0.024180003 0.089900009 0.65100002
0.025420001 0.089900009 0.65100002
0.026660001 0.089900009 0.65100002
0.027942859 0.090038098 0.65200001
0.029140001 0.089900009 0.65100002
-0.15100287 0.093660004 0.66900003
-0.1499524 0.093800008 0.67000002
-0.1486762 0.093800008 0.67000002
-0.14762001 0.093940005 0.671
-0.14634192 0.093940005 0.671
-0.14506382 0.093940005 0.671
-0.13714287 0.089600004 0.64000005
-0.13592382 0.089600004 0.64000005
-0.13470477 0.089600004 0.64000005
-0.13327715 0.089460008 0.63900006
-0.13206001 0.089460008 0.63900006
-0.13084286 0.089460008 0.63900006
-0.12962572 0.089460008 0.63900006
-0.12840858 0.089460008 0.63900006
-0.12719144 0.089460008 0.63900006
-0.1259743 0.089460008 0.63900006
-0.1305 0.094500005 0.67500001
-0.12921429 0.094500005 0.67500001
-0.12773906 0.094360009 0.67400002
-0.12608001 0.094080009 0.67200005
-0.12480001 0.094080009 0.67200005
-0.1233362 0.093940005 0.671
-0.1220581 0.093940005 0.671
-0.12078001 0.093940005 0.671
-0.11950191 0.093940005 0.671
-0.11822382 0.093940005 0.671
-0.11712001 0.094080009 0.67200005
-0.11618477 0.094360009 0.67400002
-0.11490096 0.094360009 0.67400002
-0.11361715 0.094360009 0.67400002
-0.11233334 0.094360009 0.67400002
0.021666668 0.091000006 0.65000004
0.022904763 0.091000006 0.65000004
0.02414286 0.091000006 0.65000004
0.025380954 0.091000006 0.65000004
0.026660001 0.091140009 0.65100002
0.027900001 0.091140009 0.65100002
-0.14912 0.095360003 0.67200005
-0.14828001 0.095643818 0.67400002
-0.1469962 0.095643818 0.67400002
-0.14571239 0.095643818 0.67400002
-0.13692857 0.09067715 0.63900006
-0.13571143 0.09067715 0.63900006
-0.13428383 0.090535246 0.63800001
-0.13306858 0.090535246 0.63800001
-0.13144001 0.090251431 0.63600004
-0.13022858 0.090251431 0.63600004
-0.12901714 0.090251431 0.63600004
-0.12820762 0.090535246 0.63800001
-0.12719144 0.09067715 0.63900006
-0.1259743 0.09067715 0.63900006
-0.1305 0.095785722 0.67500001
-0.12940572 0.095927626 0.67600006
-0.12792858 0.095785722 0.67500001
-0.12664287 0.095785722 0.67500001
-0.12517144 0.095643818 0.67400002
-0.12388763 0.095643818 0.67400002
-0.12224001 0.095360003 0.67200005
-0.12096 0.095360003 0.67200005
-0.11968001 0.095360003 0.67200005
-0.11840001 0.095360003 0.67200005
-0.11746858 0.095643818 0.67400002
-0.11635715 0.095785722 0.67500001
-0.11507144 0.095785722 0.67500001
-0.11378572 0.095785722 0.67500001
-0.1125 0.095785722 0.67500001
0.021600001 0.091954291 0.648
0.022834288 0.091954291 0.648
0.024068573 0.091954291 0.648
0.025302859 0.091954291 0.648
0.026619049 0.092238098 0.65000004
-0.14956382 0.096927628 0.67400002
-0.14828001 0.096927628 0.67400002
-0.1469962 0.096927628 0.67400002
-0.13922668 0.092613339 0.64400005
-0.13671429 0.09175048 0.63800001
-0.13549906 0.09175048 0.63800001
-0.13365239 0.091319054 0.63500005
-0.13244286 0.091319054 0.63500005
-0.13123333 0.091319054 0.63500005
-0.13002382 0.091319054 0.63500005
-0.12881429 0.091319054 0.63500005
-0.12820762 0.09175048 0.63800001
-0.12699239 0.09175048 0.63800001
-0.12577716 0.09175048 0.63800001
-0.13069335 0.097215243 0.67600006
-0.12940572 0.097215243 0.67600006
-0.1281181 0.097215243 0.67600006
-0.12664287 0.097071432 0.67500001
-0.12535715 0.097071432 0.67500001
-0.12388763 0.096927628 0.67400002
-0.12260382 0.096927628 0.67400002
-0.12132001 0.096927628 0.67400002
-0.1200362 0.096927628 0.67400002
-0.11875239 0.096927628 0.67400002
-0.11764286 0.097071432 0.67500001
-0.11652953 0.097215243 0.67600006
-0.11524191 0.097215243 0.67600006
-0.11429144 0.097502865 0.67800003
0.021600001 0.093188576 0.648
0.022834288 0.093188576 0.648
0.024068573 0.093188576 0.648
-0.14435716 0.093985721 0.64500004
-0.14312857 0.093985721 0.64500004
-0.1419 0.093985721 0.64500004
-0.14067143 0.093985721 0.64500004
-0.13922668 0.093840003 0.64400005
-0.13800001 0.093840003 0.64400005
-0.13507429 0.092674293 0.63600004
-0.13344191 0.092382863 0.634
-0.13223429 0.092382863 0.634
-0.13102667 0.092382863 0.634
-0.12981905 0.092382863 0.634
-0.12861143 0.092382863 0.634
-0.12720287 0.092237152 0.63300002
-0.12559906 0.091945723 0.63100004
-0.12439715 0.091945723 0.63100004
-0.13069335 0.098502867 0.67600006
-0.12940572 0.098502867 0.67600006
-0.1281181 0.098502867 0.67600006
-0.12683049 0.098502867 0.67600006
-0.12535715 0.098357148 0.67500001
-0.12407143 0.098357148 0.67500001
-0.12278572 0.098357148 0.67500001
-0.12150001 0.098357148 0.67500001
-0.12021429 0.098357148 0.67500001
-0.11892858 0.098357148 0.67500001
-0.11781715 0.098502867 0.67600006
-0.11652953 0.098502867 0.67600006
-0.11558287 0.098794289 0.67800003
-0.11446001 0.098940007 0.67900002
-0.11333334 0.099085718 0.68000001
-0.11203811 0.099085718 0.68000001
-0.089933336 0.10345715 0.71000004
-0.086360008 0.10404 0.71400005
0.021566669 0.094277151 0.64700001
0.022799049 0.094277151 0.64700001
0.02403143 0.094277151 0.64700001
-0.14435716 0.095214292 0.64500004
-0.14312857 0.095214292 0.64500004
-0.1419 0.095214292 0.64500004
-0.14067143 0.095214292 0.64500004
-0.13922668 0.095066674 0.64400005
-0.13692857 0.094328575 0.63900006
-0.13549906 0.094180956 0.63800001
-0.13344191 0.093590483 0.634
-0.13223429 0.093590483 0.634
-0.13082001 0.093442865 0.63300002
-0.12961429 0.093442865 0.63300002
-0.12820572 0.093295246 0.63200003
-0.12680095 0.093147628 0.63100004
-0.12520096 0.092852384 0.62900001
-0.12400287 0.092852384 0.62900001
-0.12998001 0.10023334 0.67900002
-0.12868668 0.10023334 0.67900002
-0.12739334 0.10023334 0.67900002
-0.12591429 0.10008572 0.67800003
-0.12462287 0.10008572 0.67800003
-0.12296763 0.099790484 0.67600006
-0.12168001 0.099790484 0.67600006
-0.12039239 0.099790484 0.67600006
-0.11910477 0.099790484 0.67600006
-0.11781715 0.099790484 0.67600006
-0.11687429 0.10008572 0.67800003
-0.11575334 0.10023334 0.67900002
-0.11462858 0.10038096 0.68000001
-0.11333334 0.10038096 0.68000001
-0.11203811 0.10038096 0.68000001
-0.091463819 0.10348096 0.70100003
-0.089933336 0.10480953 0.71000004
-0.088580959 0.10480953 0.71000004
-0.087597147 0.10525239 0.71300006
0.016508572 0.094771437 0.64200002
0.017786669 0.095066674 0.64400005
0.019013334 0.095066674 0.64400005
0.02027143 0.095214292 0.64500004
0.021500001 0.095214292 0.64500004
0.022763811 0.095361911 0.64600003
0.023994287 0.095361911 0.64600003
0.025263811 0.095509529 0.64700001
0.026496192 0.095509529 0.64700001
-0.13792953 0.095396198 0.63800001
-0.13671429 0.095396198 0.63800001
-0.13507429 0.095097147 0.63600004
-0.13365239 0.094947629 0.63500005
-0.13223429 0.094798103 0.634
-0.13082001 0.094648577 0.63300002
-0.12961429 0.094648577 0.63300002
-0.12820572 0.094499052 0.63200003
-0.12680095 0.094349533 0.63100004
-0.12559906 0.094349533 0.63100004
-0.12459429 0.094499052 0.63200003
-0.12339048 0.094499052 0.63200003
-0.12887619 0.1016762 0.68000001
-0.12758096 0.1016762 0.68000001
-0.1261 0.10152667 0.67900002
-0.12480667 0.10152667 0.67900002
-0.12351334 0.10152667 0.67900002
-0.12204001 0.10137715 0.67800003
-0.12074858 0.10137715 0.67800003
-0.11945715 0.10137715 0.67800003
-0.11834001 0.10152667 0.67900002
-0.11704668 0.10152667 0.67900002
-0.11592381 0.1016762 0.68000001
-0.11462858 0.1016762 0.68000001
-0.11333334 0.1016762 0.68000001
-0.095333338 0.10466667 0.70000005
-0.094134293 0.1048162 0.70100003
-0.092799053 0.1048162 0.70100003
-0.091463819 0.1048162 0.70100003
-0.09038572 0.10511524 0.70300001
-0.089173339 0.10526477 0.70400006
0.016508572 0.095994294 0.64200002
0.01773143 0.095994294 0.64200002
0.019013334 0.096293338 0.64400005
0.020240001 0.096293338 0.64400005
0.021466669 0.096293338 0.64400005
0.022693334 0.096293338 0.64400005
0.023920001 0.096293338 0.64400005
0.025146669 0.096293338 0.64400005
-0.13836192 0.096914291 0.64000005
-0.13671429 0.096611433 0.63800001
-0.13507429 0.096308574 0.63600004
-0.13365239 0.096157148 0.63500005
-0.13223429 0.096005723 0.634
-0.13082001 0.09585429 0.63300002
-0.12961429 0.09585429 0.63300002
-0.12820572 0.095702864 0.63200003
-0.12680095 0.095551431 0.63100004
-0.12520096 0.09524858 0.62900001
-0.12439715 0.095551431 0.63100004
-0.12319525 0.095551431 0.63100004
-0.12887619 0.10297143 0.68000001
-0.12758096 0.10297143 0.68000001
-0.12628572 0.10297143 0.68000001
-0.12499049 0.10297143 0.68000001
-0.12369525 0.10297143 0.68000001
-0.12222001 0.10282001 0.67900002
-0.12092668 0.10282001 0.67900002
-0.11963334 0.10282001 0.67900002
-0.11851429 0.10297143 0.68000001
-0.11721905 0.10297143 0.68000001
-0.11592381 0.10297143 0.68000001
-0.11462858 0.10297143 0.68000001
-0.097580008 0.10554572 0.69700003
-0.096666671 0.10600001 0.70000005
-0.095333338 0.10600001 0.70000005
-0.094134293 0.10615144 0.70100003
-0.092799053 0.10615144 0.70100003
-0.091463819 0.10615144 0.70100003
-0.09038572 0.10645429 0.70300001
-0.089173339 0.10660572 0.70400006
-0.087832384 0.10660572 0.70400006
0.016508572 0.09721715 0.64200002
0.01773143 0.09721715 0.64200002
0.018954286 0.09721715 0.64200002
0.020177145 0.09721715 0.64200002
0.021400001 0.09721715 0.64200002
0.022622859 0.09721715 0.64200002
-0.13814573 0.097980008 0.63900006
-0.13671429 0.097826675 0.63800001
-0.13486192 0.097366676 0.63500005
-0.13344191 0.097213343 0.634
-0.13223429 0.097213343 0.634
-0.13082001 0.09706001 0.63300002
-0.12961429 0.09706001 0.63300002
-0.12800287 0.096753336 0.63100004
-0.12680095 0.096753336 0.63100004
-0.12520096 0.096446671 0.62900001
-0.12380572 0.096293338 0.62800002
-0.12280477 0.096446671 0.62900001
-0.12160668 0.096446671 0.62900001
-0.12887619 0.10426667 0.68000001
-0.12758096 0.10426667 0.68000001
-0.12628572 0.10426667 0.68000001
-0.12499049 0.10426667 0.68000001
-0.12369525 0.10426667 0.68000001
-0.12240001 0.10426667 0.68000001
-0.12110477 0.10426667 0.68000001
-0.11980953 0.10426667 0.68000001
-0.11851429 0.10426667 0.68000001
-0.11756381 0.10457334 0.68200004
-0.097580008 0.10687334 0.69700003
-0.096390486 0.10702667 0.69800001
-0.095060959 0.10702667 0.69800001
-0.094000004 0.10733334 0.70000005
-0.092799053 0.10748667 0.70100003
-0.091463819 0.10748667 0.70100003
-0.090128578 0.10748667 0.70100003
-0.089046672 0.10779334 0.70300001
-0.087707624 0.10779334 0.70300001
0.016457144 0.09813334 0.64000005
0.017703811 0.098286673 0.64100003
0.018954286 0.098440006 0.64200002
0.020177145 0.098440006 0.64200002
0.021400001 0.098440006 0.64200002
0.022622859 0.098440006 0.64200002
-0.13814573 0.099197149 0.63900006
-0.13671429 0.099041909 0.63800001
-0.13486192 0.098576196 0.63500005
-0.13344191 0.098420955 0.634
-0.13223429 0.098420955 0.634
-0.13082001 0.098265722 0.63300002
-0.12961429 0.098265722 0.63300002
-0.12800287 0.097955242 0.63100004
-0.12639906 0.097644769 0.62900001
-0.12520096 0.097644769 0.62900001
-0.12380572 0.097489528 0.62800002
-0.12280477 0.097644769 0.62900001
-0.12141334 0.097489528 0.62800002
-0.12021715 0.097489528 0.62800002
-0.12683049 0.10494096 0.67600006
-0.12554286 0.10494096 0.67600006
-0.1253581 0.10587239 0.68200004
-0.12351334 0.10540667 0.67900002
-0.12240001 0.10556191 0.68000001
-0.12146096 0.10587239 0.68200004
-0.11980953 0.10556191 0.68000001
-0.11886287 0.10587239 0.68200004
-0.099947624 0.10789049 0.69500005
-0.098907627 0.10820096 0.69700003
-0.097580008 0.10820096 0.69700003
-0.096390486 0.1083562 0.69800001
-0.095060959 0.1083562 0.69800001
-0.094000004 0.10866667 0.70000005
-0.092666671 0.10866667 0.70000005
-0.091463819 0.10882191 0.70100003
-0.090128578 0.10882191 0.70100003
-0.089046672 0.10913239 0.70300001
0.01278 0.099197149 0.63900006
0.013997144 0.099197149 0.63900006
0.015214287 0.099197149 0.63900006
0.01643143 0.099197149 0.63900006
0.017676191 0.09935239 0.64000005
0.018895239 0.09935239 0.64000005
0.020145716 0.099507622 0.64100003
0.021366669 0.099507622 0.64100003
0.02258762 0.099507622 0.64100003
-0.13671429 0.10025715 0.63800001
-0.13486192 0.099785723 0.63500005
-0.13365239 0.099785723 0.63500005
-0.13223429 0.099628575 0.634
-0.13102667 0.099628575 0.634
-0.12961429 0.099471435 0.63300002
-0.12800287 0.099157147 0.63100004
-0.12639906 0.098842867 0.62900001
-0.12500191 0.098685719 0.62800002
-0.12380572 0.098685719 0.62800002
-0.12280477 0.098842867 0.62900001
-0.12141334 0.098685719 0.62800002
-0.12021715 0.098685719 0.62800002
-0.11902096 0.098685719 0.62800002
-0.11782477 0.098685719 0.62800002
-0.1253581 0.10717144 0.68200004
-0.12405906 0.10717144 0.68200004
-0.12276001 0.10717144 0.68200004
-0.12163906 0.10732858 0.68300003
-0.10127144 0.10921429 0.69500005
-0.099947624 0.10921429 0.69500005
-0.09862382 0.10921429 0.69500005
-0.097580008 0.10952858 0.69700003
-0.096252389 0.10952858 0.69700003
-0.095060959 0.10968572 0.69800001
-0.094000004 0.11000001 0.70000005
-0.092666671 0.11000001 0.70000005
-0.091463819 0.11015715 0.70100003
-0.090128578 0.11015715 0.70100003
-0.089046672 0.11047143 0.70300001
0.013975239 0.10025715 0.63800001
0.015190477 0.10025715 0.63800001
0.01643143 0.10041429 0.63900006
0.017648572 0.10041429 0.63900006
0.018865716 0.10041429 0.63900006
0.020082859 0.10041429 0.63900006
0.021333335 0.10057144 0.64000005
0.022552382 0.10057144 0.64000005
-0.13486192 0.10099524 0.63500005
-0.13365239 0.10099524 0.63500005
-0.13223429 0.1008362 0.634
-0.13102667 0.1008362 0.634
-0.12961429 0.10067715 0.63300002
-0.12800287 0.10035905 0.63100004
-0.12680095 0.10035905 0.63100004
-0.12500191 0.09988191 0.62800002
-0.12380572 0.09988191 0.62800002
-0.12260953 0.09988191 0.62800002
-0.12122001 0.099722862 0.62700003
-0.12002572 0.099722862 0.62700003
-0.10170953 0.10958382 0.68900001
-0.10054287 0.10974286 0.69000006
-0.099947624 0.1105381 0.69500005
-0.09862382 0.1105381 0.69500005
-0.097580008 0.1108562 0.69700003
-0.096252389 0.1108562 0.69700003
-0.095060959 0.11101525 0.69800001
-0.093731433 0.11101525 0.69800001
-0.092666671 0.11133334 0.70000005
-0.091463819 0.11149239 0.70100003
-0.090128578 0.11149239 0.70100003
0.012760001 0.10147239 0.63800001
0.013975239 0.10147239 0.63800001
0.015190477 0.10147239 0.63800001
0.016405715 0.10147239 0.63800001
0.017620953 0.10147239 0.63800001
0.018865716 0.10163143 0.63900006
0.020051429 0.10147239 0.63800001
0.021300001 0.10163143 0.63900006
-0.13365239 0.10220477 0.63500005
-0.13244286 0.10220477 0.63500005
-0.13102667 0.10204381 0.634
-0.12981905 0.10204381 0.634
-0.12820572 0.10172191 0.63200003
-0.12680095 0.10156096 0.63100004
-0.12520096 0.10123906 0.62900001
-0.12380572 0.1010781 0.62800002
-0.12260953 0.1010781 0.62800002
-0.12122001 0.10091715 0.62700003
-0.11788382 0.10011239 0.62200004
-0.11669905 0.10011239 0.62200004
-0.11551429 0.10011239 0.62200004
-0.10403144 0.11057429 0.68700004
-0.10272286 0.11057429 0.68700004
-0.10170953 0.1108962 0.68900001
-0.10054287 0.11105715 0.69000006
-0.099372387 0.1112181 0.69100004
-0.098481908 0.11170096 0.69400001
-0.097580008 0.11218382 0.69700003
-0.096252389 0.11218382 0.69700003
-0.09492477 0.11218382 0.69700003
-0.093731433 0.11234477 0.69800001
-0.092666671 0.11266667 0.70000005
0.011544763 0.10268763 0.63800001
0.012760001 0.10268763 0.63800001
0.013975239 0.10268763 0.63800001
0.015190477 0.10268763 0.63800001
0.016405715 0.10268763 0.63800001
0.017620953 0.10268763 0.63800001
0.018836191 0.10268763 0.63800001
-0.13386287 0.10357715 0.63600004
-0.13265143 0.10357715 0.63600004
-0.13123333 0.10341429 0.63500005
-0.13002382 0.10341429 0.63500005
-0.12820572 0.10292572 0.63200003
-0.12680095 0.10276286 0.63100004
-0.12520096 0.10243715 0.62900001
-0.12400287 0.10243715 0.62900001
-0.12260953 0.10227429 0.62800002
-0.12102667 0.10194858 0.62600005
-0.1198343 0.10194858 0.62600005
-0.11788382 0.10129715 0.62200004
-0.11669905 0.10129715 0.62200004
-0.11551429 0.10129715 0.62200004
-0.11396191 0.10097144 0.62
-0.10534 0.11188287 0.68700004
-0.10403144 0.11188287 0.68700004
-0.10272286 0.11188287 0.68700004
-0.10141429 0.11188287 0.68700004
-0.10054287 0.11237144 0.69000006
-0.099372387 0.11253429 0.69100004
-0.098481908 0.11302286 0.69400001
-0.097580008 0.11351144 0.69700003
-0.096252389 0.11351144 0.69700003
-0.09492477 0.11351144 0.69700003
-0.093731433 0.11367429 0.69800001
0.01393143 0.10357715 0.63600004
0.015142858 0.10357715 0.63600004
0.016354287 0.10357715 0.63600004
-0.13265143 0.10478858 0.63600004
-0.13144001 0.10478858 0.63600004
-0.13022858 0.10478858 0.63600004
-0.12881429 0.10462382 0.63500005
-0.12700191 0.10412953 0.63200003
-0.12559906 0.10396477 0.63100004
-0.12400287 0.10363524 0.62900001
-0.12260953 0.10347048 0.62800002
-0.12122001 0.10330572 0.62700003
-0.1198343 0.10314096 0.62600005
-0.11788382 0.10248191 0.62200004
-0.11669905 0.10248191 0.62200004
-0.11514287 0.10215238 0.62
-0.11396191 0.10215238 0.62
-0.11278096 0.10215238 0.62
-0.11142001 0.10198762 0.61900002
-0.10748572 0.11269715 0.68400002
-0.10649334 0.11302667 0.68600005
-0.10518667 0.11302667 0.68600005
-0.10403144 0.11319143 0.68700004
-0.10272286 0.11319143 0.68700004
-0.10141429 0.11319143 0.68700004
-0.10054287 0.11368572 0.69000006
-0.099372387 0.11385048 0.69100004
-0.098481908 0.11434477 0.69400001
0.012901906 0.11747525 0.71300006
0.01509524 0.10445905 0.634
0.018282859 0.11714572 0.71100003
-0.13306858 0.10633334 0.63800001
-0.13144001 0.10600001 0.63600004
-0.13063811 0.10633334 0.63800001
-0.12942286 0.10633334 0.63800001
-0.12740381 0.10566667 0.634
-0.12579811 0.10533334 0.63200003
-0.12439715 0.10516667 0.63100004
-0.12260953 0.10466667 0.62800002
-0.12102667 0.10433334 0.62600005
-0.1198343 0.10433334 0.62600005
-0.11788382 0.10366667 0.62200004
-0.11669905 0.10366667 0.62200004
-0.11514287 0.10333334 0.62
-0.11396191 0.10333334 0.62
-0.11259905 0.10316668 0.61900002
-0.11142001 0.10316668 0.61900002
-0.11006287 0.10300001 0.61800003
-0.10888572 0.10300001 0.61800003
-0.10717144 0.11366668 0.68200004
-0.10602763 0.11383334 0.68300003
-0.10488001 0.11400001 0.68400002
-0.10388001 0.11433334 0.68600005
-0.10272286 0.11450001 0.68700004
-0.10141429 0.11450001 0.68700004
-0.10054287 0.11500001 0.69000006
-0.099372387 0.11516667 0.69100004
-0.098481908 0.11566667 0.69400001
0.010185715 0.11883334 0.71300006
0.01154381 0.11883334 0.71300006
0.012901906 0.11883334 0.71300006
0.014220001 0.11850001 0.71100003
0.015574287 0.11850001 0.71100003
0.01509524 0.10566667 0.634
0.018282859 0.11850001 0.71100003
-0.13512573 0.10822286 0.64200002
-0.13369429 0.1080543 0.64100003
-0.13226667 0.10788572 0.64000005
-0.13104762 0.10788572 0.64000005
-0.12962572 0.10771715 0.63900006
-0.12840858 0.10771715 0.63900006
-0.12719144 0.10771715 0.63900006
-0.1259743 0.10771715 0.63900006
-0.12495239 0.10788572 0.64000005
-0.12373334 0.10788572 0.64000005
-0.12270572 0.1080543 0.64100003
-0.11788382 0.10485143 0.62200004
-0.11669905 0.10485143 0.62200004
-0.11514287 0.10451429 0.62
-0.1137781 0.10434572 0.61900002
-0.11259905 0.10434572 0.61900002
-0.11124001 0.10417715 0.61800003
-0.11006287 0.10417715 0.61800003
-0.10888572 0.10417715 0.61800003
-0.10753429 0.10400858 0.61700004
-0.10717144 0.11496572 0.68200004
-0.10602763 0.11513429 0.68300003
-0.10488001 0.11530287 0.68400002
-0.10388001 0.11564001 0.68600005
-0.10272286 0.11580858 0.68700004
-0.10141429 0.11580858 0.68700004
-0.10068858 0.11648286 0.69100004
0.010185715 0.12019144 0.71300006
0.011511429 0.11985429 0.71100003
0.01284762 0.11968572 0.71000004
0.014220001 0.11985429 0.71100003
0.015574287 0.11985429 0.71100003
0.016928572 0.11985429 0.71100003
0.018334286 0.12019144 0.71300006
-0.13575715 0.10995715 0.64500004
-0.13390286 0.10944572 0.64200002
-0.13247333 0.10927524 0.64100003
-0.13104762 0.10910477 0.64000005
-0.12982859 0.10910477 0.64000005
-0.12860954 0.10910477 0.64000005
-0.12719144 0.10893429 0.63900006
-0.1259743 0.10893429 0.63900006
-0.12495239 0.10910477 0.64000005
-0.12373334 0.10910477 0.64000005
-0.12270572 0.10927524 0.64100003
-0.11750477 0.10569525 0.62
-0.11632381 0.10569525 0.62
-0.11495715 0.10552477 0.61900002
-0.1137781 0.10552477 0.61900002
-0.11241715 0.10535429 0.61800003
-0.11124001 0.10535429 0.61800003
-0.10988477 0.10518382 0.61700004
-0.10870953 0.10518382 0.61700004
-0.10753429 0.10518382 0.61700004
-0.10815239 0.11592381 0.68000001
-0.10685715 0.11592381 0.68000001
-0.10602763 0.11643524 0.68300003
-0.10488001 0.11660572 0.68400002
-0.10388001 0.11694667 0.68600005
-0.10257334 0.11694667 0.68600005
-0.10141429 0.11711715 0.68700004
-0.10068858 0.11779906 0.69100004
0.005357143 0.10654762 0.625
0.0065580956 0.1067181 0.62600005
0.0077504767 0.1067181 0.62600005
0.014200001 0.1210381 0.71000004
0.015574287 0.12120858 0.71100003
0.016928572 0.12120858 0.71100003
0.018334286 0.12154953 0.71300006
-0.13575715 0.11118572 0.64500004
-0.13432001 0.11101334 0.64400005
-0.13268001 0.11066858 0.64200002
-0.13125239 0.1104962 0.64100003
-0.12982859 0.11032382 0.64000005
-0.12860954 0.11032382 0.64000005
-0.12739049 0.11032382 0.64000005
-0.12617144 0.11032382 0.64000005
-0.12514763 0.1104962 0.64100003
-0.12373334 0.11032382 0.64000005
-0.12270572 0.1104962 0.64100003
-0.11750477 0.10687619 0.62
-0.11632381 0.10687619 0.62
-0.11495715 0.10670382 0.61900002
-0.11359429 0.10653143 0.61800003
-0.11241715 0.10653143 0.61800003
-0.11106001 0.10635906 0.61700004
-0.10988477 0.10635906 0.61700004
-0.10870953 0.10635906 0.61700004
-0.10736001 0.10618667 0.61600006
-0.10670001 0.11704668 0.67900002
-0.10587239 0.11756381 0.68200004
-0.10488001 0.11790858 0.68400002
-0.10403144 0.11842572 0.68700004
-0.10272286 0.11842572 0.68700004
0.00059428578 0.10756572 0.62400001
0.0017828572 0.10756572 0.62400001
0.0029714287 0.10756572 0.62400001
0.0041666669 0.1077381 0.625
0.005357143 0.1077381 0.625
0.0065580956 0.10791048 0.62600005
0.0077504767 0.10791048 0.62600005
0.014160001 0.12204573 0.708
0.015508573 0.12204573 0.708
0.016928572 0.12256286 0.71100003
0.018282859 0.12256286 0.71100003
-0.13575715 0.11241429 0.64500004
-0.13452858 0.11241429 0.64500004
-0.13309334 0.11224001 0.64400005
-0.13145715 0.11189143 0.64200002
-0.13003144 0.11171715 0.64100003
-0.12881048 0.11171715 0.64100003
-0.12758954 0.11171715 0.64100003
-0.12636858 0.11171715 0.64100003
-0.12514763 0.11171715 0.64100003
-0.12392668 0.11171715 0.64100003
-0.12270572 0.11171715 0.64100003
-0.12148477 0.11171715 0.64100003
-0.11594858 0.10770858 0.61800003
-0.11477143 0.10770858 0.61800003
-0.11359429 0.10770858 0.61800003
-0.11223525 0.10753429 0.61700004
-0.11106001 0.10753429 0.61700004
-0.10988477 0.10753429 0.61700004
-0.10870953 0.10753429 0.61700004
-0.10736001 0.10736001 0.61600006
-0.10601429 0.10718572 0.61500001
-0.098341912 0.10648858 0.611
-0.10664858 0.11973429 0.68700004
-0.10534 0.11973429 0.68700004
-0.10403144 0.11973429 0.68700004
-0.002952381 0.10805715 0.62
-0.0017800002 0.10858001 0.62300003
-0.00059333339 0.10858001 0.62300003
0.00059428578 0.10875429 0.62400001
0.0017828572 0.10875429 0.62400001
0.0029761908 0.10892858 0.625
0.0041666669 0.10892858 0.625
0.0053657144 0.10910287 0.62600005
0.0065580956 0.10910287 0.62600005
0.0077628577 0.10927715 0.62700003
0.014200001 0.12374286 0.71000004
0.015552382 0.12374286 0.71000004
0.016904764 0.12374286 0.71000004
-0.13596763 0.11381906 0.64600003
-0.13473715 0.11381906 0.64600003
-0.13330001 0.11364286 0.64500004
-0.13186668 0.11346667 0.64400005
-0.1302343 0.11311429 0.64200002
-0.12881048 0.11293811 0.64100003
-0.12758954 0.11293811 0.64100003
-0.12636858 0.11293811 0.64100003
-0.12514763 0.11293811 0.64100003
-0.12412 0.11311429 0.64200002
-0.12366287 0.11381906 0.64600003
-0.12243239 0.11381906 0.64600003
-0.12157715 0.11417144 0.648
-0.12034287 0.11417144 0.648
-0.11341048 0.10870953 0.61700004
-0.11223525 0.10870953 0.61700004
-0.11106001 0.10870953 0.61700004
-0.10988477 0.10870953 0.61700004
-0.10870953 0.10870953 0.61700004
-0.10736001 0.10853334 0.61600006
-0.10601429 0.10835715 0.61500001
-0.10467239 0.10818096 0.61400002
-0.10350286 0.10818096 0.61400002
-0.098341912 0.10765239 0.611
-0.097178102 0.10765239 0.611
-0.0053142859 0.1092381 0.62
-0.0041333335 0.1092381 0.62
-0.002952381 0.1092381 0.62
-0.0017714287 0.1092381 0.62
-0.00059333339 0.10976668 0.62300003
0.00059428578 0.10994286 0.62400001
0.0017828572 0.10994286 0.62400001
0.0029714287 0.10994286 0.62400001
0.0041666669 0.11011905 0.625
0.0053657144 0.11029524 0.62600005
0.0065580956 0.11029524 0.62600005
0.0077628577 0.11047143 0.62700003
0.014220001 0.12527144 0.71100003
0.015552382 0.12509525 0.71000004
-0.13719811 0.11504953 0.64600003
-0.13596763 0.11504953 0.64600003
-0.13473715 0.11504953 0.64600003
-0.13330001 0.11487143 0.64500004
-0.13207144 0.11487143 0.64500004
-0.13064002 0.11469334 0.64400005
-0.12901144 0.11433715 0.64200002
-0.12778857 0.11433715 0.64200002
-0.12656572 0.11433715 0.64200002
-0.12573335 0.11469334 0.64400005
-0.12450667 0.11469334 0.64400005
-0.12366287 0.11504953 0.64600003
-0.12262192 0.11522762 0.64700001
-0.12138953 0.11522762 0.64700001
-0.12034287 0.11540572 0.648
-0.11341048 0.10988477 0.61700004
-0.11223525 0.10988477 0.61700004
-0.11106001 0.10988477 0.61700004
-0.10988477 0.10988477 0.61700004
-0.10870953 0.10988477 0.61700004
-0.10736001 0.10970668 0.61600006
-0.10601429 0.10952858 0.61500001
-0.10467239 0.10935048 0.61400002
-0.10350286 0.10935048 0.61400002
-0.10216668 0.10917239 0.61300004
-0.1008343 0.10899429 0.61200005
-0.099505723 0.1088162 0.611
-0.098341912 0.1088162 0.611
-0.097178102 0.1088162 0.611
-0.0076638102 0.11024096 0.61900002
-0.0064952387 0.11041906 0.62
-0.0053142859 0.11041906 0.62
-0.0041333335 0.11041906 0.62
-0.002952381 0.11041906 0.62
-0.0017714287 0.11041906 0.62
-0.00059238099 0.11077525 0.62200004
0.00059333339 0.11095334 0.62300003
0.0017828572 0.11113144 0.62400001
0.0029714287 0.11113144 0.62400001
0.0041666669 0.11130953 0.625
0.0053657144 0.11148763 0.62600005
0.006568572 0.11166572 0.62700003
0.0077628577 0.11166572 0.62700003
0.0089714294 0.11184382 0.62800002
0.015618096 0.12698191 0.71300006
-0.13677335 0.11592001 0.64400005
-0.13554667 0.11592001 0.64400005
-0.13473715 0.11628 0.64600003
-0.13330001 0.11610001 0.64500004
-0.13207144 0.11610001 0.64500004
-0.13064002 0.11592001 0.64400005
-0.12941334 0.11592001 0.64400005
-0.12818667 0.11592001 0.64400005
-0.12696001 0.11592001 0.64400005
-0.12573335 0.11592001 0.64400005
-0.12450667 0.11592001 0.64400005
-0.12366287 0.11628 0.64600003
-0.12262192 0.11646001 0.64700001
-0.12120191 0.11628 0.64600003
-0.11997144 0.11628 0.64600003
-0.11359429 0.11124001 0.61800003
-0.11241715 0.11124001 0.61800003
-0.11124001 0.11124001 0.61800003
-0.10988477 0.11106001 0.61700004
-0.10870953 0.11106001 0.61700004
-0.10736001 0.11088001 0.61600006
-0.10601429 0.1107 0.61500001
-0.10467239 0.11052001 0.61400002
-0.10350286 0.11052001 0.61400002
-0.10216668 0.11034001 0.61300004
-0.1008343 0.11016001 0.61200005
-0.099505723 0.10998001 0.611
-0.098341912 0.10998001 0.611
-0.097178102 0.10998001 0.611
-0.096328579 0.11034001 0.61300004
-0.0076638102 0.11142001 0.61900002
-0.0064847623 0.11142001 0.61900002
-0.0053142859 0.1116 0.62
-0.0041333335 0.1116 0.62
-0.002952381 0.1116 0.62
-0.0017714287 0.1116 0.62
-0.00059238099 0.11196001 0.62200004
0.00059333339 0.11214001 0.62300003
0.0017828572 0.11232001 0.62400001
0.0029714287 0.11232001 0.62400001
0.0041666669 0.1125 0.625
0.0053657144 0.11268001 0.62600005
0.006568572 0.11286001 0.62700003
0.0077752387 0.11304001 0.62800002
-0.13698572 0.11732858 0.64500004
-0.13575715 0.11732858 0.64500004
-0.13473715 0.11751048 0.64600003
-0.13350667 0.11751048 0.64600003
-0.13227619 0.11751048 0.64600003
-0.13084286 0.11732858 0.64500004
-0.12961429 0.11732858 0.64500004
-0.12818667 0.11714667 0.64400005
-0.12696001 0.11714667 0.64400005
-0.12573335 0.11714667 0.64400005
-0.12450667 0.11714667 0.64400005
-0.12366287 0.11751048 0.64600003
-0.12243239 0.11751048 0.64600003
-0.12120191 0.11751048 0.64600003
-0.11997144 0.11751048 0.64600003
-0.11223525 0.11223525 0.61700004
-0.11106001 0.11223525 0.61700004
-0.10988477 0.11223525 0.61700004
-0.10870953 0.11223525 0.61700004
-0.10736001 0.11205334 0.61600006
-0.10601429 0.11187144 0.61500001
-0.10467239 0.11168953 0.61400002
-0.10333429 0.11150762 0.61300004
-0.10216668 0.11150762 0.61300004
-0.1008343 0.11132572 0.61200005
-0.099668577 0.11132572 0.61200005
-0.098502867 0.11132572 0.61200005
-0.097178102 0.11114382 0.611
-0.095700003 0.11078001 0.60900003
-0.094850481 0.11114382 0.611
-0.011110477 0.11168953 0.61400002
-0.0099571431 0.11187144 0.61500001
-0.0087857153 0.11187144 0.61500001
-0.0076638102 0.11259905 0.61900002
-0.0064847623 0.11259905 0.61900002
-0.0053142859 0.11278096 0.62
-0.0041333335 0.11278096 0.62
-0.002952381 0.11278096 0.62
-0.0017714287 0.11278096 0.62
-0.00059238099 0.11314477 0.62200004
0.00059333339 0.11332668 0.62300003
0.0017828572 0.11350858 0.62400001
0.0029714287 0.11350858 0.62400001
0.0041666669 0.11369048 0.625
0.0053657144 0.11387239 0.62600005
0.006568572 0.11405429 0.62700003
0.0077628577 0.11405429 0.62700003
-0.13698572 0.11855715 0.64500004
-0.13575715 0.11855715 0.64500004
-0.13494572 0.11892477 0.64700001
-0.13350667 0.11874096 0.64600003
-0.13227619 0.11874096 0.64600003
-0.13104573 0.11874096 0.64600003
-0.12981525 0.11874096 0.64600003
-0.12838572 0.11855715 0.64500004
-0.12715715 0.11855715 0.64500004
-0.12612382 0.11874096 0.64600003
-0.12470001 0.11855715 0.64500004
-0.12385429 0.11892477 0.64700001
-0.12262192 0.11892477 0.64700001
-0.12138953 0.11892477 0.64700001
-0.11106001 0.11341048 0.61700004
-0.10988477 0.11341048 0.61700004
-0.10870953 0.11341048 0.61700004
-0.10736001 0.11322667 0.61600006
-0.10601429 0.11304286 0.61500001
-0.10467239 0.11285906 0.61400002
-0.10333429 0.11267524 0.61300004
-0.10216668 0.11267524 0.61300004
-0.1008343 0.11249144 0.61200005
-0.099668577 0.11249144 0.61200005
-0.098502867 0.11249144 0.61200005
-0.097178102 0.11230762 0.611
-0.096014291 0.11230762 0.611
-0.094850481 0.11230762 0.611
-0.093380004 0.11194 0.60900003
-0.01228 0.11285906 0.61400002
-0.011110477 0.11285906 0.61400002
-0.0099571431 0.11304286 0.61500001
-0.0087857153 0.11304286 0.61500001
-0.0076390482 0.11341048 0.61700004
-0.0064847623 0.1137781 0.61900002
-0.0053142859 0.11396191 0.62
-0.004126667 0.1137781 0.61900002
-0.002952381 0.11396191 0.62
-0.001777143 0.11432953 0.62200004
-0.00059238099 0.11432953 0.62200004
0.00059333339 0.11451334 0.62300003
0.0017828572 0.11469715 0.62400001
0.0029714287 0.11469715 0.62400001
-0.13617811 0.12015715 0.64700001
-0.13494572 0.12015715 0.64700001
-0.13371333 0.12015715 0.64700001
-0.13248096 0.12015715 0.64700001
-0.13124858 0.12015715 0.64700001
-0.13001619 0.12015715 0.64700001
-0.12878382 0.12015715 0.64700001
-0.12755144 0.12015715 0.64700001
-0.12631905 0.12015715 0.64700001
-0.12508668 0.12015715 0.64700001
-0.12385429 0.12015715 0.64700001
-0.12262192 0.12015715 0.64700001
-0.11106001 0.11458572 0.61700004
-0.10988477 0.11458572 0.61700004
-0.10870953 0.11458572 0.61700004
-0.10736001 0.11440001 0.61600006
-0.10601429 0.11421429 0.61500001
-0.10484286 0.11421429 0.61500001
-0.10350286 0.11402858 0.61400002
-0.10216668 0.11384287 0.61300004
-0.1008343 0.11365715 0.61200005
-0.099668577 0.11365715 0.61200005
-0.098502867 0.11365715 0.61200005
-0.097178102 0.11347143 0.611
-0.096014291 0.11347143 0.611
-0.094540007 0.11310001 0.60900003
-0.093380004 0.11310001 0.60900003
-0.092068575 0.11291429 0.60800004
-0.01342762 0.11384287 0.61300004
-0.012260001 0.11384287 0.61300004
-0.011110477 0.11402858 0.61400002
-0.0099571431 0.11421429 0.61500001
-0.0088000009 0.11440001 0.61600006
-0.0076390482 0.11458572 0.61700004
-0.0064742863 0.11477143 0.61800003
-0.0053142859 0.11514287 0.62
-0.0041333335 0.11514287 0.62
-0.002952381 0.11514287 0.62
-0.0017714287 0.11514287 0.62
-0.00059238099 0.11551429 0.62200004
0.00059333339 0.11570001 0.62300003
0.0017828572 0.11588572 0.62400001
0.0029761908 0.11607143 0.625
-0.13494572 0.12138953 0.64700001
-0.13392001 0.12157715 0.648
-0.13248096 0.12138953 0.64700001
-0.13124858 0.12138953 0.64700001
-0.13001619 0.12138953 0.64700001
-0.12878382 0.12138953 0.64700001
-0.12755144 0.12138953 0.64700001
-0.12631905 0.12138953 0.64700001
-0.12508668 0.12138953 0.64700001
-0.12385429 0.12138953 0.64700001
-0.10853334 0.11557334 0.61600006
-0.10718572 0.11538572 0.61500001
-0.10601429 0.11538572 0.61500001
-0.10484286 0.11538572 0.61500001
-0.10350286 0.11519811 0.61400002
-0.10233334 0.11519811 0.61400002
-0.10099906 0.11501049 0.61300004
-0.099831432 0.11501049 0.61300004
-0.098663814 0.11501049 0.61300004
-0.097337149 0.11482286 0.61200005
-0.096171431 0.11482286 0.61200005
-0.094850481 0.11463524 0.611
-0.09368667 0.11463524 0.611
-0.092220008 0.11426001 0.60900003
-0.090910479 0.11407239 0.60800004
-0.089457147 0.11369715 0.60600001
-0.088448577 0.11388477 0.60700005
-0.087292388 0.11388477 0.60700005
-0.085994288 0.11369715 0.60600001
-0.018098097 0.11501049 0.61300004
-0.016930478 0.11501049 0.61300004
-0.015762858 0.11501049 0.61300004
-0.014595239 0.11501049 0.61300004
-0.01342762 0.11501049 0.61300004
-0.01228 0.11519811 0.61400002
-0.011110477 0.11519811 0.61400002
-0.0099571431 0.11538572 0.61500001
-0.0088000009 0.11557334 0.61600006
-0.0076266672 0.11557334 0.61600006
-0.0064742863 0.11594858 0.61800003
-0.0053057144 0.1161362 0.61900002
-0.004126667 0.1161362 0.61900002
-0.0029476192 0.1161362 0.61900002
-0.0017685716 0.1161362 0.61900002
-0.00059238099 0.11669905 0.62200004
0.00059238099 0.11669905 0.62200004
-0.13309525 0.12319048 0.65000004
-0.13185716 0.12319048 0.65000004
-0.13102096 0.12356953 0.65200001
-0.12958001 0.12338001 0.65100002
-0.12814286 0.12319048 0.65000004
-0.12690477 0.12319048 0.65000004
-0.12528001 0.12281144 0.648
-0.12385429 0.12262192 0.64700001
-0.10549715 0.11598858 0.61200005
-0.10433143 0.11598858 0.61200005
-0.10299715 0.11579905 0.611
-0.10250001 0.11655715 0.61500001
-0.10132858 0.11655715 0.61500001
-0.099994294 0.11636762 0.61400002
-0.098663814 0.1161781 0.61300004
-0.097496197 0.1161781 0.61300004
-0.096171431 0.11598858 0.61200005
-0.095005721 0.11598858 0.61200005
-0.09368667 0.11579905 0.611
-0.09252286 0.11579905 0.611
-0.091060005 0.11542001 0.60900003
-0.089752384 0.11523049 0.60800004
-0.088594295 0.11523049 0.60800004
-0.087436199 0.11523049 0.60800004
-0.0861362 0.11504096 0.60700005
-0.084980004 0.11504096 0.60700005
-0.020433335 0.1161781 0.61300004
-0.019265715 0.1161781 0.61300004
-0.018098097 0.1161781 0.61300004
-0.016930478 0.1161781 0.61300004
-0.015788572 0.11636762 0.61400002
-0.014619049 0.11636762 0.61400002
-0.013449525 0.11636762 0.61400002
-0.012300001 0.11655715 0.61500001
-0.011128572 0.11655715 0.61500001
-0.0099733341 0.11674667 0.61600006
-0.0088000009 0.11674667 0.61600006
-0.0076266672 0.11674667 0.61600006
-0.0064638099 0.1169362 0.61700004
-0.005297143 0.11712572 0.61800003
-0.004126667 0.11731525 0.61900002
-0.0029476192 0.11731525 0.61900002
-0.13206001 0.12462001 0.65100002
-0.13102096 0.12481143 0.65200001
-0.12958001 0.12462001 0.65100002
-0.12834001 0.12462001 0.65100002
-0.12690477 0.12442858 0.65000004
-0.12566668 0.12442858 0.65000004
-0.12404572 0.12404572 0.648
-0.10149334 0.11792001 0.61600006
-0.10015715 0.11772858 0.61500001
-0.098824769 0.11753715 0.61400002
-0.097496197 0.11734572 0.61300004
-0.096171431 0.11715429 0.61200005
-0.095005721 0.11715429 0.61200005
-0.09368667 0.11696286 0.611
-0.09252286 0.11696286 0.611
-0.091060005 0.11658001 0.60900003
-0.089752384 0.11638858 0.60800004
-0.088594295 0.11638858 0.60800004
-0.087436199 0.11638858 0.60800004
-0.0861362 0.11619715 0.60700005
-0.084980004 0.11619715 0.60700005
-0.083823815 0.11619715 0.60700005
-0.082667626 0.11619715 0.60700005
-0.028420001 0.11658001 0.60900003
-0.027215241 0.11638858 0.60800004
-0.026100002 0.11658001 0.60900003
-0.024940001 0.11658001 0.60900003
-0.023858096 0.11696286 0.611
-0.022731431 0.11715429 0.61200005
-0.021565715 0.11715429 0.61200005
-0.020433335 0.11734572 0.61300004
-0.019265715 0.11734572 0.61300004
-0.018098097 0.11734572 0.61300004
-0.016930478 0.11734572 0.61300004
-0.015762858 0.11734572 0.61300004
-0.014595239 0.11734572 0.61300004
-0.013449525 0.11753715 0.61400002
-0.01228 0.11753715 0.61400002
-0.011128572 0.11772858 0.61500001
-0.0099733341 0.11792001 0.61600006
-0.0088000009 0.11792001 0.61600006
-0.0076266672 0.11792001 0.61600006
-0.0064533339 0.11792001 0.61600006
-0.005297143 0.11830287 0.61800003
-0.004126667 0.11849429 0.61900002
-0.0029476192 0.11849429 0.61900002
0.015619049 0.12557715 0.65600002
-0.13122192 0.12624668 0.65300006
-0.12977906 0.12605335 0.65200001
-0.12853715 0.12605335 0.65200001
-0.12710001 0.12586001 0.65100002
-0.12586001 0.12586001 0.65100002
-0.12442858 0.12566668 0.65000004
-0.12319048 0.12566668 0.65000004
-0.10032 0.11909334 0.61600006
-0.098985724 0.11890001 0.61500001
-0.097655244 0.11870667 0.61400002
-0.096171431 0.11832001 0.61200005
-0.095005721 0.11832001 0.61200005
-0.09368667 0.11812668 0.611
-0.09252286 0.11812668 0.611
-0.091060005 0.11774001 0.60900003
-0.089752384 0.11754668 0.60800004
-0.088594295 0.11754668 0.60800004
-0.087436199 0.11754668 0.60800004
