# .PCD v0.7 - Point Cloud Data file format
VERSION 0.7
FIELDS x y z
SIZE 4 4 4
TYPE F F F
COUNT 1 1 1
WIDTH 1373
HEIGHT 1
VIEWPOINT 0 0 0 1 0 0 0
POINTS 1373
DATA ascii
-0.12045144 0.021400001 0.64200002
-0.11922858 0.021400001 0.64200002
-0.11800572 0.021400001 0.64200002
-0.11714667 0.021466669 0.64400005
-0.11592001 0.021466669 0.64400005
-0.11469334 0.021466669 0.64400005
-0.11364286 0.021500001 0.64500004
-0.11224001 0.021466669 0.64400005
-0.11118572 0.021500001 0.64500004
-0.10995715 0.021500001 0.64500004
-0.10856001 0.021466669 0.64400005
-0.10733334 0.021466669 0.64400005
-0.10610668 0.021466669 0.64400005
-0.10488001 0.021466669 0.64400005
-0.10365334 0.021466669 0.64400005
-0.10242667 0.021466669 0.64400005
-0.10120001 0.021466669 0.64400005
-0.099973343 0.021466669 0.64400005
-0.098746672 0.021466669 0.64400005
-0.097520009 0.021466669 0.64400005
-0.096293338 0.021466669 0.64400005
-0.095214292 0.021500001 0.64500004
-0.094131432 0.021533335 0.64600003
-0.092900962 0.021533335 0.64600003
-0.091670483 0.021533335 0.64600003
-0.090440005 0.021533335 0.64600003
-0.094940007 0.023566669 0.70700002
-0.093725719 0.023600001 0.708
-0.092377149 0.023600001 0.708
-0.13698572 0.022728574 0.64500004
-0.13575715 0.022728574 0.64500004
-0.13452858 0.022728574 0.64500004
-0.13330001 0.022728574 0.64500004
-0.13207144 0.022728574 0.64500004
-0.13084286 0.022728574 0.64500004
-0.12941334 0.022693334 0.64400005
-0.12818667 0.022693334 0.64400005
-0.12696001 0.022693334 0.64400005
-0.12573335 0.022693334 0.64400005
-0.12450667 0.022693334 0.64400005
-0.12289715 0.022622859 0.64200002
-0.12167429 0.022622859 0.64200002
-0.12045144 0.022622859 0.64200002
-0.11922858 0.022622859 0.64200002
-0.11837334 0.022693334 0.64400005
-0.11714667 0.022693334 0.64400005
-0.11592001 0.022693334 0.64400005
-0.11469334 0.022693334 0.64400005
-0.11364286 0.022728574 0.64500004
-0.11224001 0.022693334 0.64400005
-0.11118572 0.022728574 0.64500004
-0.10995715 0.022728574 0.64500004
-0.10856001 0.022693334 0.64400005
-0.10733334 0.022693334 0.64400005
-0.10610668 0.022693334 0.64400005
-0.10488001 0.022693334 0.64400005
-0.10365334 0.022693334 0.64400005
-0.10210858 0.022622859 0.64200002
-0.10088572 0.022622859 0.64200002
-0.099662863 0.022622859 0.64200002
-0.098440006 0.022622859 0.64200002
-0.097520009 0.022693334 0.64400005
-0.096293338 0.022693334 0.64400005
-0.095214292 0.022728574 0.64500004
-0.093985721 0.022728574 0.64500004
-0.092900962 0.022763811 0.64600003
-0.09152858 0.022728574 0.64500004
-0.090300009 0.022728574 0.64500004
-0.095074289 0.024948573 0.708
-0.093725719 0.024948573 0.708
-0.092377149 0.024948573 0.708
-0.13698572 0.023957144 0.64500004
-0.13575715 0.023957144 0.64500004
-0.13452858 0.023957144 0.64500004
-0.13330001 0.023957144 0.64500004
-0.13207144 0.023957144 0.64500004
-0.13084286 0.023957144 0.64500004
-0.12961429 0.023957144 0.64500004
-0.12818667 0.023920001 0.64400005
-0.12696001 0.023920001 0.64400005
-0.12573335 0.023920001 0.64400005
-0.12450667 0.023920001 0.64400005
-0.12289715 0.023845715 0.64200002
-0.12167429 0.023845715 0.64200002
-0.12045144 0.023845715 0.64200002
-0.11922858 0.023845715 0.64200002
-0.11800572 0.023845715 0.64200002
-0.11678287 0.023845715 0.64200002
-0.11592001 0.023920001 0.64400005
-0.11469334 0.023920001 0.64400005
-0.11364286 0.023957144 0.64500004
-0.11224001 0.023920001 0.64400005
-0.11101334 0.023920001 0.64400005
-0.10995715 0.023957144 0.64500004
-0.10856001 0.023920001 0.64400005
-0.10733334 0.023920001 0.64400005
-0.10610668 0.023920001 0.64400005
-0.1045543 0.023845715 0.64200002
-0.10333143 0.023845715 0.64200002
-0.10210858 0.023845715 0.64200002
-0.10072858 0.023808572 0.64100003
-0.099662863 0.023845715 0.64200002
-0.098440006 0.023845715 0.64200002
-0.09721715 0.023845715 0.64200002
-0.096293338 0.023920001 0.64400005
-0.095066674 0.023920001 0.64400005
-0.093985721 0.023957144 0.64500004
-0.092757151 0.023957144 0.64500004
-0.09152858 0.023957144 0.64500004
-0.096422866 0.026297145 0.708
-0.095074289 0.026297145 0.708
-0.093990482 0.026371431 0.71000004
-0.092638098 0.026371431 0.71000004
-0.13698572 0.025185715 0.64500004
-0.13575715 0.025185715 0.64500004
-0.13452858 0.025185715 0.64500004
-0.13330001 0.025185715 0.64500004
-0.13207144 0.025185715 0.64500004
-0.13084286 0.025185715 0.64500004
-0.12961429 0.025185715 0.64500004
-0.12838572 0.025185715 0.64500004
-0.12696001 0.025146669 0.64400005
-0.12573335 0.025146669 0.64400005
-0.12450667 0.025146669 0.64400005
-0.12328001 0.025146669 0.64400005
-0.12167429 0.025068574 0.64200002
-0.12045144 0.025068574 0.64200002
-0.11922858 0.025068574 0.64200002
-0.11800572 0.025068574 0.64200002
-0.11714667 0.025146669 0.64400005
-0.11592001 0.025146669 0.64400005
-0.11469334 0.025146669 0.64400005
-0.11364286 0.025185715 0.64500004
-0.11241429 0.025185715 0.64500004
-0.11101334 0.025146669 0.64400005
-0.10978667 0.025146669 0.64400005
-0.10856001 0.025146669 0.64400005
-0.10733334 0.025146669 0.64400005
-0.10577715 0.025068574 0.64200002
-0.1045543 0.025068574 0.64200002
-0.10333143 0.025068574 0.64200002
-0.10194953 0.025029525 0.64100003
-0.10072858 0.025029525 0.64100003
-0.099507622 0.025029525 0.64100003
-0.098440006 0.025068574 0.64200002
-0.09721715 0.025068574 0.64200002
-0.095994294 0.025068574 0.64200002
-0.095066674 0.025146669 0.64400005
-0.093985721 0.025185715 0.64500004
-0.092757151 0.025185715 0.64500004
-0.09152858 0.025185715 0.64500004
-0.096422866 0.027645716 0.708
-0.095342867 0.027723812 0.71000004
-0.093990482 0.027723812 0.71000004
-0.13677335 0.026373334 0.64400005
-0.13575715 0.026414288 0.64500004
-0.13452858 0.026414288 0.64500004
-0.13330001 0.026414288 0.64500004
-0.13207144 0.026414288 0.64500004
-0.13084286 0.026414288 0.64500004
-0.12961429 0.026414288 0.64500004
-0.12838572 0.026414288 0.64500004
-0.12696001 0.026373334 0.64400005
-0.12573335 0.026373334 0.64400005
-0.12450667 0.026373334 0.64400005
-0.12328001 0.026373334 0.64400005
-0.12205334 0.026373334 0.64400005
-0.12082668 0.026373334 0.64400005
-0.11960001 0.026373334 0.64400005
-0.11837334 0.026373334 0.64400005
-0.11714667 0.026373334 0.64400005
-0.11592001 0.026373334 0.64400005
-0.11469334 0.026373334 0.64400005
-0.11364286 0.026414288 0.64500004
-0.11241429 0.026414288 0.64500004
-0.11101334 0.026373334 0.64400005
-0.10978667 0.026373334 0.64400005
-0.10856001 0.026373334 0.64400005
-0.10733334 0.026373334 0.64400005
-0.10577715 0.02629143 0.64200002
-0.1045543 0.02629143 0.64200002
-0.10317048 0.026250478 0.64100003
-0.10194953 0.026250478 0.64100003
-0.10072858 0.026250478 0.64100003
-0.099507622 0.026250478 0.64100003
-0.098440006 0.02629143 0.64200002
-0.09721715 0.02629143 0.64200002
-0.096293338 0.026373334 0.64400005
-0.095066674 0.026373334 0.64400005
-0.093985721 0.026414288 0.64500004
-0.092757151 0.026414288 0.64500004
-0.09152858 0.026414288 0.64500004
-0.090300009 0.026414288 0.64500004
-0.095477149 0.029117145 0.71100003
-0.094122864 0.029117145 0.71100003
-0.13698572 0.027642859 0.64500004
-0.13575715 0.027642859 0.64500004
-0.13452858 0.027642859 0.64500004
-0.13330001 0.027642859 0.64500004
-0.13207144 0.027642859 0.64500004
-0.13084286 0.027642859 0.64500004
-0.12961429 0.027642859 0.64500004
-0.12838572 0.027642859 0.64500004
-0.12715715 0.027642859 0.64500004
-0.12573335 0.027600002 0.64400005
-0.12450667 0.027600002 0.64400005
-0.12328001 0.027600002 0.64400005
-0.12205334 0.027600002 0.64400005
-0.12082668 0.027600002 0.64400005
-0.11960001 0.027600002 0.64400005
-0.11837334 0.027600002 0.64400005
-0.11714667 0.027600002 0.64400005
-0.11592001 0.027600002 0.64400005
-0.11469334 0.027600002 0.64400005
-0.11364286 0.027642859 0.64500004
-0.11224001 0.027600002 0.64400005
-0.11101334 0.027600002 0.64400005
-0.10978667 0.027600002 0.64400005
-0.10856001 0.027600002 0.64400005
-0.10733334 0.027600002 0.64400005
-0.10577715 0.027514288 0.64200002
-0.1045543 0.027514288 0.64200002
-0.10333143 0.027514288 0.64200002
-0.10194953 0.027471431 0.64100003
-0.10072858 0.027471431 0.64100003
-0.099507622 0.027471431 0.64100003
-0.098440006 0.027514288 0.64200002
-0.09721715 0.027514288 0.64200002
-0.096293338 0.027600002 0.64400005
-0.095066674 0.027600002 0.64400005
-0.093985721 0.027642859 0.64500004
-0.092757151 0.027642859 0.64500004
-0.09152858 0.027642859 0.64500004
-0.090300009 0.027642859 0.64500004
-0.095477149 0.030471431 0.71100003
-0.094122864 0.030471431 0.71100003
-0.13698572 0.02887143 0.64500004
-0.13575715 0.02887143 0.64500004
-0.13452858 0.02887143 0.64500004
-0.13330001 0.02887143 0.64500004
-0.13207144 0.02887143 0.64500004
-0.13084286 0.02887143 0.64500004
-0.12961429 0.02887143 0.64500004
-0.12838572 0.02887143 0.64500004
-0.12715715 0.02887143 0.64500004
-0.12592858 0.02887143 0.64500004
-0.12450667 0.028826669 0.64400005
-0.12328001 0.028826669 0.64400005
-0.12205334 0.028826669 0.64400005
-0.12082668 0.028826669 0.64400005
-0.11960001 0.028826669 0.64400005
-0.11837334 0.028826669 0.64400005
-0.11714667 0.028826669 0.64400005
-0.11592001 0.028826669 0.64400005
-0.11469334 0.028826669 0.64400005
-0.11346667 0.028826669 0.64400005
-0.11224001 0.028826669 0.64400005
-0.11101334 0.028826669 0.64400005
-0.10978667 0.028826669 0.64400005
-0.10856001 0.028826669 0.64400005
-0.10733334 0.028826669 0.64400005
-0.10577715 0.028737145 0.64200002
-0.1045543 0.028737145 0.64200002
-0.10317048 0.028692383 0.64100003
-0.10194953 0.028692383 0.64100003
-0.10072858 0.028692383 0.64100003
-0.099507622 0.028692383 0.64100003
-0.098440006 0.028737145 0.64200002
-0.09721715 0.028737145 0.64200002
-0.096293338 0.028826669 0.64400005
-0.095066674 0.028826669 0.64400005
-0.093985721 0.02887143 0.64500004
-0.092757151 0.02887143 0.64500004
-0.09152858 0.02887143 0.64500004
-0.090300009 0.02887143 0.64500004
-0.09574572 0.03191524 0.71300006
-0.094387628 0.03191524 0.71300006
-0.13698572 0.030100003 0.64500004
-0.13575715 0.030100003 0.64500004
-0.13473715 0.030146668 0.64600003
-0.13350667 0.030146668 0.64600003
-0.13207144 0.030100003 0.64500004
-0.13084286 0.030100003 0.64500004
-0.12961429 0.030100003 0.64500004
-0.12838572 0.030100003 0.64500004
-0.12715715 0.030100003 0.64500004
-0.12592858 0.030100003 0.64500004
-0.12450667 0.030053336 0.64400005
-0.12328001 0.030053336 0.64400005
-0.12205334 0.030053336 0.64400005
-0.12082668 0.030053336 0.64400005
-0.11960001 0.030053336 0.64400005
-0.11837334 0.030053336 0.64400005
-0.11714667 0.030053336 0.64400005
-0.11592001 0.030053336 0.64400005
-0.11469334 0.030053336 0.64400005
-0.11346667 0.030053336 0.64400005
-0.11224001 0.030053336 0.64400005
-0.11101334 0.030053336 0.64400005
-0.10978667 0.030053336 0.64400005
-0.10856001 0.030053336 0.64400005
-0.10733334 0.030053336 0.64400005
-0.10577715 0.029960003 0.64200002
-0.10439143 0.029913336 0.64100003
-0.10317048 0.029913336 0.64100003
-0.10194953 0.029913336 0.64100003
-0.10072858 0.029913336 0.64100003
-0.099507622 0.029913336 0.64100003
-0.098440006 0.029960003 0.64200002
-0.09721715 0.029960003 0.64200002
-0.096293338 0.030053336 0.64400005
-0.095066674 0.030053336 0.64400005
-0.093985721 0.030100003 0.64500004
-0.092757151 0.030100003 0.64500004
-0.09152858 0.030100003 0.64500004
-0.097103819 0.033273336 0.71300006
-0.09574572 0.033273336 0.71300006
-0.094387628 0.033273336 0.71300006
-0.13719811 0.031377144 0.64600003
-0.13596763 0.031377144 0.64600003
-0.13473715 0.031377144 0.64600003
-0.13350667 0.031377144 0.64600003
-0.13207144 0.031328574 0.64500004
-0.13084286 0.031328574 0.64500004
-0.12961429 0.031328574 0.64500004
-0.12838572 0.031328574 0.64500004
-0.12715715 0.031328574 0.64500004
-0.12592858 0.031328574 0.64500004
-0.12450667 0.031280003 0.64400005
-0.12328001 0.031280003 0.64400005
-0.12205334 0.031280003 0.64400005
-0.12082668 0.031280003 0.64400005
-0.11960001 0.031280003 0.64400005
-0.11837334 0.031280003 0.64400005
-0.11714667 0.031280003 0.64400005
-0.11592001 0.031280003 0.64400005
-0.11469334 0.031280003 0.64400005
-0.11346667 0.031280003 0.64400005
-0.11224001 0.031280003 0.64400005
-0.11101334 0.031280003 0.64400005
-0.10978667 0.031280003 0.64400005
-0.10856001 0.031280003 0.64400005
-0.10733334 0.031280003 0.64400005
-0.10577715 0.031182859 0.64200002
-0.1045543 0.031182859 0.64200002
-0.10317048 0.031134287 0.64100003
-0.10194953 0.031134287 0.64100003
-0.10072858 0.031134287 0.64100003
-0.099507622 0.031134287 0.64100003
-0.098440006 0.031182859 0.64200002
-0.097520009 0.031280003 0.64400005
-0.096293338 0.031280003 0.64400005
-0.095214292 0.031328574 0.64500004
-0.093985721 0.031328574 0.64500004
-0.092757151 0.031328574 0.64500004
-0.09152858 0.031328574 0.64500004
-0.098600008 0.034680001 0.71400005
-0.097103819 0.034631431 0.71300006
-0.09574572 0.034631431 0.71300006
-0.094387628 0.034631431 0.71300006
-0.055570479 0.034145717 0.70300001
-0.054077145 0.034048572 0.70100003
-0.052741908 0.034048572 0.70100003
-0.13719811 0.032607622 0.64600003
-0.13596763 0.032607622 0.64600003
-0.13473715 0.032607622 0.64600003
-0.13350667 0.032607622 0.64600003
-0.13227619 0.032607622 0.64600003
-0.13084286 0.032557145 0.64500004
-0.12961429 0.032557145 0.64500004
-0.12838572 0.032557145 0.64500004
-0.12715715 0.032557145 0.64500004
-0.12592858 0.032557145 0.64500004
-0.12450667 0.032506667 0.64400005
-0.12328001 0.032506667 0.64400005
-0.12205334 0.032506667 0.64400005
-0.12082668 0.032506667 0.64400005
-0.11960001 0.032506667 0.64400005
-0.11837334 0.032506667 0.64400005
-0.11714667 0.032506667 0.64400005
-0.11592001 0.032506667 0.64400005
-0.11469334 0.032506667 0.64400005
-0.11346667 0.032506667 0.64400005
-0.11224001 0.032506667 0.64400005
-0.11101334 0.032506667 0.64400005
-0.10978667 0.032506667 0.64400005
-0.10856001 0.032506667 0.64400005
-0.10733334 0.032506667 0.64400005
-0.10577715 0.032405715 0.64200002
-0.1045543 0.032405715 0.64200002
-0.10333143 0.032405715 0.64200002
-0.10210858 0.032405715 0.64200002
-0.10088572 0.032405715 0.64200002
-0.099662863 0.032405715 0.64200002
-0.098746672 0.032506667 0.64400005
-0.097671434 0.032557145 0.64500004
-0.096442863 0.032557145 0.64500004
-0.095361911 0.032607622 0.64600003
-0.094131432 0.032607622 0.64600003
-0.093044765 0.032658096 0.64700001
-0.098600008 0.036040001 0.71400005
-0.097240008 0.036040001 0.71400005
-0.095880009 0.036040001 0.71400005
-0.094520003 0.036040001 0.71400005
-0.054385718 0.035585716 0.70500004
-0.053193338 0.035686668 0.70700002
-0.051846672 0.035686668 0.70700002
-0.13885716 0.03394286 0.648
-0.13741049 0.033890478 0.64700001
-0.13596763 0.033838097 0.64600003
-0.13494572 0.033890478 0.64700001
-0.13371333 0.033890478 0.64700001
-0.13227619 0.033838097 0.64600003
-0.13104573 0.033838097 0.64600003
-0.12961429 0.033785716 0.64500004
-0.12838572 0.033785716 0.64500004
-0.12715715 0.033785716 0.64500004
-0.12592858 0.033785716 0.64500004
-0.12450667 0.033733334 0.64400005
-0.12328001 0.033733334 0.64400005
-0.12205334 0.033733334 0.64400005
-0.12082668 0.033733334 0.64400005
-0.11960001 0.033733334 0.64400005
-0.11837334 0.033733334 0.64400005
-0.11714667 0.033733334 0.64400005
-0.11592001 0.033733334 0.64400005
-0.11469334 0.033733334 0.64400005
-0.11346667 0.033733334 0.64400005
-0.11224001 0.033733334 0.64400005
-0.11101334 0.033733334 0.64400005
-0.10978667 0.033733334 0.64400005
-0.10856001 0.033733334 0.64400005
-0.10733334 0.033733334 0.64400005
-0.10610668 0.033733334 0.64400005
-0.1045543 0.033628572 0.64200002
-0.10333143 0.033628572 0.64200002
-0.10210858 0.033628572 0.64200002
-0.10088572 0.033628572 0.64200002
-0.099973343 0.033733334 0.64400005
-0.098746672 0.033733334 0.64400005
-0.097671434 0.033785716 0.64500004
-0.096592389 0.033838097 0.64600003
-0.095509529 0.033890478 0.64700001
-0.094277151 0.033890478 0.64700001
-0.093188576 0.03394286 0.648
-0.091954291 0.03394286 0.648
-0.090720005 0.03394286 0.648
-0.095880009 0.037400004 0.71400005
-0.094520003 0.037400004 0.71400005
-0.055886671 0.037033334 0.70700002
-0.054540005 0.037033334 0.70700002
-0.053193338 0.037033334 0.70700002
-0.051920004 0.037085716 0.708
-0.051000003 0.037400004 0.71400005
-0.04977905 0.037504766 0.71600002
-0.13885716 0.035177145 0.648
-0.13741049 0.03512286 0.64700001
-0.13617811 0.03512286 0.64700001
-0.13494572 0.03512286 0.64700001
-0.13371333 0.03512286 0.64700001
-0.13248096 0.03512286 0.64700001
-0.13104573 0.035068575 0.64600003
-0.12981525 0.035068575 0.64600003
-0.12838572 0.035014287 0.64500004
-0.12715715 0.035014287 0.64500004
-0.12592858 0.035014287 0.64500004
-0.12450667 0.034960002 0.64400005
-0.12328001 0.034960002 0.64400005
-0.12205334 0.034960002 0.64400005
-0.12082668 0.034960002 0.64400005
-0.11960001 0.034960002 0.64400005
-0.11837334 0.034960002 0.64400005
-0.11714667 0.034960002 0.64400005
-0.11592001 0.034960002 0.64400005
-0.11469334 0.034960002 0.64400005
-0.11346667 0.034960002 0.64400005
-0.11224001 0.034960002 0.64400005
-0.11101334 0.034960002 0.64400005
-0.10978667 0.034960002 0.64400005
-0.10856001 0.034960002 0.64400005
-0.10733334 0.034960002 0.64400005
-0.10610668 0.034960002 0.64400005
-0.1045543 0.034851432 0.64200002
-0.10333143 0.034851432 0.64200002
-0.10210858 0.034851432 0.64200002
-0.10088572 0.034851432 0.64200002
-0.099973343 0.034960002 0.64400005
-0.098900005 0.035014287 0.64500004
-0.097671434 0.035014287 0.64500004
-0.096592389 0.035068575 0.64600003
-0.095509529 0.03512286 0.64700001
-0.094277151 0.03512286 0.64700001
-0.093188576 0.035177145 0.648
-0.091954291 0.035177145 0.648
-0.090720005 0.035177145 0.648
-0.095880009 0.038760003 0.71400005
-0.055965718 0.038434289 0.708
-0.054540005 0.038380001 0.70700002
-0.053268574 0.038434289 0.708
-0.052066669 0.038542859 0.71000004
-0.050785717 0.038597144 0.71100003
-0.049640004 0.038760003 0.71400005
0.16263334 0.045220003 0.83300006
-0.13928573 0.036523812 0.65000004
-0.13762286 0.036411431 0.648
-0.13638858 0.036411431 0.648
-0.13494572 0.036355242 0.64700001
-0.13371333 0.036355242 0.64700001
-0.13248096 0.036355242 0.64700001
-0.13124858 0.036355242 0.64700001
-0.12981525 0.03629905 0.64600003
-0.12838572 0.036242861 0.64500004
-0.12715715 0.036242861 0.64500004
-0.12592858 0.036242861 0.64500004
-0.12450667 0.036186669 0.64400005
-0.12328001 0.036186669 0.64400005
-0.12205334 0.036186669 0.64400005
-0.12082668 0.036186669 0.64400005
-0.11960001 0.036186669 0.64400005
-0.11837334 0.036186669 0.64400005
-0.11714667 0.036186669 0.64400005
-0.11592001 0.036186669 0.64400005
-0.11469334 0.036186669 0.64400005
-0.11346667 0.036186669 0.64400005
-0.11224001 0.036186669 0.64400005
-0.11101334 0.036186669 0.64400005
-0.10978667 0.036186669 0.64400005
-0.10856001 0.036186669 0.64400005
-0.10733334 0.036186669 0.64400005
-0.10610668 0.036186669 0.64400005
-0.1045543 0.036074288 0.64200002
-0.10333143 0.036074288 0.64200002
-0.10210858 0.036074288 0.64200002
-0.10088572 0.036074288 0.64200002
-0.099973343 0.036186669 0.64400005
-0.098900005 0.036242861 0.64500004
-0.09782286 0.03629905 0.64600003
-0.096741915 0.036355242 0.64700001
-0.095509529 0.036355242 0.64700001
-0.094422862 0.036411431 0.648
-0.093188576 0.036411431 0.648
-0.092238098 0.036523812 0.65000004
-0.097512387 0.040232383 0.71600002
-0.095880009 0.040120002 0.71400005
-0.054617148 0.039782859 0.708
-0.05341905 0.03989524 0.71000004
-0.052140005 0.039951432 0.71100003
-0.050928574 0.040063813 0.71300006
-0.049640004 0.040120002 0.71400005
-0.048280004 0.040120002 0.71400005
-0.14052382 0.037761908 0.65000004
-0.13928573 0.037761908 0.65000004
-0.13762286 0.037645716 0.648
-0.13638858 0.037645716 0.648
-0.13494572 0.03758762 0.64700001
-0.13371333 0.03758762 0.64700001
-0.13248096 0.03758762 0.64700001
-0.13124858 0.03758762 0.64700001
-0.12981525 0.037529524 0.64600003
-0.12838572 0.037471432 0.64500004
-0.12715715 0.037471432 0.64500004
-0.12592858 0.037471432 0.64500004
-0.12450667 0.037413336 0.64400005
-0.12328001 0.037413336 0.64400005
-0.12205334 0.037413336 0.64400005
-0.12082668 0.037413336 0.64400005
-0.11960001 0.037413336 0.64400005
-0.11837334 0.037413336 0.64400005
-0.11714667 0.037413336 0.64400005
-0.11592001 0.037413336 0.64400005
-0.11469334 0.037413336 0.64400005
-0.11346667 0.037413336 0.64400005
-0.11224001 0.037413336 0.64400005
-0.11118572 0.037471432 0.64500004
-0.10995715 0.037471432 0.64500004
-0.10856001 0.037413336 0.64400005
-0.10733334 0.037413336 0.64400005
-0.10610668 0.037413336 0.64400005
-0.1045543 0.037297145 0.64200002
-0.10333143 0.037297145 0.64200002
-0.10210858 0.037297145 0.64200002
-0.10088572 0.037297145 0.64200002
-0.099973343 0.037413336 0.64400005
-0.098900005 0.037471432 0.64500004
-0.09782286 0.037529524 0.64600003
-0.096741915 0.03758762 0.64700001
-0.095657147 0.037645716 0.648
-0.094422862 0.037645716 0.648
-0.093188576 0.037645716 0.648
-0.092238098 0.037761908 0.65000004
-0.054617148 0.041131433 0.708
-0.05341905 0.041247621 0.71000004
-0.052140005 0.041305717 0.71100003
-0.050928574 0.041421909 0.71300006
-0.049640004 0.041480001 0.71400005
-0.048280004 0.041480001 0.71400005
-0.047051433 0.041596193 0.71600002
-0.045687623 0.041596193 0.71600002
-0.14052382 0.039000001 0.65000004
-0.13928573 0.039000001 0.65000004
-0.13762286 0.038880002 0.648
-0.13638858 0.038880002 0.648
-0.13515429 0.038880002 0.648
-0.13371333 0.038820002 0.64700001
-0.13248096 0.038820002 0.64700001
-0.13124858 0.038820002 0.64700001
-0.12981525 0.038760003 0.64600003
-0.12858477 0.038760003 0.64600003
-0.12715715 0.038700003 0.64500004
-0.12592858 0.038700003 0.64500004
-0.12450667 0.038640004 0.64400005
-0.12328001 0.038640004 0.64400005
-0.12205334 0.038640004 0.64400005
-0.12082668 0.038640004 0.64400005
-0.11960001 0.038640004 0.64400005
-0.11837334 0.038640004 0.64400005
-0.11714667 0.038640004 0.64400005
-0.11592001 0.038640004 0.64400005
-0.11469334 0.038640004 0.64400005
-0.11364286 0.038700003 0.64500004
-0.11241429 0.038700003 0.64500004
-0.11118572 0.038700003 0.64500004
-0.10995715 0.038700003 0.64500004
-0.10856001 0.038640004 0.64400005
-0.10733334 0.038640004 0.64400005
-0.10610668 0.038640004 0.64400005
-0.10488001 0.038640004 0.64400005
-0.10365334 0.038640004 0.64400005
-0.10242667 0.038640004 0.64400005
-0.10120001 0.038640004 0.64400005
-0.099973343 0.038640004 0.64400005
-0.098900005 0.038700003 0.64500004
-0.097974293 0.038820002 0.64700001
-0.096741915 0.038820002 0.64700001
-0.095657147 0.038880002 0.648
-0.094422862 0.038880002 0.648
-0.093476199 0.039000001 0.65000004
-0.092238098 0.039000001 0.65000004
-0.054617148 0.042480003 0.708
-0.05349429 0.042660002 0.71100003
-0.052140005 0.042660002 0.71100003
-0.050928574 0.042780004 0.71300006
-0.049640004 0.042840004 0.71400005
-0.048280004 0.042840004 0.71400005
-0.046920002 0.042840004 0.71400005
-0.045560002 0.042840004 0.71400005
-0.044200003 0.042840004 0.71400005
-0.14052382 0.040238097 0.65000004
-0.13928573 0.040238097 0.65000004
-0.13762286 0.040114287 0.648
-0.13638858 0.040114287 0.648
-0.13515429 0.040114287 0.648
-0.13392001 0.040114287 0.648
-0.13248096 0.040052384 0.64700001
-0.13124858 0.040052384 0.64700001
-0.12981525 0.039990477 0.64600003
-0.12858477 0.039990477 0.64600003
-0.12715715 0.039928574 0.64500004
-0.12592858 0.039928574 0.64500004
-0.12470001 0.039928574 0.64500004
-0.12328001 0.039866671 0.64400005
-0.12205334 0.039866671 0.64400005
-0.12082668 0.039866671 0.64400005
-0.11960001 0.039866671 0.64400005
-0.11837334 0.039866671 0.64400005
-0.11714667 0.039866671 0.64400005
-0.11610001 0.039928574 0.64500004
-0.11487143 0.039928574 0.64500004
-0.11364286 0.039928574 0.64500004
-0.11241429 0.039928574 0.64500004
-0.11118572 0.039928574 0.64500004
-0.10995715 0.039928574 0.64500004
-0.10856001 0.039866671 0.64400005
-0.10733334 0.039866671 0.64400005
-0.10610668 0.039866671 0.64400005
-0.10488001 0.039866671 0.64400005
-0.10365334 0.039866671 0.64400005
-0.10242667 0.039866671 0.64400005
-0.10120001 0.039866671 0.64400005
-0.099973343 0.039866671 0.64400005
-0.098900005 0.039928574 0.64500004
-0.097974293 0.040052384 0.64700001
-0.096741915 0.040052384 0.64700001
-0.095509529 0.040052384 0.64700001
-0.094422862 0.040114287 0.648
-0.093476199 0.040238097 0.65000004
-0.098185718 0.04401429 0.71100003
-0.05349429 0.04401429 0.71100003
-0.05228667 0.0441381 0.71300006
-0.051000003 0.044200003 0.71400005
-0.049640004 0.044200003 0.71400005
-0.048280004 0.044200003 0.71400005
-0.047051433 0.044323813 0.71600002
-0.045560002 0.044200003 0.71400005
-0.044200003 0.044200003 0.71400005
-0.042840004 0.044200003 0.71400005
-0.14052382 0.041476194 0.65000004
-0.13928573 0.041476194 0.65000004
-0.13762286 0.041348573 0.648
-0.13638858 0.041348573 0.648
-0.13515429 0.041348573 0.648
-0.13392001 0.041348573 0.648
-0.13268572 0.041348573 0.648
-0.13124858 0.041284766 0.64700001
-0.13001619 0.041284766 0.64700001
-0.12858477 0.041220956 0.64600003
-0.12735429 0.041220956 0.64600003
-0.12592858 0.041157145 0.64500004
-0.12470001 0.041157145 0.64500004
-0.12347144 0.041157145 0.64500004
-0.12224287 0.041157145 0.64500004
-0.1210143 0.041157145 0.64500004
-0.11978572 0.041157145 0.64500004
-0.11855715 0.041157145 0.64500004
-0.11732858 0.041157145 0.64500004
-0.11610001 0.041157145 0.64500004
-0.11487143 0.041157145 0.64500004
-0.11364286 0.041157145 0.64500004
-0.11241429 0.041157145 0.64500004
-0.11118572 0.041157145 0.64500004
-0.10995715 0.041157145 0.64500004
-0.10872858 0.041157145 0.64500004
-0.10733334 0.041093335 0.64400005
-0.10610668 0.041093335 0.64400005
-0.10488001 0.041093335 0.64400005
-0.10365334 0.041093335 0.64400005
-0.10242667 0.041093335 0.64400005
-0.10120001 0.041093335 0.64400005
-0.10012858 0.041157145 0.64500004
-0.098900005 0.041157145 0.64500004
-0.097974293 0.041284766 0.64700001
-0.096741915 0.041284766 0.64700001
-0.095509529 0.041284766 0.64700001
-0.094422862 0.041348573 0.648
-0.093476199 0.041476194 0.65000004
-0.098185718 0.045368575 0.71100003
-0.053644765 0.045496192 0.71300006
-0.05228667 0.045496192 0.71300006
-0.051000003 0.045560002 0.71400005
-0.04977905 0.045687623 0.71600002
-0.04841524 0.045687623 0.71600002
-0.047051433 0.045687623 0.71600002
-0.045687623 0.045687623 0.71600002
-0.044323813 0.045687623 0.71600002
-0.042840004 0.045560002 0.71400005
-0.14052382 0.04271429 0.65000004
-0.13928573 0.04271429 0.65000004
-0.13804764 0.04271429 0.65000004
-0.13638858 0.042582858 0.648
-0.13515429 0.042582858 0.648
-0.13392001 0.042582858 0.648
-0.13268572 0.042582858 0.648
-0.13145144 0.042582858 0.648
-0.13001619 0.042517144 0.64700001
-0.12878382 0.042517144 0.64700001
-0.12755144 0.042517144 0.64700001
-0.12612382 0.04245143 0.64600003
-0.12489334 0.04245143 0.64600003
-0.12347144 0.042385716 0.64500004
-0.12224287 0.042385716 0.64500004
-0.1210143 0.042385716 0.64500004
-0.11978572 0.042385716 0.64500004
-0.11855715 0.042385716 0.64500004
-0.11732858 0.042385716 0.64500004
-0.11628 0.04245143 0.64600003
-0.11487143 0.042385716 0.64500004
-0.11381906 0.04245143 0.64600003
-0.11241429 0.042385716 0.64500004
-0.11118572 0.042385716 0.64500004
-0.10995715 0.042385716 0.64500004
-0.10872858 0.042385716 0.64500004
-0.10750001 0.042385716 0.64500004
-0.10627144 0.042385716 0.64500004
-0.10488001 0.042320002 0.64400005
-0.10365334 0.042320002 0.64400005
-0.10242667 0.042320002 0.64400005
-0.10120001 0.042320002 0.64400005
-0.10012858 0.042385716 0.64500004
-0.098900005 0.042385716 0.64500004
-0.097974293 0.042517144 0.64700001
-0.096741915 0.042517144 0.64700001
-0.095657147 0.042582858 0.648
-0.094422862 0.042582858 0.648
-0.093476199 0.04271429 0.65000004
-0.098185718 0.046722859 0.71100003
-0.053644765 0.046854287 0.71300006
-0.052360002 0.046920002 0.71400005
-0.051000003 0.046920002 0.71400005
-0.04977905 0.047051433 0.71600002
-0.04841524 0.047051433 0.71600002
-0.047117148 0.047117148 0.71700001
-0.04575143 0.047117148 0.71700001
-0.044385716 0.047117148 0.71700001
-0.043020003 0.047117148 0.71700001
-0.14198001 0.044020005 0.65100002
-0.14074001 0.044020005 0.65100002
-0.13928573 0.043952383 0.65000004
-0.13804764 0.043952383 0.65000004
-0.13680953 0.043952383 0.65000004
-0.13515429 0.043817144 0.648
-0.13392001 0.043817144 0.648
-0.13268572 0.043817144 0.648
-0.13145144 0.043817144 0.648
-0.13021715 0.043817144 0.648
-0.12878382 0.043749526 0.64700001
-0.12755144 0.043749526 0.64700001
-0.12631905 0.043749526 0.64700001
-0.12508668 0.043749526 0.64700001
-0.12366287 0.043681908 0.64600003
-0.12243239 0.043681908 0.64600003
-0.12120191 0.043681908 0.64600003
-0.11997144 0.043681908 0.64600003
-0.11874096 0.043681908 0.64600003
-0.11769239 0.043749526 0.64700001
-0.11628 0.043681908 0.64600003
-0.11504953 0.043681908 0.64600003
-0.11381906 0.043681908 0.64600003
-0.11258858 0.043681908 0.64600003
-0.11135811 0.043681908 0.64600003
-0.10995715 0.043614287 0.64500004
-0.10872858 0.043614287 0.64500004
-0.10750001 0.043614287 0.64500004
-0.10627144 0.043614287 0.64500004
-0.10488001 0.043546669 0.64400005
-0.10365334 0.043546669 0.64400005
-0.10242667 0.043546669 0.64400005
-0.10120001 0.043546669 0.64400005
-0.10012858 0.043614287 0.64500004
-0.099053338 0.043681908 0.64600003
-0.098125719 0.043817144 0.648
-0.096891433 0.043817144 0.648
-0.095657147 0.043817144 0.648
-0.094422862 0.043817144 0.648
-0.093476199 0.043952383 0.65000004
-0.092238098 0.043952383 0.65000004
-0.053644765 0.048212383 0.71300006
-0.052360002 0.048280004 0.71400005
-0.051000003 0.048280004 0.71400005
-0.04977905 0.04841524 0.71600002
-0.048482861 0.048482861 0.71700001
-0.047117148 0.048482861 0.71700001
-0.045879051 0.048618097 0.71900004
-0.044509526 0.048618097 0.71900004
-0.043140002 0.048618097 0.71900004
-0.14198001 0.045260005 0.65100002
-0.14074001 0.045260005 0.65100002
-0.13928573 0.04519048 0.65000004
-0.13804764 0.04519048 0.65000004
-0.13680953 0.04519048 0.65000004
-0.13557144 0.04519048 0.65000004
-0.13392001 0.045051433 0.648
-0.13268572 0.045051433 0.648
-0.13145144 0.045051433 0.648
-0.13021715 0.045051433 0.648
-0.12878382 0.044981908 0.64700001
-0.12755144 0.044981908 0.64700001
-0.12631905 0.044981908 0.64700001
-0.12508668 0.044981908 0.64700001
-0.12385429 0.044981908 0.64700001
-0.12243239 0.044912383 0.64600003
-0.12120191 0.044912383 0.64600003
-0.12015715 0.044981908 0.64700001
-0.11892477 0.044981908 0.64700001
-0.11787429 0.045051433 0.648
-0.11646001 0.044981908 0.64700001
-0.11522762 0.044981908 0.64700001
-0.11399525 0.044981908 0.64700001
-0.11258858 0.044912383 0.64600003
-0.11135811 0.044912383 0.64600003
-0.10995715 0.044842862 0.64500004
-0.10872858 0.044842862 0.64500004
-0.10750001 0.044842862 0.64500004
-0.10627144 0.044842862 0.64500004
-0.10488001 0.044773336 0.64400005
-0.10365334 0.044773336 0.64400005
-0.10258572 0.044842862 0.64500004
-0.10135715 0.044842862 0.64500004
-0.10012858 0.044842862 0.64500004
-0.099053338 0.044912383 0.64600003
-0.097974293 0.044981908 0.64700001
-0.096741915 0.044981908 0.64700001
-0.095509529 0.044981908 0.64700001
-0.094277151 0.044981908 0.64700001
-0.093188576 0.045051433 0.648
-0.091954291 0.045051433 0.648
-0.091580003 0.050265718 0.72300005
-0.090452388 0.050404765 0.72500002
-0.089071438 0.050404765 0.72500002
-0.08769048 0.050404765 0.72500002
-0.08630953 0.050404765 0.72500002
-0.08492858 0.050404765 0.72500002
-0.083547622 0.050404765 0.72500002
-0.082166672 0.050404765 0.72500002
-0.080897145 0.05047429 0.72600001
-0.079404764 0.050404765 0.72500002
-0.078023814 0.050404765 0.72500002
-0.076642863 0.050404765 0.72500002
-0.075261913 0.050404765 0.72500002
-0.068074293 0.050196193 0.72200006
-0.06679143 0.050265718 0.72300005
-0.065414287 0.050265718 0.72300005
-0.063948579 0.050196193 0.72200006
-0.053720005 0.049640004 0.71400005
-0.052360002 0.049640004 0.71400005
-0.05114286 0.04977905 0.71600002
-0.049848575 0.049848575 0.71700001
-0.048618097 0.049987622 0.71900004
-0.047248576 0.049987622 0.71900004
-0.045879051 0.049987622 0.71900004
-0.044509526 0.049987622 0.71900004
-0.043140002 0.049987622 0.71900004
0.037240002 0.055480003 0.79800004
0.038760003 0.055480003 0.79800004
-0.14241619 0.046642859 0.65300006
-0.14117239 0.046642859 0.65300006
-0.1397143 0.04657143 0.65200001
-0.13826001 0.046500005 0.65100002
-0.13702001 0.046500005 0.65100002
-0.13557144 0.046428576 0.65000004
-0.13433334 0.046428576 0.65000004
-0.13309525 0.046428576 0.65000004
-0.13185716 0.046428576 0.65000004
-0.13021715 0.046285719 0.648
-0.12898287 0.046285719 0.648
-0.12774858 0.046285719 0.648
-0.12631905 0.04621429 0.64700001
-0.12528001 0.046285719 0.648
-0.12385429 0.04621429 0.64700001
-0.12262192 0.04621429 0.64700001
-0.12157715 0.046285719 0.648
-0.12071429 0.046428576 0.65000004
-0.1194762 0.046428576 0.65000004
-0.11823811 0.046428576 0.65000004
-0.11700001 0.046428576 0.65000004
-0.11576191 0.046428576 0.65000004
-0.11452382 0.046428576 0.65000004
-0.11293715 0.046285719 0.648
-0.11153048 0.04621429 0.64700001
-0.11012763 0.046142861 0.64600003
-0.10889715 0.046142861 0.64600003
-0.10750001 0.046071433 0.64500004
-0.10627144 0.046071433 0.64500004
-0.10504287 0.046071433 0.64500004
-0.10381429 0.046071433 0.64500004
-0.10274477 0.046142861 0.64600003
-0.10151429 0.046142861 0.64600003
-0.10028382 0.046142861 0.64600003
-0.099206671 0.04621429 0.64700001
-0.098125719 0.046285719 0.648
-0.096741915 0.04621429 0.64700001
-0.095509529 0.04621429 0.64700001
-0.094277151 0.04621429 0.64700001
-0.093044765 0.04621429 0.64700001
-0.094334289 0.051642861 0.72300005
-0.092957146 0.051642861 0.72300005
-0.091580003 0.051642861 0.72300005
-0.090452388 0.051785719 0.72500002
-0.088825718 0.051642861 0.72300005
-0.087448575 0.051642861 0.72300005
-0.086071432 0.051642861 0.72300005
-0.084694289 0.051642861 0.72300005
-0.083547622 0.051785719 0.72500002
-0.082166672 0.051785719 0.72500002
-0.080785722 0.051785719 0.72500002
-0.079185717 0.051642861 0.72300005
-0.077808574 0.051642861 0.72300005
-0.076325722 0.051571433 0.72200006
-0.074950479 0.051571433 0.72200006
-0.073575243 0.051571433 0.72200006
-0.072200008 0.051571433 0.72200006
-0.070824765 0.051571433 0.72200006
-0.069449529 0.051571433 0.72200006
-0.067885719 0.051428575 0.72000003
-0.066514291 0.051428575 0.72000003
-0.065323815 0.051571433 0.72200006
-0.063771434 0.051428575 0.72000003
-0.062400006 0.051428575 0.72000003
-0.0611981 0.051571433 0.72200006
-0.059657145 0.051428575 0.72000003
-0.058285717 0.051428575 0.72000003
-0.056914289 0.051428575 0.72000003
-0.05554286 0.051428575 0.72000003
-0.054171432 0.051428575 0.72000003
-0.052800003 0.051428575 0.72000003
-0.051428575 0.051428575 0.72000003
-0.050057147 0.051428575 0.72000003
-0.048685718 0.051428575 0.72000003
-0.047445718 0.051571433 0.72200006
-0.046070479 0.051571433 0.72200006
-0.04469524 0.051571433 0.72200006
-0.043320004 0.051571433 0.72200006
-0.14160477 0.048033338 0.65500003
-0.13992858 0.04788667 0.65300006
-0.13847239 0.047813337 0.65200001
-0.13723049 0.047813337 0.65200001
-0.13578001 0.047740005 0.65100002
-0.13454001 0.047740005 0.65100002
-0.13309525 0.047666669 0.65000004
-0.13185716 0.047666669 0.65000004
-0.13061905 0.047666669 0.65000004
-0.12938096 0.047666669 0.65000004
-0.12774858 0.047520004 0.648
-0.1265143 0.047520004 0.648
-0.12528001 0.047520004 0.648
-0.12404572 0.047520004 0.648
-0.12281144 0.047520004 0.648
-0.12195239 0.047666669 0.65000004
-0.12071429 0.047666669 0.65000004
-0.11966 0.047740005 0.65100002
-0.11842 0.047740005 0.65100002
-0.11718 0.047740005 0.65100002
-0.11594 0.047740005 0.65100002
-0.11452382 0.047666669 0.65000004
-0.11293715 0.047520004 0.648
-0.11153048 0.047446668 0.64700001
-0.11012763 0.047373336 0.64600003
-0.10889715 0.047373336 0.64600003
-0.10766667 0.047373336 0.64600003
-0.1064362 0.047373336 0.64600003
-0.10520572 0.047373336 0.64600003
-0.10397524 0.047373336 0.64600003
-0.10274477 0.047373336 0.64600003
-0.10151429 0.047373336 0.64600003
-0.10043906 0.047446668 0.64700001
-0.099206671 0.047446668 0.64700001
-0.098125719 0.047520004 0.648
-0.096891433 0.047520004 0.648
-0.095657147 0.047520004 0.648
-0.094422862 0.047520004 0.648
-0.10066 0.052726671 0.71900004
-0.099290483 0.052726671 0.71900004
-0.098057151 0.052800003 0.72000003
-0.096685722 0.052800003 0.72000003
-0.095314294 0.052800003 0.72000003
-0.094203815 0.052946672 0.72200006
-0.092957146 0.053020004 0.72300005
-0.091580003 0.053020004 0.72300005
-0.090202861 0.053020004 0.72300005
-0.088825718 0.053020004 0.72300005
-0.087448575 0.053020004 0.72300005
-0.086071432 0.053020004 0.72300005
-0.084694289 0.053020004 0.72300005
-0.083317146 0.053020004 0.72300005
-0.081940003 0.053020004 0.72300005
-0.08056286 0.053020004 0.72300005
-0.079076193 0.052946672 0.72200006
-0.077700958 0.052946672 0.72200006
-0.076325722 0.052946672 0.72200006
-0.074950479 0.052946672 0.72200006
-0.073575243 0.052946672 0.72200006
-0.072200008 0.052946672 0.72200006
-0.070824765 0.052946672 0.72200006
-0.069449529 0.052946672 0.72200006
-0.067885719 0.052800003 0.72000003
-0.066514291 0.052800003 0.72000003
-0.065142862 0.052800003 0.72000003
-0.063771434 0.052800003 0.72000003
-0.062400006 0.052800003 0.72000003
-0.061028574 0.052800003 0.72000003
-0.059657145 0.052800003 0.72000003
-0.058285717 0.052800003 0.72000003
-0.056914289 0.052800003 0.72000003
-0.05554286 0.052800003 0.72000003
-0.054171432 0.052800003 0.72000003
-0.052800003 0.052800003 0.72000003
-0.051428575 0.052800003 0.72000003
-0.050057147 0.052800003 0.72000003
-0.048820954 0.052946672 0.72200006
-0.047445718 0.052946672 0.72200006
-0.046070479 0.052946672 0.72200006
-0.04469524 0.052946672 0.72200006
-0.043320004 0.052946672 0.72200006
-0.041944765 0.052946672 0.72200006
0.052111432 0.058153339 0.79300004
-0.14160477 0.049280956 0.65500003
-0.14035715 0.049280956 0.65500003
-0.13868476 0.049130481 0.65300006
-0.13744096 0.049130481 0.65300006
-0.13598858 0.049055241 0.65200001
-0.13474667 0.049055241 0.65200001
-0.13330001 0.048980001 0.65100002
-0.13206001 0.048980001 0.65100002
-0.13082001 0.048980001 0.65100002
-0.12938096 0.048904765 0.65000004
-0.12814286 0.048904765 0.65000004
-0.12690477 0.048904765 0.65000004
-0.12566668 0.048904765 0.65000004
-0.12404572 0.04875429 0.648
-0.12319048 0.048904765 0.65000004
-0.12195239 0.048904765 0.65000004
-0.12090001 0.048980001 0.65100002
-0.11966 0.048980001 0.65100002
-0.11842 0.048980001 0.65100002
-0.11718 0.048980001 0.65100002
-0.1161181 0.049055241 0.65200001
-0.1147 0.048980001 0.65100002
-0.11328572 0.048904765 0.65000004
-0.11153048 0.04867905 0.64700001
-0.11012763 0.048603814 0.64600003
-0.10889715 0.048603814 0.64600003
-0.10766667 0.048603814 0.64600003
-0.1064362 0.048603814 0.64600003
-0.10520572 0.048603814 0.64600003
-0.10397524 0.048603814 0.64600003
-0.10290381 0.04867905 0.64700001
-0.10167143 0.04867905 0.64700001
-0.10059429 0.04875429 0.648
-0.099360004 0.04875429 0.648
-0.098125719 0.04875429 0.648
-0.096891433 0.04875429 0.648
-0.095657147 0.04875429 0.648
-0.094422862 0.04875429 0.648
-0.10066 0.054096196 0.71900004
-0.099290483 0.054096196 0.71900004
-0.098057151 0.054171432 0.72000003
-0.096685722 0.054171432 0.72000003
-0.095314294 0.054171432 0.72000003
-0.094203815 0.054321907 0.72200006
-0.092828579 0.054321907 0.72200006
-0.091453336 0.054321907 0.72200006
-0.090202861 0.054397147 0.72300005
-0.088825718 0.054397147 0.72300005
-0.087448575 0.054397147 0.72300005
-0.086071432 0.054397147 0.72300005
-0.084694289 0.054397147 0.72300005
-0.083317146 0.054397147 0.72300005
-0.081940003 0.054397147 0.72300005
-0.080451436 0.054321907 0.72200006
-0.079076193 0.054321907 0.72200006
-0.077700958 0.054321907 0.72200006
-0.076325722 0.054321907 0.72200006
-0.074950479 0.054321907 0.72200006
-0.073371433 0.054171432 0.72000003
-0.072000004 0.054171432 0.72000003
-0.070628576 0.054171432 0.72000003
-0.069257148 0.054171432 0.72000003
-0.067885719 0.054171432 0.72000003
-0.066421911 0.054096196 0.71900004
-0.065052383 0.054096196 0.71900004
-0.063682862 0.054096196 0.71900004
-0.062400006 0.054171432 0.72000003
-0.061028574 0.054171432 0.72000003
-0.059574291 0.054096196 0.71900004
-0.058204766 0.054096196 0.71900004
-0.056914289 0.054171432 0.72000003
-0.05554286 0.054171432 0.72000003
-0.054171432 0.054171432 0.72000003
-0.052800003 0.054171432 0.72000003
-0.051428575 0.054171432 0.72000003
-0.050057147 0.054171432 0.72000003
-0.048820954 0.054321907 0.72200006
-0.047445718 0.054321907 0.72200006
-0.046134289 0.054397147 0.72300005
-0.044757146 0.054397147 0.72300005
-0.043320004 0.054321907 0.72200006
-0.041944765 0.054321907 0.72200006
-0.040738098 0.054547623 0.72500002
-0.039357144 0.054547623 0.72500002
-0.037976194 0.054547623 0.72500002
0.041433334 0.059513338 0.79100001
0.042940002 0.059513338 0.79100001
-0.14328858 0.050682861 0.65700001
-0.14203715 0.050682861 0.65700001
-0.14057145 0.050605718 0.65600002
-0.13910954 0.050528575 0.65500003
-0.13744096 0.050374288 0.65300006
-0.13619715 0.050374288 0.65300006
-0.13474667 0.050297145 0.65200001
-0.13350476 0.050297145 0.65200001
-0.13206001 0.050220001 0.65100002
-0.13082001 0.050220001 0.65100002
-0.12958001 0.050220001 0.65100002
-0.12814286 0.050142862 0.65000004
-0.12690477 0.050142862 0.65000004
-0.12566668 0.050142862 0.65000004
-0.12442858 0.050142862 0.65000004
-0.12319048 0.050142862 0.65000004
-0.12214001 0.050220001 0.65100002
-0.12108573 0.050297145 0.65200001
-0.11984382 0.050297145 0.65200001
-0.11860191 0.050297145 0.65200001
-0.11736001 0.050297145 0.65200001
-0.1161181 0.050297145 0.65200001
-0.1147 0.050220001 0.65100002
-0.11346 0.050220001 0.65100002
-0.11170287 0.049988575 0.648
-0.1102981 0.049911432 0.64700001
-0.10906572 0.049911432 0.64700001
-0.10783334 0.049911432 0.64700001
-0.10660096 0.049911432 0.64700001
-0.10536858 0.049911432 0.64700001
-0.1041362 0.049911432 0.64700001
-0.10290381 0.049911432 0.64700001
-0.10167143 0.049911432 0.64700001
-0.10059429 0.049988575 0.648
-0.099360004 0.049988575 0.648
-0.098428577 0.050142862 0.65000004
-0.097190484 0.050142862 0.65000004
-0.095952384 0.050142862 0.65000004
-0.10174572 0.055311434 0.71700001
-0.10038 0.055311434 0.71700001
-0.099290483 0.055465717 0.71900004
-0.098057151 0.05554286 0.72000003
-0.096685722 0.05554286 0.72000003
-0.095314294 0.05554286 0.72000003
-0.094203815 0.055697147 0.72200006
-0.092571437 0.05554286 0.72000003
-0.091453336 0.055697147 0.72200006
-0.090078101 0.055697147 0.72200006
-0.088702865 0.055697147 0.72200006
-0.087327622 0.055697147 0.72200006
-0.085952386 0.055697147 0.72200006
-0.084577151 0.055697147 0.72200006
-0.083201908 0.055697147 0.72200006
-0.081826672 0.055697147 0.72200006
-0.080451436 0.055697147 0.72200006
-0.078857146 0.05554286 0.72000003
-0.077485718 0.05554286 0.72000003
-0.076114289 0.05554286 0.72000003
-0.074742861 0.05554286 0.72000003
-0.073371433 0.05554286 0.72000003
-0.072000004 0.05554286 0.72000003
-0.070628576 0.05554286 0.72000003
-0.069257148 0.05554286 0.72000003
-0.067791432 0.055465717 0.71900004
-0.066421911 0.055465717 0.71900004
-0.065052383 0.055465717 0.71900004
-0.063682862 0.055465717 0.71900004
-0.062313337 0.055465717 0.71900004
-0.060943812 0.055465717 0.71900004
-0.059574291 0.055465717 0.71900004
-0.058204766 0.055465717 0.71900004
-0.056835242 0.055465717 0.71900004
-0.055465717 0.055465717 0.71900004
-0.054096196 0.055465717 0.71900004
-0.052726671 0.055465717 0.71900004
-0.051357146 0.055465717 0.71900004
-0.050057147 0.05554286 0.72000003
-0.048820954 0.055697147 0.72200006
-0.047511432 0.05577429 0.72300005
-0.046134289 0.05577429 0.72300005
-0.044757146 0.05577429 0.72300005
-0.043380003 0.05577429 0.72300005
-0.042119049 0.055928577 0.72500002
-0.040738098 0.055928577 0.72500002
-0.039357144 0.055928577 0.72500002
-0.037976194 0.055928577 0.72500002
-0.03659524 0.055928577 0.72500002
-0.14203715 0.051934291 0.65700001
-0.14057145 0.05185524 0.65600002
-0.13910954 0.051776193 0.65500003
-0.13786191 0.051776193 0.65500003
-0.13661429 0.051776193 0.65500003
-0.13495333 0.051618099 0.65300006
-0.13370954 0.051618099 0.65300006
-0.13226287 0.051539052 0.65200001
-0.13102096 0.051539052 0.65200001
-0.12977906 0.051539052 0.65200001
-0.12834001 0.051460002 0.65100002
-0.12710001 0.051460002 0.65100002
-0.12586001 0.051460002 0.65100002
-0.12462001 0.051460002 0.65100002
-0.12338001 0.051460002 0.65100002
-0.12232763 0.051539052 0.65200001
-0.12108573 0.051539052 0.65200001
-0.11984382 0.051539052 0.65200001
-0.11878382 0.051618099 0.65300006
-0.11736001 0.051539052 0.65200001
-0.1161181 0.051539052 0.65200001
-0.1148762 0.051539052 0.65200001
-0.11346 0.051460002 0.65100002
-0.11170287 0.051222861 0.648
-0.11046858 0.051222861 0.648
-0.10906572 0.051143814 0.64700001
-0.10783334 0.051143814 0.64700001
-0.10660096 0.051143814 0.64700001
-0.10536858 0.051143814 0.64700001
-0.10429715 0.051222861 0.648
-0.10306286 0.051222861 0.648
-0.10182858 0.051222861 0.648
-0.10090477 0.051380955 0.65000004
-0.09966667 0.051380955 0.65000004
-0.098428577 0.051380955 0.65000004
-0.09734001 0.051460002 0.65100002
-0.10296763 0.056598101 0.71600002
-0.10160381 0.056598101 0.71600002
-0.10038 0.056677148 0.71700001
-0.099290483 0.056835242 0.71900004
-0.098057151 0.056914289 0.72000003
-0.096685722 0.056914289 0.72000003
-0.095314294 0.056914289 0.72000003
-0.094203815 0.057072386 0.72200006
-0.092828579 0.057072386 0.72200006
-0.091453336 0.057072386 0.72200006
-0.090078101 0.057072386 0.72200006
-0.088702865 0.057072386 0.72200006
-0.087327622 0.057072386 0.72200006
-0.085952386 0.057072386 0.72200006
-0.08434286 0.056914289 0.72000003
-0.082971431 0.056914289 0.72000003
-0.081600003 0.056914289 0.72000003
-0.080228575 0.056914289 0.72000003
-0.078857146 0.056914289 0.72000003
-0.077485718 0.056914289 0.72000003
-0.076114289 0.056914289 0.72000003
-0.074742861 0.056914289 0.72000003
-0.073269531 0.056835242 0.71900004
-0.071900003 0.056835242 0.71900004
-0.070530482 0.056835242 0.71900004
-0.069160961 0.056835242 0.71900004
-0.067602858 0.056677148 0.71700001
-0.066237144 0.056677148 0.71700001
-0.06487143 0.056677148 0.71700001
-0.063682862 0.056835242 0.71900004
-0.062313337 0.056835242 0.71900004
-0.060943812 0.056835242 0.71900004
-0.059574291 0.056835242 0.71900004
-0.058204766 0.056835242 0.71900004
-0.056835242 0.056835242 0.71900004
-0.055311434 0.056677148 0.71700001
-0.053945716 0.056677148 0.71700001
-0.052726671 0.056835242 0.71900004
-0.051214289 0.056677148 0.71700001
-0.049987622 0.056835242 0.71900004
-0.048618097 0.056835242 0.71900004
-0.047445718 0.057072386 0.72200006
-0.046070479 0.057072386 0.72200006
-0.044757146 0.057151433 0.72300005
-0.043380003 0.057151433 0.72300005
-0.042119049 0.057309527 0.72500002
-0.040738098 0.057309527 0.72500002
-0.039357144 0.057309527 0.72500002
-0.037976194 0.057309527 0.72500002
-0.03659524 0.057309527 0.72500002
-0.14225334 0.053266671 0.65800005
-0.14078572 0.053185716 0.65700001
-0.13953429 0.053185716 0.65700001
-0.13807239 0.053104766 0.65600002
-0.13682286 0.053104766 0.65600002
-0.13536668 0.053023811 0.65500003
-0.13370954 0.052861907 0.65300006
-0.13246572 0.052861907 0.65300006
-0.13122192 0.052861907 0.65300006
-0.12997811 0.052861907 0.65300006
-0.12853715 0.052780956 0.65200001
-0.12729524 0.052780956 0.65200001
-0.12605335 0.052780956 0.65200001
-0.12481143 0.052780956 0.65200001
-0.12356953 0.052780956 0.65200001
-0.12232763 0.052780956 0.65200001
-0.12108573 0.052780956 0.65200001
-0.12002762 0.052861907 0.65300006
-0.11878382 0.052861907 0.65300006
-0.11754001 0.052861907 0.65300006
-0.1161181 0.052780956 0.65200001
-0.1148762 0.052780956 0.65200001
-0.11346 0.052700002 0.65100002
-0.11222 0.052700002 0.65100002
-0.11046858 0.052457146 0.648
-0.1092343 0.052457146 0.648
-0.10800001 0.052457146 0.648
-0.10676572 0.052457146 0.648
-0.10553144 0.052457146 0.648
-0.10429715 0.052457146 0.648
-0.10338096 0.052619051 0.65000004
-0.10214286 0.052619051 0.65000004
-0.10090477 0.052619051 0.65000004
-0.099820003 0.052700002 0.65100002
-0.098580003 0.052700002 0.65100002
-0.097489528 0.052780956 0.65200001
-0.10404 0.057800002 0.71400005
-0.10296763 0.057961907 0.71600002
-0.10160381 0.057961907 0.71600002
