# .PCD v0.7 - Point Cloud Data file format
VERSION 0.7
FIELDS x y z
SIZE 4 4 4
TYPE F F F
COUNT 1 1 1
WIDTH 1396
HEIGHT 1
VIEWPOINT 0 0 0 1 0 0 0
POINTS 1396
DATA ascii
-0.076309532 0.090960957 0.64100003
-0.075205721 0.091102861 0.64200002
-0.074213341 0.091386676 0.64400005
-0.07298667 0.091386676 0.64400005
-0.071760006 0.091386676 0.64400005
-0.070642859 0.09152858 0.64500004
-0.069414288 0.09152858 0.64500004
-0.068185717 0.09152858 0.64500004
-0.067060955 0.091670483 0.64600003
-0.065932386 0.091812387 0.64700001
-0.064800002 0.091954291 0.648
-0.063565716 0.091954291 0.648
-0.062523812 0.092238098 0.65000004
-0.061380003 0.09238001 0.65100002
-0.060232386 0.092521913 0.65200001
-0.058990479 0.092521913 0.65200001
-0.057837147 0.092663817 0.65300006
-0.056593336 0.092663817 0.65300006
-0.055349529 0.092663817 0.65300006
-0.054105718 0.092663817 0.65300006
-0.052861907 0.092663817 0.65300006
-0.051618099 0.092663817 0.65300006
-0.050374288 0.092663817 0.65300006
-0.049130481 0.092663817 0.65300006
-0.049214289 0.09777239 0.68900001
-0.047901906 0.09777239 0.68900001
-0.046454288 0.097488575 0.68700004
-0.045145717 0.097488575 0.68700004
-0.043964766 0.09777239 0.68900001
-0.042652383 0.09777239 0.68900001
-0.041340001 0.09777239 0.68900001
-0.040027622 0.09777239 0.68900001
-0.03871524 0.09777239 0.68900001
-0.037402861 0.09777239 0.68900001
-0.036090478 0.09777239 0.68900001
-0.1883962 0.090887628 0.63200003
-0.1868962 0.090743817 0.63100004
-0.18569429 0.090743817 0.63100004
-0.18449239 0.090743817 0.63100004
-0.18329048 0.090743817 0.63100004
-0.18208858 0.090743817 0.63100004
-0.18088669 0.090743817 0.63100004
-0.17968477 0.090743817 0.63100004
-0.17848288 0.090743817 0.63100004
-0.17756192 0.090887628 0.63200003
-0.1763581 0.090887628 0.63200003
-0.1751543 0.090887628 0.63200003
-0.17395049 0.090887628 0.63200003
-0.17302001 0.091031432 0.63300002
-0.17181429 0.091031432 0.63300002
-0.17060858 0.091031432 0.63300002
-0.16940287 0.091031432 0.63300002
-0.16846287 0.091175243 0.634
-0.16725525 0.091175243 0.634
-0.16630954 0.091319054 0.63500005
-0.16510001 0.091319054 0.63500005
-0.16414858 0.091462865 0.63600004
-0.16344954 0.09175048 0.63800001
-0.16223429 0.09175048 0.63800001
-0.1605143 0.091462865 0.63600004
-0.15930286 0.091462865 0.63600004
-0.15809144 0.091462865 0.63600004
-0.15663335 0.091319054 0.63500005
-0.15542382 0.091319054 0.63500005
-0.15445715 0.091462865 0.63600004
-0.15372764 0.09175048 0.63800001
-0.15251239 0.09175048 0.63800001
-0.15153429 0.091894291 0.63900006
-0.15031715 0.091894291 0.63900006
-0.14933334 0.092038102 0.64000005
-0.14811429 0.092038102 0.64000005
-0.14666572 0.091894291 0.63900006
-0.14544858 0.091894291 0.63900006
-0.14468287 0.092181914 0.64100003
-0.13965715 0.089737147 0.62400001
-0.13824667 0.089593336 0.62300003
-0.13684002 0.089449532 0.62200004
-0.13565525 0.089449532 0.62200004
-0.13403811 0.08916191 0.62
-0.13264287 0.089018099 0.61900002
-0.13103905 0.088730484 0.61700004
-0.12986381 0.088730484 0.61700004
-0.12848 0.088586673 0.61600006
-0.12730667 0.088586673 0.61600006
-0.12613334 0.088586673 0.61600006
-0.12496001 0.088586673 0.61600006
-0.12378667 0.088586673 0.61600006
-0.12261334 0.088586673 0.61600006
-0.12144001 0.088586673 0.61600006
-0.12026668 0.088586673 0.61600006
-0.11928667 0.088730484 0.61700004
-0.11811144 0.088730484 0.61700004
-0.1169362 0.088730484 0.61700004
-0.11594858 0.088874288 0.61800003
-0.11495715 0.089018099 0.61900002
-0.11396191 0.08916191 0.62
-0.11278096 0.08916191 0.62
-0.1116 0.08916191 0.62
-0.11077525 0.089449532 0.62200004
-0.10959049 0.089449532 0.62200004
-0.10858001 0.089593336 0.62300003
-0.10739334 0.089593336 0.62300003
-0.10637715 0.089737147 0.62400001
-0.10518858 0.089737147 0.62400001
-0.10416667 0.089880958 0.625
-0.10314096 0.090024769 0.62600005
-0.10194858 0.090024769 0.62600005
-0.1007562 0.090024769 0.62600005
-0.099722862 0.09016858 0.62700003
-0.098528579 0.09016858 0.62700003
-0.097334296 0.09016858 0.62700003
-0.096293338 0.090312384 0.62800002
-0.095097147 0.090312384 0.62800002
-0.093900956 0.090312384 0.62800002
-0.092852384 0.090456195 0.62900001
-0.091945723 0.090743817 0.63100004
-0.090743817 0.090743817 0.63100004
-0.08982572 0.091031432 0.63300002
-0.088760003 0.091175243 0.634
-0.087552384 0.091175243 0.634
-0.08648096 0.091319054 0.63500005
-0.085271433 0.091319054 0.63500005
-0.084194288 0.091462865 0.63600004
-0.082982861 0.091462865 0.63600004
-0.082028575 0.09175048 0.63800001
-0.080940008 0.091894291 0.63900006
-0.079722859 0.091894291 0.63900006
-0.078628577 0.092038102 0.64000005
-0.077530481 0.092181914 0.64100003
-0.076428577 0.092325717 0.64200002
-0.075205721 0.092325717 0.64200002
-0.074213341 0.092613339 0.64400005
-0.07298667 0.092613339 0.64400005
-0.07187143 0.092757151 0.64500004
-0.070642859 0.092757151 0.64500004
-0.069414288 0.092757151 0.64500004
-0.068291433 0.092900962 0.64600003
-0.067164764 0.093044765 0.64700001
-0.066034287 0.093188576 0.648
-0.064800002 0.093188576 0.648
-0.063761912 0.093476199 0.65000004
-0.062523812 0.093476199 0.65000004
-0.061380003 0.09362001 0.65100002
-0.060232386 0.093763813 0.65200001
-0.059080955 0.093907624 0.65300006
-0.057837147 0.093907624 0.65300006
-0.05676667 0.094195247 0.65500003
-0.055519052 0.094195247 0.65500003
-0.054271434 0.094195247 0.65500003
-0.052861907 0.093907624 0.65300006
-0.051618099 0.093907624 0.65300006
-0.050374288 0.093907624 0.65300006
-0.049130481 0.093907624 0.65300006
-0.049214289 0.099084765 0.68900001
-0.047901906 0.099084765 0.68900001
-0.046454288 0.09879715 0.68700004
-0.045277145 0.099084765 0.68900001
-0.043964766 0.099084765 0.68900001
-0.042652383 0.099084765 0.68900001
-0.041340001 0.099084765 0.68900001
-0.040027622 0.099084765 0.68900001
-0.03871524 0.099084765 0.68900001
-0.037402861 0.099084765 0.68900001
-0.036090478 0.099084765 0.68900001
-0.1883962 0.092091434 0.63200003
-0.1871924 0.092091434 0.63200003
-0.18598859 0.092091434 0.63200003
-0.18449239 0.091945723 0.63100004
-0.18329048 0.091945723 0.63100004
-0.18237716 0.092091434 0.63200003
-0.18117334 0.092091434 0.63200003
-0.17996953 0.092091434 0.63200003
-0.17876573 0.092091434 0.63200003
-0.17756192 0.092091434 0.63200003
-0.1763581 0.092091434 0.63200003
-0.1751543 0.092091434 0.63200003
-0.17422573 0.092237152 0.63300002
-0.17302001 0.092237152 0.63300002
-0.17181429 0.092237152 0.63300002
-0.17060858 0.092237152 0.63300002
-0.16940287 0.092237152 0.63300002
-0.16846287 0.092382863 0.634
-0.16725525 0.092382863 0.634
-0.16630954 0.092528574 0.63500005
-0.16510001 0.092528574 0.63500005
-0.16414858 0.092674293 0.63600004
-0.16344954 0.092965722 0.63800001
-0.16223429 0.092965722 0.63800001
-0.1605143 0.092674293 0.63600004
-0.15930286 0.092674293 0.63600004
-0.15809144 0.092674293 0.63600004
-0.15663335 0.092528574 0.63500005
-0.15542382 0.092528574 0.63500005
-0.15445715 0.092674293 0.63600004
-0.15324572 0.092674293 0.63600004
-0.15251239 0.092965722 0.63800001
-0.15153429 0.093111433 0.63900006
-0.15031715 0.093111433 0.63900006
-0.14910001 0.093111433 0.63900006
-0.14788286 0.093111433 0.63900006
-0.14666572 0.093111433 0.63900006
-0.14544858 0.093111433 0.63900006
-0.14468287 0.093402863 0.64100003
-0.13988096 0.091071434 0.625
-0.13846858 0.090925723 0.62400001
-0.13706002 0.090780005 0.62300003
-0.13565525 0.090634294 0.62200004
-0.13403811 0.090342864 0.62
-0.13264287 0.090197146 0.61900002
-0.13103905 0.089905716 0.61700004
-0.12986381 0.089905716 0.61700004
-0.12848 0.089760005 0.61600006
-0.12730667 0.089760005 0.61600006
-0.12613334 0.089760005 0.61600006
-0.12496001 0.089760005 0.61600006
-0.12378667 0.089760005 0.61600006
-0.12261334 0.089760005 0.61600006
-0.12144001 0.089760005 0.61600006
-0.12026668 0.089760005 0.61600006
-0.11928667 0.089905716 0.61700004
-0.11830287 0.090051435 0.61800003
-0.11712572 0.090051435 0.61800003
-0.1161362 0.090197146 0.61900002
-0.11514287 0.090342864 0.62
-0.11396191 0.090342864 0.62
-0.11314477 0.090634294 0.62200004
-0.11196001 0.090634294 0.62200004
-0.11077525 0.090634294 0.62200004
-0.10976668 0.090780005 0.62300003
-0.10875429 0.090925723 0.62400001
-0.10756572 0.090925723 0.62400001
-0.10654762 0.091071434 0.625
-0.10535715 0.091071434 0.625
-0.10433334 0.091217145 0.62600005
-0.10314096 0.091217145 0.62600005
-0.10194858 0.091217145 0.62600005
-0.10091715 0.091362864 0.62700003
-0.099722862 0.091362864 0.62700003
-0.098528579 0.091362864 0.62700003
-0.097334296 0.091362864 0.62700003
-0.096293338 0.091508575 0.62800002
-0.095097147 0.091508575 0.62800002
-0.093900956 0.091508575 0.62800002
-0.092852384 0.091654293 0.62900001
-0.091945723 0.091945723 0.63100004
-0.090743817 0.091945723 0.63100004
-0.08982572 0.092237152 0.63300002
-0.088760003 0.092382863 0.634
-0.08769048 0.092528574 0.63500005
-0.08648096 0.092528574 0.63500005
-0.085405722 0.092674293 0.63600004
-0.084194288 0.092674293 0.63600004
-0.083243817 0.092965722 0.63800001
-0.082028575 0.092965722 0.63800001
-0.080940008 0.093111433 0.63900006
-0.079847626 0.093257152 0.64000005
-0.078628577 0.093257152 0.64000005
-0.077530481 0.093402863 0.64100003
-0.076428577 0.093548581 0.64200002
-0.075440004 0.093840003 0.64400005
-0.074213341 0.093840003 0.64400005
-0.073100008 0.093985721 0.64500004
-0.07187143 0.093985721 0.64500004
-0.070642859 0.093985721 0.64500004
-0.069521911 0.094131432 0.64600003
-0.068397149 0.094277151 0.64700001
-0.067164764 0.094277151 0.64700001
-0.066034287 0.094422862 0.648
-0.065000005 0.094714291 0.65000004
-0.063761912 0.094714291 0.65000004
-0.062523812 0.094714291 0.65000004
-0.06147429 0.095005721 0.65200001
-0.060324766 0.095151432 0.65300006
-0.059080955 0.095151432 0.65300006
-0.058014289 0.095442861 0.65500003
-0.05676667 0.095442861 0.65500003
-0.055519052 0.095442861 0.65500003
-0.054271434 0.095442861 0.65500003
-0.053023811 0.095442861 0.65500003
-0.051776193 0.095442861 0.65500003
-0.050528575 0.095442861 0.65500003
-0.050380003 0.10010572 0.68700004
-0.049071431 0.10010572 0.68700004
-0.04776286 0.10010572 0.68700004
-0.046454288 0.10010572 0.68700004
-0.045277145 0.10039715 0.68900001
-0.043964766 0.10039715 0.68900001
-0.04271429 0.10054287 0.69000006
-0.041400004 0.10054287 0.69000006
-0.040085718 0.10054287 0.69000006
-0.038771432 0.10054287 0.69000006
-0.037402861 0.10039715 0.68900001
-0.036090478 0.10039715 0.68900001
-0.1886943 0.093442865 0.63300002
-0.1871924 0.093295246 0.63200003
-0.18598859 0.093295246 0.63200003
-0.18478477 0.093295246 0.63200003
-0.18358096 0.093295246 0.63200003
-0.18237716 0.093295246 0.63200003
-0.18117334 0.093295246 0.63200003
-0.17996953 0.093295246 0.63200003
-0.17876573 0.093295246 0.63200003
-0.17756192 0.093295246 0.63200003
-0.1763581 0.093295246 0.63200003
-0.17543145 0.093442865 0.63300002
-0.17422573 0.093442865 0.63300002
-0.17302001 0.093442865 0.63300002
-0.17208573 0.093590483 0.634
-0.17087811 0.093590483 0.634
-0.16967049 0.093590483 0.634
-0.16846287 0.093590483 0.634
-0.16751906 0.093738101 0.63500005
-0.16630954 0.093738101 0.63500005
-0.16510001 0.093738101 0.63500005
-0.16414858 0.09388572 0.63600004
-0.16293715 0.09388572 0.63600004
-0.16172573 0.09388572 0.63600004
-0.1605143 0.09388572 0.63600004
-0.15930286 0.09388572 0.63600004
-0.15809144 0.09388572 0.63600004
-0.15663335 0.093738101 0.63500005
-0.15542382 0.093738101 0.63500005
-0.15421429 0.093738101 0.63500005
-0.15324572 0.09388572 0.63600004
-0.1520343 0.09388572 0.63600004
-0.15129715 0.094180956 0.63800001
-0.15031715 0.094328575 0.63900006
-0.14910001 0.094328575 0.63900006
-0.14788286 0.094328575 0.63900006
-0.14666572 0.094328575 0.63900006
-0.14544858 0.094328575 0.63900006
-0.14107144 0.09226191 0.625
-0.13965715 0.092114292 0.62400001
-0.13824667 0.091966674 0.62300003
-0.13684002 0.091819055 0.62200004
-0.13565525 0.091819055 0.62200004
-0.13403811 0.091523819 0.62
-0.13264287 0.091376193 0.61900002
-0.13103905 0.091080956 0.61700004
-0.12986381 0.091080956 0.61700004
-0.12848 0.090933338 0.61600006
-0.12730667 0.090933338 0.61600006
-0.12613334 0.090933338 0.61600006
-0.12496001 0.090933338 0.61600006
-0.12378667 0.090933338 0.61600006
-0.12261334 0.090933338 0.61600006
-0.12144001 0.090933338 0.61600006
-0.12026668 0.090933338 0.61600006
-0.11928667 0.091080956 0.61700004
-0.11830287 0.091228575 0.61800003
-0.11731525 0.091376193 0.61900002
-0.11632381 0.091523819 0.62
-0.11514287 0.091523819 0.62
-0.11432953 0.091819055 0.62200004
-0.11314477 0.091819055 0.62200004
-0.11214001 0.091966674 0.62300003
-0.11095334 0.091966674 0.62300003
-0.10976668 0.091966674 0.62300003
-0.10875429 0.092114292 0.62400001
-0.1077381 0.09226191 0.625
-0.10654762 0.09226191 0.625
-0.10552572 0.092409529 0.62600005
-0.10433334 0.092409529 0.62600005
-0.10330572 0.092557147 0.62700003
-0.10211144 0.092557147 0.62700003
-0.10091715 0.092557147 0.62700003
-0.09988191 0.092704765 0.62800002
-0.098685719 0.092704765 0.62800002
-0.097489528 0.092704765 0.62800002
-0.096293338 0.092704765 0.62800002
-0.095097147 0.092704765 0.62800002
-0.093900956 0.092704765 0.62800002
-0.092852384 0.092852384 0.62900001
-0.091945723 0.093147628 0.63100004
-0.090743817 0.093147628 0.63100004
-0.08982572 0.093442865 0.63300002
-0.088760003 0.093590483 0.634
-0.08769048 0.093738101 0.63500005
-0.08648096 0.093738101 0.63500005
-0.085405722 0.09388572 0.63600004
-0.084459051 0.094180956 0.63800001
-0.083243817 0.094180956 0.63800001
-0.08215715 0.094328575 0.63900006
-0.080940008 0.094328575 0.63900006
-0.079847626 0.094476193 0.64000005
-0.078751437 0.094623819 0.64100003
-0.077651434 0.094771437 0.64200002
-0.076428577 0.094771437 0.64200002
-0.075440004 0.095066674 0.64400005
-0.074213341 0.095066674 0.64400005
-0.073100008 0.095214292 0.64500004
-0.07187143 0.095214292 0.64500004
-0.070752382 0.095361911 0.64600003
-0.069629528 0.095509529 0.64700001
-0.068502858 0.095657147 0.648
-0.067268573 0.095657147 0.648
-0.066238098 0.095952384 0.65000004
-0.065000005 0.095952384 0.65000004
-0.063860007 0.09610001 0.65100002
-0.062716193 0.096247628 0.65200001
-0.061568577 0.096395247 0.65300006
-0.060324766 0.096395247 0.65300006
-0.059261907 0.096690483 0.65500003
-0.058014289 0.096690483 0.65500003
-0.056853335 0.096838102 0.65600002
-0.055603813 0.096838102 0.65600002
-0.054354288 0.096838102 0.65600002
-0.053104766 0.096838102 0.65600002
-0.05185524 0.096838102 0.65600002
-0.051613338 0.10126667 0.68600005
-0.05030667 0.10126667 0.68600005
-0.049000002 0.10126667 0.68600005
-0.047693338 0.10126667 0.68600005
-0.046454288 0.10141429 0.68700004
-0.045277145 0.10170953 0.68900001
-0.044028573 0.10185715 0.69000006
-0.04271429 0.10185715 0.69000006
-0.041400004 0.10185715 0.69000006
-0.040085718 0.10185715 0.69000006
-0.038771432 0.10185715 0.69000006
-0.037402861 0.10170953 0.68900001
-0.036090478 0.10170953 0.68900001
-0.1889924 0.094798103 0.634
-0.18778478 0.094798103 0.634
-0.18657716 0.094798103 0.634
-0.18507716 0.094648577 0.63300002
-0.18387145 0.094648577 0.63300002
-0.18266572 0.094648577 0.63300002
-0.18146001 0.094648577 0.63300002
-0.1802543 0.094648577 0.63300002
-0.17904858 0.094648577 0.63300002
-0.17784287 0.094648577 0.63300002
-0.17663716 0.094648577 0.63300002
-0.17543145 0.094648577 0.63300002
-0.17422573 0.094648577 0.63300002
-0.17329335 0.094798103 0.634
-0.17208573 0.094798103 0.634
-0.17087811 0.094798103 0.634
-0.16967049 0.094798103 0.634
-0.16872858 0.094947629 0.63500005
-0.16751906 0.094947629 0.63500005
-0.16630954 0.094947629 0.63500005
-0.16536 0.095097147 0.63600004
-0.16466478 0.095396198 0.63800001
-0.16344954 0.095396198 0.63800001
-0.16223429 0.095396198 0.63800001
-0.16101906 0.095396198 0.63800001
-0.15980382 0.095396198 0.63800001
-0.15858859 0.095396198 0.63800001
-0.15688001 0.095097147 0.63600004
-0.15566859 0.095097147 0.63600004
-0.15445715 0.095097147 0.63600004
-0.15372764 0.095396198 0.63800001
-0.15251239 0.095396198 0.63800001
-0.15153429 0.095545724 0.63900006
-0.15055239 0.095695242 0.64000005
-0.14933334 0.095695242 0.64000005
-0.14811429 0.095695242 0.64000005
-0.14689524 0.095695242 0.64000005
-0.1456762 0.095695242 0.64000005
-0.14107144 0.093452387 0.625
-0.13965715 0.093302861 0.62400001
-0.13824667 0.093153343 0.62300003
-0.13706002 0.093153343 0.62300003
-0.13565525 0.093003817 0.62200004
-0.13403811 0.092704765 0.62
-0.13264287 0.092555247 0.61900002
-0.13103905 0.092256196 0.61700004
-0.12986381 0.092256196 0.61700004
-0.12848 0.09210667 0.61600006
-0.12730667 0.09210667 0.61600006
-0.12613334 0.09210667 0.61600006
-0.12496001 0.09210667 0.61600006
-0.12378667 0.09210667 0.61600006
-0.12261334 0.09210667 0.61600006
-0.12144001 0.09210667 0.61600006
-0.12046191 0.092256196 0.61700004
-0.11928667 0.092256196 0.61700004
-0.11849429 0.092555247 0.61900002
-0.11750477 0.092704765 0.62
-0.11669905 0.093003817 0.62200004
-0.11551429 0.093003817 0.62200004
-0.11451334 0.093153343 0.62300003
-0.11350858 0.093302861 0.62400001
-0.11232001 0.093302861 0.62400001
-0.11113144 0.093302861 0.62400001
-0.11011905 0.093452387 0.625
-0.10892858 0.093452387 0.625
-0.1077381 0.093452387 0.625
-0.1067181 0.093601912 0.62600005
-0.10552572 0.093601912 0.62600005
-0.1045 0.093751438 0.62700003
-0.10347048 0.093900956 0.62800002
-0.10227429 0.093900956 0.62800002
-0.1010781 0.093900956 0.62800002
-0.10004096 0.094050482 0.62900001
-0.098685719 0.093900956 0.62800002
-0.097644769 0.094050482 0.62900001
-0.096446671 0.094050482 0.62900001
-0.09524858 0.094050482 0.62900001
-0.094349533 0.094349533 0.63100004
-0.093147628 0.094349533 0.63100004
-0.092091434 0.094499052 0.63200003
-0.090887628 0.094499052 0.63200003
-0.08982572 0.094648577 0.63300002
-0.088900007 0.094947629 0.63500005
-0.08769048 0.094947629 0.63500005
-0.086617149 0.095097147 0.63600004
-0.085674293 0.095396198 0.63800001
-0.084591433 0.095545724 0.63900006
-0.083374292 0.095545724 0.63900006
-0.082285717 0.095695242 0.64000005
-0.081193335 0.095844768 0.64100003
-0.079972386 0.095844768 0.64100003
-0.07887429 0.095994294 0.64200002
-0.077651434 0.095994294 0.64200002
-0.076666668 0.096293338 0.64400005
-0.075440004 0.096293338 0.64400005
-0.074328579 0.096442863 0.64500004
-0.073100008 0.096442863 0.64500004
-0.071982861 0.096592389 0.64600003
-0.070861906 0.096741915 0.64700001
-0.069737144 0.096891433 0.648
-0.068714291 0.097190484 0.65000004
-0.067476198 0.097190484 0.65000004
-0.066340007 0.09734001 0.65100002
-0.065200001 0.097489528 0.65200001
-0.063958101 0.097489528 0.65200001
-0.062812388 0.097639054 0.65300006
-0.061757147 0.097938098 0.65500003
-0.060509529 0.097938098 0.65500003
-0.059352383 0.098087624 0.65600002
-0.058102861 0.098087624 0.65600002
-0.056940004 0.098237149 0.65700001
-0.055688575 0.098237149 0.65700001
-0.054437146 0.098237149 0.65700001
-0.053185716 0.098237149 0.65700001
-0.05276572 0.10227429 0.68400002
-0.051462859 0.10227429 0.68400002
-0.05030667 0.10257334 0.68600005
-0.048857145 0.10227429 0.68400002
-0.047693338 0.10257334 0.68600005
-0.046454288 0.10272286 0.68700004
-0.045277145 0.10302191 0.68900001
-0.044028573 0.10317144 0.69000006
-0.042776193 0.10332096 0.69100004
-0.041460004 0.10332096 0.69100004
-0.040143814 0.10332096 0.69100004
-0.03882762 0.10332096 0.69100004
-0.037457146 0.10317144 0.69000006
-0.1889924 0.096005723 0.634
-0.18778478 0.096005723 0.634
-0.18657716 0.096005723 0.634
-0.18507716 0.09585429 0.63300002
-0.18416192 0.096005723 0.634
-0.18266572 0.09585429 0.63300002
-0.18146001 0.09585429 0.63300002
-0.1802543 0.09585429 0.63300002
-0.17933144 0.096005723 0.634
-0.17812382 0.096005723 0.634
-0.1769162 0.096005723 0.634
-0.17570858 0.096005723 0.634
-0.17450096 0.096005723 0.634
-0.17329335 0.096005723 0.634
-0.17208573 0.096005723 0.634
-0.17087811 0.096005723 0.634
-0.16967049 0.096005723 0.634
-0.16872858 0.096157148 0.63500005
-0.16751906 0.096157148 0.63500005
-0.16630954 0.096157148 0.63500005
-0.16588001 0.096611433 0.63800001
-0.16466478 0.096611433 0.63800001
-0.16344954 0.096611433 0.63800001
-0.16248858 0.096762866 0.63900006
-0.16101906 0.096611433 0.63800001
-0.15980382 0.096611433 0.63800001
-0.15858859 0.096611433 0.63800001
-0.15688001 0.096308574 0.63600004
-0.15566859 0.096308574 0.63600004
-0.15445715 0.096308574 0.63600004
-0.15372764 0.096611433 0.63800001
-0.15251239 0.096611433 0.63800001
-0.15153429 0.096762866 0.63900006
-0.15055239 0.096914291 0.64000005
-0.14956668 0.097065717 0.64100003
-0.14834572 0.097065717 0.64100003
-0.14735429 0.09721715 0.64200002
-0.14590383 0.097065717 0.64100003
-0.14084573 0.094491437 0.62400001
-0.13943334 0.094340004 0.62300003
-0.13824667 0.094340004 0.62300003
-0.13684002 0.094188578 0.62200004
-0.13565525 0.094188578 0.62200004
-0.13403811 0.09388572 0.62
-0.13264287 0.093734294 0.61900002
-0.13103905 0.093431436 0.61700004
-0.12986381 0.093431436 0.61700004
-0.12848 0.093280002 0.61600006
-0.12730667 0.093280002 0.61600006
-0.12613334 0.093280002 0.61600006
-0.12496001 0.093280002 0.61600006
-0.12378667 0.093280002 0.61600006
-0.12261334 0.093280002 0.61600006
-0.12163715 0.093431436 0.61700004
-0.12046191 0.093431436 0.61700004
-0.11948001 0.093582861 0.61800003
-0.11849429 0.093734294 0.61900002
-0.11750477 0.09388572 0.62
-0.11669905 0.094188578 0.62200004
-0.11570001 0.094340004 0.62300003
-0.11469715 0.094491437 0.62400001
-0.11350858 0.094491437 0.62400001
-0.1125 0.094642863 0.625
-0.11130953 0.094642863 0.625
-0.11011905 0.094642863 0.625
-0.10892858 0.094642863 0.625
-0.1077381 0.094642863 0.625
-0.1067181 0.094794288 0.62600005
-0.10569429 0.094945721 0.62700003
-0.1045 0.094945721 0.62700003
-0.10363524 0.09524858 0.62900001
-0.10243715 0.09524858 0.62900001
-0.10123906 0.09524858 0.62900001
-0.10004096 0.09524858 0.62900001
-0.098842867 0.09524858 0.62900001
-0.097644769 0.09524858 0.62900001
-0.096753336 0.095551431 0.63100004
-0.095551431 0.095551431 0.63100004
-0.094349533 0.095551431 0.63100004
-0.093147628 0.095551431 0.63100004
-0.092091434 0.095702864 0.63200003
-0.090887628 0.095702864 0.63200003
-0.089967623 0.096005723 0.634
-0.088900007 0.096157148 0.63500005
-0.087828577 0.096308574 0.63600004
-0.086889528 0.096611433 0.63800001
-0.085808575 0.096762866 0.63900006
-0.084723815 0.096914291 0.64000005
-0.083504766 0.096914291 0.64000005
-0.082285717 0.096914291 0.64000005
-0.081193335 0.097065717 0.64100003
-0.080097146 0.09721715 0.64200002
-0.07887429 0.09721715 0.64200002
-0.077651434 0.09721715 0.64200002
-0.076666668 0.097520009 0.64400005
-0.07555715 0.097671434 0.64500004
-0.074328579 0.097671434 0.64500004
-0.073213339 0.09782286 0.64600003
-0.072205722 0.098125719 0.648
-0.071190484 0.098428577 0.65000004
-0.069952384 0.098428577 0.65000004
-0.068714291 0.098428577 0.65000004
-0.067580007 0.098580003 0.65100002
-0.066441908 0.098731436 0.65200001
-0.065300003 0.098882861 0.65300006
-0.064056195 0.098882861 0.65300006
-0.062812388 0.098882861 0.65300006
-0.061757147 0.09918572 0.65500003
-0.060601909 0.099337146 0.65600002
-0.059352383 0.099337146 0.65600002
-0.058191434 0.099488579 0.65700001
-0.056940004 0.099488579 0.65700001
-0.055773336 0.099640004 0.65800005
-0.054437146 0.099488579 0.65700001
-0.053185716 0.099488579 0.65700001
-0.051934291 0.099488579 0.65700001
-0.051387623 0.10342572 0.68300003
-0.05008667 0.10342572 0.68300003
-0.048857145 0.10357715 0.68400002
-0.047554288 0.10357715 0.68400002
-0.046454288 0.10403144 0.68700004
-0.045277145 0.10433429 0.68900001
-0.044092383 0.10463715 0.69100004
-0.042776193 0.10463715 0.69100004
-0.041460004 0.10463715 0.69100004
-0.040260002 0.10494 0.69300002
-0.03882762 0.10463715 0.69100004
-0.18929049 0.097366676 0.63500005
-0.18778478 0.097213343 0.634
-0.18657716 0.097213343 0.634
-0.18536954 0.097213343 0.634
-0.18416192 0.097213343 0.634
-0.1829543 0.097213343 0.634
-0.18174668 0.097213343 0.634
-0.18053906 0.097213343 0.634
-0.17933144 0.097213343 0.634
-0.17812382 0.097213343 0.634
-0.1769162 0.097213343 0.634
-0.17570858 0.097213343 0.634
-0.17450096 0.097213343 0.634
-0.17329335 0.097213343 0.634
-0.17208573 0.097213343 0.634
-0.17087811 0.097213343 0.634
-0.16967049 0.097213343 0.634
-0.16846287 0.097213343 0.634
-0.16751906 0.097366676 0.63500005
-0.16657144 0.097520009 0.63600004
-0.16588001 0.097826675 0.63800001
-0.16492286 0.097980008 0.63900006
-0.16370572 0.097980008 0.63900006
-0.16248858 0.097980008 0.63900006
-0.16127144 0.097980008 0.63900006
-0.1600543 0.097980008 0.63900006
-0.15883715 0.097980008 0.63900006
-0.15737334 0.097826675 0.63800001
-0.1561581 0.097826675 0.63800001
-0.15494287 0.097826675 0.63800001
-0.15372764 0.097826675 0.63800001
-0.15251239 0.097826675 0.63800001
-0.15153429 0.097980008 0.63900006
-0.15055239 0.09813334 0.64000005
-0.14956668 0.098286673 0.64100003
-0.14857715 0.098440006 0.64200002
-0.14781335 0.098746672 0.64400005
-0.1468143 0.098900005 0.64500004
-0.14084573 0.095680006 0.62400001
-0.13965715 0.095680006 0.62400001
-0.13824667 0.095526673 0.62300003
-0.13706002 0.095526673 0.62300003
-0.13565525 0.09537334 0.62200004
-0.13403811 0.095066674 0.62
-0.13264287 0.094913341 0.61900002
-0.13103905 0.094606675 0.61700004
-0.12986381 0.094606675 0.61700004
-0.12848 0.094453342 0.61600006
-0.12730667 0.094453342 0.61600006
-0.12613334 0.094453342 0.61600006
-0.12496001 0.094453342 0.61600006
-0.12378667 0.094453342 0.61600006
-0.12261334 0.094453342 0.61600006
-0.12163715 0.094606675 0.61700004
-0.12065715 0.094760008 0.61800003
-0.11948001 0.094760008 0.61800003
-0.11849429 0.094913341 0.61900002
-0.11788382 0.09537334 0.62200004
-0.11688668 0.095526673 0.62300003
-0.11570001 0.095526673 0.62300003
-0.11469715 0.095680006 0.62400001
-0.11369048 0.095833339 0.625
-0.1125 0.095833339 0.625
-0.11130953 0.095833339 0.625
-0.11011905 0.095833339 0.625
-0.10910287 0.095986672 0.62600005
-0.10791048 0.095986672 0.62600005
-0.10688858 0.096140005 0.62700003
-0.10586286 0.096293338 0.62800002
-0.10466667 0.096293338 0.62800002
-0.10363524 0.096446671 0.62900001
-0.10243715 0.096446671 0.62900001
-0.10123906 0.096446671 0.62900001
-0.10004096 0.096446671 0.62900001
-0.098842867 0.096446671 0.62900001
-0.097644769 0.096446671 0.62900001
-0.096753336 0.096753336 0.63100004
-0.095551431 0.096753336 0.63100004
-0.094349533 0.096753336 0.63100004
-0.093295246 0.096906669 0.63200003
-0.092237152 0.09706001 0.63300002
-0.091031432 0.09706001 0.63300002
-0.089967623 0.097213343 0.634
-0.088900007 0.097366676 0.63500005
-0.08810477 0.097826675 0.63800001
-0.087025717 0.097980008 0.63900006
-0.085942864 0.09813334 0.64000005
-0.084723815 0.09813334 0.64000005
-0.083504766 0.09813334 0.64000005
-0.082414292 0.098286673 0.64100003
-0.081320003 0.098440006 0.64200002
-0.080097146 0.098440006 0.64200002
-0.079120003 0.098746672 0.64400005
-0.077893339 0.098746672 0.64400005
-0.076666668 0.098746672 0.64400005
-0.07555715 0.098900005 0.64500004
-0.074443817 0.099053338 0.64600003
-0.073213339 0.099053338 0.64600003
-0.072205722 0.099360004 0.648
-0.071190484 0.09966667 0.65000004
-0.069952384 0.09966667 0.65000004
-0.068820007 0.099820003 0.65100002
-0.067580007 0.099820003 0.65100002
-0.066441908 0.099973343 0.65200001
-0.065300003 0.10012668 0.65300006
-0.064056195 0.10012668 0.65300006
-0.062812388 0.10012668 0.65300006
-0.061757147 0.10043334 0.65500003
-0.060601909 0.10058668 0.65600002
-0.059442863 0.10074001 0.65700001
-0.058191434 0.10074001 0.65700001
-0.057026669 0.10089334 0.65800005
-0.055773336 0.10089334 0.65800005
-0.054520003 0.10089334 0.65800005
-0.053266671 0.10089334 0.65800005
-0.052611433 0.10457334 0.68200004
-0.051312383 0.10457334 0.68200004
-0.050013337 0.10457334 0.68200004
-0.048785716 0.10472667 0.68300003
-0.047484767 0.10472667 0.68300003
-0.046454288 0.10534 0.68700004
-0.045277145 0.10564668 0.68900001
-0.044092383 0.10595334 0.69100004
-0.042900003 0.10626001 0.69300002
-0.041580003 0.10626001 0.69300002
-0.040318098 0.10641334 0.69400001
-0.038996194 0.10641334 0.69400001
-0.18929049 0.098576196 0.63500005
-0.18808097 0.098576196 0.63500005
-0.18657716 0.098420955 0.634
-0.18536954 0.098420955 0.634
-0.18416192 0.098420955 0.634
-0.1829543 0.098420955 0.634
-0.18174668 0.098420955 0.634
-0.18053906 0.098420955 0.634
-0.17933144 0.098420955 0.634
-0.17812382 0.098420955 0.634
-0.17719525 0.098576196 0.63500005
-0.17570858 0.098420955 0.634
-0.17450096 0.098420955 0.634
-0.17329335 0.098420955 0.634
-0.17208573 0.098420955 0.634
-0.17087811 0.098420955 0.634
-0.16967049 0.098420955 0.634
-0.16846287 0.098420955 0.634
-0.16751906 0.098576196 0.63500005
-0.16657144 0.098731436 0.63600004
-0.16614 0.099197149 0.63900006
-0.16492286 0.099197149 0.63900006
-0.16370572 0.099197149 0.63900006
-0.16248858 0.099197149 0.63900006
-0.16127144 0.099197149 0.63900006
-0.1600543 0.099197149 0.63900006
-0.15883715 0.099197149 0.63900006
-0.15762001 0.099197149 0.63900006
-0.15640287 0.099197149 0.63900006
-0.15494287 0.099041909 0.63800001
-0.15396859 0.099197149 0.63900006
-0.15275145 0.099197149 0.63900006
-0.15177144 0.09935239 0.64000005
-0.15055239 0.09935239 0.64000005
-0.1498 0.099662863 0.64200002
-0.14857715 0.099662863 0.64200002
-0.14781335 0.099973343 0.64400005
-0.1468143 0.10012858 0.64500004
-0.14084573 0.096868575 0.62400001
-0.13943334 0.096713342 0.62300003
-0.13846858 0.096868575 0.62400001
-0.13706002 0.096713342 0.62300003
-0.13565525 0.096558101 0.62200004
-0.13403811 0.096247628 0.62
-0.13264287 0.096092388 0.61900002
-0.13103905 0.095781907 0.61700004
-0.12986381 0.095781907 0.61700004
-0.12868857 0.095781907 0.61700004
-0.12751335 0.095781907 0.61700004
-0.12633811 0.095781907 0.61700004
-0.12496001 0.095626675 0.61600006
-0.12398763 0.095781907 0.61700004
-0.12281239 0.095781907 0.61700004
-0.12163715 0.095781907 0.61700004
-0.12085239 0.096092388 0.61900002
-0.11967334 0.096092388 0.61900002
-0.11868572 0.096247628 0.62
-0.11788382 0.096558101 0.62200004
-0.11688668 0.096713342 0.62300003
-0.11588572 0.096868575 0.62400001
-0.11469715 0.096868575 0.62400001
-0.11369048 0.097023815 0.625
-0.1125 0.097023815 0.625
-0.11130953 0.097023815 0.625
-0.11029524 0.097179055 0.62600005
-0.10910287 0.097179055 0.62600005
-0.10791048 0.097179055 0.62600005
-0.10688858 0.097334296 0.62700003
-0.10586286 0.097489528 0.62800002
-0.10466667 0.097489528 0.62800002
-0.10363524 0.097644769 0.62900001
-0.10243715 0.097644769 0.62900001
-0.10123906 0.097644769 0.62900001
-0.10004096 0.097644769 0.62900001
-0.098842867 0.097644769 0.62900001
-0.097955242 0.097955242 0.63100004
-0.096753336 0.097955242 0.63100004
-0.095551431 0.097955242 0.63100004
-0.094499052 0.098110482 0.63200003
-0.093295246 0.098110482 0.63200003
-0.092382863 0.098420955 0.634
-0.091175243 0.098420955 0.634
-0.089967623 0.098420955 0.634
-0.088900007 0.098576196 0.63500005
-0.08810477 0.099041909 0.63800001
-0.087025717 0.099197149 0.63900006
-0.085942864 0.09935239 0.64000005
-0.084723815 0.09935239 0.64000005
-0.083504766 0.09935239 0.64000005
-0.082414292 0.099507622 0.64100003
-0.081320003 0.099662863 0.64200002
-0.080097146 0.099662863 0.64200002
-0.079120003 0.099973343 0.64400005
-0.077893339 0.099973343 0.64400005
-0.076666668 0.099973343 0.64400005
-0.07555715 0.10012858 0.64500004
-0.074443817 0.10028382 0.64600003
-0.07332667 0.10043906 0.64700001
-0.072428577 0.10090477 0.65000004
-0.071300007 0.10106 0.65100002
-0.070060007 0.10106 0.65100002
-0.068820007 0.10106 0.65100002
-0.067683816 0.10121524 0.65200001
-0.066543818 0.10137048 0.65300006
-0.065300003 0.10137048 0.65300006
-0.064056195 0.10137048 0.65300006
-0.063004769 0.10168096 0.65500003
-0.061757147 0.10168096 0.65500003
-0.060601909 0.1018362 0.65600002
-0.059442863 0.10199144 0.65700001
-0.058191434 0.10199144 0.65700001
-0.057026669 0.10214667 0.65800005
-0.055773336 0.10214667 0.65800005
-0.054520003 0.10214667 0.65800005
-0.053266671 0.10214667 0.65800005
-0.052380003 0.10540667 0.67900002
-0.051086672 0.10540667 0.67900002
-0.049793337 0.10540667 0.67900002
-0.04857143 0.10556191 0.68000001
-0.047415242 0.10587239 0.68200004
-0.044347622 0.10789049 0.69500005
-0.043023814 0.10789049 0.69500005
-0.041640002 0.10773525 0.69400001
-0.040492382 0.10820096 0.69700003
-0.039164763 0.10820096 0.69700003
-0.18958858 0.099942863 0.63600004
-0.18808097 0.099785723 0.63500005
-0.18687144 0.099785723 0.63500005
-0.18566191 0.099785723 0.63500005
-0.1844524 0.099785723 0.63500005
-0.1829543 0.099628575 0.634
-0.18174668 0.099628575 0.634
-0.18053906 0.099628575 0.634
-0.17933144 0.099628575 0.634
-0.17812382 0.099628575 0.634
-0.17719525 0.099785723 0.63500005
-0.17598572 0.099785723 0.63500005
-0.17450096 0.099628575 0.634
-0.17329335 0.099628575 0.634
-0.17208573 0.099628575 0.634
-0.17087811 0.099628575 0.634
-0.1699381 0.099785723 0.63500005
-0.16872858 0.099785723 0.63500005
-0.16778287 0.099942863 0.63600004
-0.16709524 0.10025715 0.63800001
-0.16614 0.10041429 0.63900006
-0.16518097 0.10057144 0.64000005
-0.16396192 0.10057144 0.64000005
-0.16274287 0.10057144 0.64000005
-0.16152382 0.10057144 0.64000005
-0.16030477 0.10057144 0.64000005
-0.15908572 0.10057144 0.64000005
-0.15762001 0.10041429 0.63900006
-0.15640287 0.10041429 0.63900006
-0.15518573 0.10041429 0.63900006
-0.15396859 0.10041429 0.63900006
-0.15275145 0.10041429 0.63900006
-0.15177144 0.10057144 0.64000005
-0.15078762 0.10072858 0.64100003
-0.15026668 0.10120001 0.64400005
-0.14904001 0.10120001 0.64400005
-0.14781335 0.10120001 0.64400005
-0.1468143 0.10135715 0.64500004
-0.14084573 0.098057151 0.62400001
-0.13943334 0.097900003 0.62300003
-0.13824667 0.097900003 0.62300003
-0.13706002 0.097900003 0.62300003
-0.13565525 0.097742863 0.62200004
-0.13403811 0.097428575 0.62
-0.13264287 0.097271435 0.61900002
-0.13103905 0.096957147 0.61700004
-0.12986381 0.096957147 0.61700004
-0.12868857 0.096957147 0.61700004
-0.12751335 0.096957147 0.61700004
-0.12633811 0.096957147 0.61700004
-0.12516287 0.096957147 0.61700004
-0.12398763 0.096957147 0.61700004
-0.12301144 0.097114295 0.61800003
-0.12183429 0.097114295 0.61800003
-0.12085239 0.097271435 0.61900002
-0.11986668 0.097428575 0.62
-0.11868572 0.097428575 0.62
-0.11788382 0.097742863 0.62200004
-0.11688668 0.097900003 0.62300003
-0.11588572 0.098057151 0.62400001
-0.11469715 0.098057151 0.62400001
-0.11369048 0.098214291 0.625
-0.1125 0.098214291 0.625
-0.11130953 0.098214291 0.625
-0.11029524 0.098371439 0.62600005
-0.10910287 0.098371439 0.62600005
-0.10791048 0.098371439 0.62600005
-0.10688858 0.098528579 0.62700003
-0.10586286 0.098685719 0.62800002
-0.10466667 0.098685719 0.62800002
-0.10363524 0.098842867 0.62900001
-0.10243715 0.098842867 0.62900001
-0.10123906 0.098842867 0.62900001
-0.10035905 0.099157147 0.63100004
-0.099157147 0.099157147 0.63100004
-0.097955242 0.099157147 0.63100004
-0.096906669 0.099314295 0.63200003
-0.095702864 0.099314295 0.63200003
-0.094648577 0.099471435 0.63300002
-0.093442865 0.099471435 0.63300002
-0.092382863 0.099628575 0.634
-0.091175243 0.099628575 0.634
-0.090109527 0.099785723 0.63500005
-0.08810477 0.10025715 0.63800001
-0.087161914 0.10057144 0.64000005
-0.085942864 0.10057144 0.64000005
-0.084856197 0.10072858 0.64100003
-0.083635241 0.10072858 0.64100003
-0.082542859 0.10088572 0.64200002
-0.081320003 0.10088572 0.64200002
-0.080346674 0.10120001 0.64400005
-0.079120003 0.10120001 0.64400005
-0.077893339 0.10120001 0.64400005
-0.076785721 0.10135715 0.64500004
-0.07555715 0.10135715 0.64500004
-0.074443817 0.10151429 0.64600003
-0.07332667 0.10167143 0.64700001
-0.071300007 0.1023 0.65100002
-0.070060007 0.1023 0.65100002
-0.068925716 0.10245715 0.65200001
-0.067787625 0.10261429 0.65300006
-0.066543818 0.10261429 0.65300006
-0.065500006 0.10292858 0.65500003
-0.064252384 0.10292858 0.65500003
-0.063004769 0.10292858 0.65500003
-0.061851434 0.10308572 0.65600002
-0.060694288 0.10324287 0.65700001
-0.059533339 0.10340001 0.65800005
-0.058280002 0.10340001 0.65800005
-0.057026669 0.10340001 0.65800005
-0.05594286 0.10371429 0.66000003
-0.054685719 0.10371429 0.66000003
-0.053428575 0.10371429 0.66000003
-0.052380003 0.10670001 0.67900002
-0.051086672 0.10670001 0.67900002
-0.049793337 0.10670001 0.67900002
-0.04857143 0.10685715 0.68000001
-0.047276195 0.10685715 0.68000001
-0.043209527 0.10968572 0.69800001
-0.041820005 0.10952858 0.69700003
-0.040550478 0.10968572 0.69800001
-0.19140001 0.10147239 0.63800001
-0.18958858 0.10115429 0.63600004
-0.18808097 0.10099524 0.63500005
-0.18716572 0.10115429 0.63600004
-0.1859543 0.10115429 0.63600004
-0.1844524 0.10099524 0.63500005
-0.18324287 0.10099524 0.63500005
-0.18203335 0.10099524 0.63500005
-0.18053906 0.1008362 0.634
-0.17961429 0.10099524 0.63500005
-0.17840478 0.10099524 0.63500005
-0.17719525 0.10099524 0.63500005
-0.17598572 0.10099524 0.63500005
-0.1747762 0.10099524 0.63500005
-0.17329335 0.1008362 0.634
-0.17208573 0.1008362 0.634
-0.17114763 0.10099524 0.63500005
-0.1699381 0.10099524 0.63500005
-0.16899429 0.10115429 0.63600004
-0.16831049 0.10147239 0.63800001
-0.16735715 0.10163143 0.63900006
-0.16640002 0.10179048 0.64000005
-0.16518097 0.10179048 0.64000005
-0.16396192 0.10179048 0.64000005
-0.16274287 0.10179048 0.64000005
-0.16152382 0.10179048 0.64000005
-0.16030477 0.10179048 0.64000005
-0.15908572 0.10179048 0.64000005
-0.15786667 0.10179048 0.64000005
-0.15640287 0.10163143 0.63900006
-0.15518573 0.10163143 0.63900006
-0.15420954 0.10179048 0.64000005
-0.15299049 0.10179048 0.64000005
-0.15200858 0.10194953 0.64100003
-0.15102287 0.10210858 0.64200002
-0.15026668 0.10242667 0.64400005
-0.14927144 0.10258572 0.64500004
-0.14804287 0.10258572 0.64500004
-0.1468143 0.10258572 0.64500004
-0.14062001 0.099086672 0.62300003
-0.13943334 0.099086672 0.62300003
-0.13824667 0.099086672 0.62300003
-0.13706002 0.099086672 0.62300003
-0.13565525 0.098927625 0.62200004
-0.13403811 0.098609529 0.62
-0.13285716 0.098609529 0.62
-0.13125144 0.098291434 0.61800003
-0.12986381 0.098132387 0.61700004
-0.12868857 0.098132387 0.61700004
-0.12751335 0.098132387 0.61700004
-0.12633811 0.098132387 0.61700004
-0.12516287 0.098132387 0.61700004
-0.12418858 0.098291434 0.61800003
-0.12321048 0.098450482 0.61900002
-0.12203144 0.098450482 0.61900002
-0.12104762 0.098609529 0.62
-0.11986668 0.098609529 0.62
-0.11906858 0.098927625 0.62200004
-0.11788382 0.098927625 0.62200004
-0.1170743 0.09924572 0.62400001
-0.11607143 0.099404767 0.625
-0.11488096 0.099404767 0.625
-0.11369048 0.099404767 0.625
-0.11268001 0.099563815 0.62600005
-0.11148763 0.099563815 0.62600005
-0.11029524 0.099563815 0.62600005
-0.10910287 0.099563815 0.62600005
-0.10808286 0.099722862 0.62700003
-0.10688858 0.099722862 0.62700003
-0.10586286 0.09988191 0.62800002
-0.10483334 0.10004096 0.62900001
-0.10363524 0.10004096 0.62900001
-0.10243715 0.10004096 0.62900001
-0.10156096 0.10035905 0.63100004
-0.10035905 0.10035905 0.63100004
-0.099157147 0.10035905 0.63100004
-0.098110482 0.1005181 0.63200003
-0.096906669 0.1005181 0.63200003
-0.09585429 0.10067715 0.63300002
-0.094798103 0.1008362 0.634
-0.093590483 0.1008362 0.634
-0.092382863 0.1008362 0.634
-0.091319054 0.10099524 0.63500005
-0.090109527 0.10099524 0.63500005
-0.08810477 0.10147239 0.63800001
-0.087161914 0.10179048 0.64000005
-0.086077146 0.10194953 0.64100003
-0.084856197 0.10194953 0.64100003
-0.083635241 0.10194953 0.64100003
-0.082542859 0.10210858 0.64200002
-0.081320003 0.10210858 0.64200002
-0.080346674 0.10242667 0.64400005
-0.079120003 0.10242667 0.64400005
-0.077893339 0.10242667 0.64400005
-0.076785721 0.10258572 0.64500004
-0.075674288 0.10274477 0.64600003
-0.074559055 0.10290381 0.64700001
-0.073440008 0.10306286 0.648
-0.072428577 0.10338096 0.65000004
-0.071300007 0.10354 0.65100002
-0.070167623 0.10369905 0.65200001
-0.068925716 0.10369905 0.65200001
-0.067787625 0.1038581 0.65300006
-0.066543818 0.1038581 0.65300006
-0.065500006 0.1041762 0.65500003
-0.064252384 0.1041762 0.65500003
-0.063004769 0.1041762 0.65500003
-0.061851434 0.10433525 0.65600002
-0.060694288 0.1044943 0.65700001
-0.059533339 0.10465334 0.65800005
-0.058280002 0.10465334 0.65800005
-0.057200003 0.10497144 0.66000003
-0.05594286 0.10497144 0.66000003
-0.054685719 0.10497144 0.66000003
-0.053428575 0.10497144 0.66000003
-0.052380003 0.10799334 0.67900002
-0.051086672 0.10799334 0.67900002
-0.049720004 0.10783429 0.67800003
-0.048500001 0.10799334 0.67900002
-0.041880004 0.11101525 0.69800001
-0.18929049 0.10220477 0.63500005
-0.18808097 0.10220477 0.63500005
-0.18716572 0.10236572 0.63600004
-0.1859543 0.10236572 0.63600004
-0.1844524 0.10220477 0.63500005
-0.18324287 0.10220477 0.63500005
-0.18203335 0.10220477 0.63500005
-0.18082382 0.10220477 0.63500005
-0.17961429 0.10220477 0.63500005
-0.17840478 0.10220477 0.63500005
-0.17719525 0.10220477 0.63500005
-0.17598572 0.10220477 0.63500005
-0.17450096 0.10204381 0.634
-0.17302001 0.10188287 0.63300002
-0.17181429 0.10188287 0.63300002
-0.17060858 0.10188287 0.63300002
-0.16940287 0.10188287 0.63300002
-0.16819715 0.10188287 0.63300002
-0.16883811 0.10300953 0.64000005
-0.16761906 0.10300953 0.64000005
-0.16640002 0.10300953 0.64000005
-0.16543905 0.10317048 0.64100003
-0.16421811 0.10317048 0.64100003
-0.16299716 0.10317048 0.64100003
-0.16152382 0.10300953 0.64000005
-0.16030477 0.10300953 0.64000005
-0.15908572 0.10300953 0.64000005
-0.15786667 0.10300953 0.64000005
-0.15664762 0.10300953 0.64000005
-0.15542859 0.10300953 0.64000005
-0.15420954 0.10300953 0.64000005
-0.15322953 0.10317048 0.64100003
-0.15224573 0.10333143 0.64200002
-0.15102287 0.10333143 0.64200002
-0.15026668 0.10365334 0.64400005
-0.14927144 0.10381429 0.64500004
-0.1482724 0.10397524 0.64600003
-0.14704192 0.10397524 0.64600003
-0.14129715 0.1007562 0.62600005
-0.13943334 0.10027334 0.62300003
-0.13824667 0.10027334 0.62300003
-0.13706002 0.10027334 0.62300003
-0.13565525 0.10011239 0.62200004
-0.13403811 0.099790484 0.62
-0.13285716 0.099790484 0.62
-0.13146381 0.099629529 0.61900002
-0.12986381 0.099307626 0.61700004
-0.12868857 0.099307626 0.61700004
-0.12751335 0.099307626 0.61700004
-0.12633811 0.099307626 0.61700004
-0.12536572 0.099468581 0.61800003
-0.12418858 0.099468581 0.61800003
-0.12321048 0.099629529 0.61900002
-0.12203144 0.099629529 0.61900002
-0.12104762 0.099790484 0.62
-0.12025334 0.10011239 0.62200004
-0.11906858 0.10011239 0.62200004
-0.11807334 0.10027334 0.62300003
-0.1170743 0.1004343 0.62400001
-0.11607143 0.10059524 0.625
-0.11488096 0.10059524 0.625
-0.11387239 0.1007562 0.62600005
-0.11268001 0.1007562 0.62600005
-0.11148763 0.1007562 0.62600005
-0.11029524 0.1007562 0.62600005
-0.10927715 0.10091715 0.62700003
-0.10808286 0.10091715 0.62700003
-0.10705905 0.1010781 0.62800002
-0.10586286 0.1010781 0.62800002
-0.10483334 0.10123906 0.62900001
-0.10363524 0.10123906 0.62900001
-0.10276286 0.10156096 0.63100004
-0.10156096 0.10156096 0.63100004
-0.1005181 0.10172191 0.63200003
-0.099314295 0.10172191 0.63200003
-0.098265722 0.10188287 0.63300002
-0.09706001 0.10188287 0.63300002
-0.096005723 0.10204381 0.634
-0.094798103 0.10204381 0.634
-0.093738101 0.10220477 0.63500005
-0.092528574 0.10220477 0.63500005
-0.091462865 0.10236572 0.63600004
-0.090251431 0.10236572 0.63600004
-0.089320004 0.10268763 0.63800001
-0.088242866 0.10284857 0.63900006
-0.087161914 0.10300953 0.64000005
-0.086077146 0.10317048 0.64100003
-0.084856197 0.10317048 0.64100003
-0.083635241 0.10317048 0.64100003
-0.082542859 0.10333143 0.64200002
-0.081573337 0.10365334 0.64400005
-0.080346674 0.10365334 0.64400005
-0.079120003 0.10365334 0.64400005
-0.077893339 0.10365334 0.64400005
-0.076785721 0.10381429 0.64500004
-0.075674288 0.10397524 0.64600003
-0.074674293 0.10429715 0.648
-0.073666669 0.10461906 0.65000004
-0.072540008 0.10478 0.65100002
-0.071409531 0.10494096 0.65200001
-0.070167623 0.10494096 0.65200001
-0.069031432 0.10510191 0.65300006
-0.067787625 0.10510191 0.65300006
-0.066747621 0.10542382 0.65500003
-0.065500006 0.10542382 0.65500003
-0.064252384 0.10542382 0.65500003
-0.063100956 0.10558477 0.65600002
-0.061945718 0.10574572 0.65700001
-0.060786672 0.10590667 0.65800005
-0.059533339 0.10590667 0.65800005
-0.058457147 0.10622858 0.66000003
-0.057200003 0.10622858 0.66000003
-0.05594286 0.10622858 0.66000003
-0.054768573 0.10638953 0.66100001
-0.053594287 0.10912572 0.67800003
-0.052380003 0.10928667 0.67900002
-0.051086672 0.10928667 0.67900002
-0.049720004 0.10912572 0.67800003
-0.18958858 0.10357715 0.63600004
-0.18837716 0.10357715 0.63600004
-0.18716572 0.10357715 0.63600004
-0.1859543 0.10357715 0.63600004
-0.1844524 0.10341429 0.63500005
-0.18324287 0.10341429 0.63500005
-0.18203335 0.10341429 0.63500005
-0.18082382 0.10341429 0.63500005
-0.17961429 0.10341429 0.63500005
-0.17840478 0.10341429 0.63500005
-0.17719525 0.10341429 0.63500005
-0.17626287 0.10357715 0.63600004
-0.1747762 0.10341429 0.63500005
-0.17329335 0.10325143 0.634
-0.17181429 0.10308858 0.63300002
-0.17033906 0.10292572 0.63200003
-0.16913524 0.10292572 0.63200003
-0.16686858 0.10227429 0.62800002
-0.16910191 0.10439143 0.64100003
-0.16788097 0.10439143 0.64100003
-0.16666001 0.10439143 0.64100003
-0.16569716 0.1045543 0.64200002
-0.16447429 0.1045543 0.64200002
-0.16325144 0.1045543 0.64200002
-0.1617762 0.10439143 0.64100003
-0.16055524 0.10439143 0.64100003
-0.1593343 0.10439143 0.64100003
-0.15786667 0.10422858 0.64000005
-0.15664762 0.10422858 0.64000005
-0.15542859 0.10422858 0.64000005
-0.15445049 0.10439143 0.64100003
-0.15322953 0.10439143 0.64100003
-0.15224573 0.1045543 0.64200002
-0.15149334 0.10488001 0.64400005
-0.15050001 0.10504287 0.64500004
-0.14950287 0.10520572 0.64600003
-0.1482724 0.10520572 0.64600003
-0.14704192 0.10520572 0.64600003
-0.14084573 0.10162286 0.62400001
-0.13965715 0.10162286 0.62400001
-0.13846858 0.10162286 0.62400001
-0.13706002 0.10146001 0.62300003
-0.13565525 0.10129715 0.62200004
-0.13447048 0.10129715 0.62200004
-0.13285716 0.10097144 0.62
-0.13146381 0.10080858 0.61900002
-0.13007429 0.10064572 0.61800003
-0.12868857 0.10048287 0.61700004
-0.12772001 0.10064572 0.61800003
-0.12654287 0.10064572 0.61800003
-0.12556858 0.10080858 0.61900002
-0.12438953 0.10080858 0.61900002
-0.12340953 0.10097144 0.62
-0.12222858 0.10097144 0.62
-0.1214381 0.10129715 0.62200004
-0.12025334 0.10129715 0.62200004
-0.11906858 0.10129715 0.62200004
-0.11807334 0.10146001 0.62300003
-0.1170743 0.10162286 0.62400001
-0.11607143 0.10178572 0.625
-0.11506477 0.10194858 0.62600005
-0.11387239 0.10194858 0.62600005
-0.11268001 0.10194858 0.62600005
-0.11148763 0.10194858 0.62600005
-0.11047143 0.10211144 0.62700003
-0.10945144 0.10227429 0.62800002
-0.10825524 0.10227429 0.62800002
-0.10705905 0.10227429 0.62800002
-0.10603143 0.10243715 0.62900001
-0.10483334 0.10243715 0.62900001
-0.10396477 0.10276286 0.63100004
-0.10276286 0.10276286 0.63100004
-0.10172191 0.10292572 0.63200003
-0.10067715 0.10308858 0.63300002
-0.099471435 0.10308858 0.63300002
-0.098265722 0.10308858 0.63300002
-0.097213343 0.10325143 0.634
-0.096005723 0.10325143 0.634
-0.094947629 0.10341429 0.63500005
-0.09388572 0.10357715 0.63600004
-0.092674293 0.10357715 0.63600004
-0.09175048 0.10390286 0.63800001
-0.09067715 0.10406572 0.63900006
-0.089460008 0.10406572 0.63900006
-0.088242866 0.10406572 0.63900006
-0.087161914 0.10422858 0.64000005
-0.086077146 0.10439143 0.64100003
-0.084856197 0.10439143 0.64100003
-0.083635241 0.10439143 0.64100003
-0.082542859 0.1045543 0.64200002
-0.081573337 0.10488001 0.64400005
-0.080346674 0.10488001 0.64400005
-0.079120003 0.10488001 0.64400005
-0.078014292 0.10504287 0.64500004
-0.076904766 0.10520572 0.64600003
-0.075791433 0.10536858 0.64700001
-0.07490477 0.10585715 0.65000004
-0.073780008 0.10602 0.65100002
-0.072651431 0.10618287 0.65200001
-0.071519054 0.10634572 0.65300006
-0.07027524 0.10634572 0.65300006
-0.069031432 0.10634572 0.65300006
-0.067995243 0.10667144 0.65500003
-0.066747621 0.10667144 0.65500003
-0.065500006 0.10667144 0.65500003
-0.064350478 0.10683429 0.65600002
-0.063100956 0.10683429 0.65600002
-0.061945718 0.10699715 0.65700001
