# .PCD v0.7 - Point Cloud Data file format
VERSION 0.7
FIELDS x y z
SIZE 4 4 4
TYPE F F F
COUNT 1 1 1
WIDTH 1371
HEIGHT 1
VIEWPOINT 0 0 0 1 0 0 0
POINTS 1371
DATA ascii
-0.11448001 0.045360003 0.75600004
-0.11304001 0.045360003 0.75600004
-0.1116 0.045360003 0.75600004
-0.11016001 0.045360003 0.75600004
-0.10872 0.045360003 0.75600004
-0.10728001 0.045360003 0.75600004
-0.10584 0.045360003 0.75600004
-0.10440001 0.045360003 0.75600004
-0.10282382 0.045300003 0.75500005
-0.10138572 0.045300003 0.75500005
-0.09968286 0.045180004 0.75300002
-0.098118104 0.045120005 0.75200003
-0.096685722 0.045120005 0.75200003
-0.095253341 0.045120005 0.75200003
-0.093820959 0.045120005 0.75200003
-0.092388578 0.045120005 0.75200003
-0.090956196 0.045120005 0.75200003
-0.089523815 0.045120005 0.75200003
-0.08785715 0.045000002 0.75000006
-0.086428575 0.045000002 0.75000006
-0.084773339 0.044880003 0.74800003
-0.083237149 0.044820003 0.74700004
-0.081814289 0.044820003 0.74700004
-0.080176197 0.044700004 0.74500006
-0.078545719 0.044580001 0.74300003
-0.077130482 0.044580001 0.74300003
-0.075613335 0.044520002 0.74200004
-0.074000008 0.044400003 0.74000001
-0.072492383 0.044340003 0.73900002
-0.071180955 0.044400003 0.74000001
-0.069771431 0.044400003 0.74000001
-0.068361908 0.044400003 0.74000001
-0.066952385 0.044400003 0.74000001
-0.065454289 0.044340003 0.73900002
-0.064046673 0.044340003 0.73900002
-0.06263905 0.044340003 0.73900002
-0.046304766 0.044880003 0.74800003
-0.044820003 0.044820003 0.74700004
-0.043397147 0.044820003 0.74700004
-0.041974287 0.044820003 0.74700004
-0.018797144 0.043860003 0.73100001
-0.017357145 0.043740004 0.72900003
-0.015968572 0.043740004 0.72900003
-0.014580001 0.043740004 0.72900003
-0.01322762 0.043860003 0.73100001
-0.19594002 0.04376667 0.70700002
-0.19404288 0.04364286 0.70500004
-0.19270001 0.04364286 0.70500004
-0.19135715 0.04364286 0.70500004
-0.18974477 0.043580957 0.70400006
-0.18840382 0.043580957 0.70400006
-0.18679716 0.04351905 0.70300001
-0.18545811 0.04351905 0.70300001
-0.18411906 0.04351905 0.70300001
-0.18278001 0.04351905 0.70300001
-0.18144096 0.04351905 0.70300001
-0.17958954 0.04339524 0.70100003
-0.17825429 0.04339524 0.70100003
-0.17691906 0.04339524 0.70100003
-0.17533335 0.043333337 0.70000005
-0.17400001 0.043333337 0.70000005
-0.17266668 0.043333337 0.70000005
-0.17133334 0.043333337 0.70000005
-0.17000002 0.043333337 0.70000005
-0.16818477 0.043209527 0.69800001
-0.16685525 0.043209527 0.69800001
-0.16552572 0.043209527 0.69800001
-0.16396096 0.043147624 0.69700003
-0.16263334 0.043147624 0.69700003
-0.16130573 0.043147624 0.69700003
-0.15997811 0.043147624 0.69700003
-0.15865049 0.043147624 0.69700003
-0.15732287 0.043147624 0.69700003
-0.15599525 0.043147624 0.69700003
-0.15466763 0.043147624 0.69700003
-0.15356001 0.043209527 0.69800001
-0.15223049 0.043209527 0.69800001
-0.15133335 0.043333337 0.70000005
-0.15000001 0.043333337 0.70000005
-0.14866668 0.043333337 0.70000005
-0.14754382 0.04339524 0.70100003
-0.14620858 0.04339524 0.70100003
-0.14487334 0.04339524 0.70100003
-0.14930287 0.045561906 0.73600006
-0.14790097 0.045561906 0.73600006
-0.14649905 0.045561906 0.73600006
-0.14647715 0.045995243 0.74300003
-0.14506191 0.045995243 0.74300003
-0.14403334 0.046119049 0.74500006
-0.14299715 0.046242859 0.74700004
-0.14176382 0.046304766 0.74800003
-0.14033906 0.046304766 0.74800003
-0.13928573 0.046428576 0.75000006
-0.13822477 0.046552382 0.75200003
-0.13679239 0.046552382 0.75200003
-0.13536 0.046552382 0.75200003
-0.13392763 0.046552382 0.75200003
-0.13249524 0.046552382 0.75200003
-0.13106287 0.046552382 0.75200003
-0.12963049 0.046552382 0.75200003
-0.12836859 0.046614289 0.75300002
-0.12727144 0.046738099 0.75500005
-0.12583335 0.046738099 0.75500005
-0.12439524 0.046738099 0.75500005
-0.12312001 0.046800002 0.75600004
-0.12168001 0.046800002 0.75600004
-0.12024001 0.046800002 0.75600004
-0.11880001 0.046800002 0.75600004
-0.11736001 0.046800002 0.75600004
-0.11592001 0.046800002 0.75600004
-0.11448001 0.046800002 0.75600004
-0.11304001 0.046800002 0.75600004
-0.1116 0.046800002 0.75600004
-0.11016001 0.046800002 0.75600004
-0.10872 0.046800002 0.75600004
-0.10728001 0.046800002 0.75600004
-0.10584 0.046800002 0.75600004
-0.10440001 0.046800002 0.75600004
-0.10282382 0.046738099 0.75500005
-0.10138572 0.046738099 0.75500005
-0.09968286 0.046614289 0.75300002
-0.098118104 0.046552382 0.75200003
-0.096685722 0.046552382 0.75200003
-0.095253341 0.046552382 0.75200003
-0.093820959 0.046552382 0.75200003
-0.092388578 0.046552382 0.75200003
-0.090956196 0.046552382 0.75200003
-0.089285724 0.046428576 0.75000006
-0.08785715 0.046428576 0.75000006
-0.086428575 0.046428576 0.75000006
-0.084660009 0.046242859 0.74700004
-0.083014295 0.046119049 0.74500006
-0.081595242 0.046119049 0.74500006
-0.079960957 0.045995243 0.74300003
-0.078545719 0.045995243 0.74300003
-0.077026673 0.045933336 0.74200004
-0.075409532 0.045809526 0.74000001
-0.073900007 0.045747623 0.73900002
-0.072492383 0.045747623 0.73900002
-0.071084768 0.045747623 0.73900002
-0.069677144 0.045747623 0.73900002
-0.068269528 0.045747623 0.73900002
-0.066861913 0.045747623 0.73900002
-0.065454289 0.045747623 0.73900002
-0.063873336 0.045623813 0.73700005
-0.062469527 0.045623813 0.73700005
-0.046304766 0.046304766 0.74800003
-0.044820003 0.046242859 0.74700004
-0.043280955 0.046119049 0.74500006
-0.041861907 0.046119049 0.74500006
-0.018797144 0.045252383 0.73100001
-0.017357145 0.045128573 0.72900003
-0.015968572 0.045128573 0.72900003
-0.01462 0.045252383 0.73100001
-0.01322762 0.045252383 0.73100001
-0.011835239 0.045252383 0.73100001
-0.19459334 0.045113336 0.70700002
-0.19324668 0.045113336 0.70700002
-0.19190001 0.045113336 0.70700002
-0.1900143 0.044985719 0.70500004
-0.18840382 0.044921909 0.70400006
-0.18706287 0.044921909 0.70400006
-0.18572192 0.044921909 0.70400006
-0.18411906 0.044858098 0.70300001
-0.18278001 0.044858098 0.70300001
-0.18144096 0.044858098 0.70300001
-0.17958954 0.044730481 0.70100003
-0.17825429 0.044730481 0.70100003
-0.17691906 0.044730481 0.70100003
-0.17558382 0.044730481 0.70100003
-0.17400001 0.04466667 0.70000005
-0.17266668 0.04466667 0.70000005
-0.17133334 0.04466667 0.70000005
-0.17000002 0.04466667 0.70000005
-0.16866668 0.04466667 0.70000005
-0.16685525 0.044539049 0.69800001
-0.16552572 0.044539049 0.69800001
-0.16419621 0.044539049 0.69800001
-0.16286668 0.044539049 0.69800001
-0.16130573 0.044475242 0.69700003
-0.15997811 0.044475242 0.69700003
-0.15865049 0.044475242 0.69700003
-0.15754858 0.044539049 0.69800001
-0.15621907 0.044539049 0.69800001
-0.15466763 0.044475242 0.69700003
-0.15356001 0.044539049 0.69800001
-0.15266667 0.04466667 0.70000005
-0.15154953 0.044730481 0.70100003
-0.1502143 0.044730481 0.70100003
-0.14887905 0.044730481 0.70100003
-0.14754382 0.044730481 0.70100003
-0.14620858 0.044730481 0.70100003
-0.14487334 0.044730481 0.70100003
-0.14950572 0.047027621 0.73700005
-0.14810191 0.047027621 0.73700005
-0.1470962 0.047155242 0.73900002
-0.14588572 0.047219049 0.74000001
-0.14447621 0.047219049 0.74000001
-0.14345334 0.04734667 0.74200004
-0.14223143 0.047410481 0.74300003
-0.14119525 0.047538098 0.74500006
-0.14015144 0.047665719 0.74700004
-0.1389143 0.047729526 0.74800003
-0.13785715 0.047857147 0.75000006
-0.13642858 0.047857147 0.75000006
-0.13500001 0.047857147 0.75000006
-0.13357143 0.047857147 0.75000006
-0.13249524 0.047984764 0.75200003
-0.13106287 0.047984764 0.75200003
-0.12963049 0.047984764 0.75200003
-0.12836859 0.048048574 0.75300002
-0.12693429 0.048048574 0.75300002
-0.12550001 0.048048574 0.75300002
-0.12439524 0.048176195 0.75500005
-0.12295715 0.048176195 0.75500005
-0.12168001 0.048240002 0.75600004
-0.12024001 0.048240002 0.75600004
-0.11880001 0.048240002 0.75600004
-0.11736001 0.048240002 0.75600004
-0.11592001 0.048240002 0.75600004
-0.11448001 0.048240002 0.75600004
-0.11304001 0.048240002 0.75600004
-0.1116 0.048240002 0.75600004
-0.11016001 0.048240002 0.75600004
-0.10872 0.048240002 0.75600004
-0.10728001 0.048240002 0.75600004
-0.10584 0.048240002 0.75600004
-0.10440001 0.048240002 0.75600004
-0.10282382 0.048176195 0.75500005
-0.10138572 0.048176195 0.75500005
-0.099947624 0.048176195 0.75500005
-0.098248579 0.048048574 0.75300002
-0.096685722 0.047984764 0.75200003
-0.095380008 0.048048574 0.75300002
-0.093820959 0.047984764 0.75200003
-0.092388578 0.047984764 0.75200003
-0.090956196 0.047984764 0.75200003
-0.089285724 0.047857147 0.75000006
-0.08785715 0.047857147 0.75000006
-0.086198099 0.047729526 0.74800003
-0.08443334 0.047538098 0.74500006
-0.083014295 0.047538098 0.74500006
-0.081376195 0.047410481 0.74300003
-0.079960957 0.047410481 0.74300003
-0.078440003 0.04734667 0.74200004
-0.076819055 0.047219049 0.74000001
-0.075307623 0.047155242 0.73900002
-0.073900007 0.047155242 0.73900002
-0.072296195 0.047027621 0.73700005
-0.070892386 0.047027621 0.73700005
-0.069488578 0.047027621 0.73700005
-0.068084769 0.047027621 0.73700005
-0.06668096 0.047027621 0.73700005
-0.065277144 0.047027621 0.73700005
-0.064046673 0.047155242 0.73900002
-0.062469527 0.047027621 0.73700005
-0.046304766 0.047729526 0.74800003
-0.044820003 0.047665719 0.74700004
-0.043280955 0.047538098 0.74500006
-0.041693337 0.04734667 0.74200004
-0.021729525 0.046963811 0.73600006
-0.02032762 0.046963811 0.73600006
-0.018822858 0.046708573 0.73200005
-0.017404763 0.046644766 0.73100001
-0.016012382 0.046644766 0.73100001
-0.01462 0.046644766 0.73100001
-0.01322762 0.046644766 0.73100001
-0.011835239 0.046644766 0.73100001
-0.19352001 0.046525717 0.708
-0.19217144 0.046525717 0.708
-0.19055335 0.046460003 0.70700002
-0.18920667 0.046460003 0.70700002
-0.18732858 0.046328574 0.70500004
-0.18598573 0.046328574 0.70500004
-0.18438096 0.04626286 0.70400006
-0.18304001 0.04626286 0.70400006
-0.18144096 0.046197146 0.70300001
-0.18010192 0.046197146 0.70300001
-0.17825429 0.046065718 0.70100003
-0.17691906 0.046065718 0.70100003
-0.17558382 0.046065718 0.70100003
-0.17400001 0.046000004 0.70000005
-0.17291334 0.046065718 0.70100003
-0.17157811 0.046065718 0.70100003
-0.17024286 0.046065718 0.70100003
-0.16890763 0.046065718 0.70100003
-0.16685525 0.045868576 0.69800001
-0.16600001 0.046000004 0.70000005
-0.16419621 0.045868576 0.69800001
-0.16286668 0.045868576 0.69800001
-0.16153716 0.045868576 0.69800001
-0.15997811 0.045802861 0.69700003
-0.15865049 0.045802861 0.69700003
-0.15754858 0.045868576 0.69800001
-0.15621907 0.045868576 0.69800001
-0.15488954 0.045868576 0.69800001
-0.15400001 0.046000004 0.70000005
-0.15266667 0.046000004 0.70000005
-0.15154953 0.046065718 0.70100003
-0.15064287 0.046197146 0.70300001
-0.14930382 0.046197146 0.70300001
-0.14796478 0.046197146 0.70300001
-0.14662573 0.046197146 0.70300001
-0.14528668 0.046197146 0.70300001
-0.14950572 0.04843143 0.73700005
-0.14810191 0.04843143 0.73700005
-0.1470962 0.048562862 0.73900002
-0.14568858 0.048562862 0.73900002
-0.14447621 0.048628576 0.74000001
-0.14306667 0.048628576 0.74000001
-0.14223143 0.048825718 0.74300003
-0.1408162 0.048825718 0.74300003
-0.1397762 0.048957147 0.74500006
-0.13872857 0.049088575 0.74700004
-0.13748953 0.049154289 0.74800003
-0.13642858 0.049285717 0.75000006
-0.13500001 0.049285717 0.75000006
-0.13357143 0.049285717 0.75000006
-0.13214287 0.049285717 0.75000006
-0.13106287 0.049417146 0.75200003
-0.12963049 0.049417146 0.75200003
-0.1281981 0.049417146 0.75200003
-0.12693429 0.04948286 0.75300002
-0.12550001 0.04948286 0.75300002
-0.12439524 0.049614288 0.75500005
-0.12312001 0.049680002 0.75600004
-0.12168001 0.049680002 0.75600004
-0.12024001 0.049680002 0.75600004
-0.11880001 0.049680002 0.75600004
-0.11736001 0.049680002 0.75600004
-0.11592001 0.049680002 0.75600004
-0.11448001 0.049680002 0.75600004
-0.11304001 0.049680002 0.75600004
-0.1116 0.049680002 0.75600004
-0.11016001 0.049680002 0.75600004
-0.10872 0.049680002 0.75600004
-0.10728001 0.049680002 0.75600004
-0.10584 0.049680002 0.75600004
-0.10440001 0.049680002 0.75600004
-0.10296001 0.049680002 0.75600004
-0.10138572 0.049614288 0.75500005
-0.099947624 0.049614288 0.75500005
-0.098248579 0.04948286 0.75300002
-0.096685722 0.049417146 0.75200003
-0.095253341 0.049417146 0.75200003
-0.093820959 0.049417146 0.75200003
-0.092388578 0.049417146 0.75200003
-0.090714291 0.049285717 0.75000006
-0.089285724 0.049285717 0.75000006
-0.08785715 0.049285717 0.75000006
-0.086198099 0.049154289 0.74800003
-0.08443334 0.048957147 0.74500006
-0.082791433 0.048825718 0.74300003
-0.081376195 0.048825718 0.74300003
-0.079960957 0.048825718 0.74300003
-0.078440003 0.048760004 0.74200004
-0.076715246 0.048562862 0.73900002
-0.075103812 0.04843143 0.73700005
-0.073600002 0.048365716 0.73600006
-0.0721981 0.048365716 0.73600006
-0.070892386 0.04843143 0.73700005
-0.069488578 0.04843143 0.73700005
-0.067992382 0.048365716 0.73600006
-0.06668096 0.04843143 0.73700005
-0.065277144 0.04843143 0.73700005
-0.063873336 0.04843143 0.73700005
-0.062469527 0.04843143 0.73700005
-0.042816192 0.04843143 0.73700005
-0.041412383 0.04843143 0.73700005
-0.023225715 0.048562862 0.73900002
-0.02175905 0.04843143 0.73700005
-0.02032762 0.048365716 0.73600006
-0.018874288 0.048234288 0.73400003
-0.017404763 0.048037145 0.73100001
-0.016034286 0.048102859 0.73200005
-0.014640001 0.048102859 0.73200005
-0.013245715 0.048102859 0.73200005
-0.011851429 0.048102859 0.73200005
0.12090001 0.053820003 0.81900007
-0.1927143 0.048009526 0.71000004
-0.19082287 0.04787429 0.708
-0.18920667 0.047806669 0.70700002
-0.18786001 0.047806669 0.70700002
-0.18651335 0.047806669 0.70700002
-0.18464287 0.047671434 0.70500004
-0.18304001 0.047603812 0.70400006
-0.18169905 0.047603812 0.70400006
-0.18010192 0.047536194 0.70300001
-0.17876287 0.047536194 0.70300001
-0.17742382 0.047536194 0.70300001
-0.17558382 0.047400955 0.70100003
-0.17424858 0.047400955 0.70100003
-0.17340668 0.047536194 0.70300001
-0.17206763 0.047536194 0.70300001
-0.17072858 0.047536194 0.70300001
-0.16890763 0.047400955 0.70100003
-0.16733335 0.047333337 0.70000005
-0.16600001 0.047333337 0.70000005
-0.16466668 0.047333337 0.70000005
-0.16333334 0.047333337 0.70000005
-0.16153716 0.047198098 0.69800001
-0.16020763 0.047198098 0.69800001
-0.1588781 0.047198098 0.69800001
-0.15754858 0.047198098 0.69800001
-0.15621907 0.047198098 0.69800001
-0.15488954 0.047198098 0.69800001
-0.15400001 0.047333337 0.70000005
-0.15288477 0.047400955 0.70100003
-0.15198192 0.047536194 0.70300001
-0.15064287 0.047536194 0.70300001
-0.14930382 0.047536194 0.70300001
-0.14796478 0.047536194 0.70300001
-0.14662573 0.047536194 0.70300001
-0.14528668 0.047536194 0.70300001
-0.14889716 0.049632385 0.73400003
-0.14790097 0.049767621 0.73600006
-0.14610097 0.049632385 0.73400003
-0.14529429 0.049835242 0.73700005
-0.14428096 0.049970478 0.73900002
-0.14287335 0.049970478 0.73900002
-0.14165716 0.050038099 0.74000001
-0.1408162 0.050240956 0.74300003
-0.1397762 0.050376195 0.74500006
-0.13872857 0.050511431 0.74700004
-0.13748953 0.050579052 0.74800003
-0.13642858 0.050714288 0.75000006
-0.13500001 0.050714288 0.75000006
-0.13357143 0.050714288 0.75000006
-0.13214287 0.050714288 0.75000006
-0.13106287 0.050849527 0.75200003
-0.12963049 0.050849527 0.75200003
-0.1281981 0.050849527 0.75200003
-0.12693429 0.050917145 0.75300002
-0.12583335 0.051052384 0.75500005
-0.12439524 0.051052384 0.75500005
-0.12312001 0.051120002 0.75600004
-0.12168001 0.051120002 0.75600004
-0.12024001 0.051120002 0.75600004
-0.11880001 0.051120002 0.75600004
-0.11736001 0.051120002 0.75600004
-0.11622667 0.051255241 0.75800002
-0.11478286 0.051255241 0.75800002
-0.11333905 0.051255241 0.75800002
-0.11189525 0.051255241 0.75800002
-0.11016001 0.051120002 0.75600004
-0.10900763 0.051255241 0.75800002
-0.10728001 0.051120002 0.75600004
-0.10584 0.051120002 0.75600004
-0.10440001 0.051120002 0.75600004
-0.10296001 0.051120002 0.75600004
-0.10152001 0.051120002 0.75600004
-0.099947624 0.051052384 0.75500005
-0.098248579 0.050917145 0.75300002
-0.096685722 0.050849527 0.75200003
-0.095253341 0.050849527 0.75200003
-0.093820959 0.050849527 0.75200003
-0.092388578 0.050849527 0.75200003
-0.090714291 0.050714288 0.75000006
-0.089285724 0.050714288 0.75000006
-0.087622866 0.050579052 0.74800003
-0.086198099 0.050579052 0.74800003
-0.084206671 0.050240956 0.74300003
-0.082791433 0.050240956 0.74300003
-0.081266671 0.050173335 0.74200004
-0.079853341 0.050173335 0.74200004
-0.078122862 0.049970478 0.73900002
-0.076507621 0.049835242 0.73700005
-0.07500191 0.049767621 0.73600006
-0.073400006 0.049632385 0.73400003
-0.072001912 0.049632385 0.73400003
-0.070603818 0.049632385 0.73400003
-0.06939429 0.049767621 0.73600006
-0.067807622 0.049632385 0.73400003
-0.066590481 0.049767621 0.73600006
-0.065188579 0.049767621 0.73600006
-0.063873336 0.049835242 0.73700005
-0.062469527 0.049835242 0.73700005
-0.042816192 0.049835242 0.73700005
-0.041243814 0.049632385 0.73400003
-0.039845716 0.049632385 0.73400003
-0.03834286 0.049497146 0.73200005
-0.036898099 0.049429528 0.73100001
-0.035505716 0.049429528 0.73100001
-0.024566669 0.049835242 0.73700005
-0.023162859 0.049835242 0.73700005
-0.02175905 0.049835242 0.73700005
-0.02032762 0.049767621 0.73600006
-0.018874288 0.049632385 0.73400003
-0.017404763 0.049429528 0.73100001
-0.016034286 0.049497146 0.73200005
-0.014640001 0.049497146 0.73200005
-0.013245715 0.049497146 0.73200005
-0.011851429 0.049497146 0.73200005
-0.19406667 0.049361907 0.71000004
-0.1927143 0.049361907 0.71000004
-0.19082287 0.04922286 0.708
-0.1894743 0.04922286 0.708
-0.18786001 0.049153335 0.70700002
-0.18651335 0.049153335 0.70700002
-0.18516667 0.049153335 0.70700002
-0.18330002 0.049014289 0.70500004
-0.18169905 0.048944764 0.70400006
-0.18035811 0.048944764 0.70400006
-0.17876287 0.048875242 0.70300001
-0.17742382 0.048875242 0.70300001
-0.17608477 0.048875242 0.70300001
-0.17474572 0.048875242 0.70300001
-0.17340668 0.048875242 0.70300001
-0.17231239 0.048944764 0.70400006
-0.17072858 0.048875242 0.70300001
-0.16938953 0.048875242 0.70300001
-0.16757239 0.048736192 0.70100003
-0.16623716 0.048736192 0.70100003
-0.16490191 0.048736192 0.70100003
-0.16356668 0.048736192 0.70100003
-0.16200002 0.048666671 0.70000005
-0.16066667 0.048666671 0.70000005
-0.15933335 0.048666671 0.70000005
-0.15800001 0.048666671 0.70000005
-0.15666668 0.048666671 0.70000005
-0.15533334 0.048666671 0.70000005
-0.15422001 0.048736192 0.70100003
-0.15288477 0.048736192 0.70100003
-0.15198192 0.048875242 0.70300001
-0.15085715 0.048944764 0.70400006
-0.1495162 0.048944764 0.70400006
-0.14817525 0.048944764 0.70400006
-0.14662573 0.048875242 0.70300001
-0.14988573 0.050891433 0.73200005
-0.14828858 0.050821908 0.73100001
-0.1468962 0.050821908 0.73100001
-0.14570287 0.050891433 0.73200005
-0.14430858 0.050891433 0.73200005
-0.14330477 0.051030479 0.73400003
-0.14229335 0.051169526 0.73600006
-0.14146572 0.051378097 0.73900002
-0.14062667 0.051586669 0.74200004
-0.1397762 0.05179524 0.74500006
-0.13835715 0.05179524 0.74500006
-0.13730572 0.051934291 0.74700004
-0.13606477 0.052003812 0.74800003
-0.13464001 0.052003812 0.74800003
-0.13357143 0.052142862 0.75000006
-0.13214287 0.052142862 0.75000006
-0.1307143 0.052142862 0.75000006
-0.12963049 0.052281909 0.75200003
-0.1281981 0.052281909 0.75200003
-0.12693429 0.052351434 0.75300002
-0.12583335 0.05249048 0.75500005
-0.12456001 0.052560002 0.75600004
-0.12312001 0.052560002 0.75600004
-0.12168001 0.052560002 0.75600004
-0.12024001 0.052560002 0.75600004
-0.11880001 0.052560002 0.75600004
-0.11736001 0.052560002 0.75600004
-0.11622667 0.052699052 0.75800002
-0.11478286 0.052699052 0.75800002
-0.11333905 0.052699052 0.75800002
-0.11189525 0.052699052 0.75800002
-0.11045144 0.052699052 0.75800002
-0.10900763 0.052699052 0.75800002
-0.10728001 0.052560002 0.75600004
-0.10584 0.052560002 0.75600004
-0.10440001 0.052560002 0.75600004
-0.10296001 0.052560002 0.75600004
-0.10138572 0.05249048 0.75500005
-0.099947624 0.05249048 0.75500005
-0.098248579 0.052351434 0.75300002
-0.09681429 0.052351434 0.75300002
-0.095380008 0.052351434 0.75300002
-0.093820959 0.052281909 0.75200003
-0.092388578 0.052281909 0.75200003
-0.090714291 0.052142862 0.75000006
-0.089285724 0.052142862 0.75000006
-0.087622866 0.052003812 0.74800003
-0.085852385 0.05179524 0.74500006
-0.084206671 0.051656194 0.74300003
-0.082680002 0.051586669 0.74200004
-0.081047624 0.051447622 0.74000001
-0.079315245 0.051239051 0.73700005
-0.07780572 0.051169526 0.73600006
-0.075988576 0.050891433 0.73200005
-0.074288577 0.050682861 0.72900003
-0.072900005 0.050682861 0.72900003
-0.071511433 0.050682861 0.72900003
-0.070315242 0.050821908 0.73100001
-0.068922862 0.050821908 0.73100001
-0.067530483 0.050821908 0.73100001
-0.066228576 0.050891433 0.73200005
-0.064834289 0.050891433 0.73200005
-0.063786671 0.051169526 0.73600006
-0.042641908 0.051030479 0.73400003
-0.041131433 0.050891433 0.73200005
-0.039737146 0.050891433 0.73200005
-0.038290478 0.050821908 0.73100001
-0.036797144 0.050682861 0.72900003
-0.035408575 0.050682861 0.72900003
-0.034020003 0.050682861 0.72900003
-0.032586668 0.050613336 0.72800004
-0.031200003 0.050613336 0.72800004
-0.029813336 0.050613336 0.72800004
-0.02858286 0.050891433 0.73200005
-0.027188573 0.050891433 0.73200005
-0.02593524 0.051169526 0.73600006
-0.024566669 0.051239051 0.73700005
-0.023162859 0.051239051 0.73700005
-0.021729525 0.051169526 0.73600006
-0.02032762 0.051169526 0.73600006
-0.018822858 0.050891433 0.73200005
-0.017404763 0.050821908 0.73100001
-0.016012382 0.050821908 0.73100001
-0.01462 0.050821908 0.73100001
-0.01322762 0.050821908 0.73100001
-0.19298573 0.050785717 0.71100003
-0.19163144 0.050785717 0.71100003
-0.19000953 0.050714288 0.71000004
-0.18812573 0.05057143 0.708
-0.18677716 0.05057143 0.708
-0.18542859 0.05057143 0.708
-0.18408 0.05057143 0.708
-0.18247335 0.050500002 0.70700002
-0.18061429 0.050357144 0.70500004
-0.17927144 0.050357144 0.70500004
-0.1776762 0.050285719 0.70400006
-0.17633525 0.050285719 0.70400006
-0.17499429 0.050285719 0.70400006
-0.17365335 0.050285719 0.70400006
-0.17255716 0.050357144 0.70500004
-0.1712143 0.050357144 0.70500004
-0.16987143 0.050357144 0.70500004
-0.16828954 0.050285719 0.70400006
-0.16694859 0.050285719 0.70400006
-0.16537239 0.050214291 0.70300001
-0.16403334 0.050214291 0.70300001
-0.16269429 0.050214291 0.70300001
-0.1608962 0.050071433 0.70100003
-0.15956096 0.050071433 0.70100003
-0.15822573 0.050071433 0.70100003
-0.15689048 0.050071433 0.70100003
-0.15599906 0.050214291 0.70300001
-0.15466002 0.050214291 0.70300001
-0.15353906 0.050285719 0.70400006
-0.15219811 0.050285719 0.70400006
-0.15107144 0.050357144 0.70500004
-0.15015334 0.050500002 0.70700002
-0.14880668 0.050500002 0.70700002
-0.14746001 0.050500002 0.70700002
-0.14968096 0.052214291 0.73100001
-0.14788286 0.052071434 0.72900003
-0.1464943 0.052071434 0.72900003
-0.14490667 0.052000005 0.72800004
-0.14371715 0.052071434 0.72900003
-0.1429143 0.052285716 0.73200005
-0.14152001 0.052285716 0.73200005
-0.14108287 0.05264286 0.73700005
-0.14062667 0.053000003 0.74200004
-0.1397762 0.053214289 0.74500006
-0.13872857 0.053357147 0.74700004
-0.13730572 0.053357147 0.74700004
-0.13606477 0.053428575 0.74800003
-0.13500001 0.053571433 0.75000006
-0.13357143 0.053571433 0.75000006
-0.13214287 0.053571433 0.75000006
-0.13106287 0.05371429 0.75200003
-0.12963049 0.05371429 0.75200003
-0.1281981 0.05371429 0.75200003
-0.12693429 0.053785719 0.75300002
-0.12583335 0.053928576 0.75500005
-0.12439524 0.053928576 0.75500005
-0.12312001 0.054000005 0.75600004
-0.12168001 0.054000005 0.75600004
-0.12024001 0.054000005 0.75600004
-0.11880001 0.054000005 0.75600004
-0.11736001 0.054000005 0.75600004
-0.11592001 0.054000005 0.75600004
-0.11508572 0.054285716 0.76000005
-0.1136381 0.054285716 0.76000005
-0.11189525 0.054142863 0.75800002
-0.11045144 0.054142863 0.75800002
-0.10872 0.054000005 0.75600004
-0.10728001 0.054000005 0.75600004
-0.10584 0.054000005 0.75600004
-0.10440001 0.054000005 0.75600004
-0.10296001 0.054000005 0.75600004
-0.10138572 0.053928576 0.75500005
-0.099947624 0.053928576 0.75500005
-0.098248579 0.053785719 0.75300002
-0.09681429 0.053785719 0.75300002
-0.095380008 0.053785719 0.75300002
-0.093820959 0.05371429 0.75200003
-0.092388578 0.05371429 0.75200003
-0.090956196 0.05371429 0.75200003
-0.089285724 0.053571433 0.75000006
-0.087622866 0.053428575 0.74800003
-0.085852385 0.053214289 0.74500006
-0.084206671 0.053071432 0.74300003
-0.082680002 0.053000003 0.74200004
-0.081266671 0.053000003 0.74200004
-0.079315245 0.05264286 0.73700005
-0.077911437 0.05264286 0.73700005
-0.075365722 0.051857147 0.72600001
-0.073982865 0.051857147 0.72600001
-0.072600007 0.051857147 0.72600001
-0.071217149 0.051857147 0.72600001
-0.069834292 0.051857147 0.72600001
-0.068734288 0.052071434 0.72900003
-0.067345716 0.052071434 0.72900003
-0.065957144 0.052071434 0.72900003
-0.064480007 0.052000005 0.72800004
-0.044040002 0.052428573 0.73400003
-0.042525716 0.052285716 0.73200005
-0.041131433 0.052285716 0.73200005
-0.039737146 0.052285716 0.73200005
-0.038290478 0.052214291 0.73100001
-0.036797144 0.052071434 0.72900003
-0.035408575 0.052071434 0.72900003
-0.034020003 0.052071434 0.72900003
-0.032586668 0.052000005 0.72800004
-0.031200003 0.052000005 0.72800004
-0.029854288 0.052071434 0.72900003
-0.02858286 0.052285716 0.73200005
-0.027188573 0.052285716 0.73200005
-0.02593524 0.052571431 0.73600006
-0.024566669 0.05264286 0.73700005
-0.023162859 0.05264286 0.73700005
-0.02175905 0.05264286 0.73700005
-0.02032762 0.052571431 0.73600006
-0.018874288 0.052428573 0.73400003
-0.017404763 0.052214291 0.73100001
-0.016034286 0.052285716 0.73200005
-0.014640001 0.052285716 0.73200005
-0.013245715 0.052285716 0.73200005
-0.19352858 0.05228667 0.71300006
-0.19163144 0.052140005 0.71100003
-0.19027716 0.052140005 0.71100003
-0.18865715 0.052066669 0.71000004
-0.18730478 0.052066669 0.71000004
-0.1859524 0.052066669 0.71000004
-0.18408 0.051920004 0.708
-0.18273143 0.051920004 0.708
-0.18112668 0.051846672 0.70700002
-0.17978001 0.051846672 0.70700002
-0.17792858 0.051700003 0.70500004
-0.17633525 0.051626671 0.70400006
-0.17499429 0.051626671 0.70400006
-0.17439334 0.051846672 0.70700002
-0.17304668 0.051846672 0.70700002
-0.17170002 0.051846672 0.70700002
-0.17035334 0.051846672 0.70700002
-0.16828954 0.051626671 0.70400006
-0.16694859 0.051626671 0.70400006
-0.16560763 0.051626671 0.70400006
-0.16403334 0.051553335 0.70300001
-0.16269429 0.051553335 0.70300001
-0.16135524 0.051553335 0.70300001
-0.16001619 0.051553335 0.70300001
-0.15867715 0.051553335 0.70300001
-0.15733811 0.051553335 0.70300001
-0.15599906 0.051553335 0.70300001
-0.15466002 0.051553335 0.70300001
-0.15353906 0.051626671 0.70400006
-0.15219811 0.051626671 0.70400006
-0.15107144 0.051700003 0.70500004
-0.15015334 0.051846672 0.70700002
-0.14880668 0.051846672 0.70700002
-0.15107334 0.05360667 0.73100001
-0.14968096 0.05360667 0.73100001
-0.14768001 0.05338667 0.72800004
-0.14629334 0.05338667 0.72800004
-0.14450859 0.053240005 0.72600001
-0.14312573 0.053240005 0.72600001
-0.14213334 0.05338667 0.72800004
-0.14074668 0.05338667 0.72800004
-0.13936001 0.05338667 0.72800004
-0.1408162 0.05448667 0.74300003
-0.14015144 0.054780003 0.74700004
-0.13872857 0.054780003 0.74700004
-0.13748953 0.054853339 0.74800003
-0.13642858 0.055000003 0.75000006
-0.13500001 0.055000003 0.75000006
-0.13357143 0.055000003 0.75000006
-0.13214287 0.055000003 0.75000006
-0.13106287 0.055146672 0.75200003
-0.12963049 0.055146672 0.75200003
-0.1281981 0.055146672 0.75200003
-0.12693429 0.055220004 0.75300002
-0.12550001 0.055220004 0.75300002
-0.12439524 0.055366669 0.75500005
-0.12295715 0.055366669 0.75500005
-0.12151906 0.055366669 0.75500005
-0.12008096 0.055366669 0.75500005
-0.11864287 0.055366669 0.75500005
-0.11720477 0.055366669 0.75500005
-0.11576667 0.055366669 0.75500005
-0.11478286 0.05558667 0.75800002
-0.11333905 0.05558667 0.75800002
-0.11189525 0.05558667 0.75800002
-0.11045144 0.05558667 0.75800002
-0.10900763 0.05558667 0.75800002
-0.10728001 0.055440005 0.75600004
-0.10584 0.055440005 0.75600004
-0.10440001 0.055440005 0.75600004
-0.10296001 0.055440005 0.75600004
-0.10138572 0.055366669 0.75500005
-0.099947624 0.055366669 0.75500005
-0.098509528 0.055366669 0.75500005
-0.09681429 0.055220004 0.75300002
-0.095380008 0.055220004 0.75300002
-0.093820959 0.055146672 0.75200003
-0.092388578 0.055146672 0.75200003
-0.090956196 0.055146672 0.75200003
-0.089285724 0.055000003 0.75000006
-0.083522864 0.05228667 0.71300006
-0.081934288 0.052140005 0.71100003
-0.080806673 0.05228667 0.71300006
-0.079448573 0.05228667 0.71300006
-0.078200005 0.052360002 0.71400005
-0.077485718 0.052800003 0.72000003
-0.076325722 0.052946672 0.72200006
-0.074742861 0.052800003 0.72000003
-0.073677145 0.053020004 0.72300005
-0.072300002 0.053020004 0.72300005
-0.070922859 0.053020004 0.72300005
-0.069545716 0.053020004 0.72300005
-0.068357147 0.053166669 0.72500002
-0.067253336 0.05338667 0.72800004
-0.065866672 0.05338667 0.72800004
-0.064302862 0.053240005 0.72600001
-0.044040002 0.053826671 0.73400003
-0.042525716 0.053680003 0.73200005
-0.041131433 0.053680003 0.73200005
-0.039682861 0.05360667 0.73100001
-0.038290478 0.05360667 0.73100001
-0.03674667 0.05338667 0.72800004
-0.035408575 0.053460002 0.72900003
-0.034020003 0.053460002 0.72900003
-0.032586668 0.05338667 0.72800004
-0.031200003 0.05338667 0.72800004
-0.029813336 0.05338667 0.72800004
-0.028543811 0.05360667 0.73100001
-0.02715143 0.05360667 0.73100001
-0.025794288 0.053680003 0.73200005
-0.024533335 0.053973336 0.73600006
-0.023162859 0.054046672 0.73700005
-0.02175905 0.054046672 0.73700005
-0.02035524 0.054046672 0.73700005
-0.018822858 0.053680003 0.73200005
-0.017404763 0.05360667 0.73100001
-0.016012382 0.05360667 0.73100001
-0.012693334 0.057493336 0.78400004
-0.19163144 0.05349429 0.71100003
-0.19027716 0.05349429 0.71100003
-0.18892287 0.05349429 0.71100003
-0.18730478 0.05341905 0.71000004
-0.1859524 0.05341905 0.71000004
-0.18460001 0.05341905 0.71000004
-0.18273143 0.053268574 0.708
-0.18138286 0.053268574 0.708
-0.18003429 0.053268574 0.708
-0.17843334 0.053193338 0.70700002
-0.17708668 0.053193338 0.70700002
-0.17574002 0.053193338 0.70700002
-0.17464001 0.053268574 0.708
-0.17329144 0.053268574 0.708
-0.17194287 0.053268574 0.708
-0.17059429 0.053268574 0.708
-0.16900668 0.053193338 0.70700002
-0.16766001 0.053193338 0.70700002
-0.16560763 0.052967623 0.70400006
-0.16426668 0.052967623 0.70400006
-0.16269429 0.052892383 0.70300001
-0.16135524 0.052892383 0.70300001
-0.16001619 0.052892383 0.70300001
-0.15867715 0.052892383 0.70300001
-0.15733811 0.052892383 0.70300001
-0.15622096 0.052967623 0.70400006
-0.15488002 0.052967623 0.70400006
-0.15375715 0.053042859 0.70500004
-0.15241429 0.053042859 0.70500004
-0.15150002 0.053193338 0.70700002
-0.15036573 0.053268574 0.708
-0.1526743 0.055074289 0.73200005
-0.15107334 0.05499905 0.73100001
-0.14927144 0.054848574 0.72900003
-0.1472743 0.054622862 0.72600001
-0.14589144 0.054622862 0.72600001
-0.14430954 0.054547623 0.72500002
-0.14292859 0.054547623 0.72500002
-0.14115715 0.054397147 0.72300005
-0.13978001 0.054397147 0.72300005
-0.13782857 0.054171432 0.72000003
-0.13645715 0.054171432 0.72000003
-0.14015144 0.056202862 0.74700004
-0.13872857 0.056202862 0.74700004
-0.13748953 0.056278098 0.74800003
-0.13642858 0.056428574 0.75000006
-0.13500001 0.056428574 0.75000006
-0.13357143 0.056428574 0.75000006
-0.13214287 0.056428574 0.75000006
-0.1307143 0.056428574 0.75000006
-0.12963049 0.05657905 0.75200003
-0.1281981 0.05657905 0.75200003
-0.12676573 0.05657905 0.75200003
-0.12533334 0.05657905 0.75200003
-0.12406572 0.056654289 0.75300002
-0.12263144 0.056654289 0.75300002
-0.12119715 0.056654289 0.75300002
-0.11976287 0.056654289 0.75300002
-0.11864287 0.056804765 0.75500005
-0.11689429 0.056654289 0.75300002
-0.11546001 0.056654289 0.75300002
-0.11478286 0.05703048 0.75800002
-0.11333905 0.05703048 0.75800002
-0.11189525 0.05703048 0.75800002
-0.11045144 0.05703048 0.75800002
-0.10900763 0.05703048 0.75800002
-0.10756382 0.05703048 0.75800002
-0.10584 0.056880005 0.75600004
-0.10440001 0.056880005 0.75600004
-0.10296001 0.056880005 0.75600004
-0.10152001 0.056880005 0.75600004
-0.10008001 0.056880005 0.75600004
-0.098509528 0.056804765 0.75500005
-0.09681429 0.056654289 0.75300002
-0.095380008 0.056654289 0.75300002
-0.093820959 0.05657905 0.75200003
-0.092388578 0.05657905 0.75200003
-0.090956196 0.05657905 0.75200003
-0.089285724 0.056428574 0.75000006
-0.083522864 0.053644765 0.71300006
-0.081934288 0.05349429 0.71100003
-0.080806673 0.053644765 0.71300006
-0.079448573 0.053644765 0.71300006
-0.078419052 0.053870481 0.71600002
-0.077378102 0.054096196 0.71900004
-0.076114289 0.054171432 0.72000003
-0.074742861 0.054171432 0.72000003
-0.073371433 0.054171432 0.72000003
-0.072200008 0.054321907 0.72200006
-0.070628576 0.054171432 0.72000003
-0.069257148 0.054171432 0.72000003
-0.068074293 0.054321907 0.72200006
-0.066976197 0.054547623 0.72500002
-0.065595239 0.054547623 0.72500002
-0.064214289 0.054547623 0.72500002
-0.062660001 0.054397147 0.72300005
-0.061282862 0.054397147 0.72300005
-0.044040002 0.055224765 0.73400003
-0.042525716 0.055074289 0.73200005
-0.041075241 0.05499905 0.73100001
-0.039682861 0.05499905 0.73100001
-0.038185716 0.054848574 0.72900003
-0.03674667 0.054773338 0.72800004
-0.035360001 0.054773338 0.72800004
-0.033973336 0.054773338 0.72800004
-0.032586668 0.054773338 0.72800004
-0.031200003 0.054773338 0.72800004
-0.029813336 0.054773338 0.72800004
-0.028543811 0.05499905 0.73100001
-0.02715143 0.05499905 0.73100001
-0.025794288 0.055074289 0.73200005
-0.024533335 0.055375241 0.73600006
-0.02313143 0.055375241 0.73600006
-0.021729525 0.055375241 0.73600006
-0.018822858 0.055074289 0.73200005
-0.017428573 0.055074289 0.73200005
-0.01568 0.058986671 0.78400004
-0.014186667 0.058986671 0.78400004
-0.012693334 0.058986671 0.78400004
-0.19217049 0.055002861 0.71300006
-0.19027716 0.054848574 0.71100003
-0.18892287 0.054848574 0.71100003
-0.18756859 0.054848574 0.71100003
-0.1862143 0.054848574 0.71100003
-0.18460001 0.054771431 0.71000004
-0.18324763 0.054771431 0.71000004
-0.18189526 0.054771431 0.71000004
-0.18054287 0.054771431 0.71000004
-0.17868572 0.054617148 0.708
-0.17733715 0.054617148 0.708
-0.17598858 0.054617148 0.708
-0.17464001 0.054617148 0.708
-0.17329144 0.054617148 0.708
-0.17194287 0.054617148 0.708
-0.17059429 0.054617148 0.708
-0.16900668 0.054540005 0.70700002
-0.16766001 0.054540005 0.70700002
-0.16584286 0.054385718 0.70500004
-0.16426668 0.054308575 0.70400006
-0.16292572 0.054308575 0.70400006
-0.16158478 0.054308575 0.70400006
-0.16024382 0.054308575 0.70400006
-0.15890287 0.054308575 0.70400006
-0.15756191 0.054308575 0.70400006
-0.15644287 0.054385718 0.70500004
-0.1551 0.054385718 0.70500004
-0.15419334 0.054540005 0.70700002
-0.15284668 0.054540005 0.70700002
-0.1517143 0.054617148 0.708
-0.15079048 0.054771431 0.71000004
-0.14954573 0.055311434 0.71700001
-0.15107334 0.056391433 0.73100001
-0.14804287 0.05577429 0.72300005
-0.14666572 0.05577429 0.72300005
-0.14508763 0.055697147 0.72200006
-0.14371239 0.055697147 0.72200006
-0.14233716 0.055697147 0.72200006
-0.14057145 0.05554286 0.72000003
-0.1392 0.05554286 0.72000003
-0.13763715 0.055465717 0.71900004
-0.13532001 0.055080004 0.71400005
-0.13396001 0.055080004 0.71400005
-0.13822477 0.058011431 0.75200003
-0.13642858 0.057857148 0.75000006
-0.13500001 0.057857148 0.75000006
-0.13357143 0.057857148 0.75000006
-0.13214287 0.057857148 0.75000006
-0.1307143 0.057857148 0.75000006
-0.12963049 0.058011431 0.75200003
-0.1281981 0.058011431 0.75200003
-0.12676573 0.058011431 0.75200003
-0.12550001 0.058088575 0.75300002
-0.12406572 0.058088575 0.75300002
-0.12263144 0.058088575 0.75300002
-0.12151906 0.058242861 0.75500005
-0.11976287 0.058088575 0.75300002
-0.11832858 0.058088575 0.75300002
-0.10975334 0.054540005 0.70700002
-0.11333905 0.058474291 0.75800002
-0.11189525 0.058474291 0.75800002
-0.11045144 0.058474291 0.75800002
-0.10872 0.058320004 0.75600004
-0.10728001 0.058320004 0.75600004
-0.10584 0.058320004 0.75600004
-0.10440001 0.058320004 0.75600004
-0.10296001 0.058320004 0.75600004
-0.10152001 0.058320004 0.75600004
-0.099947624 0.058242861 0.75500005
-0.09864001 0.058320004 0.75600004
-0.09681429 0.058088575 0.75300002
-0.095380008 0.058088575 0.75300002
-0.093820959 0.058011431 0.75200003
-0.092142865 0.057857148 0.75000006
-0.086239055 0.055002861 0.71300006
-0.084642865 0.054848574 0.71100003
-0.083522864 0.055002861 0.71300006
-0.081934288 0.054848574 0.71100003
-0.080806673 0.055002861 0.71300006
-0.079448573 0.055002861 0.71300006
-0.078200005 0.055080004 0.71400005
-0.077378102 0.055465717 0.71900004
-0.076008573 0.055465717 0.71900004
-0.074742861 0.05554286 0.72000003
-0.073371433 0.05554286 0.72000003
-0.072000004 0.05554286 0.72000003
-0.070628576 0.05554286 0.72000003
-0.069257148 0.05554286 0.72000003
-0.067885719 0.05554286 0.72000003
-0.06669905 0.055697147 0.72200006
-0.065414287 0.05577429 0.72300005
-0.064037144 0.05577429 0.72300005
-0.062573336 0.055697147 0.72200006
-0.061282862 0.05577429 0.72300005
-0.044040002 0.056622859 0.73400003
-0.042525716 0.056468576 0.73200005
-0.041131433 0.056468576 0.73200005
-0.039682861 0.056391433 0.73100001
-0.038185716 0.056237146 0.72900003
-0.03674667 0.056160003 0.72800004
-0.035360001 0.056160003 0.72800004
-0.033973336 0.056160003 0.72800004
-0.032586668 0.056160003 0.72800004
-0.031200003 0.056160003 0.72800004
-0.029813336 0.056160003 0.72800004
-0.028543811 0.056391433 0.73100001
-0.02715143 0.056391433 0.73100001
-0.025759049 0.056391433 0.73100001
-0.024400001 0.056468576 0.73200005
-0.023005717 0.056468576 0.73200005
-0.021846669 0.061020005 0.79100001
-0.02021143 0.060634289 0.78600001
-0.018714286 0.060634289 0.78600001
-0.017217144 0.060634289 0.78600001
-0.01568 0.060480002 0.78400004
-0.014222858 0.060634289 0.78600001
-0.012693334 0.060480002 0.78400004
-0.011257144 0.060788576 0.78800005
-0.19081239 0.056360956 0.71300006
-0.1894543 0.056360956 0.71300006
-0.18756859 0.056202862 0.71100003
-0.1867381 0.056360956 0.71300006
-0.18486001 0.056202862 0.71100003
-0.18350573 0.056202862 0.71100003
-0.18215144 0.056202862 0.71100003
-0.18079716 0.056202862 0.71100003
-0.17944287 0.056202862 0.71100003
-0.1778381 0.056123812 0.71000004
-0.17648573 0.056123812 0.71000004
-0.17538001 0.056202862 0.71100003
-0.17378096 0.056123812 0.71000004
-0.17242858 0.056123812 0.71000004
-0.17059429 0.055965718 0.708
-0.16924572 0.055965718 0.708
-0.16766001 0.055886671 0.70700002
-0.16584286 0.055728573 0.70500004
-0.16450001 0.055728573 0.70500004
-0.16315715 0.055728573 0.70500004
-0.1618143 0.055728573 0.70500004
-0.16024382 0.055649526 0.70400006
-0.15912858 0.055728573 0.70500004
-0.15778573 0.055728573 0.70500004
-0.15688668 0.055886671 0.70700002
-0.15554 0.055886671 0.70700002
-0.15441144 0.055965718 0.708
-0.15306287 0.055965718 0.708
-0.15214287 0.056123812 0.71000004
-0.15079048 0.056123812 0.71000004
-0.15070096 0.056598101 0.71600002
-0.14954573 0.056677148 0.71700001
-0.14880002 0.056914289 0.72000003
-0.1478381 0.057072386 0.72200006
-0.14605716 0.056914289 0.72000003
-0.14468573 0.056914289 0.72000003
-0.1433143 0.056914289 0.72000003
-0.14174572 0.056835242 0.71900004
-0.1403762 0.056835242 0.71900004
-0.13900667 0.056835242 0.71900004
-0.13706286 0.056598101 0.71600002
-0.13513048 0.056360956 0.71300006
-0.13377239 0.056360956 0.71300006
-0.1324143 0.056360956 0.71300006
-0.13679239 0.059443813 0.75200003
-0.13500001 0.059285719 0.75000006
-0.13357143 0.059285719 0.75000006
-0.13214287 0.059285719 0.75000006
-0.1307143 0.059285719 0.75000006
-0.12963049 0.059443813 0.75200003
-0.1281981 0.059443813 0.75200003
-0.12676573 0.059443813 0.75200003
-0.12533334 0.059443813 0.75200003
-0.12406572 0.05952286 0.75300002
-0.12263144 0.05952286 0.75300002
-0.1210362 0.059443813 0.75200003
-0.11960382 0.059443813 0.75200003
-0.11817144 0.059443813 0.75200003
-0.10944287 0.055728573 0.70500004
-0.10840667 0.055886671 0.70700002
-0.10675715 0.055728573 0.70500004
-0.10571334 0.055886671 0.70700002
-0.10436668 0.055886671 0.70700002
-0.10302 0.055886671 0.70700002
-0.10728001 0.059760004 0.75600004
-0.10584 0.059760004 0.75600004
-0.10440001 0.059760004 0.75600004
-0.10296001 0.059760004 0.75600004
-0.10138572 0.059680957 0.75500005
-0.099947624 0.059680957 0.75500005
-0.092377149 0.055965718 0.708
-0.091028579 0.055965718 0.708
-0.089933336 0.056123812 0.71000004
-0.088580959 0.056123812 0.71000004
-0.087351434 0.056202862 0.71100003
-0.085997149 0.056202862 0.71100003
-0.084642865 0.056202862 0.71100003
-0.08328858 0.056202862 0.71100003
-0.081934288 0.056202862 0.71100003
-0.080806673 0.056360956 0.71300006
-0.079448573 0.056360956 0.71300006
-0.078090481 0.056360956 0.71300006
-0.077055246 0.056598101 0.71600002
-0.075797148 0.056677148 0.71700001
-0.074639052 0.056835242 0.71900004
-0.073269531 0.056835242 0.71900004
-0.071900003 0.056835242 0.71900004
-0.070530482 0.056835242 0.71900004
-0.069160961 0.056835242 0.71900004
-0.067791432 0.056835242 0.71900004
-0.066514291 0.056914289 0.72000003
-0.065323815 0.057072386 0.72200006
-0.064037144 0.057151433 0.72300005
-0.062573336 0.057072386 0.72200006
-0.061282862 0.057151433 0.72300005
-0.059905719 0.057151433 0.72300005
-0.0427581 0.058179051 0.73600006
-0.041131433 0.057862859 0.73200005
-0.039682861 0.057783812 0.73100001
-0.038133334 0.057546671 0.72800004
-0.03674667 0.057546671 0.72800004
-0.035360001 0.057546671 0.72800004
-0.033973336 0.057546671 0.72800004
-0.032586668 0.057546671 0.72800004
-0.031200003 0.057546671 0.72800004
-0.029813336 0.057546671 0.72800004
-0.028543811 0.057783812 0.73100001
-0.02715143 0.057783812 0.73100001
-0.025794288 0.057862859 0.73200005
-0.024400001 0.057862859 0.73200005
-0.023005717 0.057862859 0.73200005
-0.018761907 0.062289529 0.78800005
-0.017260954 0.062289529 0.78800005
-0.01572 0.062131431 0.78600001
-0.014222858 0.062131431 0.78600001
-0.012725716 0.062131431 0.78600001
-0.19081239 0.057719052 0.71300006
-0.1894543 0.057719052 0.71300006
-0.1880962 0.057719052 0.71300006
-0.1867381 0.057719052 0.71300006
-0.18538001 0.057719052 0.71300006
-0.18402192 0.057719052 0.71300006
-0.18266383 0.057719052 0.71300006
-0.18079716 0.057557147 0.71100003
-0.17944287 0.057557147 0.71100003
-0.17808859 0.057557147 0.71100003
-0.17648573 0.057476193 0.71000004
-0.17538001 0.057557147 0.71100003
-0.17402573 0.057557147 0.71100003
-0.17267144 0.057557147 0.71100003
-0.17059429 0.057314288 0.708
-0.16924572 0.057314288 0.708
-0.16789715 0.057314288 0.708
-0.16631335 0.057233337 0.70700002
-0.16496667 0.057233337 0.70700002
-0.16362001 0.057233337 0.70700002
-0.16227335 0.057233337 0.70700002
-0.16047144 0.057071432 0.70500004
-0.15958001 0.057233337 0.70700002
-0.15823334 0.057233337 0.70700002
-0.15710858 0.057314288 0.708
-0.15576001 0.057314288 0.708
-0.15441144 0.057314288 0.708
-0.15349525 0.057476193 0.71000004
-0.15214287 0.057476193 0.71000004
-0.15142763 0.057719052 0.71300006
-0.15091144 0.058042862 0.71700001
-0.14996287 0.058204766 0.71900004
-0.14859334 0.058204766 0.71900004
-0.14742859 0.058285717 0.72000003
-0.14605716 0.058285717 0.72000003
-0.14448477 0.058204766 0.71900004
-0.14311525 0.058204766 0.71900004
-0.14135143 0.058042862 0.71700001
-0.13998573 0.058042862 0.71700001
-0.13862 0.058042862 0.71700001
-0.13706286 0.057961907 0.71600002
-0.13513048 0.057719052 0.71300006
-0.13377239 0.057719052 0.71300006
-0.13204287 0.057557147 0.71100003
-0.13050477 0.057476193 0.71000004
-0.12878858 0.057314288 0.708
-0.12744001 0.057314288 0.708
-0.13214287 0.06071429 0.75000006
-0.1307143 0.06071429 0.75000006
-0.12963049 0.060876194 0.75200003
-0.1281981 0.060876194 0.75200003
-0.12676573 0.060876194 0.75200003
-0.12533334 0.060876194 0.75200003
-0.12390096 0.060876194 0.75200003
-0.11448858 0.056909528 0.70300001
-0.11282763 0.056747623 0.70100003
-0.11149239 0.056747623 0.70100003
-0.11047143 0.056909528 0.70300001
-0.10944287 0.057071432 0.70500004
-0.1081 0.057071432 0.70500004
-0.10675715 0.057071432 0.70500004
-0.10571334 0.057233337 0.70700002
-0.10436668 0.057233337 0.70700002
-0.10272858 0.057071432 0.70500004
-0.10138572 0.057071432 0.70500004
-0.10570001 0.06111905 0.75500005
-0.10426191 0.06111905 0.75500005
-0.10282382 0.06111905 0.75500005
-0.095074289 0.057314288 0.708
-0.093725719 0.057314288 0.708
-0.092377149 0.057314288 0.708
-0.091028579 0.057314288 0.708
-0.089680009 0.057314288 0.708
-0.088331431 0.057314288 0.708
-0.087228574 0.057476193 0.71000004
-0.085876197 0.057476193 0.71000004
-0.084523812 0.057476193 0.71000004
-0.083171435 0.057476193 0.71000004
-0.081588574 0.057314288 0.708
-0.080466673 0.057476193 0.71000004
-0.079225719 0.057557147 0.71100003
-0.077871434 0.057557147 0.71100003
-0.07673239 0.057719052 0.71300006
-0.075691432 0.057961907 0.71600002
-0.074431434 0.058042862 0.71700001
-0.07306572 0.058042862 0.71700001
-0.071700007 0.058042862 0.71700001
-0.070530482 0.058204766 0.71900004
-0.069160961 0.058204766 0.71900004
-0.067791432 0.058204766 0.71900004
-0.066514291 0.058285717 0.72000003
-0.065323815 0.058447622 0.72200006
-0.064037144 0.058528576 0.72300005
-0.062660001 0.058528576 0.72300005
-0.061282862 0.058528576 0.72300005
-0.060071431 0.058690481 0.72500002
-0.058690481 0.058690481 0.72500002
-0.041243814 0.059419051 0.73400003
-0.039682861 0.059176195 0.73100001
-0.038133334 0.058933336 0.72800004
-0.03674667 0.058933336 0.72800004
-0.035360001 0.058933336 0.72800004
-0.033973336 0.058933336 0.72800004
-0.032586668 0.058933336 0.72800004
-0.031200003 0.058933336 0.72800004
-0.029854288 0.059014291 0.72900003
-0.028543811 0.059176195 0.73100001
-0.027188573 0.059257146 0.73200005
-0.025794288 0.059257146 0.73200005
-0.024400001 0.059257146 0.73200005
-0.01572 0.063628577 0.78600001
-0.014222858 0.063628577 0.78600001
-0.012725716 0.063628577 0.78600001
0.17078573 0.064519055 0.79700005
-0.19108002 0.059160005 0.71400005
-0.18972002 0.059160005 0.71400005
-0.18836001 0.059160005 0.71400005
-0.18752383 0.059325717 0.71600002
-0.18564001 0.059160005 0.71400005
-0.18428001 0.059160005 0.71400005
-0.18292001 0.059160005 0.71400005
-0.18130572 0.059077147 0.71300006
-0.17994763 0.059077147 0.71300006
-0.17858954 0.059077147 0.71300006
-0.1767343 0.058911432 0.71100003
-0.17538001 0.058911432 0.71100003
-0.17402573 0.058911432 0.71100003
-0.17107621 0.058828574 0.71000004
-0.16972382 0.058828574 0.71000004
-0.16837144 0.058828574 0.71000004
-0.16654858 0.058662862 0.708
-0.16520001 0.058662862 0.708
-0.16385144 0.058662862 0.708
-0.16250287 0.058662862 0.708
-0.1611543 0.058662862 0.708
-0.15980573 0.058662862 0.708
-0.15845716 0.058662862 0.708
-0.15755239 0.058828574 0.71000004
-0.15620001 0.058828574 0.71000004
-0.15484762 0.058828574 0.71000004
-0.15349525 0.058828574 0.71000004
-0.15214287 0.058828574 0.71000004
-0.15206477 0.059325717 0.71600002
-0.15133239 0.059574291 0.71900004
-0.14996287 0.059574291 0.71900004
-0.14859334 0.059574291 0.71900004
-0.14722382 0.059574291 0.71900004
-0.14585429 0.059574291 0.71900004
-0.14408286 0.059408575 0.71700001
-0.14271715 0.059408575 0.71700001
-0.14115429 0.059325717 0.71600002
-0.13979049 0.059325717 0.71600002
-0.13842668 0.059325717 0.71600002
-0.13648859 0.059077147 0.71300006
-0.13475144 0.058911432 0.71100003
-0.13320953 0.058828574 0.71000004
-0.13185716 0.058828574 0.71000004
-0.13013715 0.058662862 0.708
-0.12878858 0.058662862 0.708
-0.12744001 0.058662862 0.708
-0.12609144 0.058662862 0.708
-0.12474287 0.058662862 0.708
-0.1233943 0.058662862 0.708
-0.12187334 0.058580004 0.70700002
-0.12642857 0.06214286 0.75000006
-0.11716668 0.058248576 0.70300001
-0.11582763 0.058248576 0.70300001
-0.11448858 0.058248576 0.70300001
