# .PCD v0.7 - Point Cloud Data file format
VERSION 0.7
FIELDS x y z
SIZE 4 4 4
TYPE F F F
COUNT 1 1 1
WIDTH 1357
HEIGHT 1
VIEWPOINT 0 0 0 1 0 0 0
POINTS 1357
DATA ascii
-0.0043200003 0.042582858 0.648
-0.0030857145 0.042582858 0.648
-0.001857143 0.04271429 0.65000004
-0.00061904767 0.04271429 0.65000004
0.00062000006 0.042780004 0.65100002
0.0018600001 0.042780004 0.65100002
0.0030952382 0.04271429 0.65000004
0.0043333336 0.04271429 0.65000004
0.0055714292 0.04271429 0.65000004
0.0067885718 0.042582858 0.648
0.0080228578 0.042582858 0.648
0.0092428578 0.042517144 0.64700001
0.010475239 0.042517144 0.64700001
0.011725715 0.042582858 0.648
0.012960001 0.042582858 0.648
0.014194286 0.042582858 0.648
0.015428573 0.042582858 0.648
0.016637145 0.042517144 0.64700001
0.017897144 0.042582858 0.648
0.019190477 0.04271429 0.65000004
0.020428572 0.04271429 0.65000004
0.021666668 0.04271429 0.65000004
0.022940002 0.042780004 0.65100002
0.024180003 0.042780004 0.65100002
0.025420001 0.042780004 0.65100002
0.026660001 0.042780004 0.65100002
0.027900001 0.042780004 0.65100002
-0.17448477 0.056056194 0.82900006
-0.14850383 0.049970478 0.73900002
-0.14729525 0.050038099 0.74000001
-0.14588572 0.050038099 0.74000001
-0.14486668 0.050173335 0.74200004
-0.14364667 0.050240956 0.74300003
-0.14261429 0.050376195 0.74500006
-0.14157429 0.050511431 0.74700004
-0.14033906 0.050579052 0.74800003
-0.1389143 0.050579052 0.74800003
-0.13785715 0.050714288 0.75000006
-0.13679239 0.050849527 0.75200003
-0.13536 0.050849527 0.75200003
-0.13446191 0.051052384 0.75500005
-0.13302381 0.051052384 0.75500005
-0.13176002 0.051120002 0.75600004
-0.13032001 0.051120002 0.75600004
-0.12888001 0.051120002 0.75600004
-0.020900002 0.044966668 0.66500002
-0.019574286 0.044831432 0.66300005
-0.01828381 0.044763811 0.66200006
-0.01697143 0.044628575 0.66000003
-0.015666667 0.044493336 0.65800005
-0.01439143 0.044425718 0.65700001
-0.013060001 0.04415524 0.65300006
-0.011780001 0.044020005 0.65100002
-0.01052381 0.043952383 0.65000004
-0.0092571434 0.043817144 0.648
-0.0080228578 0.043817144 0.648
-0.0067885718 0.043817144 0.648
-0.0055542863 0.043817144 0.648
-0.0043133334 0.043749526 0.64700001
-0.0030857145 0.043817144 0.648
-0.0018514286 0.043817144 0.648
-0.00061904767 0.043952383 0.65000004
0.00061904767 0.043952383 0.65000004
0.001857143 0.043952383 0.65000004
0.0030857145 0.043817144 0.648
0.0043200003 0.043817144 0.648
0.0055542863 0.043817144 0.648
0.0067885718 0.043817144 0.648
0.0080104768 0.043749526 0.64700001
0.0092428578 0.043749526 0.64700001
0.010475239 0.043749526 0.64700001
0.01170762 0.043749526 0.64700001
0.012940001 0.043749526 0.64700001
0.014172382 0.043749526 0.64700001
0.015404763 0.043749526 0.64700001
0.016637145 0.043749526 0.64700001
0.017869525 0.043749526 0.64700001
0.019101907 0.043749526 0.64700001
0.020365715 0.043817144 0.648
0.021600001 0.043817144 0.648
0.022834288 0.043817144 0.648
0.024068573 0.043817144 0.648
0.025302859 0.043817144 0.648
0.026619049 0.043952383 0.65000004
0.027857145 0.043952383 0.65000004
-0.15070477 0.051169526 0.73600006
-0.14950572 0.051239051 0.73700005
-0.14810191 0.051239051 0.73700005
-0.1470962 0.051378097 0.73900002
-0.14588572 0.051447622 0.74000001
-0.14447621 0.051447622 0.74000001
-0.14345334 0.051586669 0.74200004
-0.14223143 0.051656194 0.74300003
-0.1408162 0.051656194 0.74300003
-0.1397762 0.05179524 0.74500006
-0.13872857 0.051934291 0.74700004
-0.13748953 0.052003812 0.74800003
-0.13679239 0.052281909 0.75200003
-0.13536 0.052281909 0.75200003
-0.13302381 0.05249048 0.75500005
-0.13176002 0.052560002 0.75600004
-0.13032001 0.052560002 0.75600004
-0.065125719 0.054645717 0.78600001
-0.020900002 0.046233337 0.66500002
-0.019574286 0.046094287 0.66300005
-0.018256191 0.045955241 0.66100001
-0.016894286 0.045677144 0.65700001
-0.015619049 0.045607623 0.65600002
-0.014303811 0.045399051 0.65300006
-0.01302 0.045260005 0.65100002
-0.011761906 0.04519048 0.65000004
-0.010491429 0.045051433 0.648
-0.0092428578 0.044981908 0.64700001
-0.0080104768 0.044981908 0.64700001
-0.0067780958 0.044981908 0.64700001
-0.0055457149 0.044981908 0.64700001
-0.0043133334 0.044981908 0.64700001
-0.0030809527 0.044981908 0.64700001
-0.0018485716 0.044981908 0.64700001
-0.00061619049 0.044981908 0.64700001
0.00061714288 0.045051433 0.648
0.0018514286 0.045051433 0.648
0.0030761906 0.044912383 0.64600003
0.004306667 0.044912383 0.64600003
0.0055371434 0.044912383 0.64600003
0.0067780958 0.044981908 0.64700001
0.0080104768 0.044981908 0.64700001
0.0092285722 0.044912383 0.64600003
0.010459049 0.044912383 0.64600003
0.011689524 0.044912383 0.64600003
0.012920001 0.044912383 0.64600003
0.014150477 0.044912383 0.64600003
0.015380953 0.044912383 0.64600003
0.016585715 0.044842862 0.64500004
0.017814286 0.044842862 0.64500004
0.019042859 0.044842862 0.64500004
0.020302858 0.044912383 0.64600003
0.021533335 0.044912383 0.64600003
0.022763811 0.044912383 0.64600003
0.02403143 0.044981908 0.64700001
0.025263811 0.044981908 0.64700001
0.026496192 0.044981908 0.64700001
0.027728572 0.044981908 0.64700001
0.028916193 0.044912383 0.64600003
-0.15664287 0.052214291 0.73100001
-0.15525049 0.052214291 0.73100001
-0.15385811 0.052214291 0.73100001
-0.15246573 0.052214291 0.73100001
-0.15169334 0.052428573 0.73400003
-0.15070477 0.052571431 0.73600006
-0.14950572 0.05264286 0.73700005
-0.14810191 0.05264286 0.73700005
-0.1470962 0.052785717 0.73900002
-0.14568858 0.052785717 0.73900002
-0.14447621 0.052857146 0.74000001
-0.14345334 0.053000003 0.74200004
-0.14223143 0.053071432 0.74300003
-0.1408162 0.053071432 0.74300003
-0.1397762 0.053214289 0.74500006
-0.13872857 0.053357147 0.74700004
-0.072888575 0.056357145 0.78900003
-0.071295246 0.056285717 0.78800005
-0.06979429 0.056285717 0.78800005
-0.068293341 0.056285717 0.78800005
-0.066622861 0.056142859 0.78600001
-0.065125719 0.056142859 0.78600001
-0.063466668 0.056000005 0.78400004
-0.061973337 0.056000005 0.78400004
-0.060480002 0.056000005 0.78400004
-0.046920002 0.055857148 0.78200006
-0.04531429 0.055714291 0.78000003
-0.043772385 0.055642862 0.77900004
-0.042288575 0.055642862 0.77900004
-0.040700004 0.055500004 0.77700001
-0.03911905 0.055357147 0.77500004
-0.037642859 0.055357147 0.77500004
-0.030340003 0.055500004 0.77700001
-0.018173335 0.047000002 0.65800005
-0.016894286 0.046928573 0.65700001
-0.015595239 0.046785716 0.65500003
-0.014260001 0.046500005 0.65100002
-0.013000001 0.046428576 0.65000004
-0.011725715 0.046285719 0.648
-0.010475239 0.04621429 0.64700001
-0.0092285722 0.046142861 0.64600003
-0.0079980958 0.046142861 0.64600003
-0.0067676194 0.046142861 0.64600003
-0.0055371434 0.046142861 0.64600003
-0.004306667 0.046142861 0.64600003
-0.0030761906 0.046142861 0.64600003
-0.0018457144 0.046142861 0.64600003
-0.00061523815 0.046142861 0.64600003
0.00061619049 0.04621429 0.64700001
0.0018485716 0.04621429 0.64700001
0.0030714287 0.046071433 0.64500004
0.0043000001 0.046071433 0.64500004
0.005528572 0.046071433 0.64500004
0.0067571434 0.046071433 0.64500004
0.0079980958 0.046142861 0.64600003
0.0092285722 0.046142861 0.64600003
0.010459049 0.046142861 0.64600003
0.011689524 0.046142861 0.64600003
0.012920001 0.046142861 0.64600003
0.014150477 0.046142861 0.64600003
0.015357144 0.046071433 0.64500004
0.016585715 0.046071433 0.64500004
0.017814286 0.046071433 0.64500004
0.019042859 0.046071433 0.64500004
0.02027143 0.046071433 0.64500004
0.021500001 0.046071433 0.64500004
0.022728574 0.046071433 0.64500004
0.023994287 0.046142861 0.64600003
0.025224764 0.046142861 0.64600003
0.02645524 0.046142861 0.64600003
0.027685717 0.046142861 0.64600003
0.028916193 0.046142861 0.64600003
-0.1562143 0.053460002 0.72900003
-0.15482572 0.053460002 0.72900003
-0.15343715 0.053460002 0.72900003
-0.15204859 0.053460002 0.72900003
-0.15128002 0.053680003 0.73200005
-0.15070477 0.053973336 0.73600006
-0.14950572 0.054046672 0.73700005
-0.14810191 0.054046672 0.73700005
-0.1470962 0.054193337 0.73900002
-0.14568858 0.054193337 0.73900002
-0.14447621 0.054266669 0.74000001
-0.14345334 0.054413337 0.74200004
-0.14223143 0.05448667 0.74300003
-0.1408162 0.05448667 0.74300003
-0.14015144 0.054780003 0.74700004
-0.086304769 0.05778667 0.78800005
-0.081905723 0.057860006 0.78900003
-0.080402866 0.057860006 0.78900003
-0.078900002 0.057860006 0.78900003
-0.077299051 0.05778667 0.78800005
-0.075798102 0.05778667 0.78800005
-0.074297145 0.05778667 0.78800005
-0.072888575 0.057860006 0.78900003
-0.071385719 0.057860006 0.78900003
-0.06979429 0.05778667 0.78800005
-0.068293341 0.05778667 0.78800005
-0.066622861 0.057640005 0.78600001
-0.065125719 0.057640005 0.78600001
-0.063628577 0.057640005 0.78600001
-0.061973337 0.057493336 0.78400004
-0.060480002 0.057493336 0.78400004
-0.058986671 0.057493336 0.78400004
-0.051520005 0.057493336 0.78400004
-0.05002667 0.057493336 0.78400004
-0.048533335 0.057493336 0.78400004
-0.046920002 0.057346672 0.78200006
-0.04531429 0.057200003 0.78000003
-0.043828573 0.057200003 0.78000003
-0.04234286 0.057200003 0.78000003
-0.040804766 0.057126671 0.77900004
-0.039320953 0.057126671 0.77900004
-0.037740003 0.056980003 0.77700001
-0.036260001 0.056980003 0.77700001
-0.034780003 0.056980003 0.77700001
-0.033300001 0.056980003 0.77700001
-0.031738099 0.056833338 0.77500004
-0.030261906 0.056833338 0.77500004
-0.015595239 0.048033338 0.65500003
-0.014260001 0.047740005 0.65100002
-0.013000001 0.047666669 0.65000004
-0.011725715 0.047520004 0.648
-0.010459049 0.047373336 0.64600003
-0.0092285722 0.047373336 0.64600003
-0.0079857148 0.047300003 0.64500004
-0.0067571434 0.047300003 0.64500004
-0.005528572 0.047300003 0.64500004
-0.004306667 0.047373336 0.64600003
-0.0030714287 0.047300003 0.64500004
-0.0018428572 0.047300003 0.64500004
-0.00061523815 0.047373336 0.64600003
0.00061523815 0.047373336 0.64600003
0.0018428572 0.047300003 0.64500004
0.0030714287 0.047300003 0.64500004
0.0042933337 0.047226671 0.64400005
0.005528572 0.047300003 0.64500004
0.0067571434 0.047300003 0.64500004
0.0079857148 0.047300003 0.64500004
0.0092142867 0.047300003 0.64500004
0.010442858 0.047300003 0.64500004
0.011671429 0.047300003 0.64500004
0.0129 0.047300003 0.64500004
0.014128572 0.047300003 0.64500004
0.015357144 0.047300003 0.64500004
0.016585715 0.047300003 0.64500004
0.017814286 0.047300003 0.64500004
0.019013334 0.047226671 0.64400005
0.02027143 0.047300003 0.64500004
0.021466669 0.047226671 0.64400005
0.022693334 0.047226671 0.64400005
0.023957144 0.047300003 0.64500004
0.025185715 0.047300003 0.64500004
0.026373334 0.047226671 0.64400005
0.027600002 0.047226671 0.64400005
0.02887143 0.047300003 0.64500004
0.030146668 0.047373336 0.64600003
-0.1562143 0.054848574 0.72900003
-0.15482572 0.054848574 0.72900003
-0.15343715 0.054848574 0.72900003
-0.15204859 0.054848574 0.72900003
-0.15128002 0.055074289 0.73200005
-0.15029524 0.055224765 0.73400003
-0.14930287 0.055375241 0.73600006
-0.14810191 0.05545048 0.73700005
-0.1470962 0.055600956 0.73900002
-0.14568858 0.055600956 0.73900002
-0.14447621 0.055676196 0.74000001
-0.14345334 0.055826671 0.74200004
-0.14223143 0.055901907 0.74300003
-0.094826676 0.058986671 0.78400004
-0.093333341 0.058986671 0.78400004
-0.091840006 0.058986671 0.78400004
-0.090346672 0.058986671 0.78400004
-0.089306675 0.059287623 0.78800005
-0.087805718 0.059287623 0.78800005
-0.086304769 0.059287623 0.78800005
-0.084911436 0.059362862 0.78900003
-0.083620004 0.059513338 0.79100001
-0.081905723 0.059362862 0.78900003
-0.080402866 0.059362862 0.78900003
-0.078900002 0.059362862 0.78900003
-0.077299051 0.059287623 0.78800005
-0.075798102 0.059287623 0.78800005
-0.074297145 0.059287623 0.78800005
-0.072796196 0.059287623 0.78800005
-0.071295246 0.059287623 0.78800005
-0.06979429 0.059287623 0.78800005
-0.068293341 0.059287623 0.78800005
-0.066622861 0.059137147 0.78600001
-0.065125719 0.059137147 0.78600001
-0.063628577 0.059137147 0.78600001
-0.062131431 0.059137147 0.78600001
-0.060634289 0.059137147 0.78600001
-0.059137147 0.059137147 0.78600001
-0.057640005 0.059137147 0.78600001
-0.056142859 0.059137147 0.78600001
-0.054645717 0.059137147 0.78600001
-0.053148575 0.059137147 0.78600001
-0.051651433 0.059137147 0.78600001
-0.05002667 0.058986671 0.78400004
-0.048533335 0.058986671 0.78400004
-0.046920002 0.058836196 0.78200006
-0.045430478 0.058836196 0.78200006
-0.043828573 0.05868572 0.78000003
-0.04234286 0.05868572 0.78000003
-0.040857144 0.05868572 0.78000003
-0.039371431 0.05868572 0.78000003
-0.037885718 0.05868572 0.78000003
-0.036353335 0.05861048 0.77900004
-0.034869526 0.05861048 0.77900004
-0.033300001 0.058460005 0.77700001
-0.031820003 0.058460005 0.77700001
-0.030340003 0.058460005 0.77700001
-0.016765716 0.049055241 0.65200001
-0.015523811 0.049055241 0.65200001
-0.014260001 0.048980001 0.65100002
-0.012960001 0.04875429 0.648
-0.01170762 0.04867905 0.64700001
-0.010459049 0.048603814 0.64600003
-0.0092142867 0.048528574 0.64500004
-0.0079733338 0.048453335 0.64400005
-0.006746667 0.048453335 0.64400005
-0.0055200006 0.048453335 0.64400005
-0.0043000001 0.048528574 0.64500004
-0.0030666669 0.048453335 0.64400005
-0.0018400002 0.048453335 0.64400005
-0.00061428576 0.048528574 0.64500004
0.00061428576 0.048528574 0.64500004
0.0018400002 0.048453335 0.64400005
0.0030666669 0.048453335 0.64400005
0.0042933337 0.048453335 0.64400005
0.0055200006 0.048453335 0.64400005
0.006746667 0.048453335 0.64400005
0.0079857148 0.048528574 0.64500004
0.0092000002 0.048453335 0.64400005
0.010442858 0.048528574 0.64500004
0.011671429 0.048528574 0.64500004
0.012880001 0.048453335 0.64400005
0.014106668 0.048453335 0.64400005
0.015333334 0.048453335 0.64400005
0.016560001 0.048453335 0.64400005
0.017786669 0.048453335 0.64400005
0.019013334 0.048453335 0.64400005
0.020240001 0.048453335 0.64400005
0.021466669 0.048453335 0.64400005
0.022693334 0.048453335 0.64400005
0.023920001 0.048453335 0.64400005
0.025146669 0.048453335 0.64400005
0.026373334 0.048453335 0.64400005
0.027600002 0.048453335 0.64400005
0.028826669 0.048453335 0.64400005
0.030146668 0.048603814 0.64600003
-0.15746477 0.055697147 0.72200006
-0.15608953 0.055697147 0.72200006
-0.156 0.056160003 0.72800004
-0.15461335 0.056160003 0.72800004
-0.15322667 0.056160003 0.72800004
-0.15204859 0.056237146 0.72900003
-0.15107334 0.056391433 0.73100001
-0.14988573 0.056468576 0.73200005
-0.14930287 0.056777146 0.73600006
-0.14790097 0.056777146 0.73600006
-0.1466981 0.056854289 0.73700005
-0.14568858 0.057008576 0.73900002
-0.14447621 0.057085719 0.74000001
-0.14364667 0.057317145 0.74300003
-0.10080001 0.060480002 0.78400004
-0.099306673 0.060480002 0.78400004
-0.097813338 0.060480002 0.78400004
-0.096320003 0.060480002 0.78400004
-0.095068574 0.060634289 0.78600001
-0.093571432 0.060634289 0.78600001
-0.091840006 0.060480002 0.78400004
-0.090346672 0.060480002 0.78400004
-0.089080006 0.060634289 0.78600001
-0.087805718 0.060788576 0.78800005
-0.086304769 0.060788576 0.78800005
-0.084803812 0.060788576 0.78800005
-0.083408579 0.060865719 0.78900003
-0.081905723 0.060865719 0.78900003
-0.080402866 0.060865719 0.78900003
-0.078900002 0.060865719 0.78900003
-0.077299051 0.060788576 0.78800005
-0.075798102 0.060788576 0.78800005
-0.074297145 0.060788576 0.78800005
-0.072796196 0.060788576 0.78800005
-0.071295246 0.060788576 0.78800005
-0.06979429 0.060788576 0.78800005
-0.068293341 0.060788576 0.78800005
-0.066792384 0.060788576 0.78800005
-0.065125719 0.060634289 0.78600001
-0.063628577 0.060634289 0.78600001
-0.062131431 0.060634289 0.78600001
-0.060634289 0.060634289 0.78600001
-0.059137147 0.060634289 0.78600001
-0.057640005 0.060634289 0.78600001
-0.056142859 0.060634289 0.78600001
-0.054645717 0.060634289 0.78600001
-0.053148575 0.060634289 0.78600001
-0.051520005 0.060480002 0.78400004
-0.05002667 0.060480002 0.78400004
-0.048533335 0.060480002 0.78400004
-0.047040004 0.060480002 0.78400004
-0.045430478 0.060325719 0.78200006
-0.043940954 0.060325719 0.78200006
-0.042560004 0.060480002 0.78400004
-0.040961906 0.060325719 0.78200006
-0.039472383 0.060325719 0.78200006
-0.037885718 0.060171433 0.78000003
-0.036400001 0.060171433 0.78000003
-0.034869526 0.060094289 0.77900004
-0.033385716 0.060094289 0.77900004
-0.031820003 0.059940003 0.77700001
-0.016868573 0.050605718 0.65600002
-0.015500001 0.050220001 0.65100002
-0.014238096 0.050142862 0.65000004
-0.012960001 0.049988575 0.648
-0.01170762 0.049911432 0.64700001
-0.010442858 0.049757145 0.64500004
-0.0092000002 0.049680002 0.64400005
-0.0079733338 0.049680002 0.64400005
-0.006746667 0.049680002 0.64400005
-0.0055200006 0.049680002 0.64400005
-0.0042933337 0.049680002 0.64400005
-0.0030666669 0.049680002 0.64400005
-0.0018400002 0.049680002 0.64400005
-0.00061333337 0.049680002 0.64400005
0.00061428576 0.049757145 0.64500004
0.0018400002 0.049680002 0.64400005
0.0030666669 0.049680002 0.64400005
0.0042933337 0.049680002 0.64400005
0.0055200006 0.049680002 0.64400005
0.006746667 0.049680002 0.64400005
0.0079733338 0.049680002 0.64400005
0.0092000002 0.049680002 0.64400005
0.010426668 0.049680002 0.64400005
0.011653334 0.049680002 0.64400005
0.012880001 0.049680002 0.64400005
0.014062858 0.049525719 0.64200002
0.015333334 0.049680002 0.64400005
0.016560001 0.049680002 0.64400005
0.017786669 0.049680002 0.64400005
0.018954286 0.049525719 0.64200002
0.020240001 0.049680002 0.64400005
0.021400001 0.049525719 0.64200002
0.022622859 0.049525719 0.64200002
0.023920001 0.049680002 0.64400005
0.025146669 0.049680002 0.64400005
0.02629143 0.049525719 0.64200002
0.027600002 0.049680002 0.64400005
0.028826669 0.049680002 0.64400005
0.030100003 0.049757145 0.64500004
0.031328574 0.049757145 0.64500004
-0.15746477 0.057072386 0.72200006
-0.15608953 0.057072386 0.72200006
-0.1547143 0.057072386 0.72200006
-0.1539762 0.057309527 0.72500002
-0.15280573 0.057388574 0.72600001
-0.15142287 0.057388574 0.72600001
-0.15045334 0.057546671 0.72800004
-0.14927144 0.057625718 0.72900003
-0.14849144 0.057862859 0.73200005
-0.14790097 0.058179051 0.73600006
-0.1466981 0.058258098 0.73700005
-0.14568858 0.058416195 0.73900002
-0.14447621 0.058495242 0.74000001
-0.14364667 0.058732383 0.74300003
-0.11174001 0.061420005 0.77700001
-0.11054382 0.061578099 0.77900004
-0.10920001 0.061657146 0.78000003
-0.1077143 0.061657146 0.78000003
-0.10622858 0.061657146 0.78000003
-0.10528 0.061973337 0.78400004
-0.10378668 0.061973337 0.78400004
-0.10229334 0.061973337 0.78400004
-0.10080001 0.061973337 0.78400004
-0.099306673 0.061973337 0.78400004
-0.098062865 0.062131431 0.78600001
-0.096565723 0.062131431 0.78600001
-0.095068574 0.062131431 0.78600001
-0.093571432 0.062131431 0.78600001
-0.091840006 0.061973337 0.78400004
-0.090346672 0.061973337 0.78400004
-0.089080006 0.062131431 0.78600001
-0.087805718 0.062289529 0.78800005
-0.086304769 0.062289529 0.78800005
-0.084803812 0.062289529 0.78800005
-0.083408579 0.062368575 0.78900003
-0.081905723 0.062368575 0.78900003
-0.080300957 0.062289529 0.78800005
-0.078900002 0.062368575 0.78900003
-0.077299051 0.062289529 0.78800005
-0.075798102 0.062289529 0.78800005
-0.074297145 0.062289529 0.78800005
-0.072796196 0.062289529 0.78800005
-0.071295246 0.062289529 0.78800005
-0.06979429 0.062289529 0.78800005
-0.068293341 0.062289529 0.78800005
-0.066792384 0.062289529 0.78800005
-0.065291435 0.062289529 0.78800005
-0.063790478 0.062289529 0.78800005
-0.062289529 0.062289529 0.78800005
-0.060788576 0.062289529 0.78800005
-0.059287623 0.062289529 0.78800005
-0.057640005 0.062131431 0.78600001
-0.056142859 0.062131431 0.78600001
-0.054645717 0.062131431 0.78600001
-0.053148575 0.062131431 0.78600001
-0.051651433 0.062131431 0.78600001
-0.05002667 0.061973337 0.78400004
-0.048533335 0.061973337 0.78400004
-0.047040004 0.061973337 0.78400004
-0.04554667 0.061973337 0.78400004
-0.044053335 0.061973337 0.78400004
-0.042668574 0.062131431 0.78600001
-0.041171432 0.062131431 0.78600001
-0.03967429 0.062131431 0.78600001
-0.038080003 0.061973337 0.78400004
-0.036586668 0.061973337 0.78400004
-0.035003811 0.061815243 0.78200006
-0.033428572 0.061657146 0.78000003
-0.031901907 0.061578099 0.77900004
-0.018173335 0.052013338 0.65800005
-0.016791429 0.051618099 0.65300006
-0.015523811 0.051539052 0.65200001
-0.014238096 0.051380955 0.65000004
-0.012960001 0.051222861 0.648
-0.01170762 0.051143814 0.64700001
-0.010442858 0.050985716 0.64500004
-0.0092000002 0.050906669 0.64400005
-0.0079733338 0.050906669 0.64400005
-0.0067257145 0.050748575 0.64200002
-0.0055028577 0.050748575 0.64200002
-0.0042800005 0.050748575 0.64200002
-0.003057143 0.050748575 0.64200002
-0.0018342858 0.050748575 0.64200002
-0.00061142864 0.050748575 0.64200002
0.00061333337 0.050906669 0.64400005
0.0018342858 0.050748575 0.64200002
0.003057143 0.050748575 0.64200002
0.0042800005 0.050748575 0.64200002
0.0055028577 0.050748575 0.64200002
0.0067257145 0.050748575 0.64200002
0.0079485718 0.050748575 0.64200002
0.0091714291 0.050748575 0.64200002
0.010394286 0.050748575 0.64200002
0.011617144 0.050748575 0.64200002
0.012840001 0.050748575 0.64200002
0.014062858 0.050748575 0.64200002
0.015285715 0.050748575 0.64200002
0.016508572 0.050748575 0.64200002
0.01773143 0.050748575 0.64200002
0.018954286 0.050748575 0.64200002
0.020177145 0.050748575 0.64200002
0.021400001 0.050748575 0.64200002
0.022622859 0.050748575 0.64200002
0.023845715 0.050748575 0.64200002
0.025068574 0.050748575 0.64200002
0.02629143 0.050748575 0.64200002
0.027514288 0.050748575 0.64200002
0.028737145 0.050748575 0.64200002
0.030053336 0.050906669 0.64400005
0.031280003 0.050906669 0.64400005
-0.15702859 0.058285717 0.72000003
-0.15565716 0.058285717 0.72000003
-0.1547143 0.058447622 0.72200006
-0.1539762 0.058690481 0.72500002
-0.15259525 0.058690481 0.72500002
-0.15142287 0.058771431 0.72600001
-0.15004002 0.058771431 0.72600001
-0.14906667 0.058933336 0.72800004
-0.14788286 0.059014291 0.72900003
-0.14790097 0.059580956 0.73600006
-0.1466981 0.05966191 0.73700005
-0.14568858 0.059823815 0.73900002
-0.1147 0.062900007 0.77700001
-0.11322001 0.062900007 0.77700001
-0.11174001 0.062900007 0.77700001
-0.11054382 0.063061908 0.77900004
-0.10920001 0.063142858 0.78000003
-0.1077143 0.063142858 0.78000003
-0.10622858 0.063142858 0.78000003
-0.10528 0.063466668 0.78400004
-0.10378668 0.063466668 0.78400004
-0.10255429 0.063628577 0.78600001
-0.10080001 0.063466668 0.78400004
-0.099560007 0.063628577 0.78600001
-0.098062865 0.063628577 0.78600001
-0.096565723 0.063628577 0.78600001
-0.095068574 0.063628577 0.78600001
-0.093571432 0.063628577 0.78600001
-0.091840006 0.063466668 0.78400004
-0.090346672 0.063466668 0.78400004
-0.089080006 0.063628577 0.78600001
-0.087805718 0.063790478 0.78800005
-0.086304769 0.063790478 0.78800005
-0.084803812 0.063790478 0.78800005
-0.083408579 0.063871436 0.78900003
-0.081905723 0.063871436 0.78900003
-0.080300957 0.063790478 0.78800005
-0.078800008 0.063790478 0.78800005
-0.077299051 0.063790478 0.78800005
-0.075798102 0.063790478 0.78800005
-0.074297145 0.063790478 0.78800005
-0.072888575 0.063871436 0.78900003
-0.071295246 0.063790478 0.78800005
-0.06979429 0.063790478 0.78800005
-0.068293341 0.063790478 0.78800005
-0.066792384 0.063790478 0.78800005
-0.065291435 0.063790478 0.78800005
-0.063790478 0.063790478 0.78800005
-0.062289529 0.063790478 0.78800005
-0.060788576 0.063790478 0.78800005
-0.059287623 0.063790478 0.78800005
-0.05778667 0.063790478 0.78800005
-0.056285717 0.063790478 0.78800005
-0.054645717 0.063628577 0.78600001
-0.053148575 0.063628577 0.78600001
-0.051651433 0.063628577 0.78600001
-0.050154287 0.063628577 0.78600001
-0.048657145 0.063628577 0.78600001
-0.047160003 0.063628577 0.78600001
-0.045662861 0.063628577 0.78600001
-0.044165716 0.063628577 0.78600001
-0.042668574 0.063628577 0.78600001
-0.041171432 0.063628577 0.78600001
-0.03967429 0.063628577 0.78600001
-0.038177144 0.063628577 0.78600001
-0.036586668 0.063466668 0.78400004
-0.035093337 0.063466668 0.78400004
-0.033514287 0.063304767 0.78200006
-0.032106668 0.063466668 0.78400004
-0.018090477 0.053023811 0.65500003
-0.016791429 0.052861907 0.65300006
-0.015500001 0.052700002 0.65100002
-0.014238096 0.052619051 0.65000004
-0.012960001 0.052457146 0.648
-0.01170762 0.052376192 0.64700001
-0.010442858 0.052214291 0.64500004
-0.0092000002 0.052133337 0.64400005
-0.0079733338 0.052133337 0.64400005
-0.0067257145 0.051971432 0.64200002
-0.0055028577 0.051971432 0.64200002
-0.0042800005 0.051971432 0.64200002
-0.0030523811 0.051890481 0.64100003
-0.0018342858 0.051971432 0.64200002
-0.00061142864 0.051971432 0.64200002
0.00061142864 0.051971432 0.64200002
0.0018342858 0.051971432 0.64200002
0.003057143 0.051971432 0.64200002
0.0042800005 0.051971432 0.64200002
0.0055028577 0.051971432 0.64200002
0.0067257145 0.051971432 0.64200002
0.0079485718 0.051971432 0.64200002
0.0091571435 0.051890481 0.64100003
0.010378096 0.051890481 0.64100003
0.011599048 0.051890481 0.64100003
0.012820001 0.051890481 0.64100003
0.014040953 0.051890481 0.64100003
0.015285715 0.051971432 0.64200002
0.016508572 0.051971432 0.64200002
0.01773143 0.051971432 0.64200002
0.018954286 0.051971432 0.64200002
0.020177145 0.051971432 0.64200002
0.021366669 0.051890481 0.64100003
0.02258762 0.051890481 0.64100003
0.023808572 0.051890481 0.64100003
0.025029525 0.051890481 0.64100003
0.02629143 0.051971432 0.64200002
0.027514288 0.051971432 0.64200002
0.028737145 0.051971432 0.64200002
0.029960003 0.051971432 0.64200002
-0.15681049 0.059574291 0.71900004
-0.15565716 0.059657145 0.72000003
-0.1547143 0.059822861 0.72200006
-0.15355144 0.059905719 0.72300005
-0.15217429 0.059905719 0.72300005
-0.1512143 0.060071431 0.72500002
-0.15004002 0.060154289 0.72600001
-0.14865716 0.060154289 0.72600001
-0.14768001 0.060320005 0.72800004
-0.1147 0.064380005 0.77700001
-0.11322001 0.064380005 0.77700001
-0.11174001 0.064380005 0.77700001
-0.11054382 0.064545721 0.77900004
-0.10920001 0.064628579 0.78000003
-0.1077143 0.064628579 0.78000003
-0.10622858 0.064628579 0.78000003
-0.10528 0.064960003 0.78400004
-0.10378668 0.064960003 0.78400004
-0.10255429 0.065125719 0.78600001
-0.10105715 0.065125719 0.78600001
-0.099560007 0.065125719 0.78600001
-0.098062865 0.065125719 0.78600001
-0.096565723 0.065125719 0.78600001
-0.095068574 0.065125719 0.78600001
-0.093571432 0.065125719 0.78600001
-0.09207429 0.065125719 0.78600001
-0.090577148 0.065125719 0.78600001
-0.089080006 0.065125719 0.78600001
-0.087582864 0.065125719 0.78600001
-0.086304769 0.065291435 0.78800005
-0.084803812 0.065291435 0.78800005
-0.051651433 0.065125719 0.78600001
-0.050154287 0.065125719 0.78600001
-0.048657145 0.065125719 0.78600001
-0.047160003 0.065125719 0.78600001
-0.045662861 0.065125719 0.78600001
-0.041171432 0.065125719 0.78600001
-0.03967429 0.065125719 0.78600001
-0.038177144 0.065125719 0.78600001
-0.036680002 0.065125719 0.78600001
-0.03518286 0.065125719 0.78600001
-0.033600003 0.064960003 0.78400004
-0.016791429 0.054105718 0.65300006
-0.015500001 0.053940002 0.65100002
-0.014238096 0.053857148 0.65000004
-0.012940001 0.053608574 0.64700001
-0.011689524 0.053525716 0.64600003
-0.010426668 0.053360004 0.64400005
-0.0092000002 0.053360004 0.64400005
-0.0079485718 0.053194288 0.64200002
-0.0067257145 0.053194288 0.64200002
-0.0054942863 0.05311143 0.64100003
-0.0042733336 0.05311143 0.64100003
-0.0030476192 0.053028576 0.64000005
-0.0018314287 0.05311143 0.64100003
-0.00061047624 0.05311143 0.64100003
0.00061047624 0.05311143 0.64100003
0.0018342858 0.053194288 0.64200002
0.0030523811 0.05311143 0.64100003
0.0042733336 0.05311143 0.64100003
0.0054942863 0.05311143 0.64100003
0.0067152386 0.05311143 0.64100003
0.0079361908 0.05311143 0.64100003
0.009142858 0.053028576 0.64000005
0.010361905 0.053028576 0.64000005
0.011580953 0.053028576 0.64000005
0.012800001 0.053028576 0.64000005
0.014040953 0.05311143 0.64100003
0.015261906 0.05311143 0.64100003
0.016482858 0.05311143 0.64100003
0.01773143 0.053194288 0.64200002
0.018924763 0.05311143 0.64100003
0.020145716 0.05311143 0.64100003
0.021366669 0.05311143 0.64100003
0.022552382 0.053028576 0.64000005
0.023771429 0.053028576 0.64000005
0.024990479 0.053028576 0.64000005
0.026250478 0.05311143 0.64100003
0.027514288 0.053194288 0.64200002
0.028692383 0.05311143 0.64100003
0.029960003 0.053194288 0.64200002
0.031182859 0.053194288 0.64200002
-0.15681049 0.060943812 0.71900004
-0.15565716 0.061028574 0.72000003
-0.1547143 0.0611981 0.72200006
-0.15333906 0.0611981 0.72200006
-0.15217429 0.061282862 0.72300005
-0.15079716 0.061282862 0.72300005
-0.14983334 0.061452385 0.72500002
-0.14865716 0.061537147 0.72600001
-0.11618001 0.065860003 0.77700001
-0.1147 0.065860003 0.77700001
-0.11322001 0.065860003 0.77700001
-0.11202762 0.066029526 0.77900004
-0.11054382 0.066029526 0.77900004
-0.10920001 0.066114292 0.78000003
-0.1077143 0.066114292 0.78000003
-0.10650096 0.066283815 0.78200006
-0.10528 0.066453338 0.78400004
-0.10378668 0.066453338 0.78400004
-0.10255429 0.066622861 0.78600001
-0.10105715 0.066622861 0.78600001
-0.035175242 0.053060956 0.62600005
-0.034037147 0.053145718 0.62700003
-0.033052385 0.053484764 0.63100004
-0.015476191 0.05509524 0.65000004
-0.014194286 0.054925717 0.648
-0.012920001 0.054756194 0.64600003
-0.011689524 0.054756194 0.64600003
-0.010426668 0.054586671 0.64400005
-0.0091714291 0.054417148 0.64200002
-0.0079485718 0.054417148 0.64200002
-0.0067152386 0.054332383 0.64100003
-0.0054942863 0.054332383 0.64100003
-0.0042666672 0.054247621 0.64000005
-0.0030476192 0.054247621 0.64000005
-0.0018314287 0.054332383 0.64100003
-0.00061047624 0.054332383 0.64100003
0.00061047624 0.054332383 0.64100003
0.0018314287 0.054332383 0.64100003
0.0030523811 0.054332383 0.64100003
0.0042733336 0.054332383 0.64100003
0.0054942863 0.054332383 0.64100003
0.0067047626 0.054247621 0.64000005
0.0079238098 0.054247621 0.64000005
0.0091285724 0.05416286 0.63900006
0.010345715 0.05416286 0.63900006
0.011562858 0.05416286 0.63900006
0.01278 0.05416286 0.63900006
0.014019049 0.054247621 0.64000005
0.015238096 0.054247621 0.64000005
0.016457144 0.054247621 0.64000005
0.017703811 0.054332383 0.64100003
0.018924763 0.054332383 0.64100003
0.020114288 0.054247621 0.64000005
0.021333335 0.054247621 0.64000005
0.022552382 0.054247621 0.64000005
0.023771429 0.054247621 0.64000005
0.024990479 0.054247621 0.64000005
0.026250478 0.054332383 0.64100003
0.027471431 0.054332383 0.64100003
0.028737145 0.054417148 0.64200002
-0.15681049 0.062313337 0.71900004
-0.15544096 0.062313337 0.71900004
-0.15428573 0.062400006 0.72000003
-0.15333906 0.062573336 0.72200006
-0.15196382 0.062573336 0.72200006
-0.15079716 0.062660001 0.72300005
-0.14942001 0.062660001 0.72300005
-0.12278477 0.066906668 0.77200001
-0.12131429 0.066906668 0.77200001
-0.11984382 0.066906668 0.77200001
-0.11837334 0.066906668 0.77200001
-0.11766001 0.067340001 0.77700001
-0.11647905 0.067513339 0.77900004
-0.11499525 0.067513339 0.77900004
-0.11351144 0.067513339 0.77900004
-0.11202762 0.067513339 0.77900004
-0.11054382 0.067513339 0.77900004
-0.10920001 0.067600004 0.78000003
-0.1077143 0.067600004 0.78000003
-0.10650096 0.067773335 0.78200006
-0.038752384 0.054253336 0.62600005
-0.037560001 0.054253336 0.62600005
-0.036367621 0.054253336 0.62600005
-0.035175242 0.054253336 0.62600005
-0.034037147 0.054340005 0.62700003
-0.032895241 0.05442667 0.62800002
-0.031749524 0.054513335 0.62900001
-0.015476191 0.056333337 0.65000004
-0.014172382 0.056073338 0.64700001
-0.0129 0.055900004 0.64500004
-0.011671429 0.055900004 0.64500004
-0.010394286 0.055640005 0.64200002
-0.0091714291 0.055640005 0.64200002
-0.0079361908 0.055553336 0.64100003
-0.0067047626 0.055466671 0.64000005
-0.0054857144 0.055466671 0.64000005
-0.0042600003 0.055380005 0.63900006
-0.0030428574 0.055380005 0.63900006
-0.0018285715 0.055466671 0.64000005
-0.00060952385 0.055466671 0.64000005
0.00060952385 0.055466671 0.64000005
0.0018285715 0.055466671 0.64000005
0.0030476192 0.055466671 0.64000005
0.0042666672 0.055466671 0.64000005
0.0054857144 0.055466671 0.64000005
0.0067047626 0.055466671 0.64000005
0.0079114288 0.055380005 0.63900006
0.0091285724 0.055380005 0.63900006
0.010345715 0.055380005 0.63900006
0.011562858 0.055380005 0.63900006
0.01278 0.055380005 0.63900006
0.014019049 0.055466671 0.64000005
0.015238096 0.055466671 0.64000005
0.016457144 0.055466671 0.64000005
0.017676191 0.055466671 0.64000005
0.018895239 0.055466671 0.64000005
0.020114288 0.055466671 0.64000005
0.021333335 0.055466671 0.64000005
0.022552382 0.055466671 0.64000005
0.023771429 0.055466671 0.64000005
0.024990479 0.055466671 0.64000005
0.026250478 0.055553336 0.64100003
0.027471431 0.055553336 0.64100003
0.028692383 0.055553336 0.64100003
0.029913336 0.055553336 0.64100003
-0.15414383 0.063151434 0.71300006
-0.15342858 0.063417144 0.71600002
-0.15270191 0.063682862 0.71900004
-0.15133239 0.063682862 0.71900004
-0.15058859 0.063948579 0.72200006
-0.12572572 0.068377145 0.77200001
-0.12393335 0.068200007 0.77000004
-0.12278477 0.068377145 0.77200001
-0.12131429 0.068377145 0.77200001
-0.11999906 0.068465717 0.77300006
-0.11883334 0.068642862 0.77500004
-0.11766001 0.068820007 0.77700001
-0.11647905 0.068997145 0.77900004
-0.11499525 0.068997145 0.77900004
-0.11351144 0.068997145 0.77900004
-0.11202762 0.068997145 0.77900004
-0.11054382 0.068997145 0.77900004
-0.10920001 0.069085717 0.78000003
-0.1077143 0.069085717 0.78000003
-0.05709048 0.055888575 0.63100004
-0.054513335 0.055711433 0.62900001
-0.046873335 0.055180002 0.62300003
-0.04568667 0.055180002 0.62300003
-0.044500005 0.055180002 0.62300003
-0.043382861 0.055268575 0.62400001
-0.042194288 0.055268575 0.62400001
-0.041005716 0.055268575 0.62400001
-0.039880954 0.055357147 0.625
-0.038690478 0.055357147 0.625
-0.037500001 0.055357147 0.625
-0.036309525 0.055357147 0.625
-0.035119049 0.055357147 0.625
-0.033982858 0.05544572 0.62600005
-0.032790478 0.05544572 0.62600005
-0.015428573 0.057394288 0.648
-0.014150477 0.057217147 0.64600003
-0.012880001 0.057040002 0.64400005
-0.011617144 0.056862861 0.64200002
-0.010378096 0.056774288 0.64100003
-0.0091571435 0.056774288 0.64100003
-0.0079238098 0.05668572 0.64000005
-0.0067047626 0.05668572 0.64000005
-0.005477143 0.056597147 0.63900006
-0.0042600003 0.056597147 0.63900006
-0.0030428574 0.056597147 0.63900006
-0.0018257144 0.056597147 0.63900006
-0.00060761906 0.056508575 0.63800001
0.00060761906 0.056508575 0.63800001
0.0018257144 0.056597147 0.63900006
0.0030428574 0.056597147 0.63900006
0.0042600003 0.056597147 0.63900006
0.005477143 0.056597147 0.63900006
0.0066942861 0.056597147 0.63900006
0.0079114288 0.056597147 0.63900006
0.0091285724 0.056597147 0.63900006
0.010345715 0.056597147 0.63900006
0.011562858 0.056597147 0.63900006
0.01278 0.056597147 0.63900006
0.013997144 0.056597147 0.63900006
0.015214287 0.056597147 0.63900006
0.01643143 0.056597147 0.63900006
0.017676191 0.05668572 0.64000005
0.018865716 0.056597147 0.63900006
0.020082859 0.056597147 0.63900006
0.021300001 0.056597147 0.63900006
0.022517145 0.056597147 0.63900006
0.023734286 0.056597147 0.63900006
0.02495143 0.056597147 0.63900006
0.026209526 0.05668572 0.64000005
0.027428573 0.05668572 0.64000005
0.028692383 0.056774288 0.64100003
0.029913336 0.056774288 0.64100003
0.031134287 0.056774288 0.64100003
-0.12719619 0.069847621 0.77200001
-0.12572572 0.069847621 0.77200001
-0.12393335 0.069666669 0.77000004
-0.12278477 0.069847621 0.77200001
-0.12147143 0.069938101 0.77300006
-0.12030953 0.070119053 0.77500004
-0.11883334 0.070119053 0.77500004
-0.11766001 0.070300005 0.77700001
-0.11647905 0.070480958 0.77900004
-0.11499525 0.070480958 0.77900004
-0.11351144 0.070480958 0.77900004
-0.11202762 0.070480958 0.77900004
-0.11054382 0.070480958 0.77900004
-0.058015242 0.056819052 0.62800002
-0.056819052 0.056819052 0.62800002
-0.05544572 0.056638099 0.62600005
-0.054166671 0.056547623 0.625
-0.052976195 0.056547623 0.625
-0.051702861 0.056457147 0.62400001
-0.050433338 0.056366671 0.62300003
-0.049246669 0.056366671 0.62300003
-0.048060004 0.056366671 0.62300003
-0.046873335 0.056366671 0.62300003
-0.04568667 0.056366671 0.62300003
-0.044500005 0.056366671 0.62300003
-0.043313336 0.056366671 0.62300003
-0.04212667 0.056366671 0.62300003
-0.041005716 0.056457147 0.62400001
-0.039817147 0.056457147 0.62400001
-0.038628574 0.056457147 0.62400001
-0.037440002 0.056457147 0.62400001
-0.036251429 0.056457147 0.62400001
-0.035062861 0.056457147 0.62400001
-0.033928573 0.056547623 0.625
-0.032790478 0.056638099 0.62600005
-0.031497143 0.056457147 0.62400001
-0.014128572 0.058357146 0.64500004
-0.012880001 0.05826667 0.64400005
-0.011617144 0.058085717 0.64200002
-0.010378096 0.057995241 0.64100003
-0.009142858 0.057904765 0.64000005
-0.0079238098 0.057904765 0.64000005
-0.0066942861 0.057814289 0.63900006
-0.005477143 0.057814289 0.63900006
-0.0042600003 0.057814289 0.63900006
-0.0030428574 0.057814289 0.63900006
-0.0018228573 0.057723813 0.63800001
-0.00060761906 0.057723813 0.63800001
0.00060761906 0.057723813 0.63800001
0.0018257144 0.057814289 0.63900006
0.0030428574 0.057814289 0.63900006
0.0042600003 0.057814289 0.63900006
0.005477143 0.057814289 0.63900006
0.0066942861 0.057814289 0.63900006
0.0079114288 0.057814289 0.63900006
0.0091285724 0.057814289 0.63900006
0.010329524 0.057723813 0.63800001
0.011562858 0.057814289 0.63900006
0.01278 0.057814289 0.63900006
0.013997144 0.057814289 0.63900006
0.015214287 0.057814289 0.63900006
0.01643143 0.057814289 0.63900006
0.017676191 0.057904765 0.64000005
0.018895239 0.057904765 0.64000005
0.020082859 0.057814289 0.63900006
0.021300001 0.057814289 0.63900006
0.022517145 0.057814289 0.63900006
0.023734286 0.057814289 0.63900006
0.02495143 0.057814289 0.63900006
0.026209526 0.057904765 0.64000005
0.027428573 0.057904765 0.64000005
0.028692383 0.057995241 0.64100003
0.029913336 0.057995241 0.64100003
0.031134287 0.057995241 0.64100003
0.032355241 0.057995241 0.64100003
-0.12980001 0.071133338 0.77000004
-0.12833335 0.071133338 0.77000004
-0.12719619 0.071318097 0.77200001
-0.12572572 0.071318097 0.77200001
-0.12425525 0.071318097 0.77200001
-0.12294382 0.071410477 0.77300006
-0.12147143 0.071410477 0.77300006
-0.12030953 0.071595244 0.77500004
-0.11883334 0.071595244 0.77500004
-0.062600002 0.057830479 0.62600005
-0.061407622 0.057830479 0.62600005
-0.060311433 0.057922862 0.62700003
-0.059117146 0.057922862 0.62700003
-0.057922862 0.057922862 0.62700003
-0.056728575 0.057922862 0.62700003
-0.05544572 0.057830479 0.62600005
-0.054166671 0.057738099 0.625
-0.052891433 0.057645719 0.62400001
-0.051702861 0.057645719 0.62400001
-0.050433338 0.057553336 0.62300003
-0.049246669 0.057553336 0.62300003
-0.048060004 0.057553336 0.62300003
-0.046873335 0.057553336 0.62300003
-0.04568667 0.057553336 0.62300003
-0.044500005 0.057553336 0.62300003
-0.043313336 0.057553336 0.62300003
-0.04212667 0.057553336 0.62300003
-0.041005716 0.057645719 0.62400001
-0.039817147 0.057645719 0.62400001
-0.038628574 0.057645719 0.62400001
-0.037380002 0.057553336 0.62300003
-0.036193337 0.057553336 0.62300003
-0.035006668 0.057553336 0.62300003
-0.033820003 0.057553336 0.62300003
-0.032685716 0.057645719 0.62400001
-0.031396192 0.057460956 0.62200004
-0.03021143 0.057460956 0.62200004
-0.029026669 0.057460956 0.62200004
-0.014128572 0.059585717 0.64500004
-0.012840001 0.059308574 0.64200002
-0.011599048 0.059216194 0.64100003
-0.010361905 0.059123814 0.64000005
-0.009142858 0.059123814 0.64000005
-0.0079114288 0.059031431 0.63900006
-0.0066942861 0.059031431 0.63900006
-0.005477143 0.059031431 0.63900006
-0.0042533334 0.058939051 0.63800001
-0.0030428574 0.059031431 0.63900006
-0.0018228573 0.058939051 0.63800001
-0.00060761906 0.058939051 0.63800001
0.00060761906 0.058939051 0.63800001
0.0018257144 0.059031431 0.63900006
0.0030428574 0.059031431 0.63900006
0.0042533334 0.058939051 0.63800001
0.0054685716 0.058939051 0.63800001
0.0066838101 0.058939051 0.63800001
0.0078990478 0.058939051 0.63800001
0.0091142859 0.058939051 0.63800001
0.010329524 0.058939051 0.63800001
0.011544763 0.058939051 0.63800001
0.01278 0.059031431 0.63900006
0.013997144 0.059031431 0.63900006
0.015214287 0.059031431 0.63900006
0.01643143 0.059031431 0.63900006
0.017676191 0.059123814 0.64000005
0.018895239 0.059123814 0.64000005
0.020082859 0.059031431 0.63900006
0.021300001 0.059031431 0.63900006
0.022517145 0.059031431 0.63900006
0.023734286 0.059031431 0.63900006
0.02495143 0.059031431 0.63900006
0.026209526 0.059123814 0.64000005
0.027428573 0.059123814 0.64000005
0.02864762 0.059123814 0.64000005
0.029820003 0.059031431 0.63900006
0.031037144 0.059031431 0.63900006
0.032254286 0.059031431 0.63900006
-0.13332859 0.072128579 0.76500005
-0.13187143 0.072128579 0.76500005
-0.13041429 0.072128579 0.76500005
-0.12929429 0.072317146 0.76700002
-0.12833335 0.072600007 0.77000004
-0.12719619 0.072788574 0.77200001
-0.12572572 0.072788574 0.77200001
-0.12425525 0.072788574 0.77200001
-0.12294382 0.072882861 0.77300006
-0.062600002 0.059022862 0.62600005
-0.061407622 0.059022862 0.62600005
-0.060311433 0.059117146 0.62700003
-0.059117146 0.059117146 0.62700003
-0.057922862 0.059117146 0.62700003
-0.056638099 0.059022862 0.62600005
-0.055357147 0.058928575 0.625
-0.054166671 0.058928575 0.625
-0.052891433 0.058834288 0.62400001
-0.051620003 0.058740005 0.62300003
-0.050433338 0.058740005 0.62300003
-0.049246669 0.058740005 0.62300003
-0.048060004 0.058740005 0.62300003
-0.046873335 0.058740005 0.62300003
-0.04568667 0.058740005 0.62300003
-0.044500005 0.058740005 0.62300003
-0.043313336 0.058740005 0.62300003
-0.04212667 0.058740005 0.62300003
-0.040940002 0.058740005 0.62300003
-0.039753336 0.058740005 0.62300003
-0.038566668 0.058740005 0.62300003
-0.037380002 0.058740005 0.62300003
-0.036193337 0.058740005 0.62300003
-0.03495048 0.058645718 0.62200004
-0.033820003 0.058740005 0.62300003
-0.032580953 0.058645718 0.62200004
-0.031396192 0.058645718 0.62200004
-0.03021143 0.058645718 0.62200004
-0.028933335 0.058457147 0.62
-0.027752383 0.058457147 0.62
-0.026657145 0.058645718 0.62200004
-0.025513334 0.058740005 0.62300003
-0.024209525 0.058457147 0.62
-0.014106668 0.060720004 0.64400005
-0.012840001 0.060531434 0.64200002
-0.011599048 0.060437147 0.64100003
-0.010361905 0.060342859 0.64000005
-0.009142858 0.060342859 0.64000005
-0.0079114288 0.060248576 0.63900006
-0.0066942861 0.060248576 0.63900006
-0.005477143 0.060248576 0.63900006
-0.0042533334 0.060154289 0.63800001
-0.0030380955 0.060154289 0.63800001
-0.0018228573 0.060154289 0.63800001
-0.00060761906 0.060154289 0.63800001
0.00060761906 0.060154289 0.63800001
0.0018228573 0.060154289 0.63800001
0.0030428574 0.060248576 0.63900006
0.0042533334 0.060154289 0.63800001
0.0054685716 0.060154289 0.63800001
0.0066838101 0.060154289 0.63800001
0.0078990478 0.060154289 0.63800001
0.0091142859 0.060154289 0.63800001
0.010329524 0.060154289 0.63800001
0.011544763 0.060154289 0.63800001
0.01278 0.060248576 0.63900006
0.013997144 0.060248576 0.63900006
0.015214287 0.060248576 0.63900006
0.01643143 0.060248576 0.63900006
0.017648572 0.060248576 0.63900006
0.018865716 0.060248576 0.63900006
0.020082859 0.060248576 0.63900006
0.021266667 0.060154289 0.63800001
0.022481907 0.060154289 0.63800001
0.023697145 0.060154289 0.63800001
0.02495143 0.060248576 0.63900006
0.026209526 0.060342859 0.64000005
0.027428573 0.060342859 0.64000005
0.02864762 0.060342859 0.64000005
0.029866669 0.060342859 0.64000005
0.031085717 0.060342859 0.64000005
-0.13969524 0.073104769 0.76000005
-0.13824762 0.073104769 0.76000005
-0.13698001 0.073200956 0.76100004
-0.13553049 0.073200956 0.76100004
-0.13443334 0.073393337 0.76300001
-0.13332859 0.073585719 0.76500005
-0.13187143 0.073585719 0.76500005
-0.13041429 0.073585719 0.76500005
-0.12929429 0.0737781 0.76700002
-0.12833335 0.074066669 0.77000004
-0.12719619 0.07425905 0.77200001
-0.12572572 0.07425905 0.77200001
-0.12425525 0.07425905 0.77200001
-0.063792385 0.060215242 0.62600005
-0.062600002 0.060215242 0.62600005
-0.061407622 0.060215242 0.62600005
-0.060311433 0.060311433 0.62700003
-0.059117146 0.060311433 0.62700003
-0.057922862 0.060311433 0.62700003
-0.056638099 0.060215242 0.62600005
-0.055357147 0.060119051 0.625
-0.054080002 0.060022861 0.62400001
-0.052806672 0.05992667 0.62300003
-0.051620003 0.05992667 0.62300003
-0.050433338 0.05992667 0.62300003
-0.049167622 0.059830479 0.62200004
-0.048060004 0.05992667 0.62300003
-0.046798099 0.059830479 0.62200004
-0.04568667 0.05992667 0.62300003
-0.044500005 0.05992667 0.62300003
-0.043243811 0.059830479 0.62200004
-0.042059049 0.059830479 0.62200004
-0.040874287 0.059830479 0.62200004
-0.039689526 0.059830479 0.62200004
-0.038566668 0.05992667 0.62300003
-0.037320003 0.059830479 0.62200004
-0.036135241 0.059830479 0.62200004
-0.03495048 0.059830479 0.62200004
-0.033765718 0.059830479 0.62200004
-0.032580953 0.059830479 0.62200004
-0.031396192 0.059830479 0.62200004
-0.030114288 0.059638098 0.62
-0.028933335 0.059638098 0.62
-0.027752383 0.059638098 0.62
-0.02657143 0.059638098 0.62
-0.025390478 0.059638098 0.62
-0.024209525 0.059638098 0.62
-0.023028573 0.059638098 0.62
-0.014106668 0.061946671 0.64400005
-0.012840001 0.06175429 0.64200002
-0.011580953 0.061561909 0.64000005
-0.010361905 0.061561909 0.64000005
-0.0091285724 0.061465718 0.63900006
-0.0079114288 0.061465718 0.63900006
-0.0066942861 0.061465718 0.63900006
-0.0054685716 0.061369527 0.63800001
-0.0042533334 0.061369527 0.63800001
-0.0030380955 0.061369527 0.63800001
-0.0018228573 0.061369527 0.63800001
-0.00060761906 0.061369527 0.63800001
0.00060761906 0.061369527 0.63800001
0.0018228573 0.061369527 0.63800001
0.0030380955 0.061369527 0.63800001
0.0042533334 0.061369527 0.63800001
0.0054685716 0.061369527 0.63800001
0.0066838101 0.061369527 0.63800001
0.0078990478 0.061369527 0.63800001
0.0091142859 0.061369527 0.63800001
0.010329524 0.061369527 0.63800001
0.011544763 0.061369527 0.63800001
0.012760001 0.061369527 0.63800001
0.013975239 0.061369527 0.63800001
0.015214287 0.061465718 0.63900006
0.01643143 0.061465718 0.63900006
0.017648572 0.061465718 0.63900006
0.018865716 0.061465718 0.63900006
0.020051429 0.061369527 0.63800001
0.021266667 0.061369527 0.63800001
0.022481907 0.061369527 0.63800001
0.023697145 0.061369527 0.63800001
0.024912383 0.061369527 0.63800001
0.026168574 0.061465718 0.63900006
0.027385715 0.061465718 0.63900006
0.028602859 0.061465718 0.63900006
0.029820003 0.061465718 0.63900006
-0.13969524 0.074552387 0.76000005
-0.13824762 0.074552387 0.76000005
-0.13644001 0.074356198 0.75800002
-0.13535239 0.074552387 0.76000005
-0.13443334 0.07484667 0.76300001
-0.13332859 0.075042859 0.76500005
-0.13187143 0.075042859 0.76500005
-0.13041429 0.075042859 0.76500005
-0.12929429 0.075239055 0.76700002
-0.12833335 0.075533338 0.77000004
-0.063792385 0.061407622 0.62600005
-0.062600002 0.061407622 0.62600005
-0.061407622 0.061407622 0.62600005
-0.060215242 0.061407622 0.62600005
-0.059022862 0.061407622 0.62600005
-0.057830479 0.061407622 0.62600005
-0.056638099 0.061407622 0.62600005
-0.055268575 0.061211433 0.62400001
-0.054080002 0.061211433 0.62400001
-0.052806672 0.061113339 0.62300003
-0.051620003 0.061113339 0.62300003
-0.050433338 0.061113339 0.62300003
-0.049167622 0.061015241 0.62200004
-0.04798286 0.061015241 0.62200004
-0.046798099 0.061015241 0.62200004
-0.045613337 0.061015241 0.62200004
-0.044428576 0.061015241 0.62200004
-0.043104764 0.060819052 0.62
-0.042059049 0.061015241 0.62200004
-0.040742859 0.060819052 0.62
-0.039561909 0.060819052 0.62
-0.038504764 0.061015241 0.62200004
-0.037200004 0.060819052 0.62
-0.036135241 0.061015241 0.62200004
-0.034838099 0.060819052 0.62
-0.033765718 0.061015241 0.62200004
-0.032580953 0.061015241 0.62200004
-0.03129524 0.060819052 0.62
-0.030114288 0.060819052 0.62
-0.028933335 0.060819052 0.62
-0.027752383 0.060819052 0.62
-0.02657143 0.060819052 0.62
-0.025390478 0.060819052 0.62
